14.346810349668774 49 62 33
7.394196785756443 41 52 17
6.95068186808666 40 51 16
7.607148113127429 40 51 17
7.9690987407558165 37 47 13
7.237003466190222 34 46 13
6.969200877305019 34 45 12
8.580266202009557 31 42 7
7.075609098419581 38 49 16
7.101155665719505 37 48 14
7.6471304688694275 40 51 16
7.868983100387822 43 54 17
7.331730290840398 41 52 17
7.790006047857768 35 46 13
7.816917125365817 37 48 15
8.07704920349963 40 51 18
7.304240389153966 37 48 13
7.279019244548144 37 48 14
7.441451777688394 39 50 15
6.7258824183237484 39 50 15
7.716700678471846 38 49 16
7.433758887819149 41 52 15
7.686044341715713 39 50 17
7.589444115365682 40 51 16
7.4507814586689145 42 53 17
8.211418706824825 43 54 16
7.271154502901907 41 52 17
7.136660881909081 34 45 11
7.224379155056972 50 58 28
7.621130500972689 46 55 23
7.096011674308493 41 47 19
7.39151141620687 40 46 19
6.949905687330691 37 44 15
7.387979994341183 36 45 11
7.345603378245847 42 49 15
7.104070314921861 36 46 14
7.452753095079938 35 43 12
7.364709656496369 42 49 17
7.25360827856227 42 52 18
7.483448628495911 43 54 17
6.999757759455591 42 50 18
6.623622223155732 46 53 20
6.563361717306684 46 52 16
7.272013155490519 45 51 17
7.213806022596184 46 53 21
7.887054159076599 48 55 23
7.007927086413664 39 48 14
7.8970989008926304 43 54 17
7.927726680287598 47 58 22
7.188353105005111 48 58 27
6.960157885278069 48 57 25
7.182402294972227 51 61 31
6.712533729905389 46 57 24
7.350822269472911 52 61 30
6.542626801456793 51 60 29
6.7662725651130895 52 62 32
6.712533729905389 46 57 24
6.9662985453835375 45 56 23
6.980003426054061 52 60 29
6.597749677990615 53 63 33
6.4362012122467025 45 53 20
7.491335373135632 48 58 26
6.823036116800492 52 59 29
11.907644782379165 55 68 34
6.882216530123143 50 58 28
8.482424739615409 51 61 31
15.958782321000092 33 43 13
15.57032430141885 30 40 10
16.36682254389551 30 40 10
15.160605675940161 30 43 10
16.061670692105107 37 47 17
15.310942189564452 36 49 18
15.75092691809151 37 47 17
15.834611639954925 37 47 17
7.574351144843738 43 54 17
9.853126260558017 45 56 18
9.731033537571355 44 58 20
9.958394184903122 44 56 18
9.459365190007395 44 55 17
7.048718980171593 56 67 34
6.474672517632439 52 65 34
6.353665833291939 52 65 35
6.642057355154692 53 64 36
6.212368867166402 53 66 35
6.952796799113401 51 64 35
7.049691930902033 52 62 32
7.277066346879121 53 66 35
7.261627723608778 54 67 36
6.745562587512288 53 62 31
6.56593719318773 53 62 31
6.692463570339261 52 65 35
7.443344673427208 55 67 34
6.4140819254904455 52 59 29
7.864544820775946 52 64 31
6.523536846330425 46 57 20
6.815257768632287 43 54 19
8.064661979457547 35 48 11
7.418432045790036 32 45 8
6.696087836895868 42 53 16
7.094596894501559 44 55 20
6.632828530683013 47 58 23
6.656154248021443 45 56 21
7.241691765602782 45 57 20
7.700059509827501 31 46 8
7.699693346489933 35 48 11
7.15974865011808 39 50 13
6.784049678433955 47 58 25
7.309739779872773 54 67 34
7.571228507773786 47 58 25
8.327809846468863 47 57 27
7.841564071885721 49 59 29
7.236732622653598 51 62 34
7.550730167402034 51 62 32
7.869092307326319 51 61 31
6.907485431287461 55 67 34
7.468010874890518 45 58 27
11.669750968228982 52 65 31
11.669750968228982 52 65 31
11.595867668892886 49 61 24
7.821335102576218 30 41 7
7.498724564230938 42 53 17
7.6471304688694275 40 51 16
6.828027056724364 37 48 15
7.075609098419581 38 49 16
7.6471304688694275 40 51 16
7.356387478427771 44 55 18
7.928638453781306 34 44 11
7.575757479122756 38 47 14
7.085731662509298 34 46 13
7.484119954577627 30 43 10
7.4415343908564475 42 53 18
7.721954267041216 41 52 17
7.710791976237587 43 54 17
7.57501441480908 38 49 16
7.302260741751888 36 47 12
7.686044341715713 39 50 17
7.020661430680692 40 51 15
7.673313229905343 37 48 15
6.796083850671644 39 45 17
6.848057563486244 39 48 13
6.686968622407666 45 51 18
7.777318473754405 47 54 23
6.881771310222464 44 53 17
7.987894696148515 42 53 16
6.7433826618124355 41 51 16
8.035408576005935 48 58 24
7.467123810253244 47 55 22
6.3946448766569555 46 57 24
6.479042068391116 53 65 35
8.119394310797661 47 54 21
6.86612166441375 44 54 21
6.7019392362439545 53 62 31
7.235902165769254 51 59 29
6.595892235753562 46 56 24
6.542626801456793 51 60 29
8.263578622446554 48 58 25
11.746810033447444 55 68 34
11.907644782379165 55 68 34
11.673414466037586 50 61 25
11.746810033447444 55 68 34
15.962367196831948 31 41 11
16.070730315539237 39 49 19
15.56297311365959 35 46 15
15.93861682078871 33 43 14
16.109336190800168 32 45 11
9.741075680227429 45 57 19
9.731033537571355 44 58 20
9.948571407158544 43 57 18
9.121322846162697 44 56 18
6.4140819254904455 52 59 29
6.56593719318773 53 62 31
6.580810962447236 53 62 30
6.49198287360509 53 64 35
6.524155977574503 52 65 36
6.459554358622971 52 64 34
7.014829878825105 56 67 36
6.838139580200222 55 68 37
6.398820613857171 53 60 30
7.151752748483137 32 45 8
7.151752748483137 32 45 8
7.55806129098742 38 49 14
6.632828530683013 47 58 23
7.214724233224517 45 56 23
6.501959216377526 46 57 20
7.771693172906152 51 61 32
7.447228435563912 53 64 31
7.052820053387565 48 61 30
7.279052846277316 51 64 33
7.929427205439867 49 61 30
6.842366868440729 52 65 34
7.447228435563912 53 64 31
14.463323967892952 46 56 27
13.929339859014958 49 62 33
14.439636766224996 49 60 34
8.030482708223763 33 44 11
7.401930792970337 37 48 15
7.448840756978713 43 54 17
7.292438745788819 38 49 14
7.376694545677153 33 44 10
6.81081462635722 51 58 28
7.2421134403062615 39 48 14
6.37524499771141 42 52 19
6.479042068391116 53 65 35
6.5894064034827755 51 60 30
7.387979994341183 36 45 11
7.584550239978868 44 54 17
7.0363487463271905 43 50 16
7.795366699276925 46 54 21
6.626137364359862 39 46 14
6.416239797442347 52 61 30
6.555684612149165 44 55 22
15.757871600401913 36 49 19
6.642057355154692 53 64 36
6.677233611867116 45 56 21
7.948594343497324 52 63 32
7.359418475260466 46 59 24
6.980601534745899 40 51 16
6.845911775756538 41 52 17
7.624442574509157 48 61 26
7.359418475260466 46 59 24
8.002207719849611 42 53 17
7.136660881909081 34 45 11
7.169666678561774 40 51 16
7.8701347756978866 35 43 12
6.53829974456232 53 60 30
6.597749677990615 53 63 33
7.940327531669564 46 53 17
15.942206231176423 34 44 14
7.476208799866748 52 62 32
7.329875308805907 53 62 32
6.524155977574503 52 65 36
7.443098211592597 40 51 14
7.361382751631812 45 56 21
8.123000416871204 36 47 12
7.150347560919753 36 47 12
7.0363487463271905 43 50 16
7.093663134491167 46 53 21
7.157145733578439 48 58 28
8.435235989605726 35 50 12
15.67044687069756 37 46 14
7.094596894501559 44 55 20
7.745715749847907 49 56 25
7.113446140910404 44 51 19
6.907485431287461 55 67 34
7.004464174323662 43 52 17
