10.217368401748272 37 45 22
10.90464905603529 29 37 14
10.58732882477086 35 44 17
10.484088735067127 31 40 14
9.869111541902553 37 46 20
10.077004280963282 46 52 30
10.16713333440109 44 50 28
9.810106232649169 46 52 29
9.71617765358293 36 44 21
9.95326654050165 47 53 31
9.979191791148065 43 52 25
9.848693297235679 39 48 19
10.258585723769169 36 45 16
9.852064048353427 35 44 14
10.403549177201525 32 41 13
9.801423956871178 38 47 16
8.90983915140777 46 55 26
9.415700755856157 44 53 26
9.150222546099275 42 51 22
8.956258383631324 49 55 27
9.582593082951117 40 49 20
8.1203221392396 49 56 26
9.582593082951117 40 49 20
8.578944731483006 51 57 29
9.112842298908392 51 57 31
8.14131258362001 44 53 23
8.292705359255953 50 56 28
11.106821192334564 36 43 34
10.514114132136012 35 44 10
10.19787874044887 36 46 10
9.131018612390147 40 48 16
9.131018612390147 40 48 16
9.520802903100492 35 44 10
9.395541291305332 38 48 13
9.544424317269787 36 46 9
9.591728914397127 41 50 19
8.713776382308724 42 50 16
8.546267882708415 42 53 17
8.781233367210664 42 51 17
8.82374830298784 44 51 15
8.369195916722436 45 55 17
8.546267882708415 42 53 17
9.849856097432717 57 62 36
9.219850391346345 42 48 25
10.004313284631928 50 56 31
9.66871975450173 35 41 19
10.425567376574914 25 31 9
9.443572220186166 45 51 26
10.450775102387892 42 48 23
9.715419173164019 35 41 17
9.301996602156267 48 54 30
10.654872989214542 49 56 29
11.845185048099076 57 64 34
11.150427296081778 56 66 38
10.94321757449078 59 65 38
10.679539481339125 57 64 38
9.96988706265703 57 63 36
12.448386414112273 51 61 31
11.917779836629318 55 65 36
12.665404025785037 55 63 33
12.889434686867778 56 65 35
12.997451514700948 61 66 39
12.073050304087477 55 64 36
13.185696567026282 58 67 39
13.439346226632933 57 64 32
16.974462707888623 39 45 12
8.430115512072888 43 51 16
8.93289765568936 46 53 18
10.825865844188844 54 63 33
10.851003551676701 55 62 28
10.466169796805294 55 62 30
10.600473609512312 53 62 30
8.451459564120103 51 57 29
11.742908034515807 62 66 39
11.98696637467535 60 65 38
10.763516468502278 58 65 35
12.773825147126065 59 64 37
12.773825147126065 59 64 37
19.4457366874768 36 36 12
20.235914878410522 42 37 10
11.630643842940419 25 33 13
12.56271234168844 27 35 13
11.41387847187791 39 48 19
11.855444081102132 38 47 19
12.064278212585677 29 36 19
12.26627604241812 43 53 22
12.26627604241812 43 53 22
10.205087411243063 40 51 17
11.157291248788678 37 46 14
11.197360621617364 39 48 17
11.157291248788678 37 46 14
11.242136383268855 40 49 17
9.943521612147288 45 53 20
9.95352486066109 41 50 18
11.370196451260995 40 49 19
9.396300427463448 48 55 24
9.453127188526718 42 52 22
9.581360557453566 43 52 18
9.396300427463448 48 55 24
9.14735973899701 49 57 28
9.352065611015684 44 53 21
9.51484540662934 42 52 22
8.567336669308721 50 59 31
9.581360557453566 43 52 18
10.685136678768387 39 48 14
10.685136678768387 39 48 14
11.797133492973993 38 47 17
11.2692920634788 37 46 19
10.757637128668861 42 51 21
10.557074594923218 41 50 20
9.834965367759438 41 50 20
11.2692920634788 37 46 19
11.924202084813018 46 55 23
11.712465572627696 43 52 21
9.68149210372542 44 54 23
13.16688102657542 49 58 26
15.711011204476595 58 64 37
9.327701171068464 43 52 22
9.327701171068464 43 52 22
10.009304158895594 46 55 20
10.009304158895594 46 55 20
8.724379921741376 44 53 19
9.2649809729725 45 55 18
8.336578044399136 50 57 25
9.73347664949943 46 55 23
10.07302575714449 49 58 25
9.250399894964449 50 58 26
8.756095189064022 47 56 22
9.821461313604315 45 54 22
11.161726341617978 55 61 34
11.484835960813681 60 70 43
11.272627312050705 59 68 41
11.232826431319088 63 73 47
9.354572391579316 54 60 33
9.392994542236584 53 60 30
8.746615291632978 53 58 29
10.533903256968529 56 63 34
10.737991281722897 53 59 31
10.589324213412514 55 61 34
10.124859021179905 55 64 36
10.124859021179905 55 64 36
10.858015411217732 59 66 36
10.303952215513391 60 66 38
10.929369122616137 61 70 44
10.53568990574376 61 69 44
10.573194803727954 59 65 38
10.726936568276804 58 65 37
11.078169036472108 58 67 37
10.53568990574376 61 69 44
9.518562826147136 50 57 27
9.994360869835786 51 59 31
8.850316699755357 51 59 30
10.616806474967523 53 59 32
9.335814705550671 52 58 31
9.716172249129386 54 60 33
8.95704126013102 51 59 31
8.95704126013102 51 59 31
9.744660133417584 57 62 35
8.987935584813428 54 59 32
9.799466977092749 58 66 38
10.42694166519096 59 64 37
9.689777188299407 58 63 36
10.348698595906438 55 62 34
10.219669619785698 54 60 33
10.219669619785698 54 60 33
10.39553735974962 59 64 37
10.219669619785698 54 60 33
10.28531631240506 57 62 35
10.555249002586578 59 63 36
11.306215898105481 68 73 46
10.79279544075205 66 66 40
10.285536661186352 59 64 37
10.97026263813563 63 67 40
10.31727579838562 59 64 36
11.03144355278716 63 67 40
11.283340106383653 62 64 38
11.398658952776259 60 65 38
10.846656654010117 59 65 38
10.647771033443588 60 65 38
11.102950528141664 61 66 39
10.859768333037085 65 70 43
11.370165027645374 71 80 54
11.532810592676373 64 73 47
11.029942686065667 64 70 43
11.21591713463466 63 68 41
10.802431858208694 63 68 41
11.510385145089677 65 67 41
11.109357059208593 62 67 40
11.275765236987077 62 67 40
11.526836039881223 65 68 42
11.347418154701213 59 64 37
11.109357059208593 62 67 40
11.054821356421918 64 69 42
10.85495703908581 63 69 44
10.813618979793388 64 70 43
11.382229998161915 62 67 42
10.95295639695039 66 66 41
11.07344432978473 64 67 41
11.183537765539386 63 67 40
11.58199762012404 67 67 41
11.534227575039854 63 68 41
11.014233443238405 66 69 43
10.95295639695039 66 66 41
11.942618125913555 62 67 40
12.135898944567069 62 68 41
11.808916116869034 63 68 41
12.714520285671325 60 67 40
11.808916116869034 63 68 41
12.188304351918623 62 68 41
11.46209233704838 60 66 39
10.68487121508846 57 64 32
11.037442364236437 55 64 34
9.306305892914212 54 60 35
10.612107260644798 56 63 31
11.584650052800246 59 65 37
11.274076995597152 59 65 38
11.65907983646482 64 66 40
11.959659166391505 62 64 38
11.274076995597152 59 65 38
12.69418985463317 62 64 40
12.05891324518148 64 66 41
12.168455290058734 63 66 40
8.1203221392396 49 56 26
9.217808702505742 49 55 31
10.351941052920328 32 41 12
9.397557224334708 49 55 30
9.783247884965123 42 48 26
10.106152479166905 35 44 15
9.303285911223252 39 49 15
9.788836282512673 37 46 11
10.30881483945854 35 45 9
9.453621958669197 37 46 12
9.463134572586283 39 48 18
9.205962102482752 39 46 14
9.705428392981046 36 44 10
8.215171474255268 45 52 16
8.513771008310439 43 51 16
8.429008593064408 48 57 23
8.900230882515121 42 53 16
8.84414243053254 46 56 19
10.678226244598628 41 46 27
10.234265962364278 48 54 29
10.742822915896388 37 43 21
9.501359284790826 43 49 27
10.358310563478682 52 58 31
11.235324264787666 57 64 37
11.506864315441849 57 64 36
12.617792139132089 60 66 39
12.307867851731475 56 65 37
12.073050304087477 55 64 36
12.889434686867778 56 65 35
12.94940843894524 59 67 37
11.046671148902073 59 66 39
12.517483442198493 52 61 33
13.439346226632933 57 64 32
17.08383597533528 36 41 8
8.391806908794258 48 56 22
10.44145374156837 55 64 34
10.466169796805294 55 62 30
12.394392139905625 60 65 38
12.510663187777261 60 65 39
13.089920699851957 59 64 38
20.34394731228031 36 35 9
12.56271234168844 27 35 13
12.064278212585677 29 36 19
12.142787622304459 34 42 17
11.501570019338152 41 50 19
9.943521612147288 45 53 20
9.690303797209147 44 53 22
8.879462802682143 50 57 27
9.414446381085535 43 52 22
9.496891289936444 49 56 25
10.74309062099837 38 47 16
9.847494077252307 41 51 18
9.690303797209147 44 53 22
9.496891289936444 49 56 25
9.152797809681067 51 58 28
10.74309062099837 38 47 16
9.922278528427125 41 50 19
10.987356871543069 38 47 16
10.448774636933827 42 51 21
10.791064749750282 38 47 14
10.448774636933827 42 51 21
10.401040187543828 44 55 24
15.711011204476595 58 64 37
10.25626224873149 47 56 23
9.396287567861393 46 55 21
10.009304158895594 46 55 20
10.686236984281457 51 58 26
9.790268820031589 52 57 27
10.07302575714449 49 58 25
10.182506551353672 54 60 33
9.222671901401126 54 60 33
10.53568990574376 61 69 44
9.902647250627682 55 62 32
10.533903256968529 56 63 34
11.3028670873704 53 59 32
11.232826431319088 63 73 47
11.487726641796554 58 66 38
10.303952215513391 60 66 38
11.146425255927745 57 66 38
10.53568990574376 61 69 44
11.451573379507057 55 64 36
8.720833184474047 51 58 28
10.57005402104155 62 71 45
10.929369122616137 61 70 44
10.680012370571825 53 61 33
9.437050315967225 52 58 31
10.027021725709476 54 61 34
9.89882653382631 52 58 32
9.716172249129386 54 60 33
9.513333838619932 51 57 30
9.97157804992358 52 58 32
9.907911714797885 58 63 36
11.03144355278716 63 67 40
11.271150401222773 60 65 38
9.280574905974865 56 64 36
10.629959787253986 59 64 37
10.540402999472969 60 65 38
11.090562557463876 63 67 40
11.58199762012404 67 67 41
10.563534963803212 68 69 43
10.85495703908581 63 69 44
12.077571621945257 67 66 40
11.048607593734738 62 67 40
11.75202039167298 63 68 41
10.511137322466285 63 69 42
11.590782403940642 63 67 40
11.154263824291613 63 66 40
11.382229998161915 62 67 42
10.888313576405865 62 70 45
11.475727482131791 66 66 40
11.275765236987077 62 67 40
11.275765236987077 62 67 40
11.942618125913555 62 67 40
12.369523459026322 62 68 41
10.74458705776251 55 64 34
9.475125267883383 51 60 33
10.612107260644798 56 63 31
12.798295650469122 61 64 39
11.342595138426162 58 64 37
8.956258383631324 49 55 27
10.444916333475058 37 46 19
10.037675939883162 41 50 24
8.975294043848988 44 53 24
10.351941052920328 32 41 12
9.646658679943508 39 47 24
10.194390994252755 38 47 20
11.098921657504826 35 43 32
9.086014610837244 42 51 19
9.004528789869727 50 56 28
9.004528789869727 50 56 28
10.563980459215845 47 53 27
11.65764850027287 37 43 18
10.665340037723176 61 66 39
17.028122890748676 38 45 13
9.33553620177307 51 58 26
9.59984279788402 53 60 29
20.00614115735217 37 32 7
11.41387847187791 39 48 19
9.680028542398407 44 53 21
9.358134036459637 52 61 33
11.732681597993222 36 45 16
10.307440352550712 39 49 17
12.060546520756454 42 51 20
9.733243802760095 45 56 23
15.673710588038707 60 70 44
9.770176905519985 44 53 22
9.274198332266899 45 54 21
8.919664067543016 44 53 21
10.706156121035571 60 68 40
10.688210215439556 55 63 33
10.45032478105295 64 70 43
11.370165027645374 71 80 54
10.511137322466285 63 69 42
12.487351948435235 57 66 38
11.043897837614715 60 65 38
10.397356630881724 65 71 46
10.956213696341313 68 69 42
11.610193123454238 64 68 41
11.275765236987077 62 67 40
11.014233443238405 66 69 43
11.21591713463466 63 68 41
12.179950538161368 63 68 41
9.975610209750782 58 63 36
10.285536661186352 59 64 37
10.599157022484933 58 63 36
10.057918637250742 55 61 30
10.099062225967492 56 63 31
10.816459837369784 54 63 32
12.178387641024738 62 64 40
8.776370025340219 38 46 14
10.194390994252755 38 47 20
10.117601231024064 42 48 27
8.905286978723073 41 48 14
9.35332835167449 45 54 26
10.582179499262171 29 37 12
8.968144916104315 50 56 30
11.244178335275755 53 63 35
10.851003551676701 55 62 28
9.658931909244245 48 57 24
11.669494600046692 40 49 19
11.242136383268855 40 49 17
9.577881922266556 46 55 21
12.742135237020586 48 57 25
12.26627604241812 43 53 22
10.891146045142966 57 62 35
11.912214214143956 63 68 41
9.417190054707211 61 65 38
11.154263824291613 63 66 40
11.678395261149502 64 67 40
11.347418154701213 59 64 37
11.468298242618639 63 68 41
10.348698595906438 55 62 34
11.342595138426162 58 64 37
12.404143578121786 61 64 38
11.725348395875342 62 64 38
9.150222546099275 42 51 22
8.927363006852534 50 56 30
11.874348496942691 62 67 40
13.549452437952874 58 66 38
10.065920253675397 52 57 31
9.946343235080215 41 47 25
9.259344157063063 43 49 26
9.545668769319276 50 57 27
10.124859021179905 55 64 36
10.165731686857356 58 64 37
9.037364025501033 51 58 28
12.135898944567069 62 68 41
10.555249002586578 59 63 36
10.285536661186352 59 64 37
9.518562826147136 50 57 27
10.31727579838562 59 64 36
9.707146499199537 38 46 22
9.476145197621141 47 53 29
10.868691780626799 59 66 39
12.268332269980746 51 60 28
11.386592700732066 60 66 38
11.294050882886598 70 77 51
11.584650052800246 59 65 37
12.580931220925454 63 68 41
10.337026126403707 53 60 30
11.441456078692406 43 53 22
12.487351948435235 57 66 38
8.967325802910631 44 51 16
9.42853340200563 40 49 18
9.546905902702356 49 55 30
16.60017126560198 59 69 43
12.910929805287752 61 64 40
9.46364880704167 44 53 23
10.20624461457824 37 46 17
9.155645718802107 38 47 15
10.526922497918916 53 59 32
10.613035257346915 46 57 21
10.967017897872022 57 66 36
