10.648766206483748 27 36 13
10.303961002709118 27 36 13
10.239419023925864 22 32 8
9.250525863811651 15 24 2
10.014748233216828 24 34 10
9.377297343365194 30 40 16
10.395163973463339 32 42 16
10.526626912707126 27 37 13
11.107354096783958 41 51 25
10.421506372308592 20 30 4
10.16422796461486 40 50 24
11.107354096783958 41 51 25
10.354415358375824 38 48 22
10.90985216901629 36 45 17
10.052895211728528 34 44 18
10.210747004333946 26 36 12
10.025476665235374 30 40 14
11.102959169899428 37 47 19
12.055599829255218 38 48 19
12.437417528065604 41 51 24
10.695771764347242 33 43 19
10.610776441853227 36 46 22
10.842617677264244 36 46 22
10.019490302787453 13 25 2
10.27609779456813 32 42 19
11.383275781357794 47 57 29
10.827590183170601 26 36 13
10.836316359292585 28 40 17
12.000092880389182 40 50 22
12.131160439062807 40 50 21
11.0830150381497 44 54 28
12.201573580133557 42 55 26
12.067914902224498 44 57 30
12.13894956996948 42 51 24
12.044394584012636 43 56 27
12.000092880389182 40 50 22
11.674018269774852 47 57 32
12.228783247986774 44 54 30
11.0830150381497 44 54 28
12.201573580133557 42 55 26
11.417692667382617 37 49 25
11.57171622686443 42 52 26
12.044394584012636 43 56 27
11.968980071809488 45 54 26
10.128655195481574 43 53 29
9.6699449270617 22 35 7
10.195171582334991 45 52 29
10.174392461947331 41 52 26
10.502817843030794 28 38 12
10.431420177576038 24 37 9
11.126717322131965 26 39 8
10.92614189653014 22 36 8
11.887342897666468 44 57 30
11.367115221717945 43 57 28
10.806851846874348 43 57 30
11.855934209842212 43 60 30
11.231202712291617 43 57 30
12.398878287579956 42 56 31
11.221950627493202 29 39 13
10.708489096165254 33 43 18
10.475835662223579 30 41 14
10.678183658609042 36 46 23
10.267000611643363 35 45 22
9.8911355861198 37 47 23
10.075886058786361 35 43 21
10.043672007485132 37 45 23
9.99167647300095 31 39 17
10.226101973768685 32 40 18
10.744300003443962 33 41 19
11.436426456210043 31 39 17
11.248881446157696 31 39 16
10.945216807031088 32 40 17
10.618290316460808 30 38 16
10.183631012159939 31 39 17
11.164634427058084 28 36 14
12.246426919214679 28 36 14
11.338833184064985 38 50 22
12.021121123313275 34 44 18
11.241890184131561 37 47 21
12.003503298531156 35 46 19
11.590294190248699 36 49 24
11.522073643230762 38 52 23
10.872334674172684 37 50 23
9.748259468731597 31 39 16
10.435578782243951 33 41 18
10.533901909316642 35 45 19
10.160883960570294 38 47 19
10.320077520221425 38 48 20
10.216674125859662 34 43 17
9.721506485278162 32 40 17
10.135220201542973 36 45 17
10.05891534637259 36 45 19
10.121374170965865 38 47 21
10.216674125859662 34 43 17
10.796563570787892 38 48 22
10.333657312319266 37 46 18
10.394465383638273 38 47 19
10.670987908573638 33 39 14
10.385545525758406 33 41 18
10.595625863627188 30 38 15
10.924224528138854 32 40 17
10.838170495544238 31 39 17
10.269481553153492 34 43 15
10.200932604860427 31 40 12
10.497705187675779 32 41 15
10.009309874222078 32 38 11
10.538910531617825 33 39 14
10.23039117624933 34 43 17
10.459467790278588 33 42 16
10.911688543645264 33 43 13
10.579781087508827 31 40 12
10.203960550864021 33 39 12
10.623576316871087 32 41 13
10.723952720841073 32 41 13
11.352352346960501 33 42 13
10.058661688995164 33 42 14
10.599816453745706 47 59 30
10.964891732425045 45 58 29
11.038603379768823 37 47 19
10.70257688209143 46 59 30
17.811244508900774 45 58 31
10.101136270456958 46 54 32
9.980465536778373 42 50 28
10.4384653975149 44 52 30
10.281105129892943 45 54 32
10.494016595919375 46 56 33
10.433788724726332 46 57 33
10.940373621798985 38 48 23
10.332626436863972 36 46 23
11.168139562862534 39 49 26
11.097324133280763 42 50 28
10.667649009730333 38 47 25
10.731770620831643 44 54 31
10.766172183972365 46 56 33
10.40834881806238 44 52 30
10.43334076146612 38 48 25
10.1988932686437 43 51 29
11.02120248123454 41 51 28
9.547151873581042 39 52 27
9.426139476105622 40 50 25
9.501646589467104 42 55 30
9.248876962871588 45 58 33
10.4072538816701 40 54 24
9.502714646361923 42 50 28
9.600746195004133 42 50 28
9.659581073462565 44 52 30
9.265960624112944 44 54 31
9.784210143814189 45 55 31
9.547151873581042 39 52 27
10.33893575754448 41 58 29
10.896522150716605 44 57 27
10.856674168223318 48 62 33
9.740854423061455 42 50 28
10.023022661241251 43 53 31
9.981172662972572 41 50 27
10.539131271374108 42 51 29
10.794526563983968 29 37 14
10.406455877887224 39 49 21
10.371038975027732 33 39 14
10.41256846737195 39 49 22
11.524033865604258 34 42 16
9.61782643695936 32 41 11
9.772050766698555 36 45 17
10.526142133548646 45 58 30
10.415534887963904 48 58 30
11.524033865604258 34 42 16
10.60890381882142 37 46 18
10.5509786983026 29 35 10
10.406455877887224 39 49 21
10.316888654377948 40 54 24
10.709468138307455 37 51 22
9.560472017416929 39 50 25
11.193972149908296 39 52 25
10.914026270306612 41 54 28
10.378772875879253 41 49 24
9.421830024234602 20 30 6
9.987224960012878 24 34 10
9.78176249390771 34 44 20
9.412674824974708 0 8 0
10.873064269023232 33 43 19
10.156688182714083 19 29 3
10.71781969777504 31 41 17
11.01917323789902 30 40 16
10.859274137996458 35 45 19
10.196061131258661 32 42 16
10.635905558657381 40 50 22
10.661754397166273 35 45 17
11.579164481081246 37 48 20
12.437417528065604 41 51 24
10.665430191009774 35 47 23
10.827590183170601 26 36 13
10.936854909097578 29 39 12
11.583378729145615 38 48 23
11.812134875081563 39 52 23
12.13894956996948 42 51 24
11.64970271599657 41 54 26
11.181335582113261 46 56 28
11.57988167033918 45 55 29
11.992213560222625 39 49 19
10.91584654944025 40 53 21
10.413782591858997 37 47 24
10.618290316460808 30 38 16
12.203713151532567 29 37 12
11.590294190248699 36 49 24
10.855698252916852 40 50 24
9.721506485278162 32 40 17
10.252804154513308 33 42 16
9.914080886946612 29 37 15
10.684649815675995 31 41 17
10.098669501323911 37 46 18
10.571870089373238 38 47 19
10.550134964769848 38 48 20
10.796563570787892 38 48 22
10.343482581301103 33 42 13
10.459467790278588 33 42 16
10.601629383790987 30 38 15
10.269481553153492 34 43 15
10.838170495544238 31 39 17
10.487956955204377 32 37 12
10.009309874222078 32 38 11
10.25331264070933 32 41 13
10.813943639771294 32 40 14
9.86740685477389 37 47 19
10.346468809423047 35 44 16
10.599816453745706 47 59 30
10.964891732425045 45 58 29
17.846592619294388 44 57 30
9.516719165657937 44 52 30
9.713354475546328 43 51 29
10.83399620506119 36 46 23
10.37276059116692 44 53 31
10.731770620831643 44 54 31
10.37276059116692 44 53 31
10.41817153974706 40 49 27
9.877822154743537 42 56 29
9.265960624112944 44 54 31
9.849916281264878 40 56 27
8.943449247181237 42 51 28
9.448564284933298 39 51 26
10.392046581124553 44 58 29
9.88029525551888 35 44 16
9.471073731103283 32 38 13
11.067387014210674 32 40 14
9.97557991076283 30 35 10
10.617809722394888 39 49 24
9.310833928035345 33 42 14
9.830047991783633 31 40 10
10.41256846737195 39 49 22
9.529894363777029 34 42 12
10.98526733340153 34 43 15
10.52009553504021 48 60 30
10.717343566871069 43 56 25
11.00807677769498 40 53 23
10.717343566871069 43 56 25
11.280213986367364 39 53 26
9.642580752697476 41 49 25
9.570205754118982 11 23 7
9.56032400665335 8 17 1
11.528079179762548 33 43 15
11.976874676782437 45 55 29
10.413230114772873 27 36 18
11.968980071809488 45 54 26
10.428854699526855 36 44 21
10.03976285238094 26 36 15
11.976874676782437 45 55 29
9.900106049921504 15 24 7
11.57988167033918 45 55 29
12.24024563280132 42 59 29
10.105450983499267 29 42 15
11.231202712291617 43 57 30
10.348671429039111 35 45 19
10.875355389856512 41 54 27
10.043672007485132 37 45 23
9.99167647300095 31 39 17
10.550484558289769 32 40 18
11.78639504842749 30 38 16
10.147254690556977 33 41 19
11.254536504850208 31 39 17
10.375795945102347 38 50 23
10.70257688209143 46 59 30
9.683394317413201 32 40 17
9.861402089971813 32 40 17
10.121374170965865 38 47 21
11.064262007372331 46 60 31
10.590895419610113 40 50 22
10.200932604860427 31 40 12
10.278174320238746 34 42 19
10.095609975741192 35 44 18
10.17485747345732 31 39 16
11.126747490183929 32 41 12
10.320077520221425 38 48 20
9.643194766337627 46 56 33
10.219622572713048 45 54 32
10.64823090840146 47 55 33
10.94943677802154 43 51 29
10.40834881806238 44 52 30
11.168139562862534 39 49 26
10.23508606421953 43 51 29
10.79033538966005 42 52 29
9.600746195004133 42 50 28
9.901872012482855 42 51 28
11.092979063996209 40 53 25
10.4216421523524 44 56 29
9.471073731103283 32 38 13
9.875721915136493 39 50 24
11.514352277119194 24 35 8
10.792328505794014 39 49 23
11.257228013842415 35 45 18
9.661643644063036 26 36 10
11.677933589643638 45 58 31
9.999774516486289 21 31 7
10.085079802049128 21 31 7
10.267000611643363 35 45 22
9.730420670764756 45 52 30
10.258547097160534 31 42 17
10.206193925525596 35 48 21
10.337800998956487 41 49 27
12.262965190602417 40 54 27
10.22639863254076 12 26 0
10.209173077102548 32 40 18
11.655372758447962 29 37 15
10.60890381882142 37 46 18
10.281179517540771 35 45 19
10.449683887215928 31 37 12
10.43334076146612 38 48 25
11.172285619098611 39 52 26
9.077915292644391 41 54 28
10.61127318960338 32 40 17
9.837302312683908 48 55 32
10.174392461947331 41 52 26
12.090958283028971 39 52 25
10.617553591454405 33 46 19
9.293738564675037 22 31 13
9.419386778007457 42 51 27
9.679805197938506 37 51 24
10.369379744480598 35 44 14
10.279156101946361 40 50 25
11.852077692413964 44 56 33
9.556632194750982 45 55 30
10.678183658609042 36 46 23
10.93586749370075 30 38 16
10.92336354784528 32 42 16
10.588438818261894 37 47 24
10.369379744480598 35 44 14
