8.86668227412002 40 42 20
8.065283606193201 42 44 22
7.626029378068535 43 45 24
7.611122255106714 42 44 23
7.611122255106714 42 44 23
8.065283606193201 42 44 22
9.013753696614401 47 49 25
8.335160334163549 46 48 24
8.342109584381536 42 44 22
7.855064601210932 44 46 22
8.260994647056643 44 46 22
8.09615425381845 45 47 25
7.616393121199324 43 45 19
9.207932733692182 48 50 24
9.128010276541046 49 51 27
9.596338175112631 50 52 28
11.062873467923547 49 55 57
7.740612943615522 42 44 22
9.639977284039015 42 47 36
10.526434402308734 44 51 45
8.262419236914281 43 45 21
7.403348182817867 46 48 24
8.590762144376441 44 46 24
8.33370933723923 43 45 20
9.673414908324462 44 51 46
8.191472908697513 45 47 21
8.697681724027918 52 57 28
8.04323751945793 45 48 19
8.076111021067296 49 51 24
7.638271197774583 48 51 20
8.697681724027918 52 57 28
8.723757880549904 47 49 23
8.595161980176576 51 53 28
8.67751026901301 53 58 31
9.286965907003065 54 60 37
9.713471935417406 42 48 36
10.198090710347627 45 52 43
9.402484187472043 48 53 27
9.314354073113433 48 52 26
9.812408882888159 44 49 35
9.594593581387322 44 49 28
9.884621545023148 47 52 37
8.772040900791746 53 58 33
9.271705234152295 54 59 32
8.149773133957433 56 59 30
9.224106223106668 54 59 30
7.84464274528308 54 57 28
7.467634290329576 54 57 28
7.696470779774144 48 51 22
8.499375601092616 49 52 21
8.875887464245473 52 55 25
8.613458076869632 55 58 29
8.613458076869632 55 58 29
8.221079331059896 46 48 22
9.268279017384943 50 53 24
9.224106223106668 54 59 30
7.272219713419982 52 55 24
8.510634252174565 52 57 26
8.447920064961869 56 62 38
9.004001464673504 56 61 33
9.531259113194801 57 62 35
8.597054501018754 59 65 39
9.61740179982078 59 64 38
8.896078424283461 59 65 39
8.026942084917096 54 60 37
7.605703645876827 53 59 36
8.353801846034383 58 63 39
8.000821668790719 57 61 39
7.9421403403880335 54 60 38
8.775925621854503 57 62 39
9.16693443328609 59 65 37
9.076517493390797 59 64 37
8.333523601601966 59 65 37
9.09955062992955 60 66 37
7.48131464112982 54 58 36
7.390254576899848 51 56 33
8.66586018320132 58 64 37
9.74977197979747 35 43 36
9.155718891519605 44 48 36
9.665194403154516 49 56 47
9.728278460201567 69 77 72
7.994213570764835 47 52 28
8.106996184668196 49 55 33
7.777693867767605 49 55 31
7.567143229990754 48 54 28
8.193797401236838 45 49 27
6.560423882681767 53 56 25
6.560423882681767 53 56 25
8.999318460576047 45 50 23
6.9223943729256865 52 56 27
8.867764647937035 48 51 22
10.377810182792214 49 53 24
9.618126544704335 48 50 26
10.377810182792214 49 53 24
9.749138626011916 47 52 25
10.162691195310604 49 53 27
9.309679409441719 52 52 24
9.706101185932141 50 52 26
9.857058307163166 47 49 25
9.294754634111074 49 51 27
9.904166078471043 52 55 26
9.73359885201729 49 51 27
10.543452840963761 53 58 30
11.287115937726208 56 61 32
11.163774067455318 57 62 33
10.200234318067341 59 64 35
11.287115937726208 56 61 32
7.976946727616586 57 63 35
7.115332455388273 56 62 34
7.450391820874497 54 59 32
7.517759531890795 52 57 27
7.85088059044863 51 56 26
7.115332455388273 56 62 34
7.214075454622898 54 58 27
9.517170124837804 45 49 25
9.158360190436891 47 50 20
9.158360190436891 47 50 20
9.2857979884037 46 50 22
9.361675757882939 47 50 20
9.342937979675884 47 50 20
8.515947118764005 49 52 21
8.208970051881007 42 44 20
7.259360629192203 43 45 23
7.862438197583109 42 44 22
7.796061758294214 44 46 22
8.00252644816295 44 46 22
10.02889221864136 45 50 42
7.953857460503043 41 43 23
10.495714710028235 51 57 51
9.380490810582144 42 49 42
8.857450788015678 46 48 21
9.333149238225422 47 49 23
9.302152960811876 50 54 29
9.873125188882806 52 57 36
9.594593581387322 44 49 28
8.703646859494791 45 49 24
9.713471935417406 42 48 36
7.753453733515736 50 53 22
8.613458076869632 55 58 29
8.492828624026371 50 52 26
9.023443094490352 54 59 30
8.680956357141566 48 50 24
8.593088917166382 55 60 33
7.398594699134999 53 58 33
8.736589606494567 58 64 37
7.694214319675421 54 60 35
9.3414962474799 59 65 38
9.008457391269287 60 65 38
9.208133818930886 58 64 39
8.40704947386251 59 66 37
7.306503779091218 50 55 30
7.605703645876827 53 59 36
7.994213570764835 47 52 28
9.74977197979747 35 43 36
10.3269960825152 58 66 58
9.52948663712539 46 50 25
10.142072789741828 51 53 27
10.431390842354812 57 62 33
10.859720648898476 55 59 30
11.058000204626733 59 64 36
7.214075454622898 54 58 27
7.152796818807358 51 56 26
8.509139839488368 49 53 23
7.442922189112742 54 59 30
9.845151603137873 47 49 25
9.158360190436891 47 50 20
9.712977854554136 45 49 25
9.48638265617596 46 50 22
7.5365725756583215 48 54 27
8.727451937104949 42 44 22
7.646644666236438 44 46 22
8.09615425381845 45 47 25
9.910638220639461 41 49 46
9.238388057210537 46 53 45
8.062036165363004 51 54 25
8.595161980176576 51 53 28
8.723757880549904 47 49 23
8.977651065924775 53 59 36
9.582749287079107 52 56 32
8.797896666313521 45 50 28
9.390397584909712 50 55 29
9.311391944484162 43 47 30
8.613458076869632 55 58 29
9.095804126710963 56 61 34
8.69837689524901 53 56 25
8.806276911410123 53 56 25
7.4473353997856755 47 50 21
9.397606123511991 54 59 32
8.353801846034383 58 63 39
9.252785258793379 57 62 35
8.688538095368214 58 63 37
8.353801846034383 58 63 39
8.026942084917096 54 60 37
8.507007763604689 44 48 28
7.777693867767605 49 55 31
10.543452840963761 53 58 30
9.62429488795805 49 51 25
7.358949125816767 50 55 30
8.411655230192872 51 55 24
10.03456136095256 47 49 26
10.747784921242602 51 55 28
6.875590876608894 55 59 30
9.272206417542007 49 51 25
10.523580472006888 53 57 30
9.309679409441719 52 52 24
8.627603509928871 52 55 26
7.626029378068535 43 45 24
8.172971985558256 44 45 29
9.073648309882866 38 41 23
8.55265771444076 45 46 30
8.180514157887597 45 47 21
8.44460050613046 53 58 28
9.884621545023148 47 52 37
8.896078424283461 59 65 39
8.185873219818003 51 54 23
8.944900888064941 51 56 40
9.298420976891096 48 51 23
10.859720648898476 55 59 30
7.9546176363991545 44 46 24
8.11719795895021 52 55 24
9.095139332202647 57 62 37
7.522128835844875 46 48 22
8.465380350115883 53 60 38
8.341106169343947 46 49 20
7.855064601210932 44 46 22
10.18303968566438 59 64 34
8.867764647937035 48 51 22
8.526767443394261 45 47 23
9.056317710069301 46 48 24
7.485371829487163 47 53 27
10.337627575619342 75 83 82
