19.384109533184656 24 23 6
18.881245576152686 16 15 0
19.924504363029843 41 41 16
19.924504363029843 41 41 16
22.47927066997918 25 25 21
12.251096508253319 37 41 19
12.10162124786754 32 38 13
11.267597716958754 34 40 16
12.140069443628377 30 36 13
11.378943607207978 37 43 20
11.93676658589898 23 29 6
11.867867023965884 21 28 6
12.22310443016172 38 42 20
12.125135620896332 37 42 18
12.401195506730355 38 42 20
11.877285365416805 67 72 49
11.949209642730938 39 43 21
12.229718314137157 29 34 12
11.78642618885085 33 37 15
11.426284222481371 35 41 18
11.514576329424122 54 59 37
11.604268294589996 36 40 18
12.710403111504926 19 25 1
11.51887753064656 61 66 44
11.877285365416805 67 72 49
11.734220031540081 43 49 26
12.048107791309551 31 37 12
12.631004292475081 32 38 15
12.827167673586748 32 37 12
11.706654176607588 39 45 22
12.577298484747692 36 40 18
10.141349039866723 45 47 26
10.818233931382515 54 60 38
11.055034901303028 55 54 35
10.753733230761812 51 55 34
10.730016631581512 37 40 20
10.858844139450706 45 44 24
10.558414844463321 47 49 28
9.685836284233957 48 49 28
11.227249988239354 41 43 21
11.755330218754308 40 44 22
9.685836284233957 48 49 28
12.089786609416603 27 33 8
12.14098232607865 27 34 11
12.848816030964835 38 42 20
12.175720826879575 38 42 20
12.153216298653366 38 42 20
12.27987271400326 32 37 15
12.109233903910644 38 42 20
11.83579462847188 38 42 20
12.069161798931988 32 37 15
12.323262943254882 38 42 20
11.838458773599253 36 39 17
11.774257119044774 35 39 17
11.726146995584442 34 39 16
12.175720826879575 38 42 20
12.134302974436107 32 37 13
11.514996349868998 37 41 19
12.420661999218543 25 34 10
11.643178479868533 38 42 20
12.133269419099037 38 42 20
12.2954559504137 37 41 19
11.682079760840164 38 42 20
12.542539548127555 38 42 20
12.508730911700331 42 45 25
11.911586861234671 36 40 18
11.838374729640194 37 41 19
12.385534382792232 37 41 19
11.781056148635237 37 41 19
11.913181410547674 38 42 20
13.014468105472595 37 41 19
11.377235412762841 98 96 87
10.385780108233208 15 14 4
11.212260171102884 68 69 53
10.804920821918257 38 37 17
10.994678722975962 46 45 25
12.037710215811073 51 52 41
11.684224371105351 48 49 36
12.461614475073135 50 51 40
11.860996683292573 53 54 41
10.642689961471536 73 74 66
10.338350039077657 43 44 34
10.355740084745245 48 50 37
10.920340908482304 47 48 36
11.103123095358335 73 73 64
11.296624129790924 48 52 36
10.56414804303224 49 53 37
11.3229364849085 50 54 37
11.426122218797675 49 54 35
11.173315558004907 50 54 35
11.404921936941719 51 55 36
11.882880615871597 50 54 35
11.765186896321037 50 54 35
11.188849756627548 50 54 35
11.437000952648132 50 54 35
12.179150330289458 41 45 24
12.002433514113484 44 47 30
12.209212268003704 45 46 30
12.412530085175513 43 45 28
11.62656182126113 46 49 32
12.038094745305914 45 49 32
11.680932898551685 45 49 32
12.162309156043394 46 49 32
11.63241896610082 44 48 29
12.121395049730642 45 47 31
11.50195871459539 47 53 34
11.376539966772823 48 54 34
11.839379243583334 48 53 33
12.720469215057301 39 43 21
12.667142723958436 39 43 21
12.285802553945878 38 42 20
12.529106876716344 37 41 19
12.581525211858475 40 42 20
12.583018373596543 38 42 20
12.63426637625206 36 40 18
12.50675537681518 41 43 21
12.950820761094382 36 40 18
12.694553023192082 42 44 22
12.663682816115738 41 45 27
12.760909419705255 43 45 24
12.370429380574075 41 43 21
12.4460182251556 41 43 22
12.971399381832043 42 44 25
12.276671202694049 42 45 26
12.994837241276537 41 45 26
12.087516817559447 43 45 24
11.976532236075977 44 48 29
12.018978998511262 41 45 24
12.196643561764297 40 44 22
12.098460484177995 39 43 21
12.84118770591768 33 37 13
12.47015215235509 35 40 15
13.536760877347419 37 42 17
12.422738619382434 41 43 22
12.51736018407229 44 46 24
11.954393790425474 45 47 26
12.252539202349565 47 49 25
12.572816429643892 43 45 23
11.954393790425474 45 47 26
11.770626989428417 45 47 26
12.063006420492282 45 47 26
12.350012608638563 40 44 22
12.103108555238762 39 44 21
12.971584782944946 41 45 24
12.226662488598793 40 44 22
12.564897281538709 40 44 22
12.227705120884965 42 48 23
11.60587712317464 45 47 25
12.043930212788968 41 46 21
11.708707430974977 41 46 21
11.388697147103505 42 47 22
11.444707907652836 39 43 21
12.800435413782271 39 43 21
12.347458839238387 38 43 18
11.676265299896999 39 43 21
11.962688139569584 39 44 19
11.736783003127877 39 43 21
13.682263351581136 47 49 28
12.589066211495409 48 50 28
13.191385117821332 45 47 26
13.289892186581236 47 49 28
12.563856818665712 46 48 27
12.767876888382546 41 45 24
13.16829709273007 44 47 27
12.33086436793122 44 47 24
12.745944106428828 47 50 29
12.149156757413099 38 42 20
12.984916204058132 38 42 20
11.315849935101035 38 42 20
12.115844956565704 37 41 19
12.426114876582647 37 41 19
11.498286955910922 38 42 20
12.495900578734851 38 42 20
11.881879779607628 38 42 20
11.498286955910922 38 42 20
12.20878776389946 38 42 20
11.728786603163972 38 42 20
11.833102476444637 42 44 23
12.026259070147917 48 50 29
12.026259070147917 48 50 29
12.053120906334012 36 40 18
12.567712534069221 38 42 20
12.143449829757323 41 43 21
12.513751680098007 38 42 20
13.218555606814643 37 41 19
12.062377398401647 37 41 19
12.354414427434165 37 41 19
12.513751680098007 38 42 20
12.691651022712653 41 43 21
12.525667866313398 37 41 19
12.296445588682552 41 43 21
11.968297658776217 38 42 20
13.044946272705207 40 42 20
12.979576752654467 38 42 20
12.8584137954386 37 41 19
12.904201509959373 43 45 26
11.85353697379848 44 46 25
11.71704539466575 44 46 27
12.10040330418703 41 43 24
11.742987089532745 46 48 28
12.958002299944342 41 43 22
12.157761599887765 41 43 22
12.927761198827609 44 46 27
12.883959106989984 42 45 26
12.927761198827609 44 46 27
12.287813611882916 44 46 25
12.59879215274117 45 47 28
11.742987089532745 46 48 28
11.746832366709558 47 51 29
14.001290952803604 43 44 27
13.946615901206906 47 51 33
13.347217834571175 49 50 34
12.5470507123742 42 44 30
14.137680332300448 42 45 26
12.779530742576393 49 50 36
13.487012348608658 48 51 35
13.188062746466215 48 49 33
12.789258298761018 45 48 32
13.32115056044307 47 51 34
12.754697804455136 46 48 29
13.529308454436062 39 42 23
12.848859135413162 50 52 35
13.329526517200735 48 50 35
12.829916273361052 49 50 34
11.888628936281702 51 55 37
12.061349188135306 46 50 33
12.829916273361052 49 50 34
12.53903594404928 33 37 19
11.46683138702939 35 37 18
11.423408465461499 45 47 28
11.085108436740143 35 37 17
11.794187295996801 38 40 20
11.920436865435649 35 38 19
11.423408465461499 45 47 28
11.085108436740143 35 37 17
12.235662915319596 40 42 24
12.4380628743833 40 44 26
12.210273385662672 38 42 25
12.740488215983017 43 46 28
12.577097985150013 46 50 33
12.736072760820928 41 45 23
11.836760235945789 45 47 27
11.836760235945789 45 47 27
12.736072760820928 41 45 23
11.400537120229458 45 47 29
12.457989824153403 42 44 27
19.573515789605427 9 8 0
12.116480842189354 19 25 1
12.059426969132765 41 46 24
11.862126136542374 29 35 11
11.791709406966262 47 52 29
11.96687673834904 24 31 9
11.866792775865319 25 32 10
11.873114003143586 58 63 40
11.616597574954413 44 49 27
11.026306232638344 44 50 27
9.574903564602907 51 50 30
11.706654176607588 39 45 22
11.0886895495744 58 56 38
12.721185715259962 38 44 21
12.183478936921466 37 41 19
10.758338622589026 30 30 11
10.111298993904335 44 46 25
9.997603251705915 45 49 28
10.492317047824008 46 48 27
11.990151710829146 35 39 17
11.990151710829146 35 39 17
11.7303706199742 38 42 20
12.299581841572161 35 39 16
12.109233903910644 38 42 20
11.94705830844047 38 42 20
12.012861622939232 37 41 19
12.647587361005117 38 42 20
11.892831946816063 37 41 19
11.80425263179795 38 42 20
12.022149112810531 36 40 18
12.682837447878759 37 41 19
12.569207336687478 38 42 20
12.323139048840297 43 45 24
11.968280319863245 36 40 18
12.892175843952922 38 42 20
12.435077032755002 37 41 19
12.602253409437461 38 42 20
11.20616490557597 91 91 79
9.861837326396016 44 43 23
15.455009734375345 78 75 77
11.408822374900478 66 67 57
10.239921123587301 50 54 39
11.208889938034995 47 48 37
10.717671270941374 51 54 39
11.176737954268106 71 69 64
11.190547289755964 50 54 36
11.576898623054975 68 69 60
12.017069102489268 73 71 64
11.25579473926384 49 53 35
11.568211726786558 50 54 36
11.188849756627548 50 54 35
10.545892839849639 49 53 34
11.245337365915017 52 56 37
12.167942525133698 45 48 31
12.060775684470395 44 46 25
12.008124604377329 44 48 28
11.675082317779584 45 49 31
12.290353387301034 45 49 31
12.239183412642854 46 49 32
12.412530085175513 43 45 28
12.581525211858475 40 42 20
12.652887811093157 42 46 26
12.57903876350047 40 44 25
12.370429380574075 41 43 21
12.338748278019132 41 45 26
12.271104659545518 43 48 26
12.7240772006785 34 37 16
11.987090759980646 44 46 24
12.541646581771994 43 47 25
12.763548860682969 33 39 15
11.388697147103505 42 47 22
11.962688139569584 39 44 19
12.800435413782271 39 43 21
12.971584782944946 41 45 24
12.226662488598793 40 44 22
12.46762299141424 43 47 24
12.404676338911083 46 48 27
11.45883837055499 45 47 25
13.462162803027894 48 50 28
12.767876888382546 41 45 24
12.149156757413099 38 42 20
12.08252366029988 39 43 21
11.427859423618289 39 43 21
12.426114876582647 37 41 19
13.027838978682468 41 43 21
12.796959138331104 37 41 19
11.958968347240637 37 41 19
12.80714499178168 37 41 19
12.691651022712653 41 43 21
12.143449829757323 41 43 21
12.691651022712653 41 43 21
11.919394563991414 41 43 21
13.08820960258079 42 44 22
12.444066086434864 38 42 20
13.292578290038886 41 43 21
12.8584137954386 37 41 19
12.59879215274117 45 47 28
12.10040330418703 41 43 24
12.860319174356258 42 44 25
11.776271047168665 42 44 23
11.93715218304285 49 53 35
13.701728318893835 45 47 30
11.746832366709558 47 51 29
12.848859135413162 50 52 35
13.69041837712731 41 43 24
13.757376645786797 41 43 24
13.843799343372108 39 41 24
13.087815290843906 47 49 32
13.44086378064167 41 42 22
12.034113535055877 38 42 25
14.375143176655143 44 47 32
12.866220537485745 49 50 34
12.652459730914266 51 54 36
12.210273385662672 38 42 25
12.108626239251294 35 37 17
12.858388573699559 39 41 21
12.317610352570721 42 43 26
11.747775806407356 36 36 16
12.39406271130132 32 35 16
12.336752877013248 45 46 30
11.747775806407356 36 36 16
12.829916273361052 49 50 34
11.423408465461499 45 47 28
12.858388573699559 39 41 21
19.212236400566706 20 20 0
20.25684344547498 43 44 22
12.22310443016172 38 42 20
12.033163764310343 34 38 16
10.878898975657677 39 38 20
11.823232211525923 29 35 13
12.175720826879575 38 42 20
12.175720826879575 38 42 20
12.153216298653366 38 42 20
12.21395275730309 31 35 13
12.170009304495347 36 40 18
12.19652795714485 36 40 18
12.400070489875189 37 41 19
10.666670042302112 46 47 27
10.295682333391518 32 31 14
10.642689961471536 73 74 66
11.749311998593127 46 50 32
11.376539966772823 48 54 34
11.648470985593963 50 56 36
12.24476446738971 44 46 30
12.008124604377329 44 48 28
12.189852436358382 41 45 26
12.519151276094158 44 46 25
12.1730260683028 45 49 31
12.375115444238753 40 44 22
11.928911848625937 45 47 26
12.478615379969883 42 44 22
11.880919692032917 46 48 26
12.227705120884965 42 48 23
12.005725440306447 40 44 22
11.736783003127877 39 43 21
11.795397595579656 40 45 20
12.79168766196111 45 47 26
12.297017599023201 38 42 20
11.353048351641846 39 41 20
11.705395136765999 48 50 29
12.20878776389946 38 42 20
12.123503998294623 37 41 19
12.883959106989984 42 45 26
11.647450007113836 38 42 20
12.125524859908344 39 41 20
11.892849395727302 38 42 20
13.336447040864122 37 41 19
12.47393107102368 42 45 24
12.819250424995728 40 42 20
13.044946272705207 40 42 20
12.914302778781376 41 43 22
11.794187295996801 38 40 20
12.89268721004061 38 41 23
12.714232438399684 45 46 33
12.54603461918077 50 51 37
12.848859135413162 50 52 35
13.17959688632263 49 50 35
11.531621115001347 40 42 21
12.295079469911697 34 40 16
12.402223466352988 54 60 36
12.125135620896332 37 42 18
11.991791738056767 32 38 13
11.358679785740856 47 49 28
10.505951341866592 38 42 21
10.035452859481135 46 45 26
12.549001613000494 38 42 20
11.432156946849368 38 42 20
12.069161798931988 32 37 15
12.345360095671008 37 41 19
11.395236917152609 44 45 31
22.4147879821403 26 26 24
11.026138352201752 49 53 34
11.50195871459539 47 53 34
12.994837241276537 41 45 26
12.444006672796144 41 45 26
13.070748228380724 48 50 28
11.548450423195373 40 44 22
13.336134674438412 39 43 21
13.16829709273007 44 47 27
13.009841385309576 39 41 20
12.686282925389454 41 43 22
12.691651022712653 41 43 21
11.654408386312936 38 42 20
12.424602858538009 38 42 20
11.728786603163972 38 42 20
11.899028470602957 43 44 28
13.002602976653662 48 52 34
12.875882600862452 48 49 34
11.887186815674228 32 38 15
11.298422235646832 37 43 20
11.893886395714977 34 40 17
11.190154510265563 24 29 6
11.604268294589996 36 40 18
11.407704899269714 51 52 37
9.913998753062275 51 50 32
12.013293050330418 43 47 26
11.659751423939907 39 43 21
11.777968391836037 40 42 18
12.825702935616087 32 36 14
14.221792195916269 43 44 29
11.98227026584652 43 46 30
13.101489379187402 43 45 26
13.070748228380724 48 50 28
11.821216403924847 28 34 11
10.827227708334522 42 45 29
11.87603862952918 48 50 31
12.31406172081516 42 44 25
12.893248863085011 46 48 27
13.057832416281272 37 41 19
11.856679114912602 44 47 29
12.235662915319596 40 42 24
12.588490986925999 51 53 36
11.751590046218583 40 45 20
11.647450007113836 38 42 20
12.375115444238753 40 44 22
11.847865462551956 33 38 14
11.855234964670242 69 67 59
12.238912993746478 35 41 18
10.385780108233208 15 14 4
11.554232985317222 43 45 25
11.423408465461499 45 47 28
12.27064634864743 47 51 34
