20.563526186680733 36 46 25
20.592200570804174 39 50 29
20.174202642643046 33 43 22
20.69465870807657 31 41 21
20.15387226773925 34 46 25
11.668107501777667 35 41 21
11.000642205426823 35 41 21
12.197746014163943 18 24 4
12.712391305656418 28 35 15
10.455852322549498 34 40 15
11.137172763707834 31 36 11
11.3067707039985 33 37 15
11.604436592737938 28 34 11
10.580698429553856 33 39 14
10.561497762660807 34 40 15
10.420671802738985 33 39 14
10.870674609098044 33 39 12
10.999611417634963 33 37 15
10.11334178010679 33 39 15
10.390575987605292 34 40 17
10.856967242042291 35 41 18
10.679625509053208 34 40 20
11.83118588524565 35 42 21
10.78390337764067 36 42 20
10.646019814371941 35 41 19
10.615955742407936 35 41 19
10.176591710176526 35 40 23
11.101684837383003 37 43 21
10.66292493286185 38 42 23
10.517275237115927 35 40 19
8.432075826465365 29 36 16
8.440364078603658 28 34 10
9.265416048711247 25 35 9
8.608666681789964 26 34 9
9.265416048711247 25 35 9
8.592406878513017 28 36 14
10.090142584528708 33 39 16
9.378209872477854 33 39 17
10.090142584528708 33 39 16
10.739768695642756 36 40 23
10.532880950496972 36 40 19
9.10056133823726 33 39 17
8.15616838066521 28 36 13
8.926903882634583 29 37 15
8.909208737185502 31 39 17
8.863352028920778 29 38 12
10.857786217260117 35 42 22
10.042472278175415 36 42 21
10.58214785377449 36 40 20
11.823755320552918 38 44 22
11.112626648149286 35 43 20
11.262608743537777 37 43 22
11.141570191508094 37 43 21
11.595055204329451 38 44 22
8.671691343204623 31 40 18
8.671691343204623 31 40 18
9.727353733791706 33 44 17
8.083197002914838 30 39 16
7.25069610661377 32 41 15
9.047426755981178 35 43 20
7.709863182264763 31 39 16
8.021677697516305 30 38 15
10.4220259112111 34 39 21
11.991073726520188 32 40 22
10.564733020862894 33 39 14
10.694847278219166 32 38 13
12.124779947433519 30 36 15
12.56987447127618 26 34 12
10.663006914490714 34 40 15
11.115937766351955 32 38 16
10.413758148777204 34 40 15
10.413758148777204 34 40 15
10.803950671333736 34 40 15
10.23512444405163 35 41 18
10.170438251677178 34 40 15
10.877504336335253 36 42 23
11.172482842323584 40 44 23
10.5983158846133 36 42 19
10.788737062535285 33 39 12
10.608938709299823 34 42 19
10.9087186430372 34 42 19
10.06290438493012 36 42 19
10.23512444405163 35 41 18
13.059956762360143 38 44 24
11.172482842323584 40 44 23
10.251159694849814 38 44 24
10.569451324471238 33 41 21
13.33927056358468 39 45 23
11.662858647213499 40 50 26
12.573367371015935 38 50 27
12.149947378746816 40 50 25
12.268925955433318 39 49 26
12.77576497857371 40 50 27
12.915321731466637 38 46 24
13.54935186370858 40 59 34
13.36255637169549 42 57 34
13.36255637169549 42 57 34
10.694405392940137 37 45 24
10.104904711381618 38 48 25
10.39431594692296 36 44 24
11.455959506844941 41 49 27
10.719631780913971 37 45 23
10.699230274417111 38 48 25
10.804417184295602 37 47 24
11.184804867819704 38 48 24
12.402039175842782 38 50 27
12.483849656814607 42 52 28
11.689679349369785 39 47 25
12.05579653025579 41 51 27
12.265272405671992 41 51 28
11.782951994466622 40 50 28
11.115307597252908 40 56 34
10.432559302675271 41 57 35
9.400566079150687 38 51 29
10.047902905333698 38 52 31
10.768092135794905 39 55 35
10.66254688231989 39 55 33
9.948793669831538 33 43 22
10.293255728879677 42 55 34
10.079021989320841 41 54 33
9.891809326086797 33 46 25
10.030656321795641 39 52 32
12.275177065033187 36 48 27
13.125506522010902 42 56 33
12.764130866239768 40 56 34
13.125506522010902 42 56 33
11.578951554502472 42 58 36
12.87604104642698 43 59 37
11.365434549128908 33 43 19
18.945696902614365 42 54 29
15.416630659282037 26 29 7
14.631252557565977 28 33 10
9.46764165196235 30 38 15
14.762601502174789 26 29 10
8.51182880373782 32 40 17
9.236916468330676 34 40 17
8.564843978598182 32 38 13
13.280395109854549 39 50 27
12.864660820055498 40 54 30
13.112972962312481 40 56 32
20.174202642643046 33 43 22
20.69465870807657 31 41 21
20.45492234969331 35 46 26
10.97132688514356 35 41 16
11.095024418329603 35 41 21
11.12401376098008 35 41 19
12.712391305656418 28 35 15
11.013948608288462 30 36 11
11.352895207061012 28 34 9
11.3067707039985 33 37 15
10.561497762660807 34 40 15
11.584569064012245 35 43 23
10.440748784637519 33 39 17
10.129569816401077 35 40 23
10.856967242042291 35 41 18
9.689098587726697 34 40 20
10.838481774502059 37 41 22
10.417190264458235 36 41 24
8.681077711074025 32 36 19
8.642849774506987 27 35 13
8.498853245261028 32 36 15
9.734773317669472 36 40 21
10.310066236751243 36 40 20
7.978326039651758 29 37 15
8.337496228416773 30 39 13
10.657429459329203 37 43 21
11.262608743537777 37 43 22
7.590636327751069 30 40 14
8.25660605284629 33 41 18
8.030389537186343 28 38 12
7.829568778235512 32 40 17
8.258781389933327 30 38 15
10.430455103440503 36 42 20
11.105799902653393 33 39 16
11.183013911749688 30 38 15
11.129936479127329 31 38 15
10.482965950984475 31 37 12
10.877504336335253 36 42 23
10.195199189138041 34 40 15
10.814371505374053 34 40 15
13.001185191163458 39 47 25
11.332401437623394 39 47 24
13.39504792994476 42 58 36
13.501729715273338 43 59 36
11.138782606121621 37 47 24
10.909341285102295 40 49 27
11.676201669587686 38 48 25
12.896311410405758 37 49 26
9.891809326086797 33 46 25
10.073900064262922 40 53 32
9.935657401623478 42 55 34
10.597935529331613 41 54 33
10.030656321795641 39 52 32
9.973195328982383 43 56 35
10.317755595089018 40 56 35
13.158583423686926 42 58 36
12.719066364491068 42 55 34
12.763434213625672 37 49 28
8.925926561695624 27 36 10
15.184789220740063 29 33 10
14.938816171627932 27 30 10
14.19750961007804 28 32 10
15.795465530138147 24 28 7
8.977253066515514 33 40 18
8.916075112618273 32 38 15
15.370845969435237 25 29 9
12.855902032429984 39 53 28
20.342405054481492 38 49 28
12.351507069115847 9 17 0
10.70890902379041 32 38 13
11.420486913722337 35 43 23
10.2787815666573 35 41 19
10.129569816401077 35 40 23
10.733905733077734 33 39 14
11.101684837383003 37 43 21
10.531804381229719 34 40 17
10.470700389663985 32 38 13
8.807283831208867 28 34 12
8.16473671895698 26 36 10
11.298948649856328 37 43 23
9.083204504136457 31 39 16
10.192959103598515 35 41 20
11.544054316986042 36 43 19
12.124779947433519 30 36 15
10.340867563031434 33 39 14
10.434751102899128 32 38 13
10.58857195646011 32 38 13
10.092197460991063 36 42 22
11.28180542999818 35 42 19
11.63308407676303 37 43 23
11.897643719857774 39 43 23
10.82296083384155 37 47 23
12.55258980953975 39 49 26
13.666864809983794 42 56 32
12.719066364491068 42 55 34
12.483849656814607 42 52 28
12.774358858781893 37 49 28
13.40479453508938 38 50 29
13.162678197181666 38 48 25
12.149947378746816 40 50 25
10.743127002572551 38 46 26
12.194912812838306 40 50 27
12.05579653025579 41 51 27
12.730029085265953 39 53 29
10.863019042825623 39 47 25
11.476382442332712 38 48 25
12.885490160128668 37 49 26
12.01031026961903 40 50 27
11.080255049951106 35 45 22
10.971371903886991 37 47 24
9.732282918950393 26 35 10
9.594278454661127 34 40 17
12.950860163043403 39 54 30
11.63680280190328 36 42 17
10.6817142183459 36 42 19
9.974090167630806 37 40 20
8.432075826465365 29 36 16
9.361367838365672 33 39 16
8.449407015438458 28 36 13
8.73663748206553 33 41 18
12.268089358113727 32 39 18
12.412018303229084 39 45 25
10.866389707907674 33 41 21
13.422422289443524 39 45 23
10.472663463546509 36 44 22
9.885672829774132 40 53 32
13.54935186370858 40 59 34
8.977253066515514 33 40 18
8.927938816971952 27 34 11
11.63680280190328 36 42 17
10.556609930950023 31 37 12
10.60640703338905 34 42 19
11.952578782629208 35 43 21
8.337496228416773 30 39 13
11.027426363672804 40 50 29
10.465368932223281 34 42 24
12.607187611055904 41 51 28
10.58214785377449 36 40 20
10.472696632938229 36 44 22
10.25093738354384 40 53 32
11.904121742681626 29 34 11
9.734773317669472 36 40 21
10.885773705207134 34 40 15
8.575098946872977 27 37 11
11.380000646220106 34 42 19
9.739660884326504 36 44 25
19.898574985076586 34 46 25
11.595055204329451 38 44 22
9.674940212019784 42 55 34
11.663038661855538 38 44 22
