16.6545835557453 24 34 13
16.981107107134786 27 37 17
9.917998211651696 36 42 21
10.225892205543127 37 44 23
9.895076590905514 33 37 16
9.589698784644042 31 35 14
10.343012925036868 33 41 20
10.06417313633618 1 7 1
10.47153384398878 23 32 18
11.530799018796214 24 31 10
11.370393155957807 24 32 11
10.421506465855064 37 44 22
10.993623694271033 32 40 19
10.785687949732074 0 7 0
11.251394841717188 34 40 20
11.093818153645065 26 34 13
10.52714758672862 35 42 21
10.421506465855064 37 44 22
11.363211837612724 20 28 8
9.819188895557687 29 35 15
11.152616132070214 1 8 0
9.895879910345089 15 23 8
9.632358837621217 6 14 0
9.89320991629418 13 23 2
9.82885968478362 10 17 0
10.45883095755855 8 16 0
9.936271937934748 23 33 10
9.783823466064646 31 39 17
10.222713138435296 31 39 17
10.846656919715382 35 41 19
11.00600406022157 35 41 21
11.05569743419964 34 39 21
10.676423696647756 35 41 21
11.169900861062379 35 41 21
10.983640848252307 34 40 19
11.065178869333076 33 39 19
11.235479541936508 33 39 19
10.059988734003378 32 40 20
10.44982092537667 26 35 14
10.939304252856338 31 39 19
10.044057909286746 30 39 18
10.644168424685622 31 41 20
10.936817614846142 27 36 15
9.967505114379646 23 28 10
10.887292203993367 36 47 26
10.38105873084018 27 34 15
10.31425156830021 29 37 17
10.673131053917803 34 44 23
11.13397990542563 40 50 29
9.827816048708112 33 39 17
10.538072522787582 33 40 20
10.637150714929396 21 27 9
11.430966944156799 38 48 29
11.187290231663871 37 46 28
11.051620148021902 40 52 31
11.356503970576405 36 43 19
11.524188699389102 35 42 22
11.810964389750714 32 40 18
11.363689527979364 34 40 18
12.20068470289453 34 41 21
12.08825160906826 34 40 20
12.58327724637142 36 42 22
11.444637370439896 36 42 22
12.597789742121446 35 42 21
11.361976679690759 34 41 20
18.787373082068342 44 56 35
12.04191337996468 44 56 35
11.631182670710473 41 52 32
11.713661286021283 45 58 37
11.347057457208624 42 54 33
11.646881576073795 40 52 31
10.177651793468344 33 44 23
10.159682864215684 32 43 23
10.682829003521631 33 42 25
10.415770525800507 34 43 25
10.829078351445931 35 46 26
10.995612662062234 35 44 26
10.773080257356732 34 40 20
10.460325040343092 36 42 22
10.229258900526878 36 42 22
9.892822235349925 39 45 25
10.433157573281239 37 43 23
10.433157573281239 37 43 23
10.529085115562586 40 49 28
9.470438329241313 34 42 23
10.782963299870621 37 43 23
9.928600062035194 28 38 14
10.719458916160084 41 53 33
10.105210573648511 38 47 28
10.895164825838227 41 53 33
9.853603906724922 43 52 34
10.093502276320137 38 46 28
9.690316890735325 36 44 26
10.765205275512665 43 53 31
10.095201724815421 41 51 30
9.94464393698427 37 46 27
11.456533125225103 35 44 26
11.279569938991004 34 43 25
11.523455323809358 36 45 27
10.492245305040878 43 53 35
10.89337830811504 42 52 33
9.961591939264745 42 54 32
10.75400093604204 44 56 35
10.58639405857687 38 49 30
10.679339208147718 38 50 30
11.543143869252875 40 52 31
11.117985901858386 41 53 32
10.857487217035576 40 49 31
11.272330759607764 37 46 28
10.492245305040878 43 53 35
11.341374050142253 39 48 30
11.733174055529426 36 44 26
11.279569938991004 34 43 25
10.880018402183955 34 43 25
10.908354847221082 40 49 31
10.435704283684348 38 47 29
10.4748991312852 34 43 23
9.80305097202381 40 49 30
9.771509776849573 40 49 31
10.154879573251963 35 43 24
11.499000632879016 43 55 34
11.499000632879016 43 55 34
11.32545545103698 44 56 37
11.588997661225688 40 50 29
11.075662820777188 43 55 34
11.084786411681891 39 50 28
11.363977752081405 32 41 23
11.462632998712806 34 42 26
10.619371651489041 38 45 25
11.08932987810853 40 45 24
11.08932987810853 40 45 24
9.703839737612366 32 37 16
9.818874343160049 27 35 18
9.648571922944926 15 25 3
11.370393155957807 24 32 11
10.165498657639377 0 5 1
10.871939212727831 36 42 22
9.936271937934748 23 33 10
11.074598080125984 34 43 20
10.955154333082724 27 33 13
11.280377427310706 29 37 15
11.190891764320437 31 40 17
9.71683573232809 6 15 0
9.632358837621217 6 14 0
9.775632924384993 13 21 5
11.530799018796214 24 31 10
10.991359328623567 35 42 22
10.398962630141815 31 39 17
11.552017043600754 26 34 12
11.025615515702137 23 31 11
11.301041705128034 34 44 23
10.983640848252307 34 40 19
11.430966944156799 38 48 29
11.025615515702137 23 31 11
10.452202610586788 27 36 15
10.511106007210545 34 42 22
10.769171307095707 41 53 32
10.440363521219627 29 38 18
10.286698324218042 29 37 17
12.64806017266668 37 43 23
12.597789742121446 35 42 21
11.74362753450713 33 39 19
12.222332207957955 35 42 20
11.719028225982274 29 36 14
11.797133775064987 29 37 17
11.545418872561449 33 41 19
11.800752998195785 34 38 17
10.239810338760488 33 42 24
11.475371894179451 35 44 26
11.248913622499362 35 44 26
9.416583632966086 37 44 24
11.192229407802737 38 44 24
10.032377289349432 37 46 26
10.753205998423727 37 43 23
10.839355849437565 38 42 22
10.299561693350897 38 46 26
10.782963299870621 37 43 23
10.32760623269982 40 51 28
9.417160067583575 37 45 27
9.853603906724922 43 52 34
10.183855605400876 41 52 31
10.77459175546745 39 47 27
10.113057007479641 41 50 32
10.345585101450904 41 53 32
11.817102867308819 35 44 26
11.934177075616846 35 44 26
11.341374050142253 39 48 30
11.31412216233367 34 43 25
11.218114950811465 38 47 29
10.52938145556389 43 53 35
10.808744062947438 41 52 31
10.349208026200328 37 47 26
10.035796600226966 38 48 27
11.075662820777188 43 55 34
11.156528315138392 45 57 36
10.89180339985417 45 57 37
11.1547836567104 44 56 35
11.1547836567104 44 56 35
11.034373357415062 34 42 26
11.515697676109744 35 43 27
11.740129073904555 33 42 25
10.305731924211171 40 48 30
9.810251911929333 11 20 0
11.152616132070214 1 8 0
11.54232221257443 33 41 22
11.001046276869653 33 41 19
10.829798068586411 32 40 18
10.067659186100096 30 38 16
10.114043668465305 14 23 8
10.752608776303713 33 40 20
10.932561587072515 38 47 29
11.290092765938612 33 40 20
10.316664550837176 30 38 18
10.452202610586788 27 36 15
9.796354589652957 27 33 13
12.08825160906826 34 40 20
11.959095470562763 35 41 22
11.797133775064987 29 37 17
11.75917632306301 32 37 19
11.74799091652436 41 51 30
11.631182670710473 41 52 32
19.723467478238792 45 57 35
11.485671623610939 31 40 22
10.415770525800507 34 43 25
10.35806219124383 37 43 25
10.52938145556389 43 53 35
11.421385017280924 35 44 27
11.022036058632855 43 55 36
9.719881939076961 42 51 33
11.421385017280924 35 44 27
9.690316890735325 36 44 26
10.63527067489612 41 51 30
11.129670089019273 37 46 28
15.451493374590934 27 36 18
10.235471511980892 23 30 11
9.589698784644042 31 35 14
10.596286260227142 24 32 14
9.948463340175525 0 8 0
11.176293838815916 19 27 6
10.130086546506146 33 39 18
11.190891764320437 31 40 17
10.552613211927332 40 50 31
11.162099071527884 44 56 35
10.3540021563993 35 41 21
9.637690937748113 36 44 24
9.994879963613148 40 49 29
10.73627605955905 36 48 29
10.045864635470087 35 44 25
11.110641442298984 42 54 33
11.110641442298984 42 54 33
11.502241744579786 39 48 30
11.701237976888772 40 52 31
12.103357678421016 33 39 19
10.293203396258184 33 43 22
10.063807452748954 40 49 31
10.218840362736909 34 40 20
10.644771730824798 37 47 28
11.78026104219043 32 41 23
16.95067465840179 26 35 17
11.092552998724841 32 37 16
11.416258084945053 37 47 26
9.579151314555064 30 35 15
11.00600406022157 35 41 21
12.155673030996258 35 41 21
10.848385213978359 43 55 36
16.373943742135094 26 36 15
10.385853092249448 32 40 20
