10.822402079944942 16 20 10
10.822402079944942 16 20 10
10.820560926731279 10 12 2
9.710545354856547 33 37 25
9.873730031687643 14 18 8
10.144975974570047 20 24 12
10.355835603724762 30 34 25
9.469363476646606 33 36 26
9.519506344159188 33 37 27
9.695109829218524 34 39 30
9.436259757815662 33 38 27
10.156335965280054 33 39 30
9.98955981739018 34 41 30
9.877912604398025 34 39 30
10.704258639700095 34 42 33
10.33831173421031 38 39 29
9.988844111083049 33 36 28
10.054616900598983 33 36 25
10.156335965280054 33 39 30
9.760181665423161 32 40 26
8.82219662873762 32 39 27
9.760181665423161 32 40 26
9.585770317399632 32 38 25
8.881384856680354 31 37 23
9.635307413963405 33 40 27
9.984144596436227 31 40 24
9.126937830014805 31 36 21
10.13090813827591 34 42 29
9.97592813115885 32 39 22
10.300734949654368 34 40 25
9.845463099979707 26 34 15
10.485282030471605 29 37 19
10.617405257296573 27 35 17
9.382509589151057 32 36 23
9.437908711395904 30 33 23
9.418490478096203 30 33 23
9.077314809411723 32 35 25
8.998202674046212 33 36 26
8.782366427476886 31 34 26
9.617905885929416 31 34 26
9.468058304567505 26 29 22
9.448702032556419 31 32 25
9.864758939928631 35 43 33
10.618072411170251 35 43 33
9.861928296285237 34 39 31
9.17571767731398 30 37 25
9.371640034439991 32 37 25
10.455950832822248 28 33 24
10.276311960356074 30 33 26
9.817150501851208 29 32 24
9.788076254400066 31 32 24
9.947901781769982 29 32 24
10.933666162065101 32 39 30
10.21717880071086 30 35 26
11.049648074874149 37 48 36
10.63167815034439 30 35 26
10.6686801166615 34 39 30
10.86721745065449 32 39 30
10.079726929104668 36 45 33
11.156279535690352 35 40 31
11.210460201941988 28 34 24
10.903420117511184 37 47 35
10.903420117511184 37 47 35
10.725245346903296 39 48 36
10.890770889647186 34 41 32
8.710973261353624 37 45 29
8.918009217998232 37 45 30
8.439228026038757 36 44 29
9.136468091690084 39 50 38
8.921139368608241 34 43 27
9.110473599607618 32 42 23
10.434393895935694 27 37 16
9.145631025575122 34 42 24
9.508666088582714 29 40 20
9.92323384819653 29 39 18
9.856271232871114 43 51 36
9.837678824665339 42 51 36
10.101861647239142 38 44 28
10.16690331823084 44 53 39
10.376967321009893 34 44 24
9.862020766598647 38 45 28
10.184894748641595 44 54 41
10.4227447040089 39 47 32
9.971131071514565 37 44 29
10.28812189011228 39 45 30
15.11668161774491 40 51 38
15.11668161774491 40 51 38
15.104565706223168 45 56 43
16.034340072396223 35 46 34
15.11668161774491 40 51 38
9.010323558386546 37 46 26
9.100536943947963 33 42 22
9.97304418495058 34 41 23
9.705355543836832 39 47 30
9.596220961964873 26 36 16
9.42710999870913 38 48 35
9.5181260361271 37 45 31
9.192619048405508 39 48 31
9.706958785322813 37 48 36
9.061836835724087 39 50 39
9.667285107657998 40 51 39
9.560364121251643 40 53 41
8.953922384023459 38 48 35
10.671217461575758 38 49 37
9.384084804361878 39 50 40
9.160690287534193 37 46 28
9.75506094458956 37 48 36
10.40044276163882 36 47 35
10.892644429486689 35 44 34
10.281708880070791 38 47 37
9.899757996720178 39 50 40
19.84557332090966 12 12 14
13.169240655307734 24 33 11
12.437708129719976 26 34 14
10.749250390631007 24 29 17
10.579628213225275 24 27 17
10.579628213225275 24 27 17
9.780865413237096 32 36 23
10.210526092118524 33 36 26
10.509933031814537 34 36 27
10.713776284811404 34 40 31
9.783719510170357 30 32 23
10.156335965280054 33 39 30
10.165753031875589 19 26 13
9.544482432146975 33 38 23
9.845463099979707 26 34 15
10.738495836133353 30 38 20
10.241742802969087 34 41 25
9.97592813115885 32 39 22
9.491619557974971 33 38 26
9.491619557974971 33 38 26
8.938893473798265 29 30 23
9.5988517892476 31 34 26
9.468058304567505 26 29 22
9.667547722999073 34 36 25
10.10804603870621 28 31 23
10.136202540135592 28 31 23
9.59219922735884 28 31 23
10.675614524008028 29 32 24
10.781670796002453 30 33 26
9.685197555004825 36 47 35
11.120823953200848 39 48 36
10.269107920018884 35 40 31
10.352724172160366 32 38 29
10.903420117511184 37 47 35
10.664438905125557 30 37 28
10.63167815034439 30 35 26
10.4039767691077 38 47 35
9.987437358946513 29 34 25
8.629429505187598 38 48 34
8.79070013692359 36 44 26
8.996937811684427 34 42 26
10.33618536814463 29 39 18
11.859205044954402 26 35 15
10.246939305158367 43 52 38
10.246939305158367 43 52 38
15.11668161774491 40 51 38
9.724200953854162 42 50 33
9.010323558386546 37 46 26
9.78916586199409 37 44 26
9.653016195189204 38 49 36
9.991124026424654 39 50 38
9.067996762292472 38 48 35
9.192619048405508 39 48 31
10.300399943670197 42 53 40
9.418220918107114 40 51 41
9.206450156499018 40 51 40
9.964380747806404 39 50 40
9.830922949572944 39 50 40
9.561339339686706 39 50 40
9.425137216171239 38 49 37
9.776666671884689 38 49 37
10.222452755778292 4 8 1
10.653944619228502 15 16 7
9.710545354856547 33 37 25
8.798247335442733 33 39 29
10.244379482635733 35 43 33
10.244379482635733 35 43 33
9.783719510170357 30 32 23
9.613383992179545 33 40 30
9.201910003748024 32 38 23
9.845463099979707 26 34 15
10.01065944509655 33 41 27
9.875766151230463 30 31 23
9.086250758834808 30 37 25
9.562441048356668 31 32 24
9.418490478096203 30 33 23
9.766322465441492 37 46 34
8.793964368921802 34 35 27
9.267333821382977 35 39 31
9.820635892155169 37 48 36
10.577252346177541 30 33 26
9.940861972369884 28 38 18
10.251607305994645 29 38 19
9.705355543836832 39 47 30
9.560364121251643 40 53 41
15.03635813459438 36 47 35
9.29804359580594 30 39 20
9.920371298425021 42 50 35
10.068232623689832 35 41 32
9.705617129065146 33 37 27
10.535803253956406 34 40 31
10.346849611677428 34 43 28
9.760181665423161 32 40 26
10.652666054427577 35 41 25
8.397790948031076 37 46 29
8.918009217998232 37 45 30
15.104565706223168 45 56 43
9.030619501754542 39 47 29
11.06872710654004 38 49 37
10.4039767691077 38 47 35
9.980455350835815 32 36 27
9.67043526415926 33 39 30
8.709902830818084 38 46 30
9.920371298425021 42 50 35
8.874897301254773 31 35 26
8.743969338463328 32 37 25
8.958412277663587 31 39 24
9.713669499285091 39 49 39
9.706958785322813 37 48 36
9.877912604398025 34 39 30
10.675535252340824 35 44 32
9.864758939928631 35 43 33
10.346849611677428 34 43 28
11.014002904515294 28 35 24
