8.538518537089152 33 39 16
8.429513455942995 40 46 23
8.564898930830527 40 46 23
17.29062288466391 38 43 13
17.910464517752633 32 37 8
17.792889496356707 34 39 8
16.40449868110295 42 45 16
16.459336388997983 41 46 17
17.29062288466391 38 43 13
17.509381930053866 38 43 13
16.23809291891946 44 46 20
16.287678701285085 43 48 17
16.30536792588605 48 50 26
16.360537906389215 48 50 28
16.23809291891946 44 46 20
16.519724371463628 44 47 17
15.964143227643728 45 48 19
16.63466055421865 44 47 18
15.913283511042767 47 49 23
16.470580330371842 47 49 23
15.907332603166829 45 49 20
7.819212131939455 44 49 19
7.57162069304323 45 50 20
8.185239222260039 43 48 15
7.804598231163185 43 47 25
7.60904229088486 47 51 23
8.011350371338038 46 49 25
7.454275671772408 47 49 23
7.463790124958165 46 50 21
8.65449118857954 52 54 31
7.148857649429472 55 57 35
7.585563537099865 56 58 32
6.7636323180658176 58 60 38
8.803856654390213 40 46 23
8.597975006111309 43 52 18
8.875190589596851 54 56 32
8.608979948911838 46 53 22
8.39834639260676 51 56 31
8.03353451924316 53 55 32
8.03353451924316 53 55 32
8.646418156936699 54 56 34
7.923787144717138 37 43 16
8.751973557988695 37 42 17
8.67218309822038 43 49 24
8.67218309822038 43 49 24
7.680647802977946 41 48 18
7.943256552113412 41 47 20
7.835567704009105 41 50 22
7.97160708639227 43 52 24
7.930815705282223 39 45 20
7.819923914346148 41 47 22
7.965676783398926 40 46 21
8.303817640943688 41 47 22
8.176210212240443 41 47 20
7.146347122276853 40 45 12
7.142459487401957 40 45 13
7.156270986395057 41 46 17
7.438922318845024 42 47 18
7.682633199344377 43 45 19
7.6994815152005005 48 51 22
7.43311359324355 42 47 16
7.287608692254065 41 46 17
7.767354591974884 53 55 31
7.752097231460386 54 56 34
8.245728440029607 50 54 27
7.316209867196397 43 48 19
7.987657726246275 49 54 27
7.528051355313243 56 58 35
8.505287925988368 56 58 36
8.400994499190025 56 58 36
7.840886589184649 44 49 20
7.329139675017335 47 52 22
8.591321277786788 49 54 28
8.831770086070135 53 57 33
8.407120943267305 57 62 37
9.59456682274399 57 59 37
9.693777640339762 53 58 29
8.628029710383839 59 61 37
9.59456682274399 57 59 37
7.818300765190035 42 47 18
7.706338961338687 42 49 18
7.809218246170743 41 46 19
7.2822602214375936 40 45 18
7.9611053962363 43 48 17
7.853661294033541 46 51 18
8.446314928454916 44 51 20
8.302593259321775 59 64 39
8.067431631284167 61 63 39
8.095347306482354 58 60 36
8.443806140663913 59 61 39
12.497674155718359 55 62 27
12.723641880809627 59 64 33
12.563920544628989 51 58 23
12.723641880809627 59 64 33
12.723641880809627 59 64 33
7.284143146273283 56 58 37
8.176852619638245 56 58 36
7.941465023652136 59 61 39
7.305317468345103 59 61 39
7.840321249324596 59 61 39
7.0188809174971345 60 59 39
7.985701840416324 55 59 37
6.739071718694968 59 58 38
6.611798864237495 54 56 34
7.619425442373752 55 57 33
6.7712403674132755 56 58 34
7.067720289640059 54 56 32
8.11755754199769 44 50 23
8.251821802472396 44 50 23
8.222068165205735 42 47 22
9.252614007422633 40 46 21
8.927786897803525 43 49 24
7.885341776038224 46 51 19
8.05105627093026 43 48 19
8.150602610268704 43 50 20
7.876336565071901 45 52 20
8.114114558851966 45 52 18
8.309991410258455 44 51 21
7.807781011038316 44 49 20
7.485199838963869 46 53 19
7.524738165914499 41 48 18
9.089163201193644 45 52 20
8.629655292031522 45 50 20
8.245046531877094 47 53 18
9.306149936513423 47 54 20
8.660258186976828 45 52 20
7.756942301440031 47 52 18
8.36676550489051 53 57 35
8.56663621453985 46 55 21
8.395018567980706 54 56 33
8.112546052798374 50 57 27
8.234375653424525 52 59 29
8.56663621453985 46 55 21
8.347756962698428 58 60 38
8.706117466738355 55 57 35
9.208354260991486 49 56 20
8.566142362534126 50 57 25
8.69299468136574 52 59 29
8.774486355795151 48 55 21
8.343088144661746 54 59 34
8.322193153356347 51 58 28
8.30846400168994 53 60 27
8.708354873567625 55 57 35
7.436822116884167 54 60 35
7.839433748293715 55 60 35
8.224723888917957 56 58 36
8.092624155497525 44 51 19
8.381408708704473 47 56 28
8.14220094684192 51 55 33
7.61375442841072 56 57 35
8.937248338461417 57 59 37
8.501179511547896 55 57 35
8.019817791195008 57 57 35
8.277396934790742 56 57 35
7.899611698034061 56 57 33
8.43842967616801 40 46 23
17.787329592084518 37 42 11
17.29062288466391 38 43 13
17.515030065192924 36 41 12
17.103785905850042 35 40 9
16.293490695101127 47 49 23
16.360537906389215 48 50 28
16.464830848331864 44 48 18
16.27407164589302 45 50 21
7.913027710386026 54 56 32
7.612157966101371 47 51 22
7.7709252072171235 53 55 32
7.042465749883022 58 60 36
7.940441803130972 52 54 32
9.581685059657758 40 46 21
9.146490599500979 40 46 21
8.410439910253602 56 56 30
8.052450085388982 39 46 16
8.181987922075153 40 46 19
7.825964665675508 42 48 21
8.291407567804288 41 47 20
8.191690039897539 41 47 22
7.937305067241264 40 46 21
8.169392780273105 40 46 21
7.965676783398926 40 46 21
7.142459487401957 40 45 13
6.740357104680963 43 48 19
6.430087582830776 41 46 16
7.805118762476694 43 46 13
8.048474492580608 41 46 16
7.792759900775206 57 59 37
8.002465983877679 51 54 31
7.752097231460386 54 56 34
8.628029710383839 59 61 37
9.373705295188687 50 55 29
8.837597910773379 52 57 32
7.716090880928992 44 51 19
7.153548152586753 41 46 17
7.425246656646161 42 47 20
7.825424071022457 43 48 19
7.98939259375264 47 52 18
7.9611053962363 43 48 17
7.951971543029644 60 62 38
7.961422593787004 60 62 38
8.443806140663913 59 61 39
8.315495405891621 61 66 39
12.571454212095022 58 65 31
12.723641880809627 59 64 33
7.849906724816527 55 59 37
7.564209477374298 59 61 39
7.218245520089955 53 55 31
7.934979063777518 57 59 37
7.931477988350664 55 57 35
7.188077622335889 55 57 35
8.828965161394269 43 49 24
8.619187065603922 44 50 24
8.22781367287376 44 50 23
8.576420033841822 44 50 25
8.774486355795151 48 55 21
8.092624155497525 44 51 19
8.439190460134721 55 60 31
8.7852701929472 51 58 26
7.8870807253128445 54 55 31
8.577681364291688 50 57 25
8.234375653424525 52 59 29
7.910389380375915 43 50 20
8.343088144661746 54 59 34
8.601994184883052 54 59 34
8.877063098400505 46 53 19
8.077457446103978 45 52 20
7.770227637402193 42 49 17
7.226758557011568 44 51 19
8.555082315217689 49 56 20
8.877539654096053 44 51 19
8.683852669033497 53 60 30
8.36676550489051 53 57 35
8.60652255417056 56 58 36
8.429513455942995 40 46 23
16.293490695101127 47 49 23
16.580657870641236 39 44 15
17.121769806147807 40 44 14
16.32960643679473 45 48 19
16.63466055421865 44 47 18
16.2798884974901 48 50 26
8.292061293463517 49 51 27
7.2870511940651825 41 46 15
7.952039172255231 38 43 12
7.631309211429816 55 57 33
8.525114066042779 42 49 19
8.651412284728616 55 57 33
7.8295343617530495 39 45 20
7.937305067241264 40 46 21
8.652102316304912 38 44 19
7.017339406325723 42 47 18
6.867071047238644 40 45 14
7.580987874806652 48 51 23
6.897416265332126 47 50 21
8.831770086070135 53 57 33
8.46294509866989 47 52 23
8.616086624718953 56 58 36
7.8541999451544715 45 52 18
7.301725029746216 42 47 18
7.434798258909251 43 48 18
8.64769660279698 58 63 38
7.011541581899285 59 60 39
7.0188809174971345 60 59 39
8.555082315217689 49 56 20
8.355947852627992 47 54 22
8.728810146227092 52 57 32
9.208354260991486 49 56 20
8.524598117882322 44 49 20
7.876336565071901 45 52 20
8.498887564159169 54 56 34
8.083849855328648 43 50 20
8.007474932327469 57 57 35
8.14374312976402 48 52 19
8.9090029699253 53 58 29
8.487241437363744 54 56 34
8.24147026808552 56 58 36
8.127647284872536 49 55 27
16.287938437179818 43 46 15
16.470580330371842 47 49 23
8.26581345125712 51 53 27
7.449385871262996 55 57 33
12.571454212095022 58 65 31
7.849414907915782 48 53 22
7.440037074461707 43 48 19
7.413993742428703 40 45 16
8.597312096082979 49 54 29
8.067431631284167 61 63 39
7.477008086859643 49 54 27
7.840321249324596 59 61 39
8.347756962698428 58 60 38
8.160985699768856 56 58 34
8.344609215582661 44 53 19
8.629165046644069 46 53 21
16.459336388997983 41 46 17
8.446815786301029 42 51 23
7.336133736542356 55 57 35
6.60041558732655 59 60 38
7.84191843576741 58 60 38
7.770227637402193 42 49 17
8.629477139414469 55 57 35
7.574751760666926 45 48 19
17.0101253037644 42 45 14
7.941465023652136 59 61 39
7.027445452098286 44 49 20
7.802622356427572 41 45 22
8.837597910773379 52 57 32
7.172206023610402 42 47 18
8.646418156936699 54 56 34
6.906467824986817 56 58 35
8.795291807823556 41 50 24
