8.792006509239902 37 43 21
9.191779802580488 33 40 18
8.623247111672137 36 44 22
9.709837580584411 35 42 21
9.472209311992813 34 44 23
9.126498663191827 34 44 21
10.460162638799279 31 41 18
8.716737680333297 34 44 23
9.002362360968778 34 44 25
9.409656132722265 33 45 25
10.067382532489166 36 48 29
9.266143068400234 33 44 25
10.033542240079122 37 49 32
13.570860985969395 32 43 21
13.978862679805452 37 49 26
14.582487296109983 38 50 29
14.809765592784549 37 51 28
12.365921681994923 41 54 36
11.844187526198168 39 54 37
11.27935130516393 40 53 37
11.598932189076852 40 54 37
10.285919791291576 31 41 19
9.885378143766237 29 41 17
8.770533254826537 30 41 18
9.182672667019917 26 38 14
9.05930612898029 23 36 12
10.374847365428833 23 35 17
10.290185014225955 25 37 18
10.57810117145249 22 35 18
10.266592492873233 28 40 16
10.034137673518362 30 42 21
9.482201101185039 25 38 14
9.421431088680373 26 40 18
10.392482748559388 33 46 22
9.991631138892298 32 44 21
9.164692173278233 23 37 14
9.389493463141108 24 38 15
10.21926949835778 33 47 23
9.730993557576978 33 46 25
9.540116012387264 30 42 19
10.572609911084662 42 52 39
9.753051164562084 35 47 27
10.209814707330745 41 54 39
10.122267606815265 39 50 36
11.081620424415654 39 52 37
10.282158493378192 39 52 33
10.495358721068591 41 54 36
10.098591477056999 39 51 36
10.79732958119144 41 54 38
10.809305834437781 42 55 40
11.1808808904233 41 54 39
10.26214049501467 38 51 35
9.375944722620847 27 39 18
9.362135061197462 23 37 13
8.948706292256103 23 37 13
10.358936392181306 23 35 14
10.487902608041246 30 43 24
9.704597932286418 31 44 26
9.505273583162143 31 44 26
9.165145901589971 31 44 21
9.587515553562293 32 45 26
11.027478278685036 30 37 32
10.801217036858176 34 42 35
11.66130645791025 31 39 32
10.096894914463299 33 41 33
10.121165326427425 32 44 27
11.340957155142734 30 41 31
11.142579287073598 36 44 36
11.190088715428784 35 45 36
10.628232163517492 32 43 33
10.329595944860998 35 47 32
10.41775155782986 32 43 31
10.606558484992487 41 52 41
10.050288513478598 39 47 37
10.211306526744144 32 45 25
10.300474557985437 32 44 27
11.110065351756937 41 55 40
11.626469179539034 40 55 38
11.626469179539034 40 55 38
10.857890593774261 40 55 35
11.578635196334405 40 55 32
11.578635196334405 40 55 32
11.434378609343398 39 55 37
11.483175672316053 40 53 38
10.214610953095157 38 47 34
10.66105321959681 39 48 36
10.514183904521467 32 42 33
10.069721406947492 38 48 36
10.111899685468348 37 49 32
11.941241358374658 56 64 59
11.349309658108604 36 44 37
11.34743363242895 38 47 38
9.201181280670344 34 43 22
10.84962821868654 28 38 12
9.409656132722265 33 45 25
9.82513673032562 35 46 27
10.108148619296259 30 40 15
14.582487296109983 38 50 29
14.70439268858962 37 49 26
14.809765592784549 37 51 28
12.365921681994923 41 54 36
12.365921681994923 41 54 36
9.159695555811755 24 37 15
9.367023692715446 24 37 13
10.14215166919855 37 51 28
9.596429510668077 33 46 24
9.90546777174794 36 45 34
10.518141773498012 37 50 35
9.958880663386932 41 50 38
10.282158493378192 39 52 33
10.860528771445148 41 52 38
10.412075740285864 41 54 39
10.614616703347718 42 54 41
10.163316972425298 37 50 30
9.074034981341152 31 43 22
9.518239195362861 28 41 23
9.464149618242002 28 40 17
11.143946239722352 32 42 30
11.702799692379369 23 32 25
10.336212765841152 36 44 36
11.66130645791025 31 39 32
11.294082384343499 31 39 31
10.201436736783938 39 50 37
10.579639467216404 33 44 32
10.541836831646085 37 48 34
10.628232163517492 32 43 33
10.300474557985437 32 44 27
10.211306526744144 32 45 25
10.387410968628451 35 46 35
10.857890593774261 40 55 35
11.059998171217424 41 54 36
11.337704560151813 40 53 38
10.746490165986906 37 45 36
9.946393136257528 34 45 27
10.111899685468348 37 49 32
10.52231286559759 36 47 35
12.003500692313208 43 50 46
10.24861997108407 32 42 17
13.846967050569052 34 44 20
14.479608129777285 35 45 22
12.365921681994923 41 54 36
10.077186918075348 26 38 16
9.472540198475556 24 36 17
9.788179744945833 25 37 16
9.178345842361908 26 37 14
10.21926949835778 33 47 23
9.876830383251857 37 50 33
8.991262907199722 26 40 18
10.78554950070435 37 47 37
9.155357872171084 23 37 12
9.730993557576978 33 46 25
9.513827515132816 28 40 17
10.828991907915473 30 38 31
10.034137673518362 30 42 21
10.518141773498012 37 50 35
10.099096430445446 38 51 34
11.346952496079904 40 53 37
11.899771299639848 40 54 39
11.578635196334405 40 55 32
9.6994592831535 38 49 34
12.005274196936162 41 48 43
12.241897063952516 33 41 37
10.033542240079122 37 49 32
10.020128263760869 34 42 21
10.24861997108407 32 42 17
11.569572453413613 39 55 37
14.17670026557296 35 47 23
9.770887947069928 26 38 15
9.802200905242508 24 38 14
10.061407284833408 29 41 17
9.914095855929544 38 48 35
10.214610953095157 38 47 34
9.134746024426136 30 42 19
10.098591477056999 39 51 36
10.189051942445479 20 33 12
8.663189068967124 30 41 20
10.129384971988282 31 41 16
11.872868201397853 40 52 35
10.033542240079122 37 49 32
9.099015238317417 34 45 25
10.90574412435034 38 47 33
9.876830383251857 37 50 33
10.41775155782986 32 43 31
9.191779802580488 33 40 18
11.45448602984313 38 51 30
9.78067931956978 32 44 21
10.848609065582968 40 52 36
9.287554357039875 30 43 24
