10.64455163966664 49 61 42
10.534898787604755 42 51 41
10.242233159272027 7 14 3
10.955127718823395 70 79 65
10.991305361377727 45 52 29
10.514174629703952 46 52 29
10.113700744078288 46 52 29
10.944316455420786 47 55 32
10.462927815426692 46 53 30
11.033303398074853 44 53 28
10.700634997115179 46 52 29
9.640388311752073 49 57 35
9.207531692384023 46 52 29
9.787331446418387 31 43 20
10.024978831311971 29 38 21
9.627064640647689 35 45 17
11.051757319541492 33 44 27
10.766470546128799 17 25 14
9.058299081239852 34 44 20
9.667960989660466 35 44 26
10.043266275027483 50 56 33
10.043266275027483 50 56 33
11.34437436233537 53 61 39
11.719004258415572 42 47 23
11.256441243072521 39 48 28
10.191864135374471 35 44 18
11.001357034620671 37 47 25
11.302132556708075 36 45 27
10.74574125099307 44 47 26
11.811656693102716 43 48 24
11.760286133343259 46 51 26
9.804846758469656 40 45 20
11.760286133343259 46 51 26
11.760286133343259 46 51 26
10.342247094752599 46 54 32
11.326871149842738 48 56 34
10.463456683868845 49 57 35
10.503721422711777 51 59 36
11.338383281944576 48 56 34
11.218315012606721 48 56 34
11.287301422351357 51 59 37
10.503721422711777 51 59 36
10.823519200742448 45 49 27
10.649389338923662 47 53 30
11.350162146171604 46 51 28
11.513698595205899 47 51 29
10.880200477074142 46 52 30
10.07793025136532 52 58 35
10.392886821015932 48 56 34
10.702053414215783 49 55 32
10.883620486976888 50 56 33
10.89218471310806 47 55 33
11.079139488504405 47 56 35
10.582610805460584 48 57 37
10.467158930468084 48 53 29
11.611885695725126 48 57 38
11.23621719543511 49 57 39
10.467158930468084 48 53 29
10.7108516766028 49 57 41
11.064580636485234 46 55 38
10.669659418823537 46 54 38
10.880287949262183 49 59 39
10.17147666799895 49 55 32
11.156090731873105 44 50 37
10.521406521280984 46 53 35
10.904392635119455 45 52 39
10.470195103863794 44 52 36
10.503967309506265 42 50 34
10.569761729139762 49 55 33
9.908355295625578 39 44 34
10.044095200193711 33 39 28
11.338150467225118 29 35 25
10.77253060652339 43 48 37
10.642289207031334 43 50 35
10.334686048922398 47 54 32
10.492730436048967 45 52 30
12.05000229698997 50 58 37
10.492730436048967 45 52 30
10.350271632872488 47 53 30
11.007833650481324 47 55 32
10.819734799565643 47 56 35
10.797642757985413 50 56 32
11.131039306270704 45 50 33
11.774267192972093 50 56 33
10.792745183007778 44 51 31
11.465278789226236 42 49 33
10.954714810595512 50 56 33
10.27200464641611 47 54 31
11.205282605022429 48 54 31
10.660164662640202 48 54 31
10.660164662640202 48 54 31
10.30642630508738 47 54 31
10.91749478184169 43 49 30
11.258758396719246 69 73 68
10.596935376501298 34 41 33
11.235371717590459 14 22 15
10.828864598982117 34 41 33
10.670305819391768 25 34 23
10.893195367779946 48 56 48
10.624789746155093 25 34 21
10.827180377611134 9 18 9
11.21741673077154 24 29 20
10.624789746155093 25 34 21
10.837540623162965 27 38 25
10.357474559225025 36 41 26
10.618635902916749 31 36 24
10.669204443044983 42 50 31
9.937651320830799 42 49 29
10.822895413312272 33 38 27
10.387798415964252 45 52 29
10.89414894754021 44 49 34
10.180639986148657 46 53 31
10.705756130288734 30 37 24
11.017984867054246 33 37 28
10.92291502490108 46 53 34
10.050763114189422 40 48 28
10.88391082274699 43 50 29
11.387569476762259 39 46 23
10.963511727287408 45 51 29
10.481757612229321 46 51 40
10.80396250057781 47 52 35
10.07850006487038 43 48 31
11.409248945982132 34 39 29
10.43784327375986 39 44 31
11.821746777406737 50 54 46
11.012543977903999 43 48 36
10.723108028054858 36 41 30
10.3181723338366 46 52 31
11.123108521826621 42 47 35
10.407432967095666 49 54 38
11.017587394058394 67 74 65
10.991305361377727 45 52 29
10.993319441800772 48 55 32
11.077141012161647 46 55 30
10.462927815426692 46 53 30
9.207531692384023 46 52 29
9.812096313967302 36 45 17
9.53010591067488 49 55 32
9.640388311752073 49 57 35
10.74397487542837 35 46 23
10.747732249177995 34 43 29
10.669401840987822 34 44 22
10.56502815896538 51 59 36
14.951050200915812 44 49 26
11.42920456910976 42 47 23
12.285435331648774 45 51 25
11.42920456910976 42 47 23
11.719004258415572 42 47 23
10.191864135374471 35 44 18
11.206679540298136 48 56 34
10.89218471310806 47 55 33
10.603783483391084 47 51 29
11.532838062304641 48 56 34
12.049599441112743 48 52 30
11.622426005553285 50 56 33
10.295280755743144 47 53 30
10.475298584595793 45 50 26
11.532838062304641 48 56 34
10.959828329777062 47 53 30
11.037315863869182 48 56 34
11.711459198368043 49 57 35
11.665473281524365 47 56 35
11.921725784649759 48 57 37
11.381750003263502 50 58 39
11.299217766405645 47 58 37
11.064580636485234 46 55 38
11.13814520979172 48 55 41
10.85126797621283 43 49 36
9.921646525799712 47 54 33
10.632105763459052 42 50 34
10.642952818072866 48 53 38
10.555014870300132 44 51 33
10.743361872266284 44 48 39
10.2289162776942 40 47 33
11.769776012641945 42 47 29
10.350271632872488 47 53 30
11.167547640716988 49 55 32
10.857289965864958 48 56 32
10.970298736169667 50 55 37
11.205282605022429 48 54 31
10.27200464641611 47 54 31
10.970298736169667 50 55 37
10.334686048922398 47 54 32
10.849935692729984 68 72 70
11.033082514195186 57 65 59
10.539716353480761 33 39 25
9.909780769906593 46 52 30
11.578885418915101 71 78 74
10.737285349223086 24 33 23
10.950344109125242 39 44 32
10.750395250610568 46 54 33
10.89414894754021 44 49 34
10.832968063458408 50 55 40
10.639752445309643 38 46 30
11.356359871287413 14 21 11
9.588682365396718 41 49 28
10.068987293885536 45 52 30
10.006464032034087 38 46 28
10.717935422662116 31 38 24
11.701885152827767 27 34 28
10.699673716023499 35 44 29
10.327205489902527 38 44 29
12.138255873502143 67 74 66
10.553645188135278 66 73 64
9.801545599549762 47 53 30
10.700634997115179 46 52 29
10.913780691372828 37 46 30
10.74397487542837 35 46 23
12.009312118598679 42 48 22
11.505322356559958 51 57 34
10.686078303166346 50 56 34
10.210471646438066 47 55 33
11.34437436233537 53 61 39
11.100001334691523 40 45 20
11.422312526967035 48 56 39
11.044491315308644 51 56 38
10.112183594087682 29 36 24
10.470195103863794 44 52 36
10.30642630508738 47 54 31
11.325489039534723 47 53 30
11.722449112064721 34 44 28
10.080053155520105 42 49 30
10.169864512933835 43 48 36
10.327205489902527 38 44 29
10.441089686515154 37 42 29
11.132729404383635 47 53 31
11.829898971758569 37 41 32
10.474407485001146 33 41 21
10.900674080472696 18 28 18
10.025026378245176 43 48 36
10.050763114189422 40 48 28
10.180639986148657 46 53 31
10.56464309927668 24 32 21
11.169803702152812 47 53 29
10.354155894830638 21 28 16
10.10830418140449 32 39 26
8.957285039125786 41 51 21
10.425984345172308 46 52 29
10.719677060132385 52 60 37
11.273291717485506 47 53 31
11.544144800481462 48 56 34
11.325489039534723 47 53 30
10.58709256395094 51 57 34
11.465278789226236 42 49 33
11.478910372452612 65 72 68
10.689179846928582 14 23 12
10.118806640485447 40 45 30
11.318635833227336 49 57 35
10.608957339903517 47 53 40
11.204167532256275 43 49 35
11.186699602468748 51 59 37
11.734731424173585 68 75 69
11.182537602801487 41 47 22
11.187561782209114 52 58 35
11.46737008623379 43 49 39
10.494714435876322 43 50 38
14.825478997774248 48 54 31
10.830393938138988 50 56 32
10.76878188525975 39 46 32
10.918020778407985 46 52 40
