12.655237624028757 37 46 21
12.689022260929324 37 46 20
11.957331563504464 39 45 20
11.58363490920203 42 48 26
12.428686120005045 42 48 23
12.356035360440968 42 48 26
11.607802716603427 40 46 23
12.1877689815948 39 45 20
11.902386508781804 41 47 22
11.59696268008905 42 48 25
11.294415554004244 40 46 23
11.570055132249484 41 47 25
12.144725135935136 42 48 27
11.340336740948823 42 50 27
10.902053838718714 35 41 18
11.380318684517883 37 43 20
12.013204710915478 42 48 28
12.599195494744562 49 55 33
12.566502628649092 47 53 30
12.003451655916571 47 53 30
12.032950447007492 43 49 27
13.05536464772927 31 39 14
12.327731863386049 28 37 9
12.466718868033254 33 42 16
11.913835028099216 36 45 17
12.381488244329306 40 48 25
12.736738726995672 27 34 9
11.89973126592464 40 48 23
12.801900348159718 38 46 21
12.275192134787053 39 47 24
12.273827199661811 38 46 23
11.647063912967651 37 45 22
12.509828818944321 38 47 21
11.872202288704388 39 47 24
11.954734600363906 38 46 23
12.357744525791013 39 47 24
12.277261685672821 39 47 24
12.361155695809735 36 46 19
12.277261685672821 39 47 24
12.070023451965511 37 44 14
12.117310737670737 32 41 13
11.610794890389899 40 46 19
12.829457655833897 44 53 26
12.784804666500067 46 54 32
12.02326983322326 43 49 26
12.259289222647318 42 48 22
13.557498027389407 42 50 20
13.128581276117956 42 48 20
13.138816216144239 43 52 26
12.69576248685293 41 50 22
12.165125467060163 35 44 18
12.034444844714539 46 52 29
13.24776961250112 38 47 19
12.702877420288571 49 55 36
11.631684276892907 51 56 39
12.113718898684679 51 57 37
12.186338586185366 49 54 35
12.162213892108758 50 56 36
13.078399696182633 54 60 38
13.185874161846726 55 63 40
11.817385561934731 48 53 36
13.561002368218837 53 61 38
12.767577326741756 54 62 39
13.14776897351086 46 54 34
12.705761845255422 39 48 21
12.79342493187608 42 51 23
13.028381984157054 43 52 24
12.46472496410526 41 50 22
12.463380785806436 42 51 23
12.868749195239952 43 52 26
12.79342493187608 42 51 23
12.872654322490304 41 50 22
12.705761845255422 39 48 21
13.826285909005875 49 55 35
12.3693168662004 42 51 25
12.289569054903815 41 50 24
12.37337961887572 38 48 22
12.535311364764294 36 46 20
10.84831460908633 45 54 28
11.836700042553298 39 47 24
11.882109434065896 40 49 23
11.484312570282706 40 48 25
11.430011302415272 44 52 27
10.800465754817482 46 56 29
10.542346638190608 48 56 34
10.668988786292637 47 57 29
10.691975207641557 47 55 33
10.804814023196467 44 53 27
10.456993458417301 47 55 33
11.186182525953809 48 56 34
10.652131109420687 44 53 27
11.400603299092776 42 51 26
10.86457985690323 45 54 28
10.53785363025235 45 54 28
11.744796625080626 44 53 27
12.478870745347008 44 53 27
12.72888715229407 45 54 26
12.699167097666269 43 52 26
12.15548118742558 44 53 27
12.412013372318643 44 53 27
12.169288548366195 44 53 27
13.021950623128976 46 55 27
12.281991163275771 48 56 32
12.820313140145073 47 56 30
13.486050240451009 47 56 30
12.773005127672334 48 56 33
12.174115696940172 45 54 28
12.34955246392535 47 54 28
12.507028779655014 49 57 37
11.654229394584592 48 56 34
12.284650862703687 50 58 37
11.702399524768682 49 57 35
12.00514122525675 48 56 34
13.157361140166516 48 56 34
12.881727018211148 49 57 34
13.142607121567561 49 57 37
12.072091186595369 50 58 36
12.042688271862808 56 66 40
11.93977070200348 52 60 38
12.679180958195138 50 59 35
13.412185564864695 55 65 39
10.933125676403355 46 54 32
10.762694370499887 47 55 33
9.591738812794668 47 55 33
10.776731562470578 47 55 33
10.021784373600005 48 56 33
10.889107022506993 49 57 34
10.595767961353792 48 56 36
10.702989779545002 52 62 36
10.062748174821843 49 59 31
11.152942521189779 50 58 35
11.03403430068368 48 56 34
10.062748174821843 49 59 31
11.18976611372687 51 61 35
10.562256098326719 50 63 35
11.861301780905949 52 62 36
11.876236876209079 51 59 37
11.826569288630388 52 62 39
11.826569288630388 52 62 39
10.712033504850861 30 37 14
10.44109702315936 34 40 15
10.91492977668354 27 35 12
11.128494059905425 21 29 6
10.95200264514433 34 42 18
11.5309436711773 48 50 29
10.915533086768102 39 45 23
9.901569342603958 44 51 28
10.752652575375492 49 52 31
10.993731781862083 50 52 31
10.460489567973621 37 47 21
10.402455142025476 46 56 30
10.349071739045858 49 59 33
10.934273259726172 37 46 20
13.063556498604214 56 66 42
13.117417755447093 51 61 37
13.98378571162799 53 61 39
12.278147158801602 51 61 35
13.737668071029523 53 61 39
13.649248550382495 53 65 41
12.054326659509238 51 61 35
13.071185085947102 52 62 38
14.168875461678805 52 60 38
10.048223531711452 43 51 28
10.113180155895305 48 51 29
10.749613831342355 47 56 32
10.509348714409104 44 55 29
10.672043704936979 45 58 29
11.834904850361129 54 66 42
11.834904850361129 54 66 42
13.093729009430115 57 67 43
12.088506460876834 54 68 43
11.045157252750323 52 65 36
11.637938184103565 52 65 38
11.809958213126563 53 66 39
11.045157252750323 52 65 36
13.277812705272709 55 67 43
14.0330094288504 58 68 44
12.364777054846096 55 67 43
12.283467646421043 53 65 38
11.22309479260633 51 61 35
11.221601886764986 54 64 38
10.891039077273238 50 60 32
10.184425330112019 50 54 32
11.799744303475492 51 59 36
12.432903529286188 53 58 36
11.393917983167574 50 56 33
11.581358049006386 48 59 32
12.14662310601337 52 65 36
12.254134833582643 53 65 41
12.22730326199355 53 67 40
11.434650055833393 52 65 38
12.230468258988784 52 56 37
12.61946715991414 54 64 40
12.371902363498696 53 59 37
13.288870378677267 54 62 40
12.752552048906363 53 61 38
13.302760789986612 53 61 38
14.55452570798934 51 55 34
12.412543323490954 53 57 38
13.288870378677267 54 62 40
11.224668594756807 47 57 30
10.751308176684537 50 63 36
11.799834961046617 50 62 38
10.882648015789046 49 59 31
11.191727598297966 48 61 32
10.499881093084301 51 61 35
10.169796663157138 49 59 31
13.048303148905863 54 62 39
12.505786851790836 54 64 38
13.84201356764547 52 60 37
11.814057981213628 52 65 38
11.814057981213628 52 65 38
10.911265482823973 54 66 41
11.945760420942658 54 68 43
10.811560992594185 52 65 38
11.412616787132222 53 69 44
10.881123056826464 53 67 41
11.396422826291284 54 66 41
14.515192003509483 58 70 46
13.929606004474076 57 69 45
13.059644297685438 57 69 45
14.338080531760601 58 70 46
13.929606004474076 57 69 45
13.640653622853272 57 69 45
12.379037049154388 55 68 47
13.817513447664416 56 68 44
13.467629634832363 57 69 45
13.646732011684769 55 67 43
13.168544179209587 57 69 45
12.735185137552913 57 69 45
11.505192973366272 55 67 42
12.735185137552913 57 69 45
12.735185137552913 57 69 45
13.076990452191042 56 68 45
12.840378645717335 57 69 45
12.263128134640446 56 68 45
12.775251482673724 55 69 45
12.557624312303856 55 69 44
11.98154575387863 53 68 43
11.80766483838397 53 65 40
11.739839242881827 54 66 41
11.739839242881827 54 66 41
12.325859294451085 55 69 43
12.535287877470662 53 64 39
12.664129557582477 54 68 43
12.384968353485178 53 66 39
12.09451096792822 55 65 42
11.966639369874173 51 61 37
11.701883225028416 54 66 41
12.634093560460547 54 62 40
12.52264196498139 54 67 40
12.540730915211475 52 66 40
13.40061264046821 55 69 45
13.176111981865372 54 68 44
12.65293661100315 54 68 44
12.38843966131241 54 68 41
12.670839553348145 53 68 44
12.41492298408829 54 68 43
11.734924614165841 52 66 41
11.526332603122484 52 65 38
11.818590528347762 54 66 41
11.099852768597167 53 63 37
11.11497154112747 53 66 39
11.160190680524629 51 64 37
11.63497291894639 51 64 37
12.043736141301416 53 65 40
15.577371374590482 50 52 31
20.802094854445215 7 14 5
20.760833284247617 18 24 2
20.33845793147016 14 22 4
20.54936102827207 40 48 28
20.33845793147016 14 22 4
19.659835137861872 5 12 3
11.619093618205813 42 48 26
11.782931433584315 43 49 29
11.864221231676028 39 45 20
12.643135332247317 42 48 26
12.566502628649092 47 53 30
11.900194757191368 45 51 29
11.570055132249484 41 47 25
11.416408899480343 36 42 20
11.720258168985506 40 46 21
12.428286658285206 38 46 23
12.701762041671408 39 48 23
11.960236293597983 31 40 13
11.963850218494288 38 46 23
12.357744525791013 39 47 24
12.636084038925352 35 43 16
12.278626239008567 39 48 22
12.841866682246872 40 46 19
12.02326983322326 43 49 26
13.104200685220816 49 55 33
13.138816216144239 43 52 26
11.72099638603492 44 52 31
12.142237257885787 39 46 16
12.673246893667095 38 44 17
11.682180460786016 50 56 36
11.498021355015425 47 52 35
12.162213892108758 50 56 36
12.877646120051493 56 66 42
11.38495031612539 49 55 36
12.735316721439755 52 58 38
12.872654322490304 41 50 22
12.54603029844774 41 50 23
13.341948222170851 46 55 28
12.79342493187608 42 51 23
11.505490564741732 40 49 24
11.408693196415317 43 51 28
11.088824949528732 44 53 27
10.221953403155357 47 55 35
10.679589074408145 47 55 32
11.007744830943922 48 58 30
10.685590490194906 47 55 32
10.556676830164331 48 56 34
10.727949631426439 46 59 30
11.594271244365167 44 53 27
10.860636183157112 50 58 36
12.31407884963189 48 56 34
12.87201255671768 45 54 28
13.366479793428637 48 56 33
11.85792113997082 48 56 34
11.85792113997082 48 56 34
11.907528321051226 43 52 26
11.75766136700938 44 53 27
13.0211697151533 53 61 38
11.924915178495608 53 63 38
11.924915178495608 53 63 38
12.679180958195138 50 59 35
9.958851070978247 46 54 32
10.974529430745957 48 56 34
10.202040954084994 47 60 31
10.83491534561107 49 57 34
11.001857486099901 51 61 34
10.736062361278286 50 58 36
11.152942521189779 50 58 35
18.430617716954753 58 69 46
18.430617716954753 58 69 46
11.03808161982753 31 40 14
11.139789968646536 31 39 16
10.706661992494094 27 35 11
10.589613928227823 48 50 29
10.238667219250848 47 49 27
10.278967818846645 51 61 35
12.656974523645868 52 65 38
12.335537940172724 53 65 41
12.625758318297292 50 60 36
13.322133732671036 53 65 41
13.620306714973466 53 63 39
12.062695420782843 52 64 38
13.031934282819208 52 60 38
13.568351277502304 52 61 38
10.919507378138428 43 53 27
11.920506727311603 53 67 42
11.637938184103565 52 65 38
13.203553235969519 55 67 43
13.888550889542957 55 67 41
10.726865518209964 50 55 33
10.639649127787992 46 56 30
11.493230461471883 50 63 34
11.015381213517655 48 61 32
10.448379096475204 49 56 31
12.22730326199355 53 67 40
12.412543323490954 53 57 38
13.233082093128326 53 61 38
10.499881093084301 51 61 35
11.243369882245753 49 62 35
11.66586266530105 54 64 38
12.365884138411294 53 63 39
12.497231945209812 55 69 44
11.925364317753669 54 69 44
11.973222936762912 56 68 44
12.166139196651125 56 68 44
13.426347322243739 54 66 42
13.609231596270714 58 70 46
11.79797457843268 55 67 43
13.103360735488467 56 70 45
13.646732011684769 55 67 43
13.435802966822935 57 69 46
13.929606004474076 57 69 45
14.23812862413897 58 70 46
13.03318556241806 57 69 46
12.079231219701725 52 64 38
12.579494732880024 54 64 41
12.202481845650157 53 65 41
12.074366137811472 54 65 41
12.202481845650157 53 65 41
11.492511666057796 53 67 42
12.626952499443345 54 68 41
10.925965816347398 52 63 37
11.175227823235113 52 65 38
12.173550575882247 52 64 40
11.490407750966947 51 64 37
10.788141298925735 52 62 35
17.31082147126727 14 13 4
20.114139099822957 44 52 32
11.431925234283145 39 45 23
12.300960897227483 38 47 19
12.90005801180592 40 49 27
12.428286658285206 38 46 23
12.140245941322462 36 45 17
12.070125292330488 34 43 17
12.092890593202707 46 52 31
12.792115292975149 43 52 25
12.290932241861448 40 49 23
12.034444844714539 46 52 29
12.542023472838396 43 52 25
11.573057065547154 44 50 28
12.767577326741756 54 62 39
12.113718898684679 51 57 37
13.656067757981576 52 58 35
13.375250906042645 46 54 32
12.784804666500067 46 54 32
11.109324219759547 39 49 23
11.221539245162989 39 47 24
11.300659730533667 40 48 25
10.142798509147509 46 54 32
11.279666839019258 45 54 28
9.965493975474898 47 55 33
10.595572872453642 48 58 30
10.63036137311855 46 56 29
11.088824949528732 44 53 27
12.412013372318643 44 53 27
11.810456284999212 42 51 25
11.468160694934474 45 54 28
10.8728160724582 49 59 33
13.70547493774619 47 56 30
12.009257410051683 51 59 37
12.34955246392535 47 54 28
10.94242854261648 43 52 26
12.169288548366195 44 53 27
12.298313205235338 51 59 37
11.205596284090191 50 58 36
12.681238075046313 48 56 34
13.142607121567561 49 57 37
13.021950623128976 46 55 27
10.08034836858261 48 56 33
11.888405480054583 48 56 34
11.24167516734569 49 55 32
11.266283953863582 49 51 30
12.06722261553635 51 55 36
11.085830880466482 48 50 29
11.550242307338664 54 66 41
12.364777054846096 55 67 43
12.283467646421043 53 65 38
11.308883282016298 54 64 38
10.535668178241927 46 56 31
12.729223886480229 52 64 40
11.191727598297966 48 61 32
12.922730069702185 54 60 38
12.88825814522189 54 62 40
13.104878073586153 53 63 39
12.278602260711263 54 64 40
11.79797457843268 55 67 43
12.21339223925289 51 62 37
12.325859294451085 55 69 43
12.218978668715346 53 67 42
12.611153282133854 57 69 46
12.309673636164494 56 68 44
11.686090121074809 52 66 41
12.41492298408829 54 68 43
13.420169115083457 57 69 45
12.356790495716675 40 47 23
12.453738647879668 40 46 21
12.778841602543874 30 37 11
11.71401009142034 40 49 23
12.126405511950239 38 47 21
12.523245504054819 36 46 18
12.3693168662004 42 51 25
12.54603029844774 41 50 23
12.941015875391246 38 47 19
13.492260380746723 46 55 27
13.997653126492908 53 59 36
13.257912540965409 42 51 22
11.879095548208364 43 49 24
12.49094814047739 36 45 18
12.886321944871446 38 46 18
13.9395098701442 47 56 36
11.561634941759987 43 51 28
10.556676830164331 48 56 34
11.97970027741386 54 64 38
13.366479793428637 48 56 33
11.454970827901759 45 54 28
11.58913028251073 48 56 34
12.210547731806484 52 56 35
10.483538798026013 45 47 25
11.523225664637069 49 62 35
13.024723980854105 53 67 42
13.367498502375238 53 63 39
10.886310223615466 48 58 32
12.363254814242596 54 67 40
11.418453070241604 50 60 34
12.760186978736092 53 65 41
12.785834796263961 56 68 44
10.786452739363861 53 63 37
13.302760789986612 53 61 38
13.252729810331948 52 60 37
12.071761933858069 54 69 45
10.925965816347398 52 63 37
11.966639369874173 51 61 37
13.640653622853272 57 69 45
12.044524097235197 53 69 45
13.176111981865372 54 68 44
13.298188446048355 57 69 45
11.455198722708726 52 66 41
12.071761933858069 54 69 45
11.591606064692705 52 65 38
11.23385364952468 52 64 37
10.592351129161838 33 41 18
12.070125292330488 34 43 17
11.960800211445621 48 54 34
12.399043458410386 39 48 20
12.868749195239952 43 52 26
10.860698646758214 44 53 27
10.53015439230239 20 29 1
13.14230468837751 55 67 43
14.031755772447266 56 68 44
11.579184143688687 48 61 33
11.811712640799856 45 47 25
12.741695484817956 56 68 44
10.992193886899683 48 56 34
12.702877420288571 49 55 36
12.488891015237936 49 58 30
12.222238464137321 36 45 18
12.135392178487065 40 48 25
12.129756128195828 52 55 34
10.453963472530743 37 45 22
10.608929837592026 48 60 34
11.482914841950539 54 65 39
11.392447462611782 51 58 35
12.182515555911017 54 68 43
12.610727983473629 54 60 38
12.271254328937674 55 69 45
12.634093560460547 54 62 40
12.218978668715346 53 67 42
11.636260451216518 38 46 23
11.890368506289779 51 61 36
12.019121295415008 49 57 35
10.685590490194906 47 55 32
12.796676920596056 34 43 15
12.760186978736092 53 65 41
10.324483958404985 41 47 24
