12.82805651995569 18 23 6
11.765076318085391 20 24 5
11.147333518422455 21 27 7
11.311791102549014 19 23 6
11.053205520241136 19 27 4
11.27041999199304 15 27 1
11.239276979717403 20 27 5
11.25030982658622 16 26 3
10.902748111008878 19 27 5
13.420527224641667 10 14 0
13.628365024536306 30 32 18
13.810479445672703 19 22 8
11.85348840185914 18 23 3
14.960031932743407 17 21 6
11.90539196528635 12 18 0
13.645626772702235 38 43 22
13.935892919551316 37 42 21
13.075836869834104 32 35 18
12.36484303676668 11 15 0
13.676919462672426 32 41 18
13.935249087449533 35 39 21
14.100266275570247 36 40 22
14.327940352865632 33 38 21
14.062370979957183 37 42 25
13.291542490544984 14 16 0
12.100535486328624 16 20 3
12.355531696063837 11 15 0
12.37638142672264 38 48 21
12.022767964632118 40 49 22
12.14042761229188 42 51 23
12.597892965735412 41 50 22
12.094110146705175 14 25 0
12.546591566708049 9 19 0
12.280475892270081 33 44 18
12.623496981447584 42 55 31
12.315056980764405 30 40 17
11.463790198595303 15 25 2
11.567501779466921 19 29 4
13.134292632749638 43 55 31
13.860718072543015 40 52 25
13.910612008981667 47 60 33
13.259169342094934 30 40 13
13.650939877617942 52 65 38
13.650939877617942 52 65 38
13.007640056566267 45 57 33
13.526364573100762 49 62 35
12.71076035964355 34 44 16
11.997190108908367 36 42 15
12.686569666312094 34 44 15
12.941856041471786 50 60 32
13.87720481934885 50 63 36
12.89707993602019 56 65 37
13.46072778939737 51 64 36
13.915875662096196 49 59 31
13.835456142681881 50 63 36
13.968031816684245 53 63 37
13.039200015028689 53 62 34
13.990488930707325 50 63 36
13.299520997994032 53 63 35
13.835456142681881 50 63 36
13.331177436895773 53 63 35
13.331177436895773 53 63 35
12.22441765048787 38 50 26
12.889257193220173 42 52 29
12.87138485829366 39 49 26
13.963648924683886 39 44 26
13.510054133627245 40 52 28
12.40551448817122 41 50 28
13.125811487005551 43 49 27
12.056293037921582 31 38 16
11.504399640727899 30 38 17
14.92251577913363 35 41 21
13.676976819598543 46 48 31
15.523977752078956 40 49 26
15.786832015274051 36 44 22
15.828249506005891 38 48 24
15.958930372171084 36 43 22
17.051924170764643 42 55 30
16.47836378852682 41 51 27
15.823384790396357 43 55 31
15.944451386783987 43 56 30
12.399306977278894 38 50 27
12.972486323630743 40 52 28
12.374507444528913 40 52 28
12.808170835058172 42 55 29
12.274690695574973 40 52 28
12.553439262503648 39 52 28
12.043514828212674 40 54 29
13.871926492728496 48 60 35
13.871926492728496 48 60 35
12.862148386561989 43 55 31
12.420865275650243 43 56 30
12.67826080416871 43 56 32
13.555120351408794 45 57 33
13.213036018231831 45 57 31
13.314686812633267 44 58 28
14.151582676997403 62 72 49
13.56895024589199 51 64 37
14.149155305275833 53 64 40
14.238247612910785 58 66 43
13.661826744957525 55 65 39
14.394029939847503 54 66 40
14.265413830429061 53 65 40
13.55737721431848 54 64 38
14.138057221862022 53 65 41
14.305907824234081 52 64 39
14.149155305275833 53 64 40
13.44667151658398 51 63 39
14.138057221862022 53 65 41
15.71522411145371 60 73 52
18.229267383173152 47 61 37
18.808763459423467 46 59 35
19.432334051089036 48 65 40
18.755321262287424 52 70 46
19.007937100825647 55 71 49
18.755321262287424 52 70 46
19.19527649582129 49 68 43
14.29440749828543 38 45 21
14.350869502291163 36 42 20
13.637351747988063 37 46 23
13.395549867163945 38 47 23
13.31687117512997 38 46 22
13.259841118917079 40 50 26
13.189367625569302 34 42 19
14.146778392898577 31 40 17
13.57704191539347 35 45 21
14.700592270943782 34 41 19
13.860713401811504 35 42 20
13.013263977201106 36 47 23
13.259841118917079 40 50 26
16.477900999429224 40 49 21
17.268592785174015 45 55 29
15.598122818812788 31 40 10
16.147844008581025 33 43 15
16.64051809063934 37 47 18
12.828278186419658 33 43 20
12.15057234709149 35 47 23
12.521716147716718 35 47 23
13.414334152717469 33 45 21
12.512821531272749 32 44 20
13.150944889376525 34 46 22
12.15057234709149 35 47 23
11.450404569177994 36 50 25
12.82897757282738 36 48 24
12.100525109240776 35 47 23
12.348983187929147 36 50 25
11.133498905365155 37 49 25
12.401707440992082 34 46 22
12.336695419096122 37 49 25
11.843510109757897 34 47 22
12.161088886691104 39 53 28
12.657015260671047 38 50 26
12.930700910295466 37 49 26
12.472918399321754 35 46 23
10.374434979360162 37 50 23
10.463312400327883 41 55 28
9.519684062125972 48 60 36
10.311059985251639 44 58 34
10.753644220988376 37 51 24
10.739037675109735 47 61 37
11.459862824791863 37 49 24
10.277808949900946 50 62 38
15.519439279133978 31 39 8
15.784832844778068 30 40 10
12.430303430625093 40 52 28
11.91178228202571 47 64 40
12.154756546742222 46 60 35
11.966682926187014 47 61 36
12.577936674135072 48 60 36
13.081426821584765 40 56 32
12.311950719164853 44 62 37
12.605358925181708 40 54 29
12.286731462994373 39 51 27
12.424108305145324 44 58 33
11.772049090472214 40 56 32
12.429636358322655 45 61 37
12.280158249117727 50 64 40
12.07504878340666 39 52 25
12.42067580245253 47 61 37
13.08725250433742 49 65 41
12.258290262866884 54 68 44
13.119135031291817 58 70 49
13.679261745900511 50 66 41
14.524751706343746 57 61 40
11.621964864850357 43 49 26
14.075701725065814 56 62 40
12.593497362960948 35 40 15
16.058646942377433 38 35 15
12.449048400827772 43 45 24
12.015293198193428 59 69 43
9.5511124599664 61 64 42
10.669423717774114 63 69 46
12.50134059314529 59 71 43
11.788981326867933 61 70 45
10.787641490338745 62 68 45
12.224829855389398 60 69 44
10.102514580812429 59 65 42
10.538964513817119 60 66 43
10.869086789943578 64 70 47
13.078393044499546 61 69 43
13.13712151895336 59 69 42
20.637733167472707 51 45 23
20.637733167472707 51 45 23
19.449747533110518 59 51 30
19.8822721533716 61 65 43
19.205320699172642 59 63 41
12.269631405236103 55 60 35
12.703813911509837 56 61 37
12.175525025329744 56 62 35
12.496448478071995 50 56 29
12.6547127369036 47 49 25
12.54866817537199 59 63 41
12.718864656623994 57 61 39
12.718864656623994 57 61 39
13.445166747801057 58 64 41
12.219582295937661 51 59 31
12.165577130591316 50 56 31
12.54866817537199 59 63 41
12.743757973501078 55 61 34
12.743757973501078 55 61 34
12.947163033666303 58 64 41
12.590646715272348 50 52 31
13.527571159919356 60 64 42
13.289565501980634 60 64 42
12.206910753869185 60 64 43
12.722095080246882 58 64 39
13.01819824267161 59 65 42
13.402740135145487 61 65 43
12.613122342633885 61 65 43
14.305590603646573 65 71 49
12.902928053914556 57 66 40
13.582708304104882 65 71 48
12.357516942128866 60 66 43
13.856986446752693 58 64 41
12.616204968122094 59 65 42
12.175706228072986 63 67 45
13.2556107251857 59 67 44
12.991936347301156 63 69 46
13.602504926096694 61 66 42
12.991936347301156 63 69 46
13.16543145675105 60 66 41
12.91774680893473 59 67 45
13.582708304104882 65 71 48
12.48321529830661 60 67 42
12.581377786496311 62 67 42
13.211161139885293 59 65 40
13.211161139885293 59 65 40
12.862892962857948 61 67 42
12.791167773846217 60 66 43
13.047387994770833 59 65 42
12.748851310161525 58 68 42
13.405079563210542 60 66 43
13.513584415000272 59 65 42
13.677622840391706 59 65 42
13.666635335227163 59 65 42
11.819564136698508 61 67 44
12.466019862153452 63 69 46
12.789120722252402 63 70 47
11.994250873909177 64 67 45
11.672133602568413 62 66 44
15.197196458787086 64 67 43
14.716390520495256 64 68 46
14.716390520495256 64 68 46
14.234987352206812 63 67 46
14.783729613513547 60 66 43
14.039062210139056 60 66 43
14.655880136048784 62 68 45
14.46565675608598 62 67 42
13.91242863639635 60 66 43
15.154251690743076 62 72 48
14.926764928425534 66 72 47
15.154251690743076 62 72 48
12.209415063109466 60 70 44
12.117985584962938 63 69 46
12.197105025593537 62 69 46
11.24896208608296 62 68 45
13.46238297157447 60 68 45
14.43602104600627 59 65 42
13.616009434415052 61 67 44
13.945426034106896 62 68 45
18.045725815658656 48 57 32
17.60370310292677 44 53 27
17.408254647094257 45 54 26
16.256843361546753 33 39 15
16.50572422771251 33 40 14
16.256843361546753 33 39 15
9.770436851814639 49 61 37
10.261650872571922 49 61 38
10.171305463409553 47 59 35
9.844963384644975 61 67 44
10.087633799737306 59 65 42
9.923225707564365 52 64 41
9.988985223192605 57 67 44
15.620195016364361 33 39 14
15.399592828102284 32 39 11
15.399592828102284 32 39 11
13.302433500949476 60 70 47
11.636496405808964 18 23 6
11.301082922695622 20 24 5
11.393358731892478 21 27 7
11.301082922695622 20 24 5
11.25030982658622 16 26 3
12.383204944651107 18 22 5
13.864006650337723 29 34 17
13.609103191538829 24 25 9
14.416188165043922 38 43 24
14.241611232135785 37 43 23
14.080800392615526 15 18 3
13.119547014968663 12 16 0
12.741067166185998 18 23 6
13.423588792296608 18 21 5
12.767961506062594 40 50 21
12.643728646970045 42 52 23
12.389780153015032 40 51 26
12.524949981608705 28 38 12
11.910977345253565 26 36 10
11.600342469882612 12 23 0
11.580805231797497 13 23 1
12.912025241702828 29 39 12
13.262268158941483 48 61 35
12.573485123625437 36 44 16
12.573485123625437 36 44 16
12.78585738743924 54 61 34
13.063253986670587 39 49 21
13.835456142681881 50 63 36
13.299520997994032 53 63 35
13.990488930707325 50 63 36
13.299520997994032 53 63 35
13.865889071891083 54 64 38
12.89707993602019 56 65 37
12.9297217276324 56 63 36
15.304282876235186 34 43 21
13.515751510477232 39 52 27
13.546958985193044 45 46 30
14.599379438906258 37 43 23
14.873401885015051 36 42 22
15.035527864241967 34 44 21
15.523977752078956 40 49 26
14.018669283108107 41 46 29
12.374507444528913 40 52 28
12.374507444528913 40 52 28
12.67826080416871 43 56 32
12.966260756148051 46 58 33
12.687571016363712 43 55 31
13.63707966527277 50 62 38
13.314686812633267 44 58 28
14.394029939847503 54 66 40
14.108211400837813 51 65 41
13.56895024589199 51 64 37
14.138057221862022 53 65 41
14.490080557956308 53 64 38
14.305907824234081 52 64 39
17.00219234536373 43 55 31
19.007937100825647 55 71 49
18.755321262287424 52 70 46
18.94515881627008 50 68 43
13.378130361739522 37 46 23
12.915897017871732 40 50 26
13.905501921047563 41 51 27
14.16219672011368 36 41 21
13.586454346901869 32 40 17
16.649948233224798 28 38 11
11.022109046465097 46 60 36
12.513060541641897 35 47 23
12.690510227413517 39 51 27
12.690510227413517 39 51 27
12.804543086396613 33 45 21
13.218798801840387 36 48 25
12.401707440992082 34 46 22
13.274261439122414 41 51 28
15.5886808851216 31 40 10
11.725545343726575 36 50 24
11.459862824791863 37 49 24
12.061361893134745 37 50 23
10.899441772571745 36 50 23
12.500988487525698 37 51 26
12.327848024806798 40 52 28
12.20850212173741 45 64 39
12.605358925181708 40 54 29
12.154756546742222 46 60 35
13.025721104779388 40 52 27
12.626565420244534 46 61 37
12.94277536311537 41 55 30
12.804950635062678 43 56 33
12.921387087620106 48 64 40
13.794171553048857 50 65 41
13.08725250433742 49 65 41
13.183807665730077 43 57 32
11.943610685197564 40 54 28
12.440101827382517 37 42 15
20.6048948378166 51 47 20
10.593994590846938 61 65 43
10.985156080001918 64 70 47
11.582013170975006 63 69 46
11.70059302314333 59 71 44
12.296516672259488 62 69 44
12.639102427433095 59 69 43
18.902108040615005 56 49 27
19.205320699172642 59 63 41
19.63892502750555 58 61 39
19.205320699172642 59 63 41
11.566011104289467 37 43 16
12.676900743679328 54 60 34
12.54866817537199 59 63 41
11.993386063811379 49 54 29
12.958760581099584 58 62 40
11.858146817376737 37 42 16
12.601031606278132 57 63 38
13.223606546999157 52 61 33
13.117544104421537 58 61 39
11.939357911138291 61 65 43
13.582708304104882 65 71 48
13.689805349957792 61 68 46
12.175706228072986 63 67 45
12.974205456584162 64 68 46
13.602504926096694 61 66 42
14.40731509214935 63 67 46
13.16543145675105 60 66 41
12.464760782349957 58 68 42
13.211161139885293 59 65 40
13.047387994770833 59 65 42
12.862892962857948 61 67 42
13.405079563210542 60 66 43
12.96435018970672 60 66 43
13.559355284848406 60 66 43
13.576321982164869 59 65 42
13.576321982164869 59 65 42
11.10115814289439 61 66 44
12.789120722252402 63 70 47
15.154251690743076 62 72 48
15.443263171503105 61 69 46
15.087672306891614 61 67 44
14.085886280493009 63 66 44
14.342790112372231 62 67 42
13.088619442299814 63 69 46
13.945426034106896 62 68 45
13.745374134428392 59 67 44
16.92190195452805 43 50 24
17.60574207632554 45 55 29
15.767019056436672 32 39 13
9.152478511230454 56 66 43
15.90073977609749 34 40 15
15.67469389227877 32 39 9
10.604006643075818 57 66 43
15.891477643521894 32 39 11
10.626819161457146 60 66 43
9.429281051828672 60 66 43
13.757222236716997 62 69 46
12.156964616210134 63 68 45
11.584160704360889 13 18 0
12.744995957101098 16 20 3
12.643728646970045 42 52 23
11.520500059372042 17 26 3
12.122873600762139 24 35 11
13.282317217430315 17 27 3
13.403697350501984 49 62 35
13.262268158941483 48 61 35
13.650939877617942 52 65 38
13.650939877617942 52 65 38
13.529402190849318 47 59 33
13.437385345814631 53 63 35
13.342946664742739 52 63 35
16.47836378852682 41 51 27
13.532772876082499 37 50 25
16.710132277997506 42 54 29
12.717874794650925 18 24 5
12.393157914469917 41 51 28
12.40551448817122 41 50 28
16.534282474531608 44 55 31
12.805427552157287 39 51 27
12.218118132271043 38 49 26
13.110883415720156 42 55 28
14.238247612910785 58 66 43
14.238247612910785 58 66 43
14.294931438496356 52 65 39
13.68478635922306 50 63 38
18.273575432081497 44 56 32
18.755321262287424 52 70 46
13.128366673287607 38 49 25
14.163252563085965 30 39 16
14.238460416395188 36 42 21
15.920283027327033 28 38 8
15.50672120059084 30 39 10
16.904536789544252 28 38 10
16.358770976745966 28 37 9
16.147844008581025 33 43 15
10.495618151148415 45 59 34
10.706836485784223 50 62 38
12.93953940785124 36 50 25
12.129210454236697 37 52 27
12.966079252811964 47 62 37
12.601975791291892 43 57 31
12.574606831460816 37 53 29
12.223855655675187 53 67 44
12.280158249117727 50 64 40
11.577760290047925 47 63 40
12.315223306697375 61 67 42
10.409958092075367 61 67 44
12.54866817537199 59 63 41
12.676900743679328 54 60 34
12.32651469250354 55 64 38
13.050368042837281 58 64 40
13.607172341505175 60 65 42
11.681424925826498 36 42 16
12.533413051533316 56 62 37
13.096846010832326 55 58 36
12.766895180554819 60 67 42
13.08628338662248 60 68 45
13.497096670037037 60 66 43
14.926764928425534 66 72 47
12.991936347301156 63 69 46
12.465604694846347 60 64 42
12.518190248761433 63 68 45
12.613122342633885 61 65 43
13.038851976902851 61 65 44
15.629193989895878 63 69 46
13.211161139885293 59 65 40
12.575731014058428 63 69 46
13.856986446752693 58 64 41
17.181204813300347 39 45 22
11.422888046982308 54 66 43
13.291092464027844 9 13 0
12.640889326946304 33 43 13
13.403697350501984 49 62 35
13.87720481934885 50 63 36
12.043578172328967 23 33 10
14.480279225755142 35 41 21
15.657198390723396 39 46 24
11.966629668240238 40 51 29
13.661826744957525 55 65 39
12.877305564213346 40 52 28
19.432334051089036 48 65 40
18.94515881627008 50 68 43
13.288557494142703 32 41 19
13.075488156485186 33 41 19
16.477900999429224 40 49 21
12.026860792820093 35 49 24
12.586845886268687 37 49 25
13.063530060625954 46 60 34
13.01032939211584 54 70 46
12.373710569049686 54 67 45
12.311950719164853 44 62 37
17.760733784911913 34 28 6
13.527571159919356 60 64 42
11.79957732143646 42 50 23
19.205320699172642 59 63 41
11.815516181613118 60 70 44
13.599645866604996 64 70 47
11.401865705201706 62 68 45
14.039062210139056 60 66 43
13.035122484910035 62 66 44
13.422241277769952 60 66 43
11.569035565452866 63 69 46
14.902961399091483 60 66 43
9.829388456143267 59 66 43
12.567885515253817 64 69 45
11.27041999199304 15 27 1
11.785321336033642 39 51 27
13.863682431585179 45 57 33
11.866406950557815 20 26 4
12.810387067543095 35 45 17
18.229267383173152 47 61 37
10.698876238819382 40 53 26
11.843510109757897 34 47 22
12.605358925181708 40 54 29
13.22671369566764 53 63 37
12.165577130591316 50 56 31
13.345685992827478 65 69 48
12.57371127802062 62 68 45
11.872184112532556 58 69 46
12.326323769002723 61 67 44
12.623496981447584 42 55 31
11.77464772206085 52 65 42
13.037077886080457 38 46 23
13.63707966527277 50 62 38
15.473482856030916 62 75 54
12.553439262503648 39 52 28
12.901138617045227 41 51 28
13.125811487005551 43 49 27
12.705637625223956 38 41 19
14.655880136048784 62 68 45
14.903413942082398 63 68 46
15.629193989895878 63 69 46
13.292657232801751 60 66 43
12.809090791541005 58 68 42
12.539016319214573 55 60 36
13.218346298721027 35 46 23
13.989842983570012 34 44 21
11.181140868722837 20 27 6
12.389780153015032 40 51 26
15.154251690743076 62 72 48
18.045725815658656 48 57 32
17.310739697660942 44 54 28
11.689619352306263 15 19 0
15.519439279133978 31 39 8
18.58663918650453 45 57 33
12.875261617847436 60 68 45
