17.481985332074334 60 60 38
17.718960748191385 62 60 39
18.00842383000333 58 51 32
20.29762938325988 46 29 12
19.52716673995501 55 40 22
20.214289868105897 58 42 25
18.15353523213315 57 57 35
19.059131131598562 54 56 34
18.381855191176555 62 59 38
20.478525393410067 47 28 12
21.519906350360195 32 16 2
11.964114571127565 44 49 22
11.720555860424652 38 43 16
11.677916164983719 39 41 19
11.578607675171098 39 44 17
11.27380328721467 43 48 23
11.608483178853621 45 50 25
11.154769006348983 21 22 1
11.207673925933236 27 29 8
10.659539339389408 21 23 1
10.9024805977003 25 30 5
11.117473009352551 16 19 0
10.482592424995167 25 27 6
10.351358414146187 28 30 9
11.094217020211591 39 44 19
10.682515441357143 35 39 17
10.51951822999854 24 26 5
11.082539703108528 37 39 17
11.208907307402317 27 29 7
11.146934600577158 47 52 27
11.208907307402317 27 29 7
11.088141278309031 37 39 15
11.146934600577158 47 52 27
12.413554860706054 41 44 15
12.98262183704281 38 41 13
12.249315860058374 53 55 32
12.814316638766813 39 42 13
12.51230107101358 48 52 23
12.032833012136225 42 46 17
12.673493578734451 46 49 21
12.98262183704281 38 41 13
12.39978166883087 42 45 15
13.224606935888328 36 36 12
13.754322310224856 56 52 32
13.246259081721838 55 54 31
13.231440419498254 59 59 35
12.950410663475008 58 60 39
13.246259081721838 55 54 31
13.442359018254466 62 61 41
12.820111432064946 61 60 40
10.641765058437697 26 28 9
11.347775361237556 26 28 7
10.662193730992374 39 45 22
11.08820329119024 39 43 21
9.748386843538333 43 47 26
11.004963612200655 28 30 9
10.835570406706365 32 34 13
10.52089764260571 42 46 24
10.34358009293768 42 46 24
10.58218961699531 39 43 21
12.121651212966633 34 36 17
11.720417617407502 31 33 14
11.490773808523914 27 29 9
10.41232433646129 36 38 17
11.63497870710431 27 28 12
12.279110148436844 30 31 15
12.92493232261978 35 37 18
11.945063578102411 40 42 23
12.443752101541321 36 38 16
12.270682004589524 36 38 19
12.657025922323317 34 36 17
12.22732919243479 39 41 20
12.810476300506103 39 41 20
9.527183916030666 61 62 41
9.453222564141786 63 63 43
9.675631322008945 63 62 42
9.234750837065949 54 62 40
9.429278411591074 55 63 41
9.53691188360006 61 64 43
9.45905827691195 63 62 42
9.523325220477162 64 63 43
9.683470712018094 64 65 44
11.899698394648597 47 52 23
11.017977914405597 45 49 27
11.44969324434062 50 52 29
11.44969324434062 50 52 29
11.951422943270126 39 42 18
12.08899434819651 48 53 29
11.508438047083427 50 54 32
11.453308221383391 40 42 18
11.508438047083427 50 54 32
11.682702735061438 52 57 32
11.350211541680482 51 56 30
11.784256402215263 50 55 26
11.350211541680482 51 56 30
12.058211023707017 50 56 26
11.837845075126657 50 55 25
11.837845075126657 50 55 25
10.723967234049317 45 50 27
11.077143643743774 46 50 28
10.537782980742103 48 52 30
11.506639360443293 49 53 31
12.436491875195289 50 57 27
12.661933948521197 50 57 27
11.80504367548019 49 55 30
12.298449280721973 49 54 23
11.744981086774352 47 52 22
11.788547716489159 53 55 31
11.971282976733388 54 56 33
12.31233582857354 52 55 29
12.503109072787723 48 53 23
12.233289621116285 54 57 34
12.414723826758035 54 57 35
11.611119399647482 52 57 28
12.330181083104083 57 61 40
12.508682046473103 55 58 36
12.220877540175588 54 60 35
11.571256435167529 52 56 30
11.72610810981375 53 57 33
11.909801436133376 55 59 36
11.611119399647482 52 57 28
12.400951933202098 52 57 31
12.234852132210383 55 60 38
11.682308627483922 51 56 25
12.288534860058919 51 58 28
12.128860099682642 56 61 35
11.909801436133376 55 59 36
12.128860099682642 56 61 35
12.505003973898713 57 63 38
12.72561838928081 59 65 40
12.243493441279757 58 60 36
12.243493441279757 58 60 36
11.455113004963797 55 58 35
11.844639957889246 56 58 32
12.511070615190944 56 59 36
12.173131441548204 55 59 37
12.376146763682524 59 61 39
12.766323410528038 60 61 40
12.737538635534937 61 60 40
12.766323410528038 60 61 40
13.387634970925415 64 63 43
12.76271958751975 64 62 42
13.316184598723504 63 62 42
12.666289345572302 64 62 44
12.251250015434081 58 60 38
12.702716402810172 58 62 41
13.103463773190178 64 63 44
12.756052807679477 57 62 40
12.806292390389096 65 64 44
12.702716402810172 58 62 41
12.563020893893542 64 66 45
12.252748912519015 64 67 46
13.319863565696098 64 65 44
13.279415786593269 65 66 45
12.278176257281448 63 66 45
12.77016078848162 63 62 42
12.587821506203511 63 65 44
12.972398476561176 58 66 44
12.972398476561176 58 66 44
10.874535677837729 41 45 23
10.392139394176255 45 49 27
10.392139394176255 45 49 27
12.746493412577703 39 41 20
12.714768331361018 44 48 26
13.688468874033266 39 43 22
12.809400073052625 41 45 23
13.515970335021498 40 44 22
12.950518868387567 40 44 22
13.857825706771825 39 43 21
13.698934021734923 44 48 26
13.807747147267479 43 47 25
14.175833069548451 44 48 26
12.8461361094403 44 49 24
12.382017870568168 49 55 33
14.327191952594214 45 50 27
14.327191952594214 45 50 27
18.144616494040626 57 67 44
18.362617210069935 52 62 40
11.48636998576616 67 66 46
12.433899173380738 66 67 46
11.090065139550449 64 66 45
13.06304886181066 66 67 46
11.194326203853262 67 66 46
11.20773398556131 66 65 45
11.090065139550449 64 66 45
12.163869773878833 61 67 45
11.599026653800317 63 65 44
12.010832186352173 61 69 47
12.807009380586042 65 68 47
11.939868162653372 60 68 46
11.138466078190836 65 67 46
11.862992024733746 65 69 48
10.942946375401734 49 61 38
10.942946375401734 49 61 38
11.591886458491208 50 62 39
12.369138529347376 52 64 42
12.013760225437217 50 62 39
12.110829599964742 49 61 38
10.73538587196789 63 62 42
12.141669598032216 58 68 45
11.228972981533207 58 64 42
10.446258616523144 55 62 40
10.83817687290482 59 64 42
10.45022071096076 62 64 43
18.04352699892391 58 68 45
12.766371366917337 41 45 23
12.715974061086182 32 34 13
12.04847263281639 33 35 14
12.358292414317207 38 42 20
12.016821419949894 42 46 24
12.705121700163545 34 38 17
12.42797659634294 36 40 19
12.104692148328695 35 37 16
11.541335354121196 42 46 24
12.05075874136434 40 48 26
12.486533236281616 40 47 25
12.097660591977494 43 47 25
10.946093811031176 40 48 26
11.373667124004404 44 50 27
11.919756821351806 42 46 24
11.201571803760853 40 47 25
11.373667124004404 44 50 27
11.067580189536024 41 45 23
10.989272968232822 44 48 26
11.790612579614926 45 49 27
11.986618800427836 42 50 27
11.82811497799792 42 52 27
11.375281658940184 44 54 30
10.207395218624962 45 55 31
11.833038033905531 43 53 29
10.777695883860329 42 50 27
10.122890624508239 45 55 31
10.237903762042386 44 54 30
10.649453362411032 43 54 31
9.446651581932915 50 58 36
9.879704336154417 49 57 35
9.446651581932915 50 58 36
9.840147231560527 50 58 36
9.858895942151994 48 58 34
9.5733982828504 53 59 37
12.739994289562933 44 48 25
11.226106050253893 49 54 32
12.68858465378596 42 46 24
12.137120688506696 41 49 26
11.29931369059358 49 58 35
10.879669843181452 48 56 34
12.137120688506696 41 49 26
11.998952113049945 47 56 33
13.291291196539474 40 44 22
12.368020850657247 41 49 27
10.491711496322043 42 54 31
11.775328848972137 41 51 28
11.137082796217397 42 53 30
11.374677318669734 47 58 35
10.69662418556158 46 56 33
11.803538567112996 47 57 33
11.13625829098447 48 58 35
11.775328848972137 41 51 28
11.775328848972137 41 51 28
11.845531252601152 42 52 29
15.685797278719958 50 41 23
12.567412646174342 68 66 46
11.854981420689079 65 67 46
13.540278311525293 65 61 43
13.024572879230723 64 63 43
12.596586186331349 66 64 46
10.884675243049527 66 68 47
11.451694562401837 65 69 48
10.545628387019253 65 69 47
21.28588728258562 34 33 15
21.268635933611005 44 43 24
20.439034972591752 65 64 44
21.484965959451237 49 51 27
17.613732354117797 58 59 37
17.718960748191385 62 60 39
19.52716673995501 55 40 22
19.276727894965845 62 59 39
19.780284013373617 51 35 18
11.341838772742436 44 49 20
10.943032928066796 44 49 24
11.5885955966113 42 47 20
11.475234199709897 42 46 22
10.754224832236785 25 27 6
11.46394171025091 24 26 6
11.270127388486685 27 29 8
11.20521348308134 26 28 6
10.635931938659967 41 43 21
10.351358414146187 28 30 9
10.26759027896212 41 45 23
10.338842101393144 26 28 6
11.394279192645326 42 44 20
12.065265571025552 26 28 4
12.501027183601295 48 51 21
12.070790371570238 53 55 30
11.959116292779457 45 49 18
12.709177519745577 45 48 19
12.722615771667837 42 45 16
12.50752186185752 44 46 20
13.733471198578917 35 33 10
12.927552777498665 51 51 28
13.351646801691235 28 28 4
13.6310358559129 57 55 34
13.62507673466384 38 36 15
13.283345184218403 60 61 40
13.283345184218403 60 61 40
12.43987233952759 37 41 20
12.493409087188937 37 41 20
12.246364904755662 39 41 22
12.405824585809228 38 40 21
11.451497584166377 28 31 11
10.416959279393122 25 27 8
10.149739994370524 38 41 20
10.834298003303344 39 44 19
12.284784739309702 33 35 14
11.075895589442858 36 38 17
12.072367670600636 31 32 16
11.490773808523914 27 29 9
10.52089764260571 42 46 24
11.380075947881945 24 25 8
9.814730357168155 64 63 43
9.316871250253138 64 63 43
11.077143643743774 46 50 28
10.662841987723525 45 49 27
11.09815574255388 50 56 27
11.493179677984934 49 55 30
11.837845075126657 50 55 25
11.821650488208531 49 55 32
11.682702735061438 52 57 32
11.734991408309867 50 54 32
12.503109072787723 48 53 23
12.31233582857354 52 55 29
12.110965540370962 58 64 39
11.835707447483614 52 58 27
11.856537992963021 54 58 34
12.330181083104083 57 61 40
12.69052740902197 51 58 29
11.628003173298339 50 55 24
11.930369963876561 58 63 40
11.85013627041917 54 58 37
11.556479422528346 50 55 24
11.625826962326377 52 57 31
12.943304525799253 63 65 44
12.587821506203511 63 65 44
13.340273349717995 63 62 42
12.395941510956431 59 65 43
12.702716402810172 58 62 41
12.351664540087569 62 64 43
12.943304525799253 63 65 44
12.251250015434081 58 60 38
12.402061501787696 64 62 42
12.277428383769488 62 61 43
12.917764775044448 58 60 37
11.813609643185927 57 59 33
12.967377851331754 64 63 43
13.288590946252732 64 62 42
12.77016078848162 63 62 42
12.972398476561176 58 66 44
13.698934021734923 44 48 26
13.417015349670455 40 44 22
12.99128385686792 39 43 21
13.49031979157591 44 49 24
13.998612619280411 45 49 27
12.714768331361018 44 48 26
12.1658165597409 44 50 25
11.661813076757797 53 61 38
11.41663886975164 53 61 39
11.889252965200562 64 67 46
11.378255697133344 65 69 48
11.817558885123468 65 67 46
10.53319267303212 66 65 45
11.20773398556131 66 65 45
11.791138270401493 66 68 47
12.010832186352173 61 69 47
11.499437263742081 65 66 45
11.999528153607226 50 62 39
11.491233062981022 48 60 37
10.727670864219757 49 61 38
11.591886458491208 50 62 39
11.591886458491208 50 62 39
12.480460707556617 58 66 44
10.62272665734815 57 64 42
13.053185655789107 59 69 46
18.04352699892391 58 68 45
12.37322605698138 38 42 20
11.819952242744899 42 46 24
12.208444528967712 42 46 24
10.333784429072136 46 56 32
10.988434998409879 43 53 30
11.898005929047686 42 49 26
11.604636048987585 43 51 29
11.226106050253893 49 54 32
11.775328848972137 41 51 28
11.916090646581493 43 53 29
11.916670692584134 45 57 34
11.845531252601152 42 52 29
12.68858465378596 42 46 24
10.989064009833859 48 59 36
11.818006665694888 45 57 34
11.998952113049945 47 56 33
11.358227708341957 42 51 28
9.893430733033375 64 66 45
11.129934019615515 65 68 46
15.857734400831124 45 46 21
10.464733155218843 65 67 46
12.696682152781953 65 65 45
21.018604221620823 42 41 23
20.953462732796353 45 44 25
21.559596663398363 45 46 28
20.500875706904004 50 49 32
19.543131713766837 63 52 34
10.903111111035818 28 30 9
11.285690670376125 32 34 12
10.036467711223954 44 48 26
11.03701835741898 29 33 12
10.904378941300878 20 22 2
12.51230107101358 48 52 23
12.101541697357014 42 47 20
13.49277196122917 60 59 39
12.50752186185752 44 46 20
12.028246075764256 41 46 16
12.67989991955491 46 48 23
12.297755488772967 35 37 18
10.082620611314061 63 63 43
9.532570191246581 54 60 38
9.066857582231425 63 62 42
8.794861724282693 52 60 38
9.236991931085834 59 63 42
9.419439285733457 59 61 40
12.125068962068216 49 55 32
10.98838060026989 50 54 32
11.023612296298035 48 53 27
11.363840561260696 49 53 31
12.290593730457639 50 56 25
11.67200643991815 54 57 33
11.948534992733995 56 59 38
11.905553827409049 50 56 25
12.865098816615994 62 61 41
12.69052740902197 51 58 29
12.702716402810172 58 62 41
12.917764775044448 58 60 37
12.387534305210156 56 61 38
11.909801436133376 55 59 36
11.856537992963021 54 58 34
11.909801436133376 55 59 36
13.319863565696098 64 65 44
13.441675918179472 60 59 40
12.376146763682524 59 61 39
12.741980212603433 43 48 24
10.212586504936947 42 46 25
12.746493412577703 39 41 20
18.144616494040626 57 67 44
12.01791237470411 64 68 47
11.255283289522696 52 61 38
10.73538587196789 63 62 42
12.369138529347376 52 64 42
13.4613238746845 62 69 46
10.503541859562594 63 65 44
11.499437263742081 65 66 45
12.433899173380738 66 67 46
12.662468839058667 33 35 14
10.63296486944391 46 52 29
12.220362982402985 41 49 27
11.585272639575122 41 45 23
11.691670139196114 44 50 27
11.847858721514468 41 48 26
12.151570506748865 42 50 27
11.200752045667693 43 47 25
11.6720566576576 42 46 24
12.275047297566267 42 46 24
13.07523894205248 33 35 15
10.700490054668744 43 53 29
9.840147231560527 50 58 36
11.833038033905531 43 53 29
11.898005929047686 42 49 26
10.700490054668744 43 53 29
11.54697930340878 51 59 37
11.226106050253893 49 54 32
11.789831565655223 41 53 30
11.29931369059358 49 58 35
12.596586186331349 66 64 46
18.715901377030995 55 58 36
18.15353523213315 57 57 35
11.733224239707788 32 34 15
10.868760750553879 46 50 28
14.036344243920636 40 35 16
11.805954540983798 26 28 7
10.233125623214752 38 40 19
12.375087389958496 40 42 21
9.891567881049456 63 62 42
10.537782980742103 48 52 30
11.382505215081073 52 57 31
11.017977914405597 45 49 27
11.453308221383391 40 42 18
12.755693907979017 50 57 27
11.487111773067314 56 58 34
13.129398012260534 41 45 23
12.382017870568168 49 55 33
11.088826643279656 44 48 26
18.362617210069935 52 62 40
11.331956079106838 55 67 46
12.80957820662602 60 70 47
12.480460707556617 58 66 44
12.581791872422938 66 65 45
11.999528153607226 50 62 39
10.317905110990097 52 60 38
10.124256159918621 57 62 40
10.126300395697568 62 64 43
11.080725827156531 41 49 27
12.160459830458842 39 42 20
10.447795570641993 46 56 32
11.358227708341957 42 51 28
11.803538567112996 47 57 33
11.383104556673654 66 68 46
11.57522345010289 67 68 46
20.421068230638124 49 48 29
18.073833355777015 70 55 38
11.445010874612361 40 45 20
11.56344189774046 39 44 15
11.108302603085795 20 22 1
12.482305120169041 39 41 20
9.003502369321016 63 62 42
11.951035514595567 55 59 37
13.49031979157591 44 49 24
12.268566818501656 51 56 28
12.370013951695354 58 64 41
12.766323410528038 60 61 40
11.374069632541952 44 54 30
11.98546859544766 42 52 29
11.691358339277462 55 57 34
10.58218961699531 39 43 21
12.145456745981294 39 41 19
11.445010874612361 40 45 20
11.41663886975164 53 61 39
13.612347411845919 44 48 26
11.077823932061003 45 49 27
10.572615030235442 45 55 31
13.102990732888216 43 47 25
12.157623680705065 42 46 24
11.784256402215263 50 55 26
10.868760750553879 46 50 28
12.220877540175588 54 60 35
13.027629383030076 64 66 45
13.466668024771536 38 42 21
