19.990526630704654 58 64 38
20.108805142014138 53 58 30
19.999814989299352 54 60 35
20.108805142014138 53 58 30
20.065882616580517 55 61 32
20.065882616580517 55 61 32
20.025261292070056 55 61 34
19.443647987109483 53 58 32
10.496143790827428 48 51 16
9.69046139764756 48 54 18
10.447513784065997 46 51 18
19.748154490260465 56 67 34
17.986970354016822 57 65 32
18.957308369437943 53 64 27
18.93208646306342 58 67 35
19.61281515664824 57 68 33
10.655027606582147 46 49 14
9.960974656335598 46 51 14
9.927139744483494 41 45 10
10.367153864686554 50 54 19
10.58924237416317 48 54 17
10.677476770528802 58 61 26
9.871526427628512 52 58 21
9.207286321914394 49 55 18
9.746486759067842 49 55 19
9.50510171268565 52 58 21
10.048290258706384 49 55 18
9.412960305792485 49 55 19
9.38287596505635 49 55 19
9.412960305792485 49 55 19
9.607040362440316 49 55 19
10.034211825141883 49 54 19
9.38287596505635 49 55 19
9.95978413872235 59 62 36
9.47862572666156 57 63 27
9.348332246954376 55 61 25
10.414487027783247 59 62 36
9.528902792828934 56 62 26
10.089035011050823 58 62 31
9.533556676134975 58 63 31
9.47862572666156 57 63 27
10.549218670206812 61 63 39
9.596073260992918 61 65 41
9.75236307917474 56 62 26
9.948739485933503 61 64 40
10.29668755425354 61 64 40
10.209880377403676 61 63 38
10.325016839002313 60 63 36
10.360585541549334 61 63 35
11.13291719167976 62 65 37
11.113395211324221 62 64 38
10.744188031403684 64 65 39
10.056290531865645 63 65 42
10.217299996731565 63 65 40
10.945730724234416 64 64 36
10.702559559541308 64 66 37
10.771671356777563 65 67 43
9.280655410019296 44 50 14
9.91119982232972 47 50 15
9.350877736816765 43 46 13
9.065024792408193 49 52 19
9.312458977294044 47 50 15
9.32664890242992 48 51 18
9.625956823264943 47 50 15
12.290417894924712 37 40 7
12.260449094295275 33 36 3
9.290807669992475 47 50 17
9.17912085770568 48 51 18
9.57388595852559 49 52 17
9.507631270980864 48 54 18
8.97333534789491 47 53 17
9.131076725964855 49 55 19
9.171277021960291 50 56 20
9.21471267550107 49 55 19
8.81957976480175 46 52 16
8.97333534789491 47 53 17
8.864738840270693 47 53 17
9.895929461223755 49 55 19
10.61734559011901 48 54 17
10.806982688079179 48 54 18
10.312024289816222 47 52 19
10.371631718585924 49 55 19
10.768515539861447 53 59 22
11.54040975211465 54 60 23
10.793893859448808 51 57 21
10.793893859448808 51 57 21
14.195780046771695 63 64 37
14.156728663958724 64 67 38
9.880022983446567 48 54 18
9.709223911215556 46 52 17
9.69561945311862 52 58 21
10.646636171815244 51 57 20
17.20664259890397 34 32 7
17.987417792197927 45 36 12
18.234660446526863 40 34 12
18.624561370228893 47 40 16
8.893471313500743 50 56 19
9.045971039205266 50 56 20
9.420629193012573 50 56 20
9.140397249066586 51 57 21
8.711626684067904 50 56 19
9.045971039205266 50 56 20
9.199358647245127 50 57 21
9.615899553387832 50 56 20
9.084512736590105 51 57 21
8.435441864211036 50 56 19
11.426853305950319 57 62 29
10.578282652588344 54 57 22
10.578282652588344 54 57 22
11.548661565489354 58 64 28
11.254407622687319 60 66 30
10.803913104890558 61 66 34
11.296784219708504 59 65 29
10.441893294364462 61 65 34
11.762359191281945 60 66 30
11.37806215557402 61 67 31
9.513768174364744 62 64 38
10.022421735046473 62 64 34
10.586665801934094 62 64 35
9.705832663027314 63 65 41
10.367897311705942 62 65 36
9.466730668341965 64 66 41
11.157006257306746 58 64 28
11.114096717976194 60 67 31
10.582216447971332 62 64 39
10.582216447971332 62 64 39
10.637356676520223 63 65 40
10.017721776182752 64 66 43
10.017721776182752 64 66 43
11.108351209312957 54 60 23
7.28413852465742 62 68 39
7.660759062462889 63 71 41
7.752614480118672 61 70 43
7.459415002676814 63 71 36
7.171479532125115 62 67 38
12.22774192025241 65 68 41
11.5710464998456 64 66 40
10.03445935128699 64 66 40
10.16368238532982 64 66 40
10.606688085889976 63 65 39
10.234278317268004 63 65 37
9.880953800313568 63 65 39
10.147509249601168 63 65 39
10.092806314369179 63 65 39
9.69199236319841 62 64 37
10.165795030593147 62 64 37
10.396112188799815 61 63 37
10.109993706796338 63 65 39
9.913365734798907 63 65 39
10.55045251135372 62 64 37
10.223181535893154 62 64 38
9.988877848774953 61 63 37
10.247467015314802 64 65 39
10.703698376157085 62 63 35
11.054307499543185 62 64 38
10.269467087262948 61 63 37
9.932942503501854 64 66 40
10.532834545412687 61 63 38
10.532834545412687 61 63 38
10.47414454782924 62 65 36
10.324751780912225 63 65 39
8.052696476580245 63 68 41
9.47246549083584 63 65 39
8.492873382949782 63 72 44
8.356280891308748 63 70 40
8.356280891308748 63 70 40
11.057149801593548 63 65 39
10.706633755208559 62 65 36
8.94815846196227 52 57 20
9.020969430707655 54 57 21
9.48483461139537 49 54 18
9.68558339508805 51 57 20
9.220910075987058 53 56 20
8.93015555647167 50 57 20
7.8873308771233885 60 64 35
8.61043068198757 50 59 21
7.427356941353812 58 66 34
8.633058493695776 52 62 24
7.716027201064532 58 63 33
8.807613535261417 52 63 25
8.72686967487665 50 60 22
8.011499319337975 55 65 29
17.39495406241487 48 35 12
10.074841124172774 51 57 20
10.088862862023616 52 58 19
9.462903007258275 51 57 19
9.794728977926727 50 56 20
9.432977948770201 49 55 18
8.979726909553818 49 56 18
9.251547878015744 47 56 18
10.019741464027506 52 58 21
9.649468443964315 52 59 20
8.680582792374944 51 58 20
11.552415939095518 53 59 23
11.30225836730273 54 60 23
11.552415939095518 53 59 23
8.45229152816978 50 60 22
8.508635310449222 51 59 22
8.813617452619116 55 62 25
8.759235687664743 58 65 28
7.404056558566847 60 65 38
8.813617452619116 55 62 25
9.008801357881872 58 68 31
7.378930063983914 62 67 38
7.8400956051977975 62 69 37
9.014514674938066 59 60 32
8.441228915043789 59 63 34
7.991521178937341 62 63 37
18.43730074811288 89 87 79
9.551551156835274 46 51 17
10.336437832995534 48 51 18
19.27854431188616 51 60 23
19.176834599256807 54 63 30
19.176834599256807 54 63 30
18.93208646306342 58 67 35
19.61281515664824 57 68 33
9.85876001750164 49 54 21
9.393588574854462 45 50 16
9.567691816447102 48 54 17
9.740972841037046 47 53 17
9.932550315068495 54 60 24
10.212608654639311 59 63 31
9.805760697620453 58 63 32
10.1298125330227 62 65 42
10.208264351539837 58 64 28
10.16134923629074 60 64 29
9.75236307917474 56 62 26
10.601230588696222 62 64 33
9.50510171268565 52 58 21
10.23511282927548 61 64 35
10.671332715087837 62 64 41
10.217762807015085 49 55 19
9.932550315068495 54 60 24
11.087005869352252 64 67 46
10.667796954336302 63 65 39
11.087005869352252 64 67 46
11.36104137169518 65 65 40
11.304745078880275 35 38 2
9.348518856024235 44 50 14
9.065024792408193 49 52 19
10.38740003522604 51 57 20
9.57388595852559 49 52 17
9.308104110793845 49 55 19
11.071178441768076 53 59 22
9.171277021960291 50 56 20
10.806982688079179 48 54 18
10.604022689933437 51 57 21
12.481591728219819 41 45 12
11.226031105099477 53 59 22
8.877561705370695 50 56 20
9.435623167742401 49 55 18
9.474531365809968 50 56 19
9.140397249066586 51 57 21
10.809981806048711 52 58 22
10.809981806048711 52 58 22
9.606384434782099 51 57 21
10.6159630442346 55 61 25
11.288685990611775 57 63 27
11.88733513087721 56 62 26
11.254407622687319 60 66 30
10.728024497692289 62 64 40
11.114096717976194 60 67 31
9.659730449347888 63 65 43
11.114096717976194 60 67 31
11.254407622687319 60 66 30
10.441893294364462 61 65 34
11.296784219708504 59 65 29
9.87705128601157 62 64 38
10.847958183955221 54 60 23
8.44749323827865 62 71 39
7.171479532125115 62 67 38
11.5710464998456 64 66 40
11.262537896524114 66 72 45
9.333677588059443 64 66 40
10.58322694820546 63 66 37
10.355558516537876 63 65 39
8.399074507322979 63 68 39
8.746447446369753 62 71 41
9.626550576731837 61 63 37
10.106532347078083 61 63 38
10.62439438841647 61 63 39
10.703698376157085 62 63 35
10.535817528861367 65 65 39
10.793808942506084 61 63 37
9.748578943167294 62 65 36
10.553430514991488 63 66 37
8.877439953329763 65 67 41
9.932942503501854 64 66 40
9.587887501415205 64 66 40
10.341553693209804 63 65 39
9.818376396977868 65 65 39
7.776533669356598 66 72 45
9.932942503501854 64 66 40
8.78145187832481 52 59 22
8.617081757339824 56 62 29
9.066460617543386 49 55 18
9.45028638723907 49 53 18
8.665746320910023 51 59 21
8.78145187832481 52 59 22
8.105906465200759 63 70 35
8.11250126104531 54 64 27
9.57824096802413 51 59 22
9.462903007258275 51 57 19
8.961482041734428 51 56 18
8.961482041734428 51 56 18
10.019741464027506 52 58 21
9.620123747035185 51 57 20
8.380683467754594 60 63 37
8.240662619040949 57 61 31
20.108805142014138 53 58 30
19.46887148340012 54 59 32
19.434093815080125 56 62 36
19.748154490260465 56 67 34
19.494453452678517 52 61 24
10.819097347566919 58 60 35
9.84572424622809 51 56 19
10.760412466395184 44 49 16
9.760980192382382 48 53 19
10.325016839002313 60 63 36
10.352019312190821 52 59 23
10.6539146459324 61 63 38
9.682749155288269 53 59 23
9.937015156638433 58 61 26
10.208264351539837 58 64 28
9.884326633226697 57 60 24
11.153490415637307 66 67 44
10.289405645025022 62 65 36
10.332698769271362 63 65 39
10.591191457632986 63 65 38
9.053611960964586 49 52 17
9.70827583616769 47 50 17
8.890963231822564 49 52 19
10.095706251931121 47 50 15
9.068490609103518 49 52 19
9.175696828031317 47 52 17
10.211512988452604 46 51 17
9.190097922511857 48 54 18
8.841672333555476 50 56 20
9.87845343612533 50 56 19
11.800165451684414 53 59 22
10.309796416252968 62 64 42
11.426853305950319 57 62 29
10.480064076588311 62 65 38
9.410916643994897 50 56 20
7.660759062462889 63 71 41
10.430119166071377 61 66 35
9.045971039205266 50 56 20
8.804882870889685 64 68 41
10.606688085889976 63 65 39
10.641860774972884 62 64 38
10.011802231999066 63 65 38
10.459402794421555 61 63 37
9.95198073951448 62 64 38
10.114650789898157 62 64 38
10.092806314369179 63 65 39
7.735537714466455 61 66 37
9.166538616780722 45 52 14
9.432977948770201 49 55 18
7.620837503573642 63 69 38
8.45229152816978 50 60 22
8.95065051685222 54 64 26
8.977242926184244 48 54 18
8.28139076475172 60 61 31
10.819097347566919 58 60 35
10.360585541549334 61 63 35
9.626464572526345 60 62 39
9.884997592162184 59 63 40
10.56680931904854 63 67 43
9.559082958551617 45 48 15
9.181523259667877 41 44 10
9.538973726688173 47 50 19
10.496704704963856 48 54 18
10.163071107425216 50 56 19
9.89910437069636 49 55 19
9.44423950688654 49 55 19
10.312024289816222 47 52 19
17.435602332519572 30 16 0
9.96230620457107 63 65 43
7.28413852465742 62 68 39
11.721665878862193 60 66 30
11.91924406944924 54 60 23
12.869890718781814 55 61 25
10.10645042743813 62 64 38
9.72472722501942 64 66 40
11.057149801593548 63 65 39
8.61043068198757 50 59 21
9.125381538442925 55 63 25
9.809151131593087 49 55 19
8.690796657330404 57 67 33
9.003876245477809 49 55 18
9.620123747035185 51 57 20
9.732525819375114 50 57 20
17.63394089438928 37 24 3
8.191193714309943 61 68 32
10.399477165273167 62 64 38
8.15815947239596 55 63 29
9.020969430707655 54 57 21
10.55045251135372 62 64 37
7.776533669356598 66 72 45
19.999814989299352 54 60 35
9.414334216496464 49 55 19
9.559091673872091 47 52 18
8.96426639307316 49 55 18
7.841745094053554 62 65 36
9.014514674938066 59 60 32
10.983434067546055 55 61 25
10.067933604781429 64 66 40
10.186783174743857 61 63 37
9.534800412766515 47 53 17
9.290914462367443 49 55 19
8.593476285422799 46 52 16
9.042478424400613 51 58 20
10.371687672662715 49 55 18
8.45688081632845 64 70 43
11.41997991176685 59 65 29
