10.987601201597629 137 170 195
10.193706161257955 136 174 198
10.193706161257955 136 174 198
15.5934690474913 4 24 40
15.46614058578733 0 27 46
12.048588388209025 64 107 134
11.815810050711931 111 155 181
11.70001740355909 0 12 39
12.048588388209025 64 107 134
11.392110307384893 21 60 84
10.184613166415813 134 168 196
11.050320468271579 6 48 73
11.159106594751757 93 131 155
10.029322404683203 131 166 194
10.920853452168064 121 154 181
10.588956637520113 120 152 183
11.479820550092809 37 77 102
12.230476674685075 0 35 61
10.190580344925479 113 151 178
11.18675367150274 125 162 188
10.029322404683203 131 166 194
10.029322404683203 131 166 194
10.716760825090798 99 138 164
8.723947665344964 65 112 143
11.41035734747845 87 125 150
10.426062905393557 38 84 116
10.897724654082724 105 150 176
10.68838072307608 41 87 114
9.961833570271141 56 112 149
9.938652969893951 58 106 134
10.278024392047918 58 109 139
10.875214478156915 55 98 124
11.342007750093245 95 133 160
10.544025805058178 55 100 130
10.190280916622143 62 109 138
10.157273036584712 132 167 195
10.401825233505942 64 101 125
10.157273036584712 132 167 195
10.227298055212424 48 95 128
9.88618546066185 62 106 135
10.134539472217353 113 151 178
9.96679515395249 77 114 138
10.432184465910423 95 137 165
9.972375366211933 123 160 187
9.801856241118301 129 166 193
10.246818180874625 50 95 125
10.774557652176899 72 116 144
10.316531171330402 120 161 187
10.390837799871223 98 139 166
10.774557652176899 72 116 144
10.227298055212424 48 95 128
9.871279949323823 48 98 130
10.193305306117429 62 115 147
9.917074067976982 57 110 143
8.70964955823525 61 113 143
9.16403720224436 68 115 143
7.911850324542704 63 114 147
8.469735120440093 56 105 138
10.158991367794753 152 183 215
9.96627754117752 141 174 204
10.373271563623465 145 179 205
9.989394038357815 154 187 216
10.13158209763553 154 187 217
10.332983026114961 132 169 195
10.095027274377706 136 172 200
10.659807726480343 142 179 208
9.952316972588829 136 172 200
9.946206850152903 155 184 215
9.989394038357815 154 187 216
10.368698970877633 156 188 217
9.882792503489743 0 7 10
11.061814503663637 0 9 12
11.280772567041971 1 14 21
11.622136758250926 24 32 37
10.495207608439689 6 22 25
10.737244534642034 7 23 27
9.927897093642576 12 17 20
9.911601188142512 17 23 26
9.913882478477184 18 24 25
10.33550800664575 15 24 26
9.275673449430535 3 16 19
10.289378399074968 5 19 22
10.063963223603807 61 116 152
9.840653980301825 40 96 133
10.044087735792585 32 92 127
10.683834438702242 53 109 146
12.048588388209025 64 107 134
10.420824945035896 21 65 92
11.529059576048473 102 145 171
10.927457499270526 43 87 113
8.331453079820335 58 107 137
11.571856475051197 1 42 68
10.184613166415813 134 168 196
10.190580344925479 113 151 178
12.230476674685075 0 35 61
10.468445095280376 133 166 191
10.029322404683203 131 166 194
8.2031413497755 59 107 138
10.85341409305867 88 131 158
10.914726404883629 70 112 140
10.059468196555532 42 90 121
10.468646412944851 52 102 132
9.838355709962986 41 95 131
10.354791541214222 66 113 142
11.028207704960609 68 114 141
10.90651434453895 66 112 140
10.227298055212424 48 95 128
9.972375366211933 123 160 187
10.176927476477452 110 151 177
10.568416876634497 91 136 164
10.316531171330402 120 161 187
9.88618546066185 62 106 135
10.015449714924472 129 165 192
9.748974844370643 60 108 141
8.462554613919206 42 92 126
8.428657103239297 74 129 160
10.003302862478893 157 186 217
14.220062355764021 21 28 39
10.13158209763553 154 187 217
9.989394038357815 154 187 216
12.092322938036864 45 56 63
11.922580228507176 10 20 25
11.280772567041971 1 14 21
12.14073166727014 27 34 39
9.954938506105307 17 24 25
10.097611757633004 16 24 25
8.856103288515015 54 101 132
11.050320468271579 6 48 73
10.62876027573545 71 112 135
11.479820550092809 37 77 102
10.433857522603049 128 161 188
10.31153348651881 128 165 189
10.343450353669773 115 153 180
10.68094894705296 54 105 135
10.433857522603049 128 161 188
11.159106594751757 93 131 155
10.022440085151414 123 156 181
12.438794038911713 16 57 83
9.961833570271141 56 112 149
8.691069717710178 57 106 134
9.801856241118301 129 166 193
10.668930600349864 5 21 24
12.14073166727014 27 34 39
9.927897093642576 12 17 20
10.353321014480132 0 5 8
9.997434708363471 73 129 161
10.709172119610558 61 106 134
10.316531171330402 120 161 187
12.230476674685075 0 35 61
11.833403766289539 12 50 73
10.280224369526223 53 108 142
10.770534817474484 126 163 189
10.459299219051612 63 107 137
10.037331089064086 45 98 134
10.122535526251776 142 175 205
10.095027274377706 136 172 200
9.946206850152903 155 184 215
12.092322938036864 45 56 63
10.13158209763553 154 187 217
9.275673449430535 3 16 19
10.393803831479644 137 170 198
11.159106594751757 93 131 155
10.459299219051612 63 107 137
10.331131128143747 3 17 20
10.737244534642034 7 23 27
10.176927476477452 110 151 177
10.158991367794753 152 183 215
9.908968189237948 138 173 202
10.368698970877633 156 188 217
11.553566285224381 27 34 46
10.125580150503852 151 180 211
10.125580150503852 151 180 211
11.061814503663637 0 9 12
10.122535526251776 142 175 205
10.549491834044991 115 153 179
11.70001740355909 0 12 39
14.558189611007169 0 28 47
