13.724087773690794 28 31 20
16.162419190479312 61 64 62
14.656194626908714 62 64 65
15.809509199776887 62 64 64
14.0764694445876 53 54 47
13.099892447906463 31 32 23
12.613381245792564 29 30 19
12.691226384875382 34 35 23
14.033897475262007 37 38 23
13.865916868229947 36 37 23
13.819561951409737 32 34 20
14.033897475262007 37 38 23
13.130640559778325 32 36 17
13.675171176681411 29 33 14
13.12949760377027 31 35 15
13.55877406605625 33 35 16
14.344112543755445 38 40 18
13.40610665339136 35 35 22
13.900129843759109 39 43 21
13.532441216713027 35 36 20
14.555762544098394 41 44 22
13.65748812644042 34 37 17
14.068768659891685 43 45 22
14.354334194862748 44 46 24
13.92385081070132 36 40 18
13.38831662362894 37 42 17
13.922772971501812 36 40 18
13.537984938580239 37 42 18
13.926961829065121 41 43 19
13.92385081070132 36 40 18
13.933303726175822 43 47 25
14.789757810248197 40 46 23
16.921687526051045 50 56 33
13.132684377885255 41 45 23
13.484835912424838 40 44 22
14.367007826236362 41 45 29
13.614729999373314 39 45 23
12.873251249680829 39 43 21
13.435917685784101 40 46 23
13.589354540010639 43 49 26
13.601610591703947 37 43 20
14.308755339342262 41 45 27
12.907907333262555 41 46 22
13.915114446977494 39 45 22
13.669569778651088 38 44 21
13.407110498541265 38 44 19
12.926484377172326 40 46 21
13.669569778651088 38 44 21
13.515933226965238 36 42 18
14.638545817098668 42 48 26
13.903134761564983 45 54 28
14.992229663011567 39 45 22
14.051596785722845 39 45 20
10.984712359183368 33 37 14
10.59027689921857 31 37 11
11.429518425170391 31 37 14
11.14901957828868 32 37 10
10.944893637911287 33 38 11
11.704155898934612 34 39 12
11.509879430067567 35 37 13
13.125956855612058 42 44 20
13.351431728196898 44 45 23
13.892709789942964 43 48 23
13.838978507081022 41 46 21
13.963429776558863 43 45 21
13.963429776558863 43 45 21
13.909971672752036 41 44 20
14.05728880928003 46 51 23
14.05728880928003 46 51 23
14.05728880928003 46 51 23
13.893789961355521 44 49 22
13.31543750442804 42 47 22
13.107662520304762 43 45 21
12.576340315780529 45 47 23
13.522239588464192 42 47 18
13.263893601689803 45 50 21
13.111096799820423 45 50 21
13.318818208924844 44 49 22
13.645168748862025 45 51 26
13.535167628953124 43 51 27
13.845963439058108 45 51 24
13.548580397989747 42 48 22
13.502121639104583 47 53 29
13.890064367788405 48 57 31
13.338440932791148 48 57 31
13.29689740143326 44 50 26
13.61741825341248 45 51 28
13.465415749842853 45 51 28
14.012041355200985 43 52 26
13.338440932791148 48 57 31
12.933963318852793 47 55 32
14.316684169155568 37 45 22
13.599170247359332 39 47 22
13.053129283123582 44 50 27
13.359297454264105 46 51 26
13.601866911055524 45 51 26
13.656531135474841 45 51 26
13.524945067411478 43 49 26
13.489287885564385 44 50 23
14.443597239830845 44 50 25
20.79643492045512 29 24 7
23.305336621031703 27 25 9
23.23326014968067 54 48 30
14.915912388763712 27 19 6
16.9989477292447 17 9 0
12.04150245441316 43 45 21
22.260083036474406 37 32 17
22.466619150538467 30 28 19
21.445644675572204 25 22 7
19.568739284242227 26 22 8
21.413817703745167 25 22 8
20.408863750425 29 26 10
20.830145824799565 29 26 11
23.43724494375465 45 39 24
23.43724494375465 45 39 24
23.664764788303746 45 42 24
12.323581402773389 34 35 21
13.678462971386704 35 39 19
14.279364041261225 42 44 23
14.03805317408439 37 39 22
14.144855049115645 45 47 24
12.825769602626766 32 37 13
13.856055714774074 39 44 19
13.312287851149128 36 40 18
13.996557990497314 38 42 20
12.748740333160415 34 38 14
14.784798386547438 38 44 21
12.749917421890915 36 40 16
13.993341024690817 39 41 17
14.003818712878951 44 46 22
13.804259727854973 40 46 24
14.0026415940945 41 47 23
13.903134761564983 45 54 28
13.925778213720179 40 46 22
14.241515819757664 37 45 22
14.35143421218684 38 44 21
14.628522759643685 37 43 20
13.337814089086608 41 47 23
14.06332403194293 42 50 27
14.565038650287033 39 45 23
13.418045961688275 42 48 23
13.573155069816389 40 44 23
14.265824599378275 38 44 22
11.14901957828868 32 37 10
10.944893637911287 33 38 11
12.354108516992811 38 40 16
13.033451005454193 44 51 21
14.075415073076279 46 51 24
13.909971672752036 41 44 20
13.107662520304762 43 45 21
13.909971672752036 41 44 20
14.110188795889167 45 50 23
13.032299525750956 44 49 24
13.183222214060677 46 54 31
14.263373687637102 48 57 31
13.29689740143326 44 50 26
13.072647967944814 45 51 26
14.322270840838145 47 52 23
17.75305396324554 25 18 3
17.596898921432015 23 16 1
12.94814252804059 43 45 21
21.882062723638146 36 31 14
21.560488937496768 37 31 16
20.390414483181956 25 23 7
22.042810987969386 23 22 10
22.719989536534502 35 32 16
23.916334968030835 44 39 23
14.492423311929336 66 66 63
12.691226384875382 34 35 23
14.0764694445876 53 54 47
13.455001592441471 35 35 21
14.0764694445876 53 54 47
14.652881010337563 40 45 22
13.751252710248153 37 38 24
13.207715006494576 33 37 17
14.619286934910196 39 41 19
13.856055714774074 39 44 19
13.31543750442804 42 47 22
13.125956855612058 42 44 20
13.258235273350516 43 44 21
13.645168748862025 45 51 26
13.885864379614603 47 53 28
13.580277881156618 49 58 32
13.168297752772947 46 55 29
13.705012299446844 45 52 28
14.270157071672195 46 51 26
13.656531135474841 45 51 26
13.202179353893403 42 48 23
14.322270840838145 47 52 23
13.6205992628056 47 53 28
23.035143212145467 46 40 22
20.063691927611377 30 25 11
16.65755578449212 19 14 0
19.432503310797262 26 23 8
17.102172296886927 22 14 1
20.56393405193676 26 20 4
14.052059075982665 33 34 23
14.088895192355386 30 33 12
13.287475159207164 37 40 19
13.623653664313167 41 47 25
13.680295444298517 41 47 24
13.215537704274336 36 41 17
13.669569778651088 38 44 21
13.88201949207929 38 42 23
13.242390429967756 42 49 19
11.704155898934612 34 39 12
13.966653631881542 45 50 22
13.838978507081022 41 46 21
13.840062872044216 42 47 20
14.220430526802176 44 50 23
12.758427266773763 45 53 30
13.524807180893452 34 35 23
13.505936596608382 37 38 21
14.022968319728763 32 35 14
13.19043108999719 41 45 23
19.990548762034486 18 16 2
14.254248331310782 36 39 17
13.588380547614186 40 45 21
13.82499054040485 34 38 18
13.28197119038473 24 26 15
11.437245226405599 33 38 11
11.58752015637418 31 37 11
13.430458343043403 37 43 20
13.241257119964676 44 49 23
13.120999047413823 45 51 28
14.583446359500376 41 45 23
13.823317408335999 40 49 21
19.738089338673596 26 22 6
13.712427395972378 47 55 30
14.134481909522142 39 41 18
