17.410766483284082 14 22 4
17.798034660938065 7 11 0
8.294577078296921 27 37 11
8.329136070652368 27 37 11
8.74777144389985 30 39 14
9.300645881081271 28 38 13
9.300645881081271 28 38 13
8.380066236741511 27 37 11
10.112251158870368 29 37 14
9.834213788473994 28 36 13
9.290581021982224 28 36 13
10.53192802242543 29 37 14
11.915981044043162 28 37 11
10.402808761735262 22 32 8
10.489635340536044 13 19 0
10.402808761735262 22 32 8
10.46073491478173 26 32 10
10.672960607962814 25 31 8
10.643441503701329 33 42 16
9.150853616111094 32 40 17
10.050247802569723 29 39 15
9.162306965804598 31 39 16
10.138921730683178 31 39 16
10.463870893452862 26 33 10
9.763125925604848 35 43 20
9.355660044665768 33 42 16
10.168736818356976 26 35 10
9.855711628263332 32 42 18
9.860245295799 32 42 18
9.860245295799 32 42 18
10.222455734066074 36 44 21
10.449567524489748 35 43 20
9.965632086685096 33 41 18
9.367247795997725 38 48 24
9.372017758490724 39 49 25
9.551400014938977 37 47 23
9.441390610049721 39 49 25
8.779604028778824 37 47 23
8.772335840340464 33 43 17
9.449274549837492 31 40 14
9.594231019193431 37 45 22
9.20565744874226 36 44 21
9.568916117714744 34 42 20
8.695912717400128 31 39 16
9.124308670891239 31 39 16
8.500597238149563 31 39 16
8.546601617778123 29 37 14
8.744641954587356 31 41 17
8.943357855533735 31 40 15
9.244606846904796 31 39 16
8.55357370505801 32 42 18
8.955076591759276 31 39 16
8.96585671802862 40 50 27
9.497779503680661 34 46 19
8.863710164254096 39 49 25
9.570911183395618 43 53 30
8.391517296214937 38 48 24
9.497779503680661 34 46 19
9.942287006374901 39 51 30
9.462765511786793 35 48 21
9.975795568581555 33 43 15
10.236730980530135 34 46 21
10.20711450644384 40 54 30
10.080212684860504 40 56 32
9.715887788530681 27 40 11
10.012349286584408 34 48 23
9.582482806855744 36 50 23
10.012349286584408 34 48 23
9.882946901655075 35 49 22
9.55245926283134 39 54 30
10.534599149801725 42 56 32
10.654637590184914 42 56 32
10.774776144023367 39 53 28
10.561831186997683 41 55 30
9.504546193339715 24 38 8
9.59664917899654 28 42 13
10.287833679522402 39 49 25
10.431591205212925 40 52 32
14.451655058492635 47 57 35
11.024914334502176 44 57 36
11.024914334502176 44 57 36
11.352746439238246 46 59 40
10.468032858544488 42 54 33
10.590288508968996 40 52 29
10.590288508968996 40 52 29
9.484838338248117 31 40 14
9.819179988167964 31 39 16
10.157652902857514 35 43 20
9.495888864916191 31 38 15
9.471946367959564 32 38 15
10.190279528276177 34 42 19
8.59624346221885 29 37 14
9.09650504921934 30 38 15
9.221568549863603 44 58 34
8.976813977269252 43 55 33
11.392140150553715 29 39 15
11.08232106620287 30 38 16
11.025928993863511 28 38 12
11.08232106620287 30 38 16
10.157883241989916 33 42 14
10.833344965687285 30 38 15
10.38342431392067 32 40 17
9.946533174414629 33 41 18
10.174299379168067 33 42 15
11.304181732370699 31 41 16
10.536740852064835 31 40 14
11.022041190835942 34 42 19
10.320563362794434 36 44 21
10.670058282688988 35 45 19
10.68406647217992 33 41 18
9.437466421615929 42 51 25
9.84923157965851 39 47 25
10.23235167083464 39 47 24
10.2382313977527 36 43 20
9.022169825389474 43 53 25
8.912380389246401 40 50 24
9.954557065186695 34 43 15
9.545898711410773 35 45 17
9.351895963255474 41 51 25
8.615012329590765 41 52 29
10.376481704715593 38 48 22
9.703426495320603 45 55 28
9.347115732337585 44 53 25
10.550195297945994 36 45 19
8.381492306472424 39 51 28
8.818406891364448 43 53 27
8.615012329590765 41 52 29
9.70803128053938 45 53 29
9.829244097990042 41 54 33
9.756649309169164 38 56 36
8.981988461129482 40 53 30
9.925907611380751 40 56 33
10.290150214895876 41 59 37
10.144974471188288 41 55 32
10.095452802602622 42 58 36
9.796763600238748 43 58 38
8.892035895355406 43 57 33
9.667679657096642 42 57 34
9.645769459164926 39 56 35
9.434505425029089 42 56 33
9.772154613834953 38 56 36
9.803085249898878 40 56 33
10.362173727476248 40 57 37
9.640885743201588 39 55 31
9.99590125003729 40 56 32
9.14909232395642 38 50 27
9.596958786002444 41 53 31
8.95494296654483 40 52 30
9.67556224508101 38 50 27
8.840816008130426 39 51 28
10.928051189490677 37 45 22
11.079639815023487 37 47 23
14.615469571127273 48 59 36
14.618527161735155 46 56 34
10.893531697150033 39 49 25
14.572756113647939 44 54 30
14.572756113647939 44 54 30
10.970019543394557 43 59 37
10.50860192301049 45 58 39
11.41535601450971 47 60 41
8.404990581375237 31 41 15
8.128306582392963 28 38 12
10.851593589319878 14 20 1
8.294577078296921 27 37 11
9.325028211357376 28 38 12
9.473140817616013 28 36 13
10.173298710112844 28 36 13
11.050874859994748 14 21 1
10.691483326792273 19 27 5
10.18934259632508 19 27 4
9.415026773703932 31 38 15
10.843522475131927 29 37 14
10.388421319298555 27 36 10
10.48850242413558 26 34 11
10.222455734066074 36 44 21
9.482831985188112 39 47 24
9.855711628263332 32 42 18
8.670111446572678 38 48 24
10.449567524489748 35 43 20
8.808127905073574 31 39 16
8.512925492295462 29 37 14
9.152808459702355 32 40 17
9.53066181633915 33 43 17
8.565825713846728 31 39 16
10.031139896606323 37 45 22
9.906495568236764 34 43 18
8.534322010615115 31 39 16
7.947626101629616 29 38 12
8.73659984998931 35 45 20
9.035115756032283 36 49 22
9.874864823713086 41 51 27
8.73659984998931 35 45 20
8.96585671802862 40 50 27
8.858666506989648 40 50 27
9.873475648507767 30 43 14
10.654637590184914 42 56 32
10.238243844146368 32 45 17
10.627643360714911 43 56 34
9.85383888062414 39 54 30
10.080212684860504 40 56 32
9.882946901655075 35 49 22
9.927225836157445 25 39 12
10.998828906182599 46 59 38
10.185781080686656 41 50 28
10.468032858544488 42 54 33
10.468032858544488 42 54 33
11.378020499597913 44 57 36
9.96933596219265 33 41 18
9.979850026889464 31 40 14
9.495888864916191 31 38 15
9.410218559525655 44 56 32
8.288760499664189 42 55 32
11.28940869751039 30 40 14
12.137821875135634 27 37 13
10.036123512471972 35 43 20
8.359704632339636 41 51 26
9.541215678029326 42 51 23
9.84905177010544 37 47 21
9.335692692723416 37 45 22
10.236718532297042 33 43 15
9.954557065186695 34 43 15
9.022169825389474 43 53 25
10.476676866360757 36 46 20
9.684613260558946 44 53 27
9.065730064067944 45 55 30
9.045590630304343 45 55 27
9.074268059563979 42 54 30
9.453682586867307 38 48 27
10.60204133510946 42 57 34
9.869300395554573 40 50 29
10.721424950087407 38 47 27
9.432863656941501 43 57 34
9.942757657866904 41 55 36
9.695801406680257 40 52 29
9.67710406472143 39 56 35
9.21018208281549 41 54 33
9.228284233683723 40 55 31
14.615469571127273 48 59 36
14.49780843990501 47 59 38
15.496950465034255 47 57 36
9.115810661172343 31 39 16
11.595341462919437 9 14 0
9.489355956435459 29 37 14
11.415970398570423 29 38 12
9.44914068119666 28 36 13
10.112251158870368 29 37 14
8.76859492611019 30 38 15
8.534322010615115 31 39 16
8.980798598662739 37 47 23
8.55357370505801 32 42 18
9.482831985188112 39 47 24
10.005142360156059 33 41 18
10.119743852543854 36 46 22
10.420555975032311 32 40 17
9.312050834406612 33 42 16
8.641672867336936 31 39 16
9.696055283111166 35 43 20
8.107975050956806 29 38 12
9.637429468566122 36 50 25
9.972689985015094 32 45 16
9.582482806855744 36 50 23
9.76733409128635 33 47 20
9.975795568581555 33 43 15
10.440556170622973 45 58 37
10.823660014682835 30 38 16
10.29853828405361 35 43 20
10.469276644103973 32 40 18
10.329043125310873 30 40 14
10.599953934527125 33 41 18
10.742253321284272 35 44 18
9.238026770300172 38 48 27
9.815052569282159 37 47 22
9.676607323604513 34 43 17
8.754721061884705 40 53 32
9.96407190155696 39 49 28
10.096986834399294 40 57 36
10.144974471188288 41 55 32
9.982358468963765 40 52 29
10.762378068797616 40 57 36
10.126925385037744 39 55 31
9.410406754097636 41 54 33
10.670342806145738 47 60 41
11.063441531993751 46 62 42
9.029432425033404 28 38 12
10.925760048461308 31 39 16
10.159587980090311 32 38 15
9.441390610049721 39 49 25
9.566670094087144 36 52 27
9.942287006374901 39 51 30
9.181350722762838 41 51 27
10.904853394617104 42 58 36
9.640820038815754 43 52 26
9.819179988167964 31 39 16
11.629158794972225 27 37 11
8.706048239363227 38 50 27
10.534142844237099 37 45 22
9.544461656038212 40 49 25
10.494070225876818 41 51 25
9.97130795147249 38 47 21
9.221568549863603 44 58 34
10.470532452185351 36 44 21
10.538606668796536 32 41 13
8.752951789365238 39 53 29
9.720727368676211 42 56 31
10.360678960084782 42 58 36
9.640643051710697 31 42 14
13.076843068964648 26 40 10
9.825191195668706 38 48 24
10.561831186997683 41 55 30
10.057001005362817 31 38 15
11.050548995814559 30 40 15
9.150591470348159 44 54 27
10.694498802043697 42 58 36
11.141060760032916 41 54 35
10.848739053209004 34 42 19
8.793230514782756 29 37 14
9.484838338248117 31 40 14
10.331117875626433 40 48 24
14.618527161735155 46 56 34
10.021209634151635 38 48 22
9.903055357858873 28 36 13
10.168736818356976 26 35 10
9.510004809964855 35 45 21
11.270651589262348 28 36 13
