10.725795539347939 8 22 0
10.876915497357977 22 35 6
10.357743556100436 20 34 3
10.227688542394462 39 49 21
10.32539782124592 35 45 19
10.177887845926776 37 47 21
11.109261749288427 34 44 18
10.562753082129202 36 47 21
10.41860420168191 35 45 18
10.396768556648261 34 45 19
11.009151219288253 38 48 23
11.209638579528471 31 42 14
10.990341850040611 30 43 12
11.470479132165147 30 43 14
10.795714536736794 27 40 10
12.28497447569278 32 44 14
12.739402512973992 33 44 17
13.71499519106646 40 50 23
14.26439173642259 42 53 27
9.811549358310899 35 45 19
10.890187869672221 37 49 23
10.729270039626925 37 50 23
11.385105664836054 41 55 30
11.768135540619038 38 50 26
11.385105664836054 41 55 30
10.10899336769601 24 34 4
11.271312331791135 27 40 13
10.992860007178837 21 33 2
10.842671507855751 30 39 11
10.992860007178837 21 33 2
11.769513071249248 28 38 10
11.62462950312516 31 41 17
11.705872619657104 38 45 20
12.396833524000671 40 48 25
12.516271100414087 38 44 19
11.163414129301838 42 50 27
11.496045871722107 39 48 22
11.914055363980347 41 51 26
11.756187690326781 42 50 26
10.868109272958426 40 53 26
10.057727708678783 39 49 22
10.801735693588041 38 48 22
11.338885141836428 41 50 24
10.188675620081098 42 50 27
11.022940896981346 39 49 23
10.82996154862772 41 51 27
10.678308375619425 37 47 19
9.884703182128634 43 51 28
10.356032834346651 44 54 29
10.5425643073028 44 54 30
10.236840282786089 45 58 34
10.533230987455795 45 61 34
10.973965157982732 45 59 32
10.385731224069444 41 53 29
10.80236756840004 46 60 33
10.238825618886228 47 53 30
11.321223491140035 44 56 32
11.138902463451055 41 54 27
10.661204532236072 41 54 27
10.148379482153196 48 54 32
10.689801458810727 46 56 32
10.315991665460762 42 52 28
9.715166329255046 43 51 28
10.148379482153196 48 54 32
10.238825618886228 47 53 30
11.274085820807201 51 65 38
11.040771725535127 39 49 25
10.725468802546626 42 52 26
10.631568896097928 45 55 29
10.63890564166747 41 51 27
9.920942892879685 41 51 27
17.46310355253902 45 59 35
17.44817875711448 48 62 38
17.46310355253902 45 59 35
11.155157580384024 12 26 1
10.778418569020094 9 23 0
11.199041268001345 24 37 10
11.582483522009742 16 30 3
11.681752727929707 27 40 12
11.492282321477584 25 39 10
11.89936820564832 29 42 15
10.711421728510231 38 48 25
11.228320150121796 26 36 8
11.280525022101594 27 37 9
11.942104733686822 27 37 11
11.02029726970993 30 40 12
11.570586253734735 26 36 10
11.798597536774578 34 47 18
12.307320489407317 32 45 15
12.307320489407317 32 45 15
12.169566923676461 30 44 15
12.169566923676461 30 44 15
11.519700882337924 31 44 15
11.728583334449482 32 45 16
11.787667024585701 33 46 16
12.178705694845004 35 48 19
12.456789601430824 42 54 25
12.770359343815432 40 52 25
12.81527771831376 35 46 19
13.090567592530515 33 45 17
12.979657338294919 38 48 22
14.00297985290067 44 57 30
12.715842517143532 43 56 28
10.950450255937701 43 57 32
11.612375750308422 40 53 27
11.675882271583209 43 55 31
11.85011882450506 30 40 13
12.403247524642978 32 45 15
11.30947710587935 31 41 13
12.617936744044455 32 45 15
11.771828590868632 30 43 15
12.052319386629286 35 45 19
11.603785134459322 32 43 15
12.000816970766788 34 44 16
11.745115022507749 32 45 16
11.369962661660509 31 41 14
12.651603157282958 33 46 17
12.391207314176134 36 47 19
11.661867613327253 41 51 26
10.506662175530252 45 58 28
12.545572385706008 38 47 21
11.447444156005613 43 57 28
11.511741830724448 42 51 25
11.79721270518592 43 53 27
11.447444156005613 43 57 28
11.470060482412947 38 47 21
11.203640790734907 44 57 26
11.447324740904797 39 49 23
11.014756458011366 40 53 26
11.703739593518138 38 49 23
12.10371559521836 38 51 24
12.143222130759698 44 56 32
12.207414753190461 36 49 22
12.207414753190461 36 49 22
10.6452800339287 41 51 27
12.149189261078039 41 47 22
11.804218140448436 40 49 23
11.5436328919918 43 49 25
11.213983766681533 43 50 27
11.4368240020681 41 51 25
11.121711556817191 39 49 24
12.18783010735324 39 49 26
12.33407218697868 39 49 26
11.856806222773274 39 47 25
11.792550465110848 39 49 23
11.869732182409384 39 49 25
11.714857294843332 39 47 25
11.388257045278614 40 49 21
11.320199451428936 39 48 22
11.640141235654445 38 47 19
10.40883306266375 51 65 38
10.78237915138329 45 59 34
10.288140461331194 47 61 34
10.702360153952865 44 55 31
10.531425563212942 44 52 29
10.531425563212942 44 52 29
10.511758101354406 44 51 28
9.911297825571987 41 53 29
10.302898573943695 42 51 25
10.419385060409084 44 54 30
10.738938048317442 43 57 30
10.151923788691382 46 59 32
9.932154378547134 46 52 29
10.440068484244343 41 53 29
11.197826443613334 42 56 29
10.722753892968962 41 55 29
9.773232510392454 48 52 30
10.922404260445726 42 52 26
10.66361949999661 42 52 26
10.680973381171071 42 51 25
10.778093427480666 42 52 26
10.515757887266469 42 52 27
10.902635915684199 41 49 26
11.419849071645958 42 50 27
11.560784897689649 40 50 26
11.894457216884303 40 50 22
11.445545999267097 43 56 23
11.106208289860138 41 55 24
11.161839329126453 42 55 24
10.829650775628549 42 50 26
11.560784897689649 40 50 26
11.578670625885946 42 52 28
10.90568643257512 42 52 28
12.080875130725552 35 45 18
11.700431701992972 33 42 16
12.292144204796742 34 43 17
11.297949329470908 36 45 17
11.38241995646673 35 45 22
11.143953766335676 36 46 18
11.358496272413754 37 46 20
11.496290827817994 35 45 19
11.938065026310255 37 47 23
17.495473774202345 45 59 34
10.876915497357977 22 35 6
10.056175051514714 37 47 20
10.297762771352716 39 49 23
9.55207106589168 35 45 19
11.109261749288427 34 44 18
10.700394160303253 38 48 22
11.470479132165147 30 43 14
13.962515098063138 43 56 29
10.890187869672221 37 49 23
10.729270039626925 37 50 23
11.75647692366114 26 34 11
10.642219559355881 24 34 5
10.492119384268696 29 38 10
11.502831249069333 41 47 23
11.370606297899858 40 47 23
11.163414129301838 42 50 27
11.756187690326781 42 50 26
11.49793569160425 42 50 28
11.793062880909687 41 51 27
12.11664550603375 41 49 25
11.469345103232047 36 45 17
10.756483308073319 42 51 26
10.896163192591507 44 52 29
10.677735962108914 44 54 30
9.796181243273418 44 52 29
10.461813755105085 42 52 28
10.303488442735205 42 52 27
11.040771725535127 39 49 25
11.312532616431433 50 64 37
10.42289992830426 40 51 25
9.759756139780848 41 51 27
10.363564643784153 47 57 33
10.877155248845211 41 51 27
11.067103815164018 35 45 17
10.84248717710655 45 59 32
10.957505228997745 35 45 19
11.359510748233832 45 55 31
11.916513429679178 27 40 12
11.52423325743523 14 28 1
11.263732748188906 23 36 9
11.998557214189178 26 40 12
11.711563318793917 30 41 14
11.04667816463475 29 42 14
12.224516108612079 24 34 7
11.163423457587067 28 38 10
12.603950352106445 31 44 16
11.66513124391158 33 46 17
12.398707496399096 31 44 15
12.818081918579555 37 49 20
12.613473990158624 36 47 19
13.175853730087251 37 48 22
13.484927999017945 40 52 25
10.950450255937701 43 57 32
12.540380240585057 39 52 25
12.193903555885095 32 45 16
12.000816970766788 34 44 16
11.997086252990897 32 45 16
11.8243284377705 32 44 16
12.381512713753846 33 45 16
11.863277744824156 37 47 21
11.579435703724561 36 46 19
11.927269997274653 36 46 19
11.744591648070362 44 55 28
11.347262295342215 42 54 24
11.030381967873097 41 51 25
12.26312942364387 36 46 20
11.15587754942936 40 49 22
11.936129305783886 41 48 23
11.576556729597923 43 49 26
12.411164486244674 38 46 24
12.092829050638898 37 47 24
10.891745116957248 41 55 25
10.93748944129735 42 49 27
10.764242022745403 42 56 24
11.154843420044225 41 51 25
10.5581922043266 49 63 36
10.288140461331194 47 61 34
10.49839252841391 40 54 26
11.100216631507063 41 51 28
10.531425563212942 44 52 29
10.187212940563969 44 51 28
10.555041258461143 43 55 31
9.971557959515405 44 55 29
11.802728841002407 41 51 28
11.143953766335676 36 46 18
12.102420735979358 35 44 18
12.937083571851774 35 45 22
12.328680092610565 36 46 22
12.711510013126965 36 46 23
17.584743941294768 44 58 33
17.56992247377384 46 61 37
10.49529583560364 26 40 9
17.352253792116077 37 47 23
10.700394160303253 38 48 22
10.41860420168191 35 45 18
10.250285715909776 37 47 21
10.562753082129202 36 47 21
11.286058433271425 34 47 19
11.009151219288253 38 48 23
11.084863604602896 38 48 22
10.187142921153944 24 34 4
10.725468802546626 42 52 26
10.461813755105085 42 52 28
10.238825618886228 47 53 30
10.385731224069444 41 53 29
10.396180641572172 47 62 35
10.723890646686861 33 43 15
10.304480861482105 39 52 25
10.461554530975878 43 53 29
10.481316196770658 48 54 31
10.501298923024521 48 52 30
10.73344143261503 43 57 30
10.761846409329488 46 60 35
10.80236756840004 46 60 33
11.1209862545853 15 29 3
11.611793932251388 28 42 15
11.345111400843367 36 46 20
10.8726037221781 39 49 25
11.237560782320292 47 60 31
12.640497629640064 37 50 23
11.661867613327253 41 51 26
11.82111356181845 40 50 24
11.224696067713824 30 40 12
12.2037471930662 34 47 18
12.168841801075652 32 45 15
11.771078966796466 32 43 14
12.115313175249252 35 45 17
11.946084390312215 31 44 15
12.082172299030175 40 53 27
12.307320489407317 32 45 15
11.792550465110848 39 49 23
11.859611311509372 38 48 25
12.277283193665404 39 48 20
11.352755120079792 44 50 27
11.936129305783886 41 48 23
10.940530240083294 42 52 28
9.996496371944373 46 60 33
10.956392713416037 43 52 26
10.829650775628549 42 50 26
10.939475753527635 45 53 30
12.279387783914556 40 48 26
10.302898573943695 42 51 25
10.379588287252341 42 50 28
10.901577763691318 42 52 26
10.798473944062838 46 60 33
10.886695116220901 40 50 24
11.335536768232775 37 47 20
11.400585514677617 39 48 22
12.146123805307486 30 39 11
13.594899096547316 35 45 22
11.620604128826182 36 46 22
17.495473774202345 45 59 34
10.859062154617916 29 42 11
10.890187869672221 37 49 23
11.429287627349392 26 36 10
9.905615731033027 41 51 27
10.661204532236072 41 54 27
10.356032834346651 44 54 29
10.928810897520696 24 38 9
11.284492641603395 33 43 17
11.610795520069294 24 34 6
11.203640790734907 44 57 26
13.046597053150492 38 51 23
11.734362844137731 40 51 25
12.67287475382307 31 44 14
11.927269997274653 36 46 19
11.461482466578882 33 43 17
12.715842517143532 43 56 28
11.347262295342215 42 54 24
11.620601141730535 38 48 22
11.932605635073003 41 48 23
10.16687963360878 42 53 29
11.904548462933613 40 52 22
11.586169248410584 41 53 21
17.584743941294768 44 58 33
12.156835902329268 42 49 25
11.231281082136713 40 54 27
10.966477464620484 36 46 22
9.738530376596099 41 51 27
12.60325022159483 35 47 20
13.368308278970721 42 53 27
12.291433756443476 32 43 14
11.08639350684685 39 49 23
11.756543501572226 39 49 23
10.927755280093397 28 41 10
10.127968211921033 43 53 29
10.820876120085607 39 50 24
11.029644365590757 33 43 17
11.081688322761252 45 58 31
10.401594757944524 45 58 31
11.050170339928838 40 48 26
17.480576616271044 48 63 39
10.922725106222263 11 25 0
11.681458672888592 39 52 25
12.014096750562823 33 46 17
11.888530344046575 30 43 14
12.640497629640064 37 50 23
