10.320741392653948 27 36 11
9.785996497668133 3 11 0
10.272694816090546 1 10 0
10.28903281579632 42 52 29
9.47812858396712 9 17 1
9.735698976457895 19 27 5
9.296696569445592 11 19 1
9.554100964624407 9 17 0
10.324090509916061 28 36 13
10.671241746806672 23 29 7
10.079601297313339 6 14 0
10.736033942420299 19 26 5
10.653632877128823 8 16 0
9.387875107951256 10 17 0
12.583842066116427 34 40 18
11.001134311740827 34 40 18
12.168650008894682 33 41 18
11.545648281969708 35 41 18
10.254720350131905 21 30 3
10.1664264677285 22 32 6
9.93696389838173 32 42 18
10.027278486878712 28 37 9
10.189939617842262 30 38 13
9.969792281048228 33 42 16
10.027278486878712 28 37 9
10.261495470694719 35 44 20
10.475514335015284 29 35 12
10.504731133594017 26 34 10
9.93200798859834 30 40 13
9.269823800459747 27 36 10
9.889843368142095 24 37 10
9.968680730880271 26 38 14
10.721872857507499 26 37 13
10.269113688916448 23 33 10
10.244031881152216 28 38 15
10.537488221308891 26 38 15
11.033250036166972 36 44 22
11.2289690046876 27 40 15
11.041339394946913 31 42 17
11.2289690046876 27 40 15
9.459368583491853 10 17 0
10.432993263512731 11 18 0
9.636735878520481 8 14 0
10.580989307457243 29 35 13
10.472836130606444 30 36 14
11.462282868464078 29 37 15
10.543518854951015 30 38 16
12.235217043470183 31 39 17
11.147822310597824 33 41 21
11.97595499301974 30 38 15
10.813339963992076 31 39 17
11.147822310597824 33 41 21
9.872292434209909 31 37 15
10.059081459088073 29 37 15
9.643990384002946 31 39 17
9.659343589943983 28 36 13
9.685939570450566 25 34 7
9.593516773029462 23 29 5
10.509637211377171 31 39 17
9.622396405525688 35 43 21
10.232799346458945 31 39 17
10.892716973780205 32 40 18
10.508717541113276 32 40 18
11.84185868192203 38 54 32
11.173298199215886 37 53 29
10.651552387074371 38 48 25
10.013637874197704 36 46 23
10.017636643302366 36 46 23
10.878974324441868 41 55 30
10.771976364981835 37 50 23
9.7519857022234 39 53 25
10.177190226515352 36 48 26
9.462326958445805 37 50 25
10.873472879997838 37 53 26
11.111138650860998 36 49 28
11.160153225479773 40 56 31
10.447047170110748 37 51 24
10.942323346741581 37 50 29
10.524508902384456 40 54 27
18.697696357941712 42 55 30
18.69506299164638 38 50 26
10.861061877951629 42 50 28
10.845585628111289 8 18 0
10.599145107540767 21 31 8
10.282456000621476 23 34 11
11.500673090080408 31 41 18
10.341052002813818 27 37 14
10.154601213180547 25 37 13
10.826559685832265 24 36 12
10.764235854861875 30 40 19
11.205089784858947 35 47 24
11.418712066988292 38 50 29
11.406574734020518 36 48 27
11.189058380726213 29 37 17
11.356799229330505 29 37 17
10.003424745198588 35 44 26
11.157221115006646 33 39 19
10.78546312324966 33 43 20
10.725561021276587 31 39 19
10.099980556359512 35 44 26
10.775345751807725 35 44 26
10.78546312324966 33 43 20
10.684982290898123 36 48 27
11.325516120202517 36 46 25
18.797579323201152 33 49 25
9.947006956053274 32 44 20
9.100832302363875 33 45 21
9.722591245851032 36 50 23
8.654781859609018 31 43 20
9.106240575995692 34 48 21
10.042135158999386 30 42 18
9.092182376612225 32 43 20
9.9786918671865 33 47 23
8.913837141895264 34 48 22
9.220742175121856 34 49 22
10.056832754306567 33 47 21
10.036220314352425 37 51 24
9.984638185467817 34 46 23
9.651949260661334 37 49 25
10.780810491749833 33 42 24
10.401929329914406 30 38 20
16.35103456059026 23 33 8
9.495833768248819 14 22 2
16.52873143878396 24 34 10
9.463502699752654 8 16 0
9.831981979044116 20 28 6
9.831981979044116 20 28 6
9.95792403188427 34 42 19
10.335584817743904 32 40 18
10.196757781321969 24 30 8
10.109962310453461 28 34 14
10.81142533964192 16 24 2
10.091374087835618 11 19 1
10.254720350131905 21 30 3
10.219972848362174 25 34 8
9.772165929793118 29 38 11
11.198234819966524 32 41 17
10.041997826623067 30 40 17
10.387852072423094 22 34 8
11.167037230806729 23 37 11
9.415381669326258 36 42 20
9.503294280426466 21 27 4
11.362521306941357 30 38 16
10.624911846162245 31 39 17
10.580989307457243 29 35 13
10.7812046094355 24 29 8
9.734941286874916 31 39 17
10.813339963992076 31 39 17
11.745321576552234 39 54 32
11.160153225479773 40 56 31
10.974996637084951 41 55 30
10.05198118493854 39 53 25
10.647015228997118 38 53 27
10.874447734009522 37 49 25
9.716580844682223 34 44 21
10.588464253582522 34 46 23
11.430113247398172 41 55 30
11.84185868192203 38 54 32
10.895246130416623 41 55 30
10.083929145462367 26 35 12
10.282456000621476 23 34 11
11.352464804212714 28 39 15
10.713542285291446 28 40 16
10.599145107540767 21 31 8
10.764235854861875 30 40 19
11.249193459753274 36 46 24
10.003424745198588 35 44 26
10.611467989348462 33 43 20
10.775345751807725 35 44 26
10.979184049972082 33 39 19
10.38993300482871 35 45 25
11.325516120202517 36 46 25
10.461178380562298 31 45 20
10.456470928462597 31 43 19
19.015426818240996 34 48 23
10.056832754306567 33 47 21
8.989259157753589 34 42 20
9.465438757001255 38 48 25
9.717526007258149 34 46 22
9.328614464401443 31 42 19
9.204709651237739 31 43 19
9.249592500450607 35 47 24
9.951955396600852 33 47 22
16.4157242021616 26 36 12
9.20676406802854 16 22 0
11.293337102858017 20 26 4
10.9840543155436 32 40 18
10.220019891694385 28 36 15
10.896138980970171 33 41 19
9.630429619102129 15 23 3
10.443218882473394 25 34 8
10.161582469850353 19 28 2
9.85815834405707 6 14 0
9.759304237217972 28 36 14
9.785628542327204 24 32 6
9.23052630635783 8 13 0
9.517859017992183 12 19 0
10.123835426996681 33 41 19
10.459601259730075 29 35 13
9.407997244015652 33 45 22
11.060329167986325 39 53 28
10.070642118579519 38 52 25
10.560127911756958 36 48 27
10.534867172790893 40 54 27
10.149569055418333 13 23 1
10.890427862343135 29 39 16
10.87046515530679 32 42 19
10.85779942948007 35 46 25
11.447086447185292 29 37 17
11.889171361935672 28 36 16
10.897734678140173 31 39 19
11.047586916471378 36 45 27
11.41338881740093 34 39 22
11.538462984873169 30 38 18
10.503541351321035 31 41 18
19.06326015680557 34 49 25
9.440368376934849 34 48 21
10.036220314352425 37 51 24
9.82991604064143 35 51 24
10.786360923247805 31 41 17
10.722049794469724 32 40 16
11.647358784835035 30 38 16
9.98168824902335 35 47 24
11.450748043450686 37 51 26
10.863308811344481 38 51 30
10.874447734009522 37 49 25
18.526422810559986 37 49 25
10.328495268465073 15 26 2
11.418712066988292 38 50 29
10.410817171432296 33 43 22
9.8148786477255 33 45 21
10.047270830067736 31 39 17
10.776545997669563 36 52 25
10.886879775233831 26 39 13
10.013637874197704 36 46 23
11.702181911112199 37 48 26
11.44193992910777 28 36 16
10.240121519806072 24 38 13
11.167037230806729 23 37 11
10.639540425362725 35 43 20
10.775345751807725 35 44 26
9.730730205151092 30 42 19
9.437449333413795 30 38 16
10.163389940003091 23 35 12
