9.340211909134794 21 33 10
8.640361153636194 11 25 0
9.02247543623913 16 28 5
9.176525185606474 28 40 19
8.938097727413913 22 34 11
9.512375839389536 19 31 8
9.160783229157655 18 30 11
9.391306032674475 21 33 12
8.91570248138705 25 37 17
9.625528484181887 25 37 16
9.608318771762658 18 32 8
8.31434804237871 15 27 4
9.14577715561941 24 33 19
8.572731231817357 24 34 18
9.28176776808753 24 35 19
9.467484053196387 38 47 35
8.367178698710662 20 32 14
8.992779139185355 24 37 17
8.485145484517956 20 32 13
8.982378695143996 23 33 18
9.80119650514838 48 56 48
9.917164312777171 29 42 21
9.917164312777171 29 42 21
10.138655341037488 28 42 19
9.863738239831731 35 44 26
9.907284447809682 24 36 15
11.08062934321088 31 44 26
10.422419471233773 27 42 19
10.206747782686342 35 44 25
9.986767053538681 35 44 26
9.735778803315869 31 43 24
10.341127013743119 34 43 25
10.35654051368679 33 42 24
9.97730407084447 30 42 23
9.649062773366268 31 43 24
10.160097097214251 30 42 23
9.993278742202572 29 41 21
9.770659126751239 29 42 23
10.029028444256877 28 40 26
9.980598958037888 36 45 27
10.233669299216835 36 45 27
9.575494769619285 35 44 26
9.430211687338264 35 43 25
10.21633805118948 34 43 25
10.463708469788722 32 42 24
9.847397439808528 20 30 20
8.93382676703914 35 44 26
9.619722847680027 32 44 25
9.84129808237673 36 45 26
10.064803787514798 30 43 25
9.700354815595675 30 42 25
10.159356048145789 28 40 24
9.92012922438337 36 45 27
10.141897808765641 30 43 28
9.766167098866962 21 32 20
10.184912564796157 21 29 22
10.297792201853628 30 41 26
8.307326841728274 31 42 24
8.616871337109774 31 43 26
8.616871337109774 31 43 26
8.218068517621024 36 45 31
8.400865277043831 38 47 33
8.237455532965383 34 43 27
8.598339848077407 39 48 32
10.593071794160378 33 42 29
8.875553083910814 37 44 31
10.593071794160378 33 42 29
9.847556938207124 35 44 28
14.689247396072805 35 46 27
14.44074778804847 33 45 26
15.030885139282542 38 50 33
9.82507630753694 37 46 28
10.854094146988045 37 48 31
11.388294051204069 31 40 27
9.156891467946311 33 44 29
9.48295343643357 34 43 28
8.895493106640531 33 43 27
8.911314128875134 35 48 31
8.702329745577202 34 46 29
9.08899713778935 35 44 26
8.89112215012649 36 45 27
9.139455008832844 34 46 29
9.865532561205287 35 47 30
8.39593655381893 34 44 28
10.135578787720942 12 21 16
9.850155617542594 54 62 58
9.998437365263815 14 24 16
10.50799110591953 52 59 63
10.333648277077996 51 58 64
10.034667742871 45 52 52
9.7414301748816 45 52 53
10.050205818282057 31 41 29
10.186650313269107 14 25 16
10.050205818282057 31 41 29
9.321401108998602 31 40 27
9.09782393102055 29 40 26
10.446615128674683 14 24 18
9.912491308552964 30 37 31
9.554861128497105 31 38 32
9.328380971912175 31 38 29
9.09782393102055 29 40 26
8.80520345561903 29 39 27
10.012263948520106 32 43 29
8.424658115468757 17 29 6
8.41482975897543 11 24 1
9.02650348993946 18 30 10
9.391306032674475 21 33 12
9.141038343908836 20 32 9
9.300840663631417 31 42 31
10.451531765347838 26 39 17
9.793261146773029 25 38 17
9.559972673330009 24 36 15
10.677974481456252 32 44 25
10.391765039675239 27 39 19
10.206747782686342 35 44 25
9.863738239831731 35 44 26
9.986767053538681 35 44 26
10.33999481357736 21 34 13
10.12406656421424 35 44 26
9.850055616768891 30 42 26
9.822764801739085 31 43 24
9.000925087799974 35 44 26
10.058338403705656 36 45 27
9.962324827332193 32 44 28
10.064803787514798 30 43 25
9.130776340801372 34 43 25
9.619722847680027 32 44 25
10.315808598734197 27 39 26
10.369406713646216 34 43 25
10.145729923729718 21 30 21
9.457738688902195 33 45 28
9.261633767925725 34 43 25
9.822764801739085 31 43 24
8.616871337109774 31 43 26
15.268624686035961 35 47 28
14.788127524649624 34 47 28
9.887917719819912 35 47 30
11.056832451900817 37 46 31
10.698338609881679 34 43 27
11.280561035647255 32 41 27
8.911314128875134 35 48 31
8.495453320364057 33 46 29
9.338662343248714 33 46 28
8.911314128875134 35 48 31
8.720640257344982 33 42 26
9.726014962707028 52 60 49
10.135578787720942 12 21 16
10.482985035840212 21 30 26
10.08249321681343 54 61 65
9.960298295337772 23 34 24
9.09782393102055 29 40 26
8.911424663871378 32 41 29
8.94743420204139 33 40 31
8.81852767554443 22 34 13
9.08809094466134 25 37 20
8.182897203968077 22 33 16
9.057765176470125 23 35 14
8.367178698710662 20 32 14
9.728248203920112 19 33 9
9.001976512753316 20 32 12
10.430998602605241 25 37 25
9.399106595276365 33 42 26
9.416062249509391 34 43 25
9.820962666561835 33 43 25
9.882039234425418 30 42 27
10.207087905794973 28 43 22
10.613922656302103 31 38 26
8.438754908016769 32 44 27
8.30021450929486 36 45 29
8.780345439821085 33 42 28
10.666348293512137 34 43 31
14.609925506322574 34 47 30
14.189143911642617 38 50 33
9.80254764493378 36 45 27
8.96485303813142 32 42 27
9.389764898708385 34 43 26
9.417410126598625 34 46 29
9.691921847333514 17 27 20
9.89433921202107 44 52 48
8.39819075847314 23 34 17
9.84129808237673 36 45 26
10.524748509834785 20 29 17
9.923371837590276 25 39 17
10.606774581082327 29 42 23
8.268835000213917 39 48 32
8.86394354323019 31 43 25
8.532922952483577 32 43 29
8.960515915586269 34 46 29
10.583584690167985 35 44 27
9.948583244193648 36 45 27
9.006293669317122 24 34 20
9.567838015611814 25 36 24
9.768491997316215 30 42 23
10.292297073950749 33 43 25
9.053829133367088 35 47 30
9.10875048432894 35 47 30
9.766881555649123 52 60 62
10.310567595291964 27 39 18
10.198486337701025 31 42 29
10.200905829956715 32 41 40
9.372866764875806 29 39 28
