10.028636337825011 15 27 5
10.274649471101712 21 35 10
10.424989955449673 13 27 2
10.852276683678332 17 30 7
10.80634231650293 13 27 2
11.881214598127766 21 35 11
12.225287878665155 21 37 13
10.457812440486181 16 30 3
10.975772627607423 21 36 11
11.272384026307346 18 34 10
11.59120010972498 24 40 16
11.03481369143778 16 30 5
11.17014942814447 20 34 7
11.053197789936789 11 27 0
10.7224075163339 19 34 9
11.246236475265997 20 34 9
11.228838442951936 24 38 13
11.319979405386965 20 32 11
11.311239942602556 19 32 11
11.39062616100932 21 34 11
11.411960815861585 23 35 16
10.79077774985125 25 38 17
11.3378901574132 27 41 17
11.19575113513944 24 38 14
11.749511386181547 24 38 13
10.794725452980261 23 35 17
11.221710745072185 30 41 31
11.306705041148522 28 41 20
12.298059738364504 26 37 29
11.667927390750817 45 56 47
12.261252558164305 43 52 47
11.710482678075214 51 61 52
11.625411904831314 18 29 19
11.360175318487753 29 39 26
11.75762287219978 25 36 29
12.283285676966019 27 41 17
13.014666541842551 35 45 24
13.31103904644932 33 45 24
12.433209707572928 27 40 17
11.639714768839351 22 37 11
11.973775307340993 29 43 16
12.734937591278761 31 43 22
12.561353962613932 35 45 26
11.677592648673587 23 41 16
11.492248112483587 23 39 12
12.16492491030398 37 46 28
13.725402370702634 38 46 26
11.25885160515363 27 46 21
11.79220686963824 29 43 19
11.79220686963824 29 43 19
12.027492401071315 28 42 17
12.002552557630265 29 45 23
12.274144450691846 27 43 23
11.565762599552352 32 46 22
12.189101888665956 36 45 27
11.48758674432805 31 44 23
11.728984602681788 32 46 22
11.956996874248778 35 47 28
12.444621659245122 35 47 28
12.568806597809061 37 46 28
12.323890643904354 38 47 29
12.229600498322407 34 47 28
11.716173648384308 34 46 28
12.37999101939367 34 46 27
12.6356538033765 32 45 27
11.965264683660473 34 46 27
12.468438648825499 34 46 27
11.893969466008913 35 47 30
11.27277639176189 39 48 30
11.63485672314606 35 45 26
12.331912475450466 38 47 29
11.736722837451609 24 38 20
12.367440022282267 29 42 30
10.754679860906915 36 48 28
12.089283671107243 24 37 25
12.367440022282267 29 42 30
11.307560462356783 35 44 32
12.48042118871896 34 47 30
12.151719810693873 33 46 28
9.904208591604085 36 45 29
10.440177530066022 36 45 27
9.853624995376613 36 45 28
9.741465025870246 36 45 27
10.324811739725833 35 44 26
10.382627048899106 34 43 27
10.276242491167373 33 40 27
9.944595788831244 34 42 26
9.470096743352542 37 49 28
8.9372710746555 36 45 29
9.590471089468402 35 47 28
10.018333312013743 34 43 31
9.765632599791516 35 44 26
10.424133594073428 33 45 26
9.369001845002412 36 43 30
9.522717816093778 36 45 29
9.448029351036936 34 41 32
9.6424352730222 36 45 29
10.41949818834261 33 45 28
10.42474442814291 28 35 25
9.807298726120575 31 39 23
9.611854722969808 36 45 28
10.162915528327247 35 44 30
10.251476484024026 35 44 30
9.923870941254687 37 46 32
9.938692964779223 35 42 31
13.107351352317885 35 45 24
14.075221499716312 44 53 35
13.740899964495409 40 48 30
13.379296289966094 38 50 30
13.524383554324583 41 51 30
15.44685093479638 38 51 31
15.251549138387443 46 58 39
15.997022605273337 40 53 34
15.123041023909908 42 54 33
15.50833921190804 42 54 34
10.094390450827616 40 49 31
10.094390450827616 40 49 31
10.280266911684226 37 50 29
11.179394835519897 38 47 29
11.179394835519897 38 47 29
11.175072715568058 36 49 28
10.212359569280492 38 47 29
9.730534931439431 37 50 29
10.643912142430594 41 53 32
9.8177852218558 41 53 32
9.847726308211241 36 48 27
10.2555106231086 35 47 30
10.685320578447795 35 47 26
10.333657438729292 40 52 31
10.162288956278926 33 46 27
11.412297759779241 36 46 44
12.014277407065215 30 40 36
10.956610003894074 20 28 20
11.227332966616416 28 36 26
11.888554856313872 46 55 53
12.05202754585451 12 20 12
11.141989116295484 21 29 21
12.507167154054747 51 59 54
10.496097474982479 30 35 27
10.269520111344686 26 34 25
10.077681380532344 28 37 25
11.359873461175752 18 26 19
10.528753160773961 30 39 26
11.03481369143778 16 30 5
11.272384026307346 18 34 10
11.227711992842332 23 38 14
10.586621873536819 12 29 0
11.118549301591852 22 34 17
11.311239942602556 19 32 11
11.757925093878908 25 39 14
11.177549814437961 36 48 34
11.710482678075214 51 61 52
11.825955907018775 24 38 13
11.791712709743416 24 36 25
11.985635086030891 21 35 9
11.284010396550906 23 35 18
10.518220685082731 25 38 17
12.801727698412119 32 43 23
13.080028356463266 37 46 28
11.973775307340993 29 43 16
11.911086515495763 22 37 10
12.266327435649625 23 38 14
12.101935270740457 28 44 24
12.010789008134909 29 45 24
11.868376390942688 29 43 18
11.426458540055748 26 45 20
11.496192148173197 32 45 24
12.6356538033765 32 45 27
12.396793775152338 37 47 26
12.323890643904354 38 47 29
11.453039171716803 36 45 27
11.27277639176189 39 48 30
12.056755104476084 36 48 29
12.6356538033765 32 45 27
12.596460754612593 36 45 27
11.728984602681788 32 46 22
11.457454877847951 33 45 25
11.728984602681788 32 46 22
11.716173648384308 34 46 28
12.080912534341754 19 32 18
12.484473519410718 32 45 29
12.804635791270393 33 46 32
10.108848157391936 35 44 30
9.878568400241054 36 45 27
10.376029272490689 33 44 28
9.098284085208878 37 47 29
9.137009775041223 40 50 30
9.969311585659787 36 45 31
10.410614439245352 32 39 27
10.276242491167373 33 40 27
9.282737616207124 36 45 31
10.029234064211213 36 45 31
9.731308039055985 37 46 26
9.694896924152872 37 44 31
9.648163936037651 35 42 29
9.282737616207124 36 45 31
13.17975875283361 37 48 27
14.075221499716312 44 53 35
15.633680514241973 45 57 38
15.997022605273337 40 53 34
10.391260326107819 35 48 27
10.029291667996683 40 52 31
9.527850163713651 37 50 29
9.512387994226552 38 51 30
10.04395812173769 38 50 29
10.656759367668085 34 47 28
10.957711600243835 25 32 26
10.703227750731164 28 35 28
10.586621873536819 12 29 0
10.457812440486181 16 30 3
10.539043488425062 12 28 1
11.968576383480574 12 24 15
10.561104365235368 24 37 17
10.978697571709496 22 34 15
13.575347198045218 37 46 29
11.492248112483587 23 39 12
12.412977755701878 35 44 26
12.424830789713896 35 44 26
11.982469636521186 24 38 13
11.622002420402316 36 48 29
11.74964514316432 27 38 25
11.487277410251291 33 42 26
12.372000361340536 34 46 27
12.789813520713016 36 46 25
12.495848605103747 17 28 19
12.056755104476084 36 48 29
13.512381542013497 38 46 26
9.755441554734473 35 44 29
9.91320024550105 37 46 30
10.334385427302289 36 45 27
10.212302998112705 36 45 30
10.628988782918608 33 40 31
9.821589537382406 31 43 24
9.853624995376613 36 45 28
10.064378284264174 36 45 27
13.107351352317885 35 45 24
9.8177852218558 41 53 32
11.021465865086634 15 31 4
10.975772627607423 21 36 11
10.820429184444661 19 33 6
10.197055653620456 16 30 5
12.301755535400515 50 59 53
11.151231704269694 28 42 18
10.919614219609306 22 34 13
12.878568699123381 30 44 29
12.032123235386907 37 46 28
11.87757937128673 29 43 21
9.731248671367029 33 41 25
9.755441554734473 35 44 29
15.44685093479638 38 51 31
10.652225191487748 33 46 27
11.179394835519897 38 47 29
11.141989116295484 21 29 21
12.031449954410801 30 43 27
9.559724312917375 39 47 29
9.893458294636611 39 49 31
10.078653452986064 36 43 32
10.104182464356892 39 48 30
9.705211072575011 40 52 33
11.179394835519897 38 47 29
13.17975875283361 37 48 27
12.077395547029967 27 46 21
12.499895934395433 18 30 21
12.640297251009212 37 47 26
11.800590135904256 29 43 19
12.468438648825499 34 46 27
9.331300910625377 35 47 29
16.056404128677467 43 55 36
12.302356955325722 12 23 16
10.52416383520764 28 39 25
11.72480519996726 35 47 26
10.58285070932161 35 44 28
10.15243917675082 35 42 31
12.90488663237102 52 59 57
