13.86450554751385 63 67 50
13.340439839042173 38 40 14
13.80373205668864 40 43 14
13.05214387860815 34 36 11
13.687402602052945 30 32 4
13.593986704652211 45 47 28
13.503887038118963 42 44 24
12.847456876511037 29 31 7
13.220034281231488 32 36 17
12.971321324212832 39 41 14
12.630491692754115 35 38 9
13.52335079386789 43 48 18
13.153382369384776 44 48 17
12.955331226271284 43 46 17
13.623889601683729 46 52 22
13.315238879103372 43 48 17
13.324892696961008 40 42 16
13.179914875338339 44 47 17
13.342598607184613 45 50 20
13.55041927648281 47 52 23
13.660175428275965 46 51 22
13.114800719722728 43 46 15
13.07331063877942 48 52 23
13.487954659444318 49 54 24
23.415549599905102 60 63 51
23.14279685441613 54 58 39
22.937536317790887 66 66 61
22.6022055352993 48 52 34
13.98784370308611 37 37 9
14.302917641406927 43 48 17
13.829143203698013 38 41 12
13.913551771351266 44 49 19
14.302917641406927 43 48 17
19.43906899380641 40 45 20
18.67449460312698 39 44 19
13.497043299122652 35 40 13
12.042829883775868 36 41 14
11.85698164655158 37 42 15
11.951922815149464 36 41 12
12.353760979997412 33 38 12
11.982250017193689 39 44 17
11.154993915987204 37 42 13
12.11287459947417 36 41 12
12.830389902123692 36 41 10
12.565411010216053 36 41 12
12.576850448248697 37 42 11
12.119234941345761 38 43 14
11.687236989822354 37 42 11
13.231048442335235 32 37 8
11.964085362280542 31 37 6
11.19345626055174 35 40 11
11.892169089917935 32 37 6
11.885677629286848 26 34 2
11.544092275819665 30 37 5
12.017070665144512 28 35 5
11.921508882231398 33 38 11
11.230557056926976 28 35 3
11.102662034503684 26 33 1
18.04961561773951 25 29 8
17.572765684016517 26 30 8
11.733858935195526 30 37 5
11.457385614630372 24 31 1
11.166913321417006 25 32 0
11.064031665533438 24 33 1
12.012030557073718 33 38 9
11.72845759656248 27 34 2
12.217707251653234 27 34 4
11.544355418652861 27 34 4
11.270216163813842 32 37 9
11.981623365149384 22 29 0
12.310932946343803 24 29 1
12.95975026010614 62 69 37
12.629870047484157 57 64 32
13.258882476423176 57 64 32
12.499709602477806 62 69 37
12.43102383105392 45 52 21
12.914507140669327 52 59 28
13.051551068682041 48 54 24
11.921222895312855 54 63 31
13.009850498121734 63 72 39
11.006139228470369 42 52 15
11.135142939044705 42 51 15
11.721335198026015 43 50 17
11.363628951030746 45 53 19
11.550602150709208 54 61 27
11.179217354358242 46 53 19
11.630241355962443 42 49 15
13.975539631155144 50 55 25
17.449482645475243 50 57 25
11.69261582231303 49 56 24
11.358021379414609 46 53 21
12.585217310066636 46 52 27
13.928398800915613 44 48 33
13.277231214358357 53 59 40
13.206621932611164 51 56 38
12.850726682799488 49 54 31
11.252463465620968 48 52 26
12.200565207767237 48 54 27
11.538550103728134 45 54 22
11.401510691690262 44 53 21
13.454910891916546 44 50 26
13.675940950249966 49 54 25
12.706137516503695 48 55 24
12.398933177102672 46 52 25
14.158607323808605 42 47 28
12.973378209211598 48 52 31
13.73302323038451 58 62 45
14.18335852471406 53 57 42
14.178783210984822 63 67 53
12.945373137302706 51 55 35
11.483204909409759 43 52 20
17.74709148187579 19 23 8
17.74709148187579 19 23 8
11.94885334774238 48 53 28
15.883551905494599 1 2 0
14.67560257995279 48 53 28
12.464910607360089 50 55 30
15.074700102092024 46 43 27
22.19061267395463 49 45 25
12.405354492732135 36 41 10
12.387537376227984 36 41 12
13.697905070945717 34 37 8
14.112867857194793 38 43 14
12.200614388163876 32 39 5
12.478555076006375 34 39 10
13.576217949723292 37 42 13
12.323501521109748 34 39 10
12.323501521109748 34 39 10
12.530336962928859 35 40 11
13.104911124818814 35 40 11
13.795312828588509 35 40 11
13.576217949723292 37 42 13
20.869590424097055 35 38 6
20.869590424097055 35 38 6
23.555130096932412 56 64 35
23.375252213409528 52 62 32
14.41345929777826 42 47 17
13.136730267504829 35 40 11
12.235895803322874 34 39 10
12.370053730236238 40 42 16
14.972053254056016 40 45 17
16.271500719840002 41 46 17
16.36781684035079 45 50 21
15.885438802947025 43 50 20
15.849399784176619 42 47 17
15.07236135893816 41 46 17
15.47040618956245 42 47 18
13.437316466705514 50 55 29
16.507712037039386 45 52 22
12.902585136465042 43 50 20
12.853241845295958 47 54 24
13.170535483100364 40 45 14
12.598954469587825 39 44 13
13.214919369385823 49 54 25
12.670204309408334 49 56 26
12.094489233088364 46 52 25
13.531667956736458 49 56 26
13.36755280437633 49 54 26
13.242477739052726 48 55 25
13.572620562249254 45 53 21
17.214205822745708 52 61 31
12.822225730197813 46 52 21
12.396665364784122 44 51 18
12.822225730197813 46 52 21
11.873422711698385 42 50 16
15.00796685141412 47 54 22
18.11199975156217 50 59 29
13.421881541453732 50 55 27
13.480813565925375 49 55 28
12.506489595445906 48 55 26
13.641883858885752 52 58 30
13.709260845815429 51 57 29
12.170657217831845 49 57 25
14.013763619439 49 57 28
13.605574435931775 48 55 23
13.647540004528194 48 56 25
13.7622323995315 48 56 27
13.457877435038933 47 56 27
13.641883858885752 52 58 30
14.577921435781807 52 58 28
14.758517499641137 48 55 27
14.174990761951328 51 57 29
14.400420165547587 51 57 28
12.834275831036 49 54 25
12.381048748042842 48 53 26
11.74931617183556 50 55 28
12.067802649702964 51 57 30
12.077338286878929 48 53 26
12.290652090018634 50 56 29
12.381048748042842 48 53 26
11.289256039580842 46 51 24
11.44695296634147 47 52 25
13.034166512668053 49 54 29
12.444910541576201 48 53 26
11.289256039580842 46 51 24
11.799028037244371 51 56 30
12.395927916921073 50 56 27
13.394089050347697 46 51 29
13.415414771185514 47 52 33
13.521460331426693 47 55 26
11.799028037244371 51 56 30
12.821385385227341 46 52 26
13.14152452678269 46 52 29
13.010434231121167 46 52 31
21.952989514048294 8 1 0
14.424531997309387 58 59 43
13.210312482069352 38 39 19
12.971321324212832 39 41 14
13.064063173819902 33 35 12
13.587764069400066 47 52 23
13.106011222320301 46 53 23
13.324892696961008 40 42 16
13.788707299064507 43 46 15
13.974952935595786 43 48 17
12.722855086277438 45 50 20
15.176174553520749 45 50 21
19.01560033863516 38 43 18
19.14286121091265 38 43 15
18.689802276413666 38 43 18
13.012075111865485 35 40 13
11.200338725138378 37 42 12
11.740444068341624 31 36 8
11.102662034503684 26 33 1
12.149288322712351 36 41 11
18.41356839991118 28 34 11
11.952431137570763 32 37 8
12.217707251653234 27 34 4
11.765025902041051 26 33 3
11.84969947154172 23 30 0
11.05116379092004 25 32 0
11.115596661423254 24 32 0
11.369223709789889 52 59 25
11.556247708715976 44 51 17
12.691418676741925 52 59 27
12.736268458115207 49 54 25
13.45046265924091 47 52 23
12.540314039854382 45 53 21
11.16064973410981 50 57 23
12.739789564383925 49 56 24
11.351244584150685 43 52 19
11.433297973374753 45 52 20
13.929273202928533 59 63 47
12.587255190091339 48 53 31
13.417309531049145 55 59 41
12.695071867292802 46 52 29
12.672524975967118 46 52 27
11.483204909409759 43 52 20
12.490712190964992 46 53 23
16.106866300835136 6 5 1
14.558340274012547 47 49 25
15.4818633425049 45 49 26
12.962370257659826 36 41 12
13.99542625201122 37 42 13
13.315290374096085 35 40 11
14.14306575433186 36 41 12
12.44419660839709 35 40 11
14.447633392240673 40 45 17
15.984081406377163 45 52 22
15.07236135893816 41 46 17
15.63576541502108 45 50 23
15.47040618956245 42 47 18
14.761612366687812 44 49 19
12.611440647207084 42 49 19
12.148660884362107 36 40 10
14.046559814804695 40 45 14
12.92086092161541 49 56 26
13.276931055941004 48 53 26
13.138896401158279 47 53 21
12.76001437421546 42 48 17
12.471973674599132 42 51 17
14.845294252949728 47 54 22
14.127107705348537 49 55 28
13.967373603585076 52 59 30
13.189798050501492 48 57 28
12.506489595445906 48 55 26
12.788790604262156 48 55 23
13.647540004528194 48 56 25
14.424772287454752 50 57 30
12.067802649702964 51 57 30
11.558739732684188 45 50 23
12.834275831036 49 54 25
12.895893392608984 48 53 26
11.352337641777314 47 52 25
12.458623161433172 51 57 30
12.932302935205486 48 55 26
13.765986369538716 32 34 8
12.804057564471876 36 36 10
12.802264691093551 46 51 22
13.364015041957396 43 48 19
12.684025835026441 45 50 21
12.896948929826888 33 38 10
11.52613227470433 33 38 7
12.08824388667819 28 35 5
12.387405540013402 38 43 14
11.885677629286848 26 34 2
12.479400200118167 35 40 11
12.593182370694919 36 41 12
11.470737123835985 37 42 13
11.432152291822415 33 40 8
12.018210513854484 35 40 11
12.059533245224276 30 35 7
12.081324142618298 55 62 32
12.464919771278048 49 55 28
12.898573223713965 46 53 21
11.388900788297924 43 52 17
13.391003480571522 47 52 27
13.120762845897982 54 58 41
11.991187020602123 51 56 30
15.697696397744991 6 4 0
15.01767964168756 45 49 23
14.213702779751825 38 43 14
12.04210871003544 35 40 11
13.826424027016955 36 41 12
12.592483644675 32 39 5
12.4784333553998 31 38 4
14.88784808783364 50 55 26
16.23631864777963 40 45 15
15.233600703707268 48 53 24
12.27574110933474 42 51 17
12.983429603988167 49 55 29
12.67460291623768 51 57 30
13.521460331426693 47 55 26
13.641883858885752 52 58 30
11.509170266328296 48 53 26
13.216381018025547 49 57 27
14.196100282296868 49 57 29
12.14279746936977 47 52 25
13.421881541453732 50 55 27
12.95532901962348 49 56 24
12.788900439229083 48 55 25
12.290652090018634 50 56 29
13.521460331426693 47 55 26
13.890917478929616 38 41 12
13.450907983756936 55 56 38
13.846078118575528 42 47 16
11.777870621337952 39 44 16
11.513648938196189 35 40 9
12.007234173947078 36 41 13
11.82082631058838 37 42 13
11.758196184167293 29 36 4
11.789298811634017 25 32 2
12.634895084169143 51 58 28
12.482036322583431 56 63 31
12.345035537696743 59 68 36
11.351110775137384 42 51 17
11.001477344371228 47 50 23
12.489895269076422 48 54 28
13.032387765740697 46 52 32
13.61242484283436 48 51 40
13.571239737321422 41 47 24
15.500324287098504 29 31 17
12.478555076006375 34 39 10
12.615284939924106 34 39 10
16.271500719840002 41 46 17
15.885438802947025 43 50 20
13.315290374096085 35 40 11
12.089377024812253 35 40 11
14.96771139790232 40 45 16
12.245883360284889 42 49 17
12.808070071664854 50 55 28
11.688377239807714 48 53 26
13.216381018025547 49 57 27
12.58813841178495 49 54 28
13.967373603585076 52 59 30
13.153068526746878 50 56 29
12.25686586839399 48 54 27
13.430633075647712 31 33 12
13.40730534297378 29 34 9
13.370603185401436 31 33 8
12.018210513854484 35 40 11
13.373728003583379 59 63 47
17.790945637545082 7 11 0
15.876390681610877 42 47 16
12.850416562146675 50 55 28
11.385588800639933 49 54 28
14.719719642156793 49 55 26
13.102907961625485 47 54 27
12.535111693037836 57 65 33
12.385325554015685 29 36 4
12.20594058645485 27 34 2
12.193901735001358 48 55 25
13.415414771185514 47 52 33
14.088060063743708 46 51 22
12.947166046785277 32 34 8
12.109247106424423 45 51 23
14.141772938075931 49 55 29
13.214919369385823 49 54 25
11.987914703794956 46 54 23
