12.233780336510172 25 29 14
12.098336974826644 7 11 1
12.356962643560509 21 26 11
13.3988192481545 7 8 0
12.984992203228037 35 33 22
12.616134367242008 34 38 25
13.994046942328598 37 34 25
13.63820654788123 32 33 21
13.014953483957164 32 33 21
13.023865394961986 39 37 27
13.942387660602053 35 39 26
13.64433970044885 36 40 25
13.476319304870769 34 32 22
13.63820654788123 32 33 21
13.244881538626604 35 40 27
12.44507737770624 36 41 26
13.063226833389061 32 38 25
13.15046732005313 34 36 24
13.165268192164687 32 36 23
12.665927817704954 33 38 25
12.665927817704954 33 38 25
12.267455119186607 35 39 26
13.078126438309653 35 40 27
12.675662947473755 27 28 18
13.312376466773891 28 29 19
13.038252946116355 25 27 16
12.868910716488527 24 28 15
12.868910716488527 24 28 15
13.05070144110286 30 31 20
13.02724623440052 29 30 18
12.22238500505075 35 34 22
12.518398617261003 32 33 21
12.701258504327196 32 33 21
13.192191352068653 31 32 19
14.894362987171952 32 37 24
12.398042725752394 33 37 24
14.384214157285188 32 36 23
14.526121895511968 35 40 27
12.534432838130938 32 40 24
11.825135917558072 30 39 18
13.171996902878968 32 37 20
11.924154583108892 24 32 10
12.782757996959205 38 39 27
11.933466819794683 26 33 12
12.616526233142016 31 36 19
11.749723711048945 30 40 19
11.983808728924963 29 39 16
12.965102393296743 30 40 19
13.007871430598783 34 41 28
12.844553372450294 33 42 24
12.514109769421957 31 39 19
12.777693327550693 35 40 25
12.52298331622325 32 40 22
12.611394806113625 32 40 24
11.609385865802402 27 37 14
11.820399354229247 21 33 7
11.939668017320614 24 34 9
12.18568605971298 28 40 16
12.580491919182629 25 36 12
10.85493856074685 30 41 17
11.472032223643946 29 40 16
10.883076532428257 31 43 19
11.501145411218653 28 38 14
11.498660226018805 30 40 16
13.128651473399401 36 48 27
13.495900180896733 37 47 23
13.08042357106989 28 29 16
14.407037245728384 36 43 29
13.427640228681968 32 37 24
13.571990337098303 29 32 17
13.317848558979943 30 33 21
13.875290624998891 31 34 21
13.24470645263583 30 31 19
14.002563531449448 33 38 25
13.950852673898135 35 40 25
13.756378665256074 36 41 26
10.471869181819235 36 49 30
11.074805453407269 39 51 34
9.983482958386379 29 39 15
10.36533623775664 30 42 18
10.272295781491563 26 36 12
10.272295781491563 26 36 12
9.94439240520583 33 43 20
11.072775797034158 28 38 14
10.55688231264929 27 37 13
9.932834623111125 33 43 20
10.261107345886655 28 38 14
10.272295781491563 26 36 12
10.520392592993256 27 37 13
10.316929573899946 29 41 17
10.32805753718731 29 41 17
10.780041705585885 32 44 21
10.780041705585885 32 44 21
10.826270811559786 35 47 25
10.222594801364156 32 44 21
10.165768283047745 31 43 20
10.887311383975245 30 42 25
10.975484167557942 33 42 29
10.873779696823512 32 44 27
11.31126078819092 34 46 29
10.74675374904261 36 48 31
10.829152705789015 37 50 31
10.721629957650169 34 46 27
18.928806654236432 38 47 31
18.87001731679655 39 48 32
19.05023320084474 37 46 30
18.99181974401883 39 48 32
18.985969803305796 45 57 40
10.783852903890555 27 37 13
11.43846228685941 27 38 14
10.974337172303056 26 34 12
11.34309539014959 26 34 12
10.166740894855687 27 37 13
10.353993443295813 26 36 12
12.405142044299483 26 30 15
13.017819695585356 18 21 8
12.854628030771881 22 27 12
12.922829347853002 35 35 23
13.461860427555868 34 31 22
13.335787852367485 27 24 15
12.285954523562307 33 38 23
12.569739808953532 37 36 24
12.771143987691918 35 39 26
12.771143987691918 35 39 26
12.267455119186607 35 39 26
13.01477530477611 26 28 16
13.138025100448452 24 26 15
14.873815419741366 33 38 25
13.215353809970306 32 33 21
14.873815419741366 33 38 25
12.701739030183191 35 40 25
12.528150955919108 31 37 17
12.436545780042284 30 38 17
12.507817680227983 28 36 16
12.519281071891989 27 35 14
12.445474629613424 30 38 18
11.990375801065474 31 41 20
12.018136931428597 33 41 25
12.14689030301635 29 39 17
11.525735022072912 26 36 12
11.820399354229247 21 33 7
12.382438217744065 27 38 14
11.210025964148974 30 41 17
11.162383034549968 33 43 19
13.068003389221643 26 28 15
13.679742453031924 31 34 21
13.209307973754683 28 29 17
14.432392499843603 32 35 23
11.154781396941651 38 51 32
10.900396499641353 37 50 31
10.668991150980938 29 41 17
10.52751308090611 28 40 16
10.520392592993256 27 37 13
10.298035734885241 32 43 20
10.744201987298622 33 45 22
10.212206640823002 27 37 13
10.918700815778733 29 39 15
10.936070387532686 33 44 21
10.222594801364156 32 44 21
10.863559134914643 31 43 26
10.501394033918242 32 42 19
18.928806654236432 38 47 31
19.159298343758348 40 52 36
18.985969803305796 45 57 40
11.465168256114113 27 37 13
11.54178275073609 24 32 10
10.297892043304527 27 35 12
10.650582936274096 26 34 11
12.835858108918757 16 20 5
13.014953483957164 32 33 21
13.19926235370958 32 29 18
12.677248239208756 33 38 25
13.595300303235554 31 28 17
12.677248239208756 33 38 25
12.958920913673548 33 33 21
13.215353809970306 32 33 21
12.425290930220873 36 37 25
12.740609368577454 32 36 23
12.759906869532792 35 41 28
12.445474629613424 30 38 18
13.318109744763412 33 41 23
11.939668017320614 24 34 9
12.698820756208166 30 42 21
12.969350381213161 30 42 18
12.586747678726931 32 44 20
11.611668727901627 29 39 15
11.002409666240954 30 42 18
13.128651473399401 36 48 27
13.699994834225908 31 36 23
14.573831125348285 35 40 27
14.592842716438192 35 42 27
13.372007529290112 30 31 19
11.301435873427838 34 46 29
10.79115024694157 28 38 14
10.79115024694157 28 38 14
10.520392592993256 27 37 13
10.094651436127492 27 38 14
18.87001731679655 39 48 32
11.578503650908804 26 37 13
11.465168256114113 27 37 13
12.267455119186607 35 39 26
13.02724623440052 29 30 18
12.321284991031188 33 38 25
12.729345295319561 32 38 25
10.85493856074685 30 41 17
12.528150955919108 31 37 17
12.469250836179661 32 42 21
13.256080500159802 31 39 23
13.652989508219322 37 46 32
13.317848558979943 30 33 21
10.298035734885241 32 43 20
10.417351876143428 27 37 13
13.324568863982345 27 28 17
13.150379148827078 28 29 18
12.947846763521584 33 37 24
13.414389216210358 34 39 24
13.007871430598783 34 41 28
12.692620233780927 24 35 11
14.12303514826669 33 38 25
10.165768283047745 31 43 20
10.68231944088172 36 49 30
10.98889061684121 32 41 28
10.346896555358496 29 39 15
10.052397698356003 30 42 19
11.91600938519437 31 41 20
12.26671748908754 25 30 11
10.887311383975245 30 42 25
10.848032992190197 26 36 12
12.151424331143971 29 39 15
14.213184958893239 33 38 24
10.757085291091876 36 48 31
