12.747959217715604 24 27 25
12.618818115414095 32 35 32
13.287895177976623 32 35 33
12.614603900480487 29 32 29
12.563930037189008 47 50 47
11.87935951729699 24 25 26
12.021595166548769 53 56 52
12.214924149725062 55 59 54
11.290036857241175 43 46 37
12.02880629177186 51 56 47
12.037680072192039 58 58 59
12.444159131934873 55 55 56
12.57738781034876 38 37 36
12.608100509504908 33 33 35
11.392348085895335 25 26 27
13.426306764443272 33 35 16
13.523135529549497 52 53 45
12.182463268342053 49 52 47
13.32447398284722 39 40 26
12.212146318230305 45 46 33
12.182463268342053 49 52 47
13.568102081457344 56 54 54
13.198788553824969 42 44 32
13.934108305487285 35 36 19
12.451111542106617 54 55 49
13.551982589839259 37 41 20
12.661530648087789 32 36 19
13.24889885189422 48 48 48
12.842267695780803 54 55 51
13.372266094653133 55 56 49
11.844640028715359 50 53 47
11.645990084180806 54 56 51
11.530944136185429 58 58 53
11.848364377587556 55 58 53
13.50269026839892 37 40 18
12.690063115400754 39 43 21
13.17095672141629 49 52 46
12.446809899613667 33 36 24
11.818883880985437 37 41 24
12.86370334897363 58 58 53
12.343479152412776 39 44 20
11.710432486417519 39 44 16
12.47355158109066 32 35 21
13.274308132464252 38 40 19
12.070421086981195 41 43 20
12.33883513101277 35 38 28
11.373989722116056 36 41 30
11.934851049571817 51 55 52
11.281817282005685 38 43 18
10.458331187317823 37 41 21
12.069671377771414 48 52 45
11.7096597290142 37 41 27
10.867002742806518 36 40 21
10.892776726356871 36 40 25
11.250081946191429 39 44 19
11.450990349926938 38 42 22
11.395143106055428 39 44 17
11.642031431976477 46 50 45
13.207007056283818 36 45 19
13.31156590404091 35 44 18
12.060236235129445 30 36 14
11.839016265983146 48 51 46
13.066106625323055 23 26 23
11.186540425084752 47 51 45
12.333436711909712 52 55 48
10.178887762421024 35 39 24
12.231537882577927 49 53 47
11.501170868304992 50 55 45
12.780489415268427 49 51 47
11.501170868304992 50 55 45
12.195549535636331 51 55 48
11.64728139921373 48 52 47
11.420679289138807 48 52 46
12.226306158004432 30 34 14
11.340347074603923 36 41 14
11.954987497741667 37 41 19
12.02953909492642 33 37 15
11.932793325021654 34 38 18
11.223966245991297 48 55 47
12.395061369459764 50 53 39
12.118778606764785 46 49 33
11.803359354607142 42 46 27
11.770579451373582 43 47 27
11.932793325021654 34 38 18
12.175673598216344 55 57 48
12.534248155322102 49 54 46
12.485196364178236 49 55 47
11.861767351643458 51 55 44
11.338629501664208 41 44 25
11.564736163163635 41 44 24
12.127518713841518 34 35 19
12.79814558582963 0 1 0
12.102022260973534 3 4 0
10.744988226915273 35 39 22
10.4032458122185 36 41 18
11.54555273311465 36 40 18
11.138785362238789 36 40 17
9.606048534593869 33 37 19
10.148905106578528 35 40 16
10.997801136718397 36 41 16
13.054845213490673 40 42 18
11.71296072089571 36 40 17
12.878951217281955 42 47 20
11.627206158974603 40 44 15
13.003668556111727 40 43 18
11.889289014847023 43 48 19
12.271203765143342 41 46 19
13.029267373349024 39 44 19
13.131192659283691 40 42 16
13.131192659283691 40 42 16
10.829122039273834 37 42 15
10.95639701609887 38 43 15
10.85008669438629 36 42 14
11.925011773144938 36 41 16
11.471187316061407 35 39 16
11.637575106384983 37 42 17
12.249527407464695 38 43 18
12.353613151800014 38 43 18
12.310137831098272 36 41 16
11.68111671412717 37 42 17
11.83190561806715 38 43 18
12.031905168664807 36 41 16
13.508734755689744 42 44 20
13.118988255868228 38 43 16
15.733294681771936 54 59 32
11.48967173694478 39 44 17
11.968283301704291 40 44 17
11.282218319523205 38 43 16
11.514051972300857 40 45 17
12.248330729024696 42 47 20
13.078057515316221 37 42 17
12.659495919704906 37 42 17
11.847400131381654 34 39 14
12.659495919704906 37 42 17
11.688517875564452 34 39 14
12.517123522549797 32 37 10
12.728392235854493 32 37 12
12.426496731759993 35 40 15
12.590607499058684 37 42 17
13.164199505790192 36 41 16
11.985202108915303 36 41 16
12.722302654250301 36 41 16
12.293642312429462 34 39 14
12.473799007481329 37 42 17
12.537536024449196 36 41 16
12.564084603876633 37 42 17
12.5004829525923 37 42 17
12.822017202946455 25 27 28
12.291075523389454 24 26 25
12.074545288955028 39 42 38
13.160012371208914 48 50 48
10.59193271557306 35 39 24
13.444694361042782 56 56 52
13.520695779964923 31 31 32
12.8204432944018 54 55 45
12.316180612151667 36 37 36
12.212146318230305 45 46 33
13.32447398284722 39 40 26
13.57022800608749 57 57 56
13.763247499185596 46 44 45
13.124687699183042 57 57 55
12.87042912973215 39 41 28
11.78785916301201 53 55 54
11.98415770991081 54 57 54
12.009936147143598 56 56 54
12.122784736967605 34 37 26
11.70515078067711 50 53 46
12.604181156773597 43 44 35
12.123157955074149 36 40 23
13.276481101555515 38 42 20
11.390509656576896 39 42 22
12.577717211948999 50 51 43
12.182740727373417 40 43 15
12.70951592318823 35 38 29
10.892776726356871 36 40 25
11.394746042920818 38 42 21
11.85393178555078 40 44 17
11.679087018288595 38 42 26
11.513266034066937 37 41 22
11.486012293084977 44 48 41
12.081077774804392 44 49 35
14.91333967386444 35 40 21
11.505039558782986 48 52 46
11.899293416680988 34 38 34
12.026017188257887 53 56 50
11.811188759352444 50 54 46
12.015958988188702 50 54 47
12.231537882577927 49 53 47
12.780489415268427 49 51 47
10.9344003521196 33 37 18
11.362969200092861 53 57 47
11.278504637506606 47 53 46
11.920236721092659 41 45 28
11.822596550174756 44 49 35
11.760270350705476 38 42 22
11.913734066339957 33 38 14
11.97807480930924 50 53 46
11.461946745879239 37 41 16
11.770579451373582 43 47 27
13.054845213490673 40 42 18
10.809500024465473 37 42 17
10.744988226915273 35 39 22
11.996500717986875 40 45 18
12.271203765143342 41 46 19
13.131192659283691 40 42 16
11.910429691337987 40 45 18
12.696494480293364 43 46 17
13.029267373349024 39 44 19
13.003668556111727 40 43 18
10.793383746934616 37 42 17
12.52292590168618 37 42 17
12.031905168664807 36 41 16
10.85008669438629 36 42 14
11.471187316061407 35 39 16
11.172080692837577 36 41 16
12.308130869800303 36 41 16
12.117050393810707 38 43 18
13.533406443374226 42 44 19
15.757833384585808 48 53 25
11.225128400064063 39 44 17
11.802436156752043 40 45 18
12.134216805252287 35 37 13
12.527140508114119 37 42 15
11.540463003081255 33 37 14
11.847400131381654 34 39 14
11.907982771022324 35 40 15
12.28733727145712 35 40 15
12.590607499058684 37 42 17
12.08118527953202 32 37 13
12.21000546246603 37 42 17
12.949980723650812 37 42 15
12.517123522549797 32 37 10
12.564084603876633 37 42 17
13.113449622324984 37 42 17
12.563930037189008 47 50 47
11.929146928203586 34 35 22
13.376522822055412 39 41 17
11.929146928203586 34 35 22
13.152244432584476 47 48 36
12.87010721989562 52 52 51
13.2470341161793 55 56 48
12.70951592318823 35 38 29
11.982159817389263 54 54 53
13.148172179340728 34 38 19
11.679474414783401 39 43 22
13.25135985742415 37 41 20
11.365068235115361 39 44 37
13.48964559395533 35 44 17
12.155170418372757 24 28 26
12.450693916533185 57 59 51
12.500212546279005 35 38 18
11.258337786904686 51 56 46
11.306224849152073 35 40 15
11.958304133751998 46 51 38
12.395061369459764 50 53 39
11.420679289138807 48 52 46
11.861767351643458 51 55 44
11.91209916878639 23 24 10
10.4032458122185 36 41 18
12.353613151800014 38 43 18
10.85008669438629 36 42 14
11.54555273311465 36 40 18
11.48967173694478 39 44 17
12.898388004395592 37 42 17
12.92419535139208 36 41 16
13.290212047188644 34 40 13
12.728392235854493 32 37 12
12.356278500656863 38 40 16
12.830307996319716 22 24 25
12.882859713262718 56 60 55
12.8204432944018 54 55 45
13.372266094653133 55 56 49
13.301583578730153 35 38 18
11.98415770991081 54 57 54
13.444694361042782 56 56 52
13.255222705460962 35 44 18
11.668289276422042 33 37 14
12.083348958910227 53 56 52
11.954987497741667 37 41 19
11.714146965185089 37 42 17
13.607069010943855 42 44 18
19.508203221348413 41 46 20
13.162775776122377 42 44 18
12.619384066374899 40 46 19
11.949659287212526 44 49 22
12.722302654250301 36 41 16
11.912414946008031 37 39 14
12.537536024449196 36 41 16
12.667679555816743 53 56 52
11.244986376171758 36 41 30
13.32447398284722 39 40 26
11.395143106055428 39 44 17
13.32447398284722 39 40 26
11.953510470132873 48 51 45
11.527996299939756 38 43 28
11.953510470132873 48 51 45
12.266901225442274 42 45 16
10.85008669438629 36 42 14
12.207081693726359 24 24 26
12.27963642963556 56 59 55
13.173490199130907 35 39 18
11.88125868629142 34 39 14
13.24543092876181 37 42 17
13.484046215085868 42 44 20
10.744988226915273 35 39 22
10.679520242850614 38 43 19
