10.480266410841123 18 30 7
10.17168134876654 22 34 10
10.627025954735062 24 36 10
10.967358306515383 20 32 8
10.71340946691294 24 36 13
10.70774629905152 19 31 7
10.704704625306576 22 35 8
10.967358306515383 20 32 8
11.037148956820825 21 33 10
10.038155522758478 20 34 7
10.284495823929007 20 32 9
9.97398758812135 18 32 7
10.015002504774804 22 34 10
11.928768768407965 26 36 12
11.346684068569676 30 40 16
10.03991000632332 30 38 16
10.420082773587104 28 37 15
11.047565532286935 27 36 14
10.53190887427153 31 39 17
10.672695878463598 26 35 9
11.161081750437448 21 29 6
11.247427090235186 27 37 13
11.626174120317067 20 30 6
11.94313626555847 25 35 12
11.563736248440385 27 35 12
12.714356701528496 31 41 16
11.39479300489405 31 41 17
11.531214475440011 32 42 18
11.751447014423892 30 40 16
12.05453801711828 35 45 22
12.60114725263684 28 40 16
13.211120799319307 32 43 13
10.762933377230626 19 31 7
10.215555765316157 21 33 10
11.114752936149202 22 32 9
11.533468173973436 19 31 8
10.287281408421359 22 34 11
8.96257086669206 27 41 16
9.98790659977154 27 37 11
9.72872065272195 22 34 10
9.272793377021005 25 38 15
9.511128442409914 25 38 15
9.896702457709825 20 34 7
9.779658352180405 24 37 14
9.98790659977154 27 37 11
10.46908496521482 20 32 9
10.301997904635753 19 31 8
11.429634812389553 48 56 48
11.069392249726752 19 29 10
11.858498043088504 53 61 56
12.118138144639083 55 63 58
11.357628973811021 46 57 44
11.80364940718128 49 57 51
11.979673644066049 56 64 58
9.6177721809421 26 38 14
12.772659102532762 55 63 60
10.980222777469585 41 50 40
10.246443573007067 19 28 16
11.802430206800032 54 62 62
11.323529163441458 46 54 46
12.286349305584357 57 63 68
10.138637367463055 27 40 14
10.136665634834428 30 40 13
11.271309424234953 30 39 18
9.450999338014507 27 41 16
10.587194230137618 31 39 17
10.674961075297544 32 40 18
9.425737172871756 28 40 16
10.19010467064641 29 42 11
10.36153299293283 28 38 12
10.473984222404969 28 38 15
10.304426850935593 30 40 17
10.2302531719101 32 40 18
10.60774209027704 32 40 17
10.53570403385219 32 40 17
10.341037293795996 19 30 14
9.97065291476811 24 36 15
10.973041123291535 24 32 12
12.684918180968795 32 40 18
11.025899409283882 28 38 13
11.361936038745883 28 38 15
11.312971220748826 15 26 12
11.89564838949088 16 27 16
10.807551276960847 26 36 15
11.328119763184173 26 35 18
11.995915293010695 59 66 62
11.433364792559308 17 26 15
11.379328787729238 28 38 17
11.707468129672078 23 30 22
11.874858164380287 30 38 21
12.43122637510294 26 33 22
10.639029061664258 24 31 24
10.639029061664258 24 31 24
10.184126232496816 39 54 39
9.888639195419145 39 55 45
10.71103839507239 41 52 42
14.077129715725006 41 57 37
13.917209267602962 43 56 37
13.307536772906971 41 57 39
13.698493943560688 42 55 35
13.577166354485552 44 57 38
13.830877798880406 45 58 39
14.018599668567255 42 54 32
14.232396640904822 42 58 40
13.830877798880406 45 58 39
13.396531113373692 46 58 41
12.19229059485718 34 44 21
12.016519905572206 36 46 25
12.063347391799176 34 44 21
12.400788265415137 32 40 18
11.699299888288499 38 48 27
11.747391945888337 36 46 23
11.73652496362924 37 48 28
12.052765283817575 38 47 29
12.063347391799176 34 44 21
12.300322415614284 42 52 31
12.346073512752067 39 49 26
12.335733941434063 43 55 34
12.410882243885293 35 45 22
12.346073512752067 39 49 26
12.61254389888887 35 45 22
12.487940740858116 37 47 24
12.67599031597563 34 42 19
12.814205525728614 34 42 19
12.343549702546978 38 51 34
11.452810204804875 40 57 45
12.369880827169206 36 47 30
11.46923591598851 36 48 31
11.305644342822898 39 52 37
12.478480950825983 41 57 39
12.171341394134965 36 45 27
12.645755515801282 43 55 38
13.196090348739013 42 58 40
12.645755515801282 43 55 38
12.592293873021674 39 51 30
13.81068352139261 43 56 39
12.914624768501934 43 56 39
11.397664383414686 34 47 20
11.397664383414686 34 47 20
10.76466315570044 40 54 29
11.082946689661688 34 47 20
11.573535798253038 40 56 35
11.68005128878032 38 52 25
9.880664167340427 39 57 43
10.813151177409209 42 56 33
10.342958569415446 42 56 35
11.019383455357785 37 44 30
11.66522799414283 27 34 23
11.21548564311502 17 23 18
11.508662138761016 35 44 25
11.70256145043121 33 40 31
11.55754748544717 34 42 22
11.909328410401487 32 40 19
11.401305361063297 21 27 15
11.928126000366744 31 39 22
11.174173986563652 25 31 20
11.365368996551895 35 44 29
11.877142133590326 37 46 30
11.365368996551895 35 44 29
11.262666429474114 41 50 41
11.068915033040154 38 48 37
10.98059349906919 36 44 36
10.766740508281968 38 49 39
11.260333099800599 42 53 41
11.670223001970506 38 47 29
11.148955649835457 36 45 29
11.877142133590326 37 46 30
10.708584869980566 42 55 42
11.370542479443037 25 35 11
11.69721954775483 17 29 6
10.499292618117378 25 35 9
10.468257403299432 25 35 12
10.55019256809904 21 33 10
10.284495823929007 20 32 9
10.580987460681207 20 30 6
11.69721954775483 17 29 6
10.55019256809904 21 33 10
11.108463969921926 31 39 17
11.592381314866591 24 33 7
11.563736248440385 27 35 12
11.345206387288309 30 38 15
19.146463822819683 41 51 28
9.642531252715646 25 39 14
9.616347557917825 19 33 6
11.114752936149202 22 32 9
9.554130573247662 25 39 14
11.74689098670048 56 65 58
10.03172116000267 24 38 13
11.880799495663846 53 61 55
11.337725560488927 19 31 8
9.779658352180405 24 37 14
11.808100884305125 56 63 59
11.82705936350015 57 64 67
11.323529163441458 46 54 46
10.674961075297544 32 40 18
9.581140627412001 28 40 17
10.546509253185503 30 40 15
9.581140627412001 28 40 17
10.562757071668367 30 40 17
9.581140627412001 28 40 17
10.115092705152236 28 41 10
10.271088241816303 27 39 15
10.19010467064641 29 42 11
9.97065291476811 24 36 15
10.196672050540379 27 39 15
10.734406283353264 26 36 13
11.079287478037557 25 35 13
11.910055840924912 26 35 26
11.70971236155806 15 22 14
11.328119763184173 26 35 18
11.114930375057758 28 37 21
11.119657567059251 20 27 22
10.82583473524462 26 35 18
11.26194701936532 39 50 43
10.827721823372428 39 51 42
9.678846933953617 37 54 44
11.343656410438259 32 40 35
10.051335510855392 41 55 37
9.571380253294365 42 55 38
10.837164697621168 18 22 17
10.679950361341655 26 32 25
14.06307391442771 46 58 41
14.077129715725006 41 57 37
14.145113888157447 42 58 40
13.827937176714377 41 56 39
13.396531113373692 46 58 41
12.063347391799176 34 44 21
12.19229059485718 34 44 21
12.016519905572206 36 46 25
12.052765283817575 38 47 29
11.498821046393694 40 52 31
12.400788265415137 32 40 18
12.61254389888887 35 45 22
13.454505194107313 35 45 21
12.487940740858116 37 47 24
12.284233733423195 37 47 24
11.009968899611884 41 54 39
12.061957507530133 38 48 30
11.83079397794403 40 52 33
12.061957507530133 38 48 30
13.050312857403435 41 54 37
12.784297608016027 40 52 35
10.879101069977647 39 51 23
10.762806110824892 32 42 14
11.573535798253038 40 56 35
11.002070259110075 38 56 39
11.73351299187089 33 47 20
11.579802049957763 40 55 42
11.692070113225506 32 41 20
11.79629561457368 28 36 20
11.748403745709258 34 42 26
11.55754748544717 34 42 22
11.537723295548599 38 47 31
10.948522621319354 39 50 38
11.546501832587062 37 46 29
11.334386901174852 36 47 33
10.951710765717808 20 32 8
11.443175116604044 20 32 8
10.967358306515383 20 32 8
10.786476621829925 20 32 9
10.641495831610364 26 35 9
10.736696892907302 25 37 13
10.484626487829027 28 36 14
11.478393938407043 26 36 10
10.689732088169407 34 43 19
11.473108375866204 27 37 14
12.401419279097198 30 40 13
11.61238974878595 28 38 14
12.183574453351728 37 47 24
19.146463822819683 41 51 28
11.668748206619805 58 66 60
11.511684006767098 55 66 56
9.845731637776495 24 38 14
10.33546664271745 22 34 11
11.137979060099568 20 31 17
10.33546664271745 22 34 11
11.626090175240325 19 28 16
9.501983954100972 22 36 9
11.728184383709637 18 30 7
10.056086354730294 21 33 9
10.794106663347534 20 29 18
11.340980814109516 61 69 63
12.20490486816718 30 38 17
10.19010467064641 29 42 11
10.558310789327216 32 40 18
10.373611445950974 31 39 17
10.2302531719101 32 40 18
10.19010467064641 29 42 11
11.747391945888337 36 46 23
12.615767821492364 34 42 20
11.765023282696294 37 48 34
13.712923445876147 43 56 36
14.30532936595457 43 56 39
11.460823928112736 40 50 27
12.814205525728614 34 42 19
11.870150182016781 36 49 20
10.742490661880995 42 55 31
10.4575871090857 30 43 16
11.324604121065766 37 46 29
11.713459941859556 25 32 22
12.14116096322094 29 37 20
11.262666429474114 41 50 41
11.748403745709258 34 42 26
10.76918078387665 34 43 36
10.758884088470964 31 38 32
11.537723295548599 38 47 31
10.868597424995514 21 33 9
11.056645822387843 23 32 6
11.72650434713956 27 35 12
12.870948388849289 33 43 15
12.401419279097198 30 40 13
11.962558045256825 29 39 15
9.208938254520522 26 40 15
10.432374937154933 20 32 9
11.6897017947953 19 31 10
12.064783636250393 43 54 46
11.053042980653382 33 42 32
11.025899409283882 28 38 13
11.006640910454502 28 38 17
10.888780873070845 31 39 19
11.808326302914613 29 39 16
11.452810204804875 40 57 45
13.253676216695075 42 58 40
12.697858859076703 42 55 38
12.063347391799176 34 44 21
14.388814453565418 41 57 39
11.858263724832462 39 48 28
13.668076435712111 44 57 38
11.66522799414283 27 34 23
11.36768076658213 34 41 31
11.151312284441511 33 40 29
12.97664744731651 34 43 17
13.547229411244226 34 47 17
12.860780187269853 28 38 12
11.746284320240333 30 40 16
14.075709699935668 39 51 28
12.253452925720149 55 63 60
12.28965879848731 55 63 59
11.522776751411657 37 44 38
10.766374342490268 32 40 18
13.601808734056952 41 57 39
10.34988511691277 22 34 10
10.730211968104175 18 30 6
11.02007922774301 22 31 5
11.028129474109287 35 45 22
12.748618226281923 30 40 16
12.090935995474235 27 37 9
11.345206387288309 30 38 15
11.39871765850672 20 31 17
9.845731637776495 24 38 14
10.253533400563478 32 40 18
10.624711700961178 26 34 11
