11.885076293712046 28 31 20
11.30709931792073 27 32 16
11.585343320120344 29 37 15
14.575787023988356 11 11 13
14.455027433269445 10 10 12
14.090083195638083 11 11 13
13.592770961045039 12 12 13
13.286611592900545 12 12 14
11.701780390165263 29 32 21
12.982343930962235 16 16 15
12.661575033287061 29 30 22
12.781474296754247 31 32 23
12.493586783038909 32 33 24
11.861077825530522 31 36 19
11.844193340378089 31 35 19
12.468507841279788 31 33 20
12.484548012927451 32 34 22
11.274136063595193 30 35 16
12.423011975213194 30 39 15
11.618002192790724 29 37 15
10.786489182019547 28 34 15
11.692129518672916 28 32 16
11.278463839101663 29 35 16
11.527374912018088 29 37 15
11.141031247402145 30 38 16
12.507151119489862 31 39 15
12.102040966921988 31 38 18
11.304830960606672 30 39 15
11.65747852828206 31 39 16
11.692129518672916 28 32 16
13.101966554184367 12 12 14
12.777514603729749 14 14 13
12.598100271945649 11 11 11
12.777373606807096 12 12 14
12.271412493834024 32 34 22
12.093824342429054 32 33 26
12.146479396055243 32 33 25
12.424242148943815 33 38 22
12.239650484759034 35 40 25
12.26728816176433 25 25 20
12.319201814120436 29 30 23
12.084486567798228 32 35 24
12.834776111616659 34 42 21
11.688895246568993 36 41 24
13.062690199413732 34 42 22
12.603953620356325 35 40 22
9.36550975494354 34 38 23
9.459756939356785 32 37 19
12.900208720171516 29 37 17
12.116750237709137 32 39 17
12.875116955142177 33 40 18
12.163890768455847 32 38 16
11.761221038908442 36 41 23
12.150591113983943 34 40 18
12.474080920826495 36 41 24
12.165295237963743 30 38 16
12.266136005907754 34 40 18
12.945816193959658 28 36 14
13.053531631193668 14 14 12
12.752079239632428 41 44 34
14.07421406137711 1 3 1
12.74691149826107 43 46 40
13.788626071400389 5 6 6
13.69930883438426 6 5 4
12.39247594108508 44 45 39
12.837055916940841 39 43 28
12.731871374932627 37 42 24
12.143760646108085 38 42 27
12.731871374932627 37 42 24
12.753753660209286 37 41 28
11.790495164873255 39 43 28
13.232071591148983 38 45 23
12.607773253192963 40 46 25
12.315479447391542 32 40 18
12.609128280885475 37 45 23
12.720508798787373 40 48 27
12.315479447391542 32 40 18
12.908623946657835 44 51 30
12.886865943233593 38 42 27
11.426528981575231 39 43 25
11.178811022010073 39 43 28
12.361025011932014 38 42 24
12.886865943233593 38 42 27
12.377005126996638 40 44 28
12.427626680458154 46 50 33
12.11710255030318 39 44 27
12.439256791168722 39 43 27
12.68333086006989 40 44 28
12.855626511572138 42 47 31
12.249312372937517 43 47 31
12.735897535244145 40 43 31
12.735897535244145 40 43 31
12.353272332757548 39 43 26
12.654967045797045 38 42 24
12.741069743848119 39 43 29
12.47579265260388 41 45 29
12.535364406975665 42 46 31
13.076645360923623 47 52 33
10.730176717371386 44 48 31
10.730176717371386 44 48 31
12.154308459679774 42 46 30
11.960045692101234 43 48 31
12.148886448711226 43 47 30
12.01877030480982 44 48 33
12.13697809736334 43 47 32
12.189446740075713 44 48 33
11.96555327373178 43 47 32
12.64874533350132 43 48 32
12.556766865327443 6 6 3
12.031507244942938 25 25 17
11.553388770912605 39 40 29
11.452397909789445 38 41 28
12.220843665741143 23 25 18
10.890577069082228 40 44 28
21.639328146625385 29 35 15
22.022355644754914 34 40 20
14.397241996535438 40 47 27
14.22882106889403 39 47 27
14.538850700666467 43 50 32
14.455027433269445 10 10 12
13.68077752536253 12 12 14
11.203888645359863 29 34 17
11.939723537608574 30 38 15
11.458680079284433 29 36 15
11.898463406241053 30 40 17
12.13064114680224 30 40 14
11.877524049277113 30 38 15
13.101966554184367 12 12 14
13.07432224171604 12 12 14
12.904946756232492 12 12 14
12.280608136898575 32 33 24
12.424242148943815 33 38 22
12.451470107191891 29 30 23
11.88204616519365 32 39 19
10.435283802290089 35 39 24
13.653135303937548 36 44 23
11.761221038908442 36 41 23
12.178578834762419 28 36 14
12.461112334443813 36 42 21
11.859582392890669 34 40 19
13.788626071400389 5 6 6
13.483428151965015 35 37 32
13.555815255371597 10 13 9
12.927233997354795 39 43 28
11.410282561650194 37 42 26
12.408415552296141 39 43 28
12.50168591535416 39 43 28
12.300954849584878 37 44 22
12.454650278241806 38 39 32
11.909741351517408 41 44 26
12.886865943233593 38 42 27
12.717007486122682 46 50 33
12.822313960784822 40 44 28
12.535364406975665 42 46 31
12.427626680458154 46 50 33
12.369461937623168 40 45 29
13.135581734293362 43 47 31
12.88454438503365 39 43 28
13.170186038641566 45 50 31
12.801551149002924 38 42 27
12.227576625047208 39 43 28
12.013287120951295 43 48 31
12.148886448711226 43 47 30
12.323107819150467 42 47 32
12.099422284428304 9 10 4
11.130186134601912 40 43 30
11.1481520751163 43 47 30
20.311553933422193 44 52 32
11.47278184953805 28 33 16
13.604660841312034 11 11 12
11.60959817447434 31 36 16
13.116341668616757 35 39 23
12.163944330543314 30 35 18
12.311023124725322 30 34 19
11.763609925262005 30 34 17
13.107784911054214 12 12 15
13.187503544610882 33 41 21
12.557446372821557 30 31 22
13.038705929983644 31 40 18
11.203888645359863 29 34 17
13.386060818343443 31 39 19
12.137182131803115 33 35 24
11.943810143500702 30 38 15
12.271412493834024 32 34 22
9.760185947689475 33 40 19
9.885159388221265 34 39 22
9.435669290232939 29 35 15
12.279310514972998 33 39 17
12.150591113983943 34 40 18
12.809840389961517 32 39 17
12.826786824296164 45 47 39
12.401382859893621 39 43 31
12.701260886347667 41 45 29
11.499660445381807 38 42 26
10.940266969893784 41 45 28
12.660172317925742 39 43 26
12.875448516464543 39 44 26
12.51856157945099 44 49 33
12.364134277697904 39 44 26
21.639328146625385 29 35 15
14.302340773456235 41 47 27
20.241985947384645 38 46 25
13.038705929983644 31 40 18
12.598100271945649 11 11 11
12.242739259872419 30 33 20
11.898463406241053 30 40 17
12.945727357581081 29 29 23
11.88204616519365 32 39 19
12.240792634837856 38 42 27
13.327086429931597 39 43 29
12.922136302988047 43 46 35
21.296405732672326 33 39 19
12.349121426517112 42 47 29
13.093710795679344 35 42 20
12.428659024122798 37 41 22
11.373920483494208 42 46 29
14.538850700666467 43 50 32
11.791067249792208 28 32 18
9.483593442792468 34 38 25
12.090794568380963 31 34 20
12.648656250972355 11 11 10
12.295250307766095 31 39 17
12.154308459679774 42 46 30
11.553388770912605 39 40 29
11.141031247402145 30 38 16
12.920812997346124 31 39 17
13.015801658022905 36 42 20
12.825364010598674 32 33 25
12.26728816176433 25 25 20
12.855626511572138 42 47 31
