12.217654302730757 38 49 28
12.496394602037324 36 48 25
11.006310165894776 24 32 14
9.49597529729853 34 42 25
9.841457138201946 34 42 23
9.826558327117986 31 38 20
9.563765273403053 20 28 12
9.822531911550312 27 35 17
10.186485226167113 21 29 11
10.366843840634752 20 27 13
10.04339757565995 23 31 15
9.857122547152711 25 33 16
9.87197523074286 33 41 23
10.057201830026093 36 44 26
9.688393083498603 37 45 27
9.684946770787032 17 25 7
9.40066827538838 16 25 7
9.483131642545787 16 24 6
9.61945956246154 26 35 15
9.571591008394392 22 30 12
9.540418391768695 6 15 1
9.056410713113827 14 23 5
9.371553992548487 25 35 12
9.046633655396773 16 26 6
10.625151119136135 33 43 22
12.420815741787624 38 48 25
11.33954364152101 38 48 25
10.646972144679578 36 45 23
10.568558673649708 27 37 16
10.439937711076235 34 43 20
10.329533840611468 28 37 15
15.214548845389839 44 54 32
10.370938927303703 38 48 27
10.73251444682438 37 45 25
14.860730887611314 46 56 33
10.640269794682546 20 28 12
11.103684935164036 27 35 18
10.703932326434309 24 32 16
10.89801269139513 29 37 18
9.858995133578654 31 39 23
10.027891652245714 31 39 23
9.610726310733638 36 44 26
9.986234834264588 34 42 25
10.220474270565383 31 38 24
9.708245190695328 34 42 26
9.53368757288633 34 42 26
10.624627812727285 29 37 21
10.630087097298263 30 38 21
9.655246578189251 37 45 27
10.565882461189737 42 55 32
10.308518009196934 34 42 22
10.52093937771845 33 41 21
9.862574738469593 34 43 20
9.865664673217665 33 41 22
9.587555912669766 38 48 22
9.411896923807651 34 42 20
9.36590798733449 36 45 20
10.685531485693792 31 39 20
9.661253646541121 37 47 26
10.81626913565255 37 47 26
10.591199622822542 35 45 23
9.833547069499176 37 46 27
9.819426499776869 35 45 22
10.674059957127586 36 46 21
11.423926522816242 38 47 25
9.822530007945849 34 44 24
11.113547324084484 36 46 21
10.476572028039957 36 46 22
11.247922966069178 40 50 26
9.83855228551069 42 55 35
11.488463235859289 41 55 31
11.743685737335275 45 56 32
11.751219051951047 41 51 26
13.162139093610845 39 50 26
10.248060945264461 35 44 22
9.66571123665927 36 46 21
9.98012866751359 36 45 22
9.687651704833863 36 46 21
9.687651704833863 36 46 21
10.98118408346864 45 56 31
10.222594751864168 45 55 30
10.40790319666721 42 55 32
10.98118408346864 45 56 31
10.897862101562412 43 53 27
10.683981207468975 40 52 29
10.644163224705448 39 52 29
20.337855800427594 47 59 36
20.058565014713533 49 61 38
9.936801212625937 38 46 24
9.357253170863657 40 44 22
13.476225255125948 2 5 0
10.09361683441292 29 39 15
10.361272232808307 38 48 25
9.801714858781997 45 56 35
10.345677763494207 37 45 24
9.641701901721499 42 50 28
9.641701901721499 42 50 28
9.5503949078404 42 49 28
9.839537396392137 44 50 30
9.552021671807939 42 50 30
9.471596622278001 44 50 29
9.873934897703595 42 48 26
9.770244123344497 38 46 28
9.623190166223296 42 48 26
9.938364727772322 42 47 31
10.126921607831765 43 48 31
10.105934860639104 42 48 30
10.537374237937192 38 50 27
9.599042110033363 39 48 26
10.271340485810283 39 51 28
9.516767772776403 44 51 30
9.704698198893542 42 48 26
9.71584887401336 43 52 32
9.54143036433296 43 55 35
9.6328223311432 44 57 36
9.70309703180499 43 56 36
9.377288509881932 43 51 30
9.364075633158878 42 54 31
10.062866918519326 44 57 36
9.761780869432348 40 49 27
9.995122044006214 46 59 39
10.062866918519326 44 57 36
10.304708251229826 38 50 27
10.152625942669031 38 50 27
14.601886878283572 5 5 1
14.555283386486787 7 7 4
12.868708731231093 38 50 27
11.94087517284712 33 45 22
11.948284161466953 36 48 27
9.956068863169467 23 31 13
10.013401944865574 25 30 13
10.670356852438537 14 22 6
10.7934095360609 16 24 8
9.84893022919988 21 29 13
10.382123227193393 35 43 25
9.475061618898083 14 23 6
9.53916042680333 15 24 6
9.27378125388435 25 34 14
10.33866486994928 31 40 21
9.283319086110426 25 35 14
9.175814378803018 13 22 4
10.097506236834784 30 38 20
9.06735743120954 23 31 15
10.279426158891516 30 39 20
11.217309856023519 35 45 24
10.007472608444585 33 41 24
10.226149316945154 31 39 22
11.199257722716993 28 37 19
10.291619742996287 30 38 21
9.78983958493069 31 39 23
10.859695814991186 26 34 18
10.001673483552631 33 41 25
9.72535924431005 37 45 27
9.077819627792492 35 44 19
9.742007883423511 35 43 24
9.43892928049857 35 43 20
9.22843533794607 35 45 20
10.286635343654513 43 55 33
9.578321036012714 42 52 26
10.102349920355536 37 46 28
10.905536164829014 36 46 23
10.523959546328 37 47 24
10.78842257522088 38 48 25
11.033987837893749 37 47 25
10.902916532308348 40 54 30
11.320856064420914 44 57 33
11.320856064420914 44 57 33
12.135607963449695 43 54 30
9.738878715140126 35 44 22
10.09981132461162 38 48 23
10.569902203798343 40 52 29
10.12955108314715 36 46 21
20.17392387475074 51 63 40
10.808112920464255 31 40 17
10.053006129290393 33 42 19
9.666045733293396 44 57 36
9.801714858781997 45 56 35
10.035675773340634 41 52 30
9.87945290066248 40 47 25
9.555655894264616 37 44 22
9.5503949078404 42 49 28
10.345677763494207 37 45 24
14.5772922216606 5 6 3
9.469199536517209 44 49 32
10.34307319392351 39 46 28
9.748354262078596 42 48 26
9.826811857051243 40 50 27
10.325290987989309 39 51 28
10.476754759908951 37 49 26
10.228397556073109 42 55 34
9.576898641340241 39 49 26
9.364075633158878 42 54 31
9.587893135940096 44 52 32
9.87197523074286 33 41 23
10.373188661784846 22 29 16
11.144714413851805 26 34 18
9.634039697948738 32 40 22
9.688393083498603 37 45 27
9.278535660317978 25 33 15
9.40066827538838 16 25 7
9.760294267441381 39 47 27
11.4070623059952 38 48 25
11.33954364152101 38 48 25
9.760294267441381 39 47 27
12.164852388936952 38 48 27
14.225726623183277 43 55 32
9.462154764753935 34 42 26
10.859695814991186 26 34 18
9.248958747749429 37 47 22
9.396831780418752 40 50 26
9.077819627792492 35 44 19
10.222594751864168 45 55 30
10.674059957127586 36 46 21
10.409619484498162 36 46 21
11.821047338863279 45 58 35
12.389089266511997 44 56 32
10.565644896059034 38 47 27
10.460224656218392 36 46 25
9.822530007945849 34 44 24
10.367024899353583 41 55 31
10.339980666283422 37 47 26
10.324637102298828 35 45 23
10.287901715230776 34 44 23
9.476592965706706 34 42 22
10.808112920464255 31 40 17
9.850104862773259 42 47 30
9.374555566715516 38 46 26
9.184351726164257 44 52 31
10.215012071384932 40 45 30
9.469956042778833 43 55 34
9.377288509881932 43 51 30
9.08706299374622 42 54 33
10.476754759908951 37 49 26
9.822531911550312 27 35 17
9.669002412165273 23 31 10
9.61945956246154 26 35 15
9.660650567975155 10 19 1
14.787302932054907 46 57 34
10.107222022889342 41 54 33
9.925380137807387 33 43 21
9.62676718978641 34 42 25
9.896536685939108 36 44 26
10.259407663626304 43 54 33
9.708836758559478 43 48 31
9.852409274913407 42 48 27
9.317850674182102 44 49 27
10.062866918519326 44 57 36
9.995122044006214 46 59 39
10.600589098301965 43 57 36
10.157674260205306 37 47 24
10.50438283661254 31 39 20
9.687683776344691 43 49 27
9.8030017996783 36 44 26
10.167654222778852 38 44 22
9.770244123344497 38 46 28
9.317850674182102 44 49 27
9.82375358990299 37 45 27
11.821047338863279 45 58 35
9.53368757288633 34 42 26
10.57233146052802 18 25 9
