16.331284443666355 45 54 23
16.331284443666355 45 54 23
9.954251320614182 32 41 14
10.319373189361858 33 42 16
10.493978994220678 33 42 16
9.702196774302198 29 38 10
10.417639171688364 32 41 12
9.830256457608932 30 39 12
10.049866163911718 32 41 14
10.049866163911718 32 41 14
9.92050963745961 30 39 13
10.201667931270299 30 39 13
9.752461451198075 30 39 12
8.963819096942615 30 39 13
10.095820484000617 31 40 14
9.752461451198075 30 39 12
10.866731442387326 33 42 15
9.248585784478955 33 39 14
8.86413077856744 34 38 18
9.241685567298005 34 40 15
9.034720951985035 33 39 12
8.200363217750889 34 40 15
8.533931581379742 33 40 10
8.829173650445554 32 38 13
9.89073912615534 30 36 13
9.400652956954282 31 40 12
9.79103995251963 33 39 14
8.829173650445554 32 38 13
10.455568267502368 31 40 12
9.640471047578888 31 42 9
10.082015314231697 31 41 11
9.847660885173815 32 41 11
9.811629535005213 32 41 13
9.995109116063272 33 42 12
9.28490607358689 34 43 13
9.40266020375451 33 42 10
9.32499729022491 36 43 11
9.718423832980545 34 43 13
9.986962051607515 34 43 13
10.319181396197072 34 43 15
10.75997927091052 35 44 15
9.635604825263972 36 42 15
9.352186221839231 33 42 14
8.81780977554994 35 41 16
9.524562638808588 35 41 14
9.463256898438614 35 41 15
8.760995187835636 33 42 12
8.563632440174723 34 42 14
9.00252291255644 35 41 12
9.555134339019641 33 42 12
9.160736834258303 35 42 12
9.908293132126515 36 45 15
9.902836138352695 26 34 12
8.854198051745797 31 40 13
9.329739851297497 29 37 13
9.965225136878383 27 35 11
9.180609682286754 28 37 13
9.329739851297497 29 37 13
9.265595910901032 29 38 12
9.663525893586359 31 40 12
9.07439928382829 31 40 14
9.274513322128735 32 41 15
10.17763581623709 31 40 14
10.181343571396575 30 39 11
9.88671158827416 31 40 14
10.12215151849572 30 39 13
9.014514753902274 31 40 12
8.578438159031151 31 39 13
9.547764620601273 32 41 15
9.029952105498735 34 43 17
8.942726741994994 35 44 18
10.336199238152055 33 42 15
8.65038436683194 31 40 13
9.908679384286327 30 39 13
9.198600637867274 33 42 16
9.198600637867274 33 42 16
9.00258741970127 34 43 17
9.353015920212844 34 43 17
10.076259602697352 33 42 16
9.168898414724588 32 41 15
9.280129251079144 33 42 16
9.515940598339508 33 42 17
9.659895290608354 32 41 15
9.725509665382434 36 45 15
8.286669396667966 44 57 30
8.713368810184855 43 56 31
7.65709780527178 40 54 29
9.408396098029968 37 46 20
10.141748842486486 40 50 24
10.392912939073344 44 56 33
9.849435106424277 37 47 19
10.283844883263953 36 45 19
10.183583102515465 37 46 20
10.284981814116387 41 53 28
9.37393700184673 44 56 32
9.876364205242295 45 57 33
9.756187502507112 41 51 25
10.420126935948124 40 50 24
10.747317185879483 41 53 27
10.392912939073344 44 56 33
9.558393288065396 43 53 27
9.37393700184673 44 56 32
10.278777360593176 38 47 20
10.621244456452596 42 54 30
11.422902818623863 39 51 27
11.149126474234084 36 46 20
11.620784063314243 42 54 31
11.269007119927764 43 55 32
11.628791960951755 37 45 22
10.676575013808852 42 52 26
11.652841538163534 41 53 29
11.354075715711796 42 55 28
12.141189815514533 43 55 32
9.239629190432568 41 55 28
8.31185047730315 44 56 31
8.58480474889753 43 57 32
9.933617401859108 41 54 27
11.324505631664962 44 56 33
11.255076825859643 45 57 34
16.339369667528693 50 63 36
16.411607752512616 47 57 30
9.54115273227289 40 50 20
10.232569103629764 43 53 25
9.68473267648363 39 48 20
9.54115273227289 40 50 20
10.600140922343357 43 56 27
10.428001407303988 44 57 28
10.368397412576607 40 53 22
16.06290318372626 51 60 28
16.126208530833857 47 56 25
9.561604021819996 29 37 12
10.124862864477507 29 39 10
9.871827958596354 31 39 15
9.884017543626333 31 40 14
10.052331891843487 33 42 14
10.37348976508036 37 43 22
8.623936244407687 33 39 12
9.750929534884813 29 35 12
9.640471047578888 31 42 9
8.648135349020606 33 39 14
9.471096458703876 34 43 13
9.21508717118435 35 42 14
9.21508717118435 35 42 14
9.393100193333995 32 41 11
10.059515667506833 33 42 14
10.75997927091052 35 44 15
10.336893758658608 34 43 17
8.631330309121257 34 40 15
8.539193867282888 32 41 13
8.946881350732415 34 43 13
8.850823013364803 35 42 12
9.519492979415853 30 39 13
9.883619671247395 26 34 12
9.965225136878383 27 35 11
9.476242230278322 29 38 12
9.265595910901032 29 38 12
10.095166952950905 30 39 13
9.268407002354914 28 37 10
9.201294469567472 28 37 13
10.330899413701308 31 40 13
9.6492335692121 32 41 15
9.65463153246156 35 44 18
9.488122172442136 36 45 19
10.22041040827517 35 44 18
9.707421280534627 31 40 14
8.774649820486735 34 43 17
8.799250310484368 34 43 17
10.193685955440568 32 41 15
9.08300746966171 33 42 16
10.129423786589333 32 41 15
8.857139714192993 31 40 12
10.529081748863549 37 46 17
9.104841729246106 38 47 21
10.616337986769903 44 54 28
10.60787182162737 41 51 25
9.404100218346507 40 52 28
10.420126935948124 40 50 24
10.283844883263953 36 45 19
10.422626642956532 38 48 21
11.23249490054392 42 54 30
11.23249490054392 42 54 30
11.199234260581122 43 55 32
8.697515265838739 43 57 32
8.001687170634302 40 54 27
9.939641655875734 44 56 33
9.739023412253191 44 56 33
16.362184902986762 43 53 25
16.411607752512616 47 57 30
9.867931817132636 39 46 16
10.25113146134387 40 50 22
10.311413321332957 42 55 24
10.311413321332957 42 55 24
10.311413321332957 42 55 24
9.805456650982663 31 40 11
9.990938651313007 31 40 13
9.902052493132597 30 39 11
10.545958489770893 33 42 14
10.406318231504452 32 41 15
9.884743835311733 30 39 13
10.138164496451243 30 39 12
10.142149488094512 36 42 21
10.44086364117443 34 42 14
9.414215321721322 35 40 11
17.647662823058187 37 41 12
9.796489156489544 33 42 14
10.059515667506833 33 42 14
10.127823760760814 33 39 16
9.309278066902813 28 34 11
9.696024994118877 32 42 13
9.121992576698425 36 43 13
9.545594255176807 33 39 12
9.651741427050352 33 42 14
10.319181396197072 34 43 15
9.929362590796886 36 46 16
9.28490607358689 34 43 13
9.77938503103072 31 40 14
10.301933137202221 30 39 13
10.763842019964635 29 37 14
9.251601796705083 35 44 18
9.542378134601131 44 57 30
10.486207063660457 46 56 32
9.413649057722646 44 54 30
10.524197500357417 43 54 28
10.422626642956532 38 48 21
9.397314192291478 37 46 18
11.11795971607614 39 49 25
11.652841538163534 41 53 29
11.770081120405273 41 54 27
9.2968063525624 44 56 32
9.05608302135495 43 57 31
9.456365493882375 43 57 30
9.833163914709155 42 55 26
10.337085223190135 33 42 13
10.546146158747817 31 41 12
9.31290924362032 30 39 11
9.045812334565394 35 39 18
10.520623012616607 35 41 16
10.022294615518932 27 35 12
9.439209767059912 34 43 17
9.515940598339508 33 42 17
8.556247744842718 31 39 13
8.716067176514729 30 39 12
9.461042203905233 40 50 24
10.450571511385933 44 56 32
8.244689005626466 40 54 28
10.842367244799272 41 51 27
9.746581583836608 38 47 17
11.171182306628499 43 56 26
9.669598268757893 36 41 10
9.977961883821312 32 41 15
8.825041423463462 35 41 14
10.441793918817442 34 44 15
8.354131460449665 34 41 11
10.804349845603367 28 37 10
11.325365607415183 28 37 9
9.168898414724588 32 41 15
10.336199238152055 33 42 15
10.356956391323994 44 56 32
9.804982986228476 35 45 18
9.255480821648197 36 42 14
18.058135372079537 43 47 17
8.530946542836542 31 40 12
10.482551725716453 38 49 19
8.835425313298115 43 57 32
8.457915741029282 33 39 16
16.362184902986762 43 53 25
9.764337806505765 31 40 12
9.502242976537051 30 39 13
11.74344236013433 14 24 1
11.674610425140838 44 56 33
