12.078699242517375 20 27 19
12.04447487516308 22 29 24
12.077327355939552 70 74 68
13.289467279692392 69 73 72
12.72171118693019 40 46 44
12.626434873385563 68 74 75
12.193389729536177 13 18 6
11.716349736569503 28 36 14
12.312666237060148 27 35 13
11.659302377063227 30 36 18
11.544188828095812 29 36 14
11.832678155268924 28 36 14
12.741317476690039 27 35 13
12.471916853383679 25 33 11
11.847966507821964 28 36 14
12.211213352776909 26 31 13
11.035619506612205 30 36 13
10.840158626450826 30 36 13
9.902233340029294 31 37 14
10.255514852025106 29 35 12
11.092586565727297 31 37 14
9.942167075868264 31 37 14
11.459552153825962 29 35 12
11.39802070229963 33 38 27
11.573591286144286 26 32 17
11.450869612652122 18 23 11
10.939080083429715 31 39 17
11.047809511109659 28 36 14
11.155090029978187 29 37 15
11.027712056640016 32 40 18
11.225019159281644 28 35 15
11.007972327067543 28 36 16
11.007972327067543 28 36 16
11.984777394424347 30 38 16
11.852442368791383 29 37 15
12.152692255686802 32 40 18
12.659287939096046 35 43 22
12.295718595587156 37 45 23
10.73220109441617 31 37 14
11.888056654354292 30 38 15
10.901891653073747 33 41 18
12.105099337595135 31 39 17
11.704571427502536 30 38 16
11.14688367545219 29 37 15
12.51345155584866 31 39 17
11.157467160805082 29 37 15
11.05020972024016 29 37 15
11.21508966284539 31 39 17
11.337641435147297 31 39 17
11.529269356517027 32 40 18
11.5850427101647 32 40 18
11.873377437049983 36 43 21
12.139152785338906 36 43 21
12.625849286813398 38 45 25
12.097073814367322 38 46 28
12.094058643146449 34 42 21
12.64951762537303 40 48 27
12.062076685158127 38 46 26
15.300211611308255 42 51 33
12.549445438675562 24 28 25
13.470862067015371 70 74 70
13.395355200619722 70 74 71
12.77020197010828 23 28 26
12.27799493572663 24 32 17
11.964935524384002 24 31 16
10.645130422180909 29 37 15
10.905817856634496 30 38 16
10.722194131793717 30 38 16
10.984768188816131 29 37 15
11.367177396794306 29 35 15
11.611665831698641 26 31 13
11.612896592358924 31 36 19
10.348918330565064 29 37 15
10.171207662715153 30 39 16
11.086586811654277 31 39 22
10.920886495047755 30 37 16
11.175143097721959 27 35 19
10.553285818775429 30 38 16
10.816187081851576 31 38 17
10.536531064225867 30 38 16
10.447638512134246 30 39 16
10.910680219726814 31 39 17
10.77897745021326 34 44 21
11.63827037965835 32 40 18
10.941791103093834 33 43 20
11.58617256645744 35 45 22
10.77897745021326 34 44 21
10.749862559731897 33 41 20
10.73341466392479 33 41 19
10.376403648481409 34 42 20
10.753658391377071 35 43 23
10.729611670626614 30 39 16
10.930595652013512 31 39 17
9.584124089697136 28 34 11
9.454486595652364 23 29 4
10.423648644389557 29 37 14
10.423648644389557 29 37 14
10.682100214279625 31 37 14
11.33676950897964 35 44 21
10.796797086005432 29 37 14
12.195844794759946 37 46 19
11.927911297851384 40 46 24
13.1774752656166 43 52 25
15.315353005375831 42 51 33
15.395570791878328 40 53 35
13.238727876679981 43 51 27
15.368087034374865 41 50 32
12.006939012919467 35 41 16
12.814808568837003 66 72 71
12.176900836187485 14 21 14
11.248505435041851 29 36 14
11.557079071961098 27 32 16
11.76551529844724 29 37 15
11.155090029978187 29 37 15
11.294130924362376 25 33 13
11.030510251598127 28 36 14
10.426505769031394 29 35 11
11.750119667207798 28 36 14
12.280443347906855 28 36 14
11.349800533933292 30 38 16
11.257907279010876 25 30 17
11.092586565727297 31 37 14
11.40141972682864 30 38 16
12.468809652105909 25 30 16
11.759966603405157 41 46 35
12.479622146882292 34 42 19
11.687392916279231 34 41 19
12.094058643146449 34 42 21
11.802795875481209 32 40 18
11.568546841033518 32 40 18
10.660380042918275 31 37 14
11.888056654354292 30 38 15
12.323783207351099 37 45 26
12.078257982039945 34 42 20
10.89571374452014 31 37 14
11.032914224181045 29 37 15
11.157467160805082 29 37 15
13.395355200619722 70 74 71
11.103612827699717 29 37 15
10.895786893545225 30 38 16
10.442560545440017 31 39 17
11.626871380229831 28 33 15
11.17770061372778 28 36 18
11.367177396794306 29 35 15
10.920886495047755 30 37 16
11.279945831427233 29 36 15
10.352861167716608 30 38 16
10.988482875599148 29 37 15
11.184631541747946 31 39 17
11.184631541747946 31 39 17
9.496543228056279 24 32 7
11.444907392731187 34 43 20
11.035323568989003 30 38 15
13.1774752656166 43 52 25
11.272423385124508 37 43 19
12.0148529610112 40 49 23
15.395570791878328 40 53 35
13.374676714209953 41 50 28
11.803435243536148 40 50 27
11.410309738905045 36 41 16
12.062878462789723 22 29 19
12.595014750596997 53 59 59
12.70669103033953 30 36 34
12.306555716429694 44 51 47
12.274131215960544 62 65 56
11.544188828095812 29 36 14
12.359459897326609 26 34 12
11.450869612652122 18 23 11
10.675795116761975 31 37 14
12.486240130284548 28 34 13
12.096332936181357 22 27 11
11.20799342179885 30 36 16
12.370534815850634 38 45 24
11.950010761447627 39 47 26
11.352136892567737 29 37 15
11.31630595959953 37 45 23
11.232104643779596 30 38 16
12.953532676319616 36 44 22
12.129760847802501 23 30 18
12.197448238033749 25 30 15
10.546789759236672 32 40 18
10.1832380191176 33 41 19
10.72352697938768 30 38 16
10.27560844577631 33 41 20
11.106000976723474 30 38 16
10.47887494072934 30 38 16
9.22271207789453 24 30 5
10.923131599675141 33 41 18
11.555565382185524 34 42 19
13.334822066076603 71 75 72
11.427244391789786 31 37 14
12.192136525114005 36 43 23
12.788539159190949 40 48 29
12.438695006044854 35 44 22
10.816187081851576 31 38 17
11.252203886106125 29 37 15
10.650111804121666 31 39 17
15.315353005375831 42 51 33
12.26532981293322 40 48 24
10.268637305201477 28 36 13
10.89571374452014 31 37 14
12.692779137570353 26 30 25
11.337641435147297 31 39 17
10.539047714804301 30 38 16
15.44803098859474 40 53 36
10.763827851540226 33 40 17
11.88555087184337 40 49 28
10.688707135251782 29 35 10
10.905817856634496 30 38 16
10.73220109441617 31 37 14
11.479958769333622 31 39 16
10.990896040581077 30 38 16
12.833597816455995 36 44 24
15.300211611308255 42 51 33
12.363750591494265 28 36 14
10.942193838956097 40 46 21
13.568692520077233 40 46 21
11.31630595959953 37 45 23
10.807104893093763 29 37 16
