15.157548238385791 47 53 28
15.654791971743125 48 53 26
15.103047545713066 47 53 30
10.528968250842606 39 44 13
10.062688211747142 40 45 18
10.089175852702407 38 43 15
9.928114767527989 36 41 14
9.743098442819422 39 44 16
10.719640625671165 41 49 27
9.535607736573946 29 35 8
10.63051888072988 44 50 28
9.701226946373046 39 44 17
10.635091358496608 44 50 27
9.983842601647396 41 44 14
10.042014372872728 39 43 12
9.856131987476171 40 44 15
10.62091724447567 40 45 16
10.070451705652664 41 44 13
9.763030319827338 37 42 11
9.07911396157181 27 33 8
9.708688556385663 37 43 14
9.310416229485696 26 35 9
9.22669298640432 33 42 14
9.541206786111907 33 42 16
9.821541734597867 41 50 24
16.551801765663633 43 55 34
10.440908610240461 35 40 15
9.093609326725975 29 35 8
10.40443354046642 45 53 30
10.205635735610391 43 53 29
10.102364289509318 42 52 26
10.102364289509318 42 52 26
15.195420563400772 23 30 9
8.841353445413404 33 39 12
10.066105944507713 37 39 13
10.124837079411094 38 43 14
8.621243196649264 33 39 14
8.65159141985828 33 38 13
9.575324587430707 36 41 14
8.749214193663157 33 38 11
9.155971960156707 35 40 14
9.127300953446296 34 39 14
9.55957927238885 38 43 14
10.480608019752614 38 43 16
9.028381430485503 39 43 14
9.183526347993899 37 42 15
9.442597159376273 36 41 14
10.918423889605506 41 49 27
11.684743185567623 44 49 21
10.830937944754508 43 49 27
11.1175953494075 42 47 18
11.305086240835186 42 47 19
11.774143698914319 43 48 19
9.599513766616079 37 42 16
9.958357099262969 36 41 16
8.27827776867417 35 40 15
9.165461416368018 37 42 16
9.591369091344774 35 40 15
9.165461416368018 37 42 16
8.823229537186657 35 40 15
9.8160436589802 40 45 18
8.861069962865548 34 39 14
9.047690390061435 37 42 15
9.497880370613467 39 44 17
9.759060662994216 40 45 18
10.119969372188752 42 48 21
16.095626183843493 48 58 34
17.06957724548551 49 59 35
16.069962579921132 47 56 31
16.165425322585484 53 63 37
11.079248254127323 43 49 22
10.695379200242714 38 43 16
11.084146351213748 42 51 24
10.797925022731834 41 47 20
10.327354539066201 42 48 19
9.968596926147377 38 43 16
10.852696521837442 43 49 21
11.037606934730396 43 49 22
10.890501084296345 45 53 30
10.712659044565466 42 51 25
10.275065607359826 41 46 19
10.890501084296345 45 53 30
10.51415425728728 38 43 16
11.480084656640363 46 53 28
11.079838005770345 44 53 25
10.32273034010669 42 47 20
10.982614836804219 44 50 23
11.306639145835312 42 51 23
10.310737329454941 44 54 28
9.439299025086514 47 60 31
9.698921907432807 45 55 29
9.96459194929858 44 54 28
9.55733143694069 45 57 30
9.337965657198252 47 60 33
9.698921907432807 45 55 29
10.517335013946585 45 55 31
10.845853924729779 45 53 30
11.03371434486686 44 54 30
10.744819340225153 47 60 33
10.113190771662483 48 61 34
10.749343197800098 48 58 34
10.846456366671374 48 57 31
10.846456366671374 48 57 31
11.035877731047348 44 52 29
11.560595233079855 42 51 25
10.206830607687406 49 61 36
8.24033098833091 47 60 33
9.680319299342205 41 51 27
10.906845719480799 38 43 21
10.125216175197348 39 51 24
9.648416838288975 30 39 13
11.499971425753472 41 53 29
10.295046074863494 42 51 25
10.577841800364926 41 51 25
10.902787678550622 40 50 24
10.438774626055014 41 51 25
10.185480309932567 41 51 23
10.753918942134968 42 52 26
10.036050255206433 45 58 30
10.987449711103654 41 54 27
10.672327123175576 43 53 29
10.672327123175576 43 53 29
9.81400248493751 49 62 35
9.125971995126898 47 59 32
8.72677459525048 48 61 34
9.17629227339753 46 56 30
8.868616182128259 44 58 33
9.676473604827208 45 59 34
8.566247800866794 45 57 33
9.945144193271895 46 60 34
9.048555660184293 47 60 31
9.106733129216162 47 57 33
9.643813019495166 48 61 32
8.637395900119502 44 58 33
10.13954648512238 46 62 38
9.641337277809466 49 62 35
9.255313970185513 42 52 28
15.26352761154964 48 53 28
9.722625450303378 39 44 17
10.235327835357149 39 44 14
9.378566028769363 39 44 16
9.43530876208212 30 36 9
10.289391923456845 40 43 10
9.603450513625525 29 38 12
9.696116178416784 34 42 15
9.321367867744756 26 35 9
8.824298592928217 32 38 11
8.368067230024067 33 38 13
8.350045752966516 33 38 13
9.71370281486777 37 42 15
8.775325498533553 35 40 15
8.495931536638606 35 40 15
10.480608019752614 38 43 16
10.90287475637592 41 46 17
10.60996667589728 40 45 16
11.68058161148897 43 49 24
8.823229537186657 35 40 15
9.443526780020699 38 43 17
8.794546367878263 34 39 14
9.966201865579931 38 43 16
8.861069962865548 34 39 14
9.221454140451348 39 44 17
16.095626183843493 48 58 34
10.847693917905353 43 49 22
9.914328000775935 39 44 17
10.567972314312954 43 52 26
11.389477968154065 42 48 21
10.272741999341884 41 46 19
11.079838005770345 44 53 25
10.991385503412161 43 52 24
11.306639145835312 42 51 23
10.710348842386114 44 52 29
10.225780691227481 46 56 32
10.39792437061292 41 51 27
9.969469857822974 45 55 29
10.848657094987011 46 54 30
10.325506390709828 45 53 30
11.027142452312837 46 56 30
10.110743598001607 49 62 34
13.537081931012393 14 19 1
12.77278469044243 10 14 1
10.110327269921061 43 52 26
10.110327269921061 43 52 26
9.836867750153818 44 53 27
10.230675960267801 42 51 25
11.288217656618055 43 55 31
11.043009449582925 44 54 28
10.036050255206433 45 58 30
11.144498701764814 42 55 28
8.768400266653954 48 58 34
9.610535355788752 48 61 34
9.048555660184293 47 60 31
9.259124038208606 45 59 34
9.165784923059693 48 61 34
9.942743483287884 46 61 36
15.710833636953115 49 55 32
9.262885343470339 29 35 8
9.812605542685969 39 44 14
10.733238315326087 43 48 17
9.916970026947968 34 39 10
10.206511218044463 41 46 14
10.002736489881231 38 43 16
9.304678303774484 29 38 11
10.182666084773363 41 49 25
9.656017579463166 38 47 21
10.091484407031313 35 40 15
10.61957821305557 42 47 18
8.982548988142105 37 42 13
10.263357226269378 40 45 18
8.641461936260889 34 39 14
10.944371857996229 42 51 25
10.85049661280978 43 48 20
10.616652897905453 43 52 26
11.211382929577185 44 54 30
10.931634559094316 48 59 35
10.01620550081443 49 62 34
10.655294966661486 44 54 30
9.343170722245674 46 59 32
9.552243069851187 45 57 31
10.927186170445275 48 60 34
10.56353611079527 43 49 22
10.991385503412161 43 52 24
10.306020946369207 42 52 26
11.256120574917214 42 51 25
10.802950673546556 41 46 19
10.071877881232252 40 49 21
12.999947729964413 48 61 34
10.871615438522282 41 51 25
10.125216175197348 39 51 24
10.261383729543107 38 48 24
10.372910928688269 40 50 26
8.912258211943884 44 56 32
8.72677459525048 48 61 34
9.928114767527989 36 41 14
16.551801765663633 43 55 34
13.902111437834524 25 29 10
9.797353012126468 37 42 15
9.31771677914534 35 40 15
12.117528972618036 43 48 22
10.159558118685437 37 42 17
8.990615546495887 36 41 14
10.517335013946585 45 55 31
8.87012109543611 47 56 33
10.596662624295009 42 51 25
10.053121516403985 41 51 25
10.600626141174612 39 49 23
10.273645392702234 41 53 25
10.443805881674859 40 53 26
9.376785407908152 44 57 29
9.627343826618779 39 44 17
11.411920882266072 43 48 19
10.46849808062164 40 50 24
11.382008856660317 47 57 33
9.1395042231845 37 41 14
11.560595233079855 42 51 25
9.613276723084748 39 44 17
9.759060662994216 40 45 18
9.651326910612099 45 57 29
10.852696521837442 43 49 21
8.705545066652748 37 47 23
11.6000328417196 39 43 23
9.776829566603462 46 60 35
10.07385924233806 37 43 16
9.978971718792206 37 43 14
8.971183743788718 35 40 15
10.607121033723201 41 46 19
10.13954648512238 46 62 38
9.810660425545755 34 37 7
10.290696467049921 38 42 15
8.573234472811794 34 39 14
9.751442879123765 50 63 36
9.376785407908152 44 57 29
9.967118755571308 33 39 14
14.929100395486778 47 53 31
10.088327394790683 38 43 12
