11.021734492446823 33 37 16
10.983289500827821 53 57 41
10.753891880365194 39 40 19
9.95118272956813 37 41 21
13.15243534122761 82 82 78
12.289807512388403 79 82 74
12.815586557030242 60 61 55
9.975140429277005 29 33 19
10.246720990606175 78 81 73
9.716907046011498 31 34 25
10.36510911101103 85 88 76
10.215808363565628 84 87 79
10.752012600862285 55 59 43
10.920985648309014 86 89 77
10.431458863736866 88 91 81
14.639062938496087 66 68 42
15.113467827849991 61 63 37
15.481266523738228 64 64 38
15.4721461911468 63 68 41
11.352760860537934 70 76 57
11.352760860537934 70 76 57
11.532559352666219 71 77 56
11.532559352666219 71 77 56
11.325979331581665 61 64 41
11.23997383742025 48 53 26
11.666786639583703 32 37 16
11.932835115161113 55 60 35
11.81715944214951 58 61 37
11.07068711680601 53 58 31
11.07068711680601 53 58 31
10.84131787384368 39 43 22
10.84131787384368 39 43 22
11.341045687443957 48 53 28
11.117091133091106 52 57 28
12.025624942511095 61 63 41
11.994513689746084 62 66 39
11.994513689746084 62 66 39
12.139314307751645 60 66 39
12.333298361218002 58 66 39
11.952035571866835 65 72 48
12.362797281775183 62 67 42
11.634283867187209 65 71 46
12.342080824522835 67 75 52
11.97795087519145 62 68 41
11.693434407605114 67 73 53
11.36845702090154 67 75 52
11.634283867187209 65 71 46
12.28655808667692 67 74 53
11.75175977063569 65 71 48
12.587362914656165 67 73 50
11.602123275411866 66 72 47
12.09208847854408 62 69 42
11.516147888020372 68 74 54
12.143513346985229 69 76 55
12.392984032697964 62 67 41
12.503333549063846 62 67 41
10.786538348645221 50 56 35
11.076427988540527 55 59 37
11.032536381474673 50 56 34
10.309891732072822 40 44 27
10.661206169511582 23 27 8
9.859448437113246 26 30 16
11.063842623305458 31 36 20
11.696238842103517 52 58 35
10.161902651758933 47 53 34
11.298568712986864 57 63 40
11.298568712986864 57 63 40
10.72296414640214 52 58 38
11.679253039750634 59 65 43
10.845022389246482 53 58 40
9.538953246168209 42 46 30
11.541986793366684 55 60 40
10.464213518322838 54 60 40
10.003837917297128 47 52 36
11.237891505986227 60 66 43
11.161760999054726 57 63 43
9.955218485738525 44 48 32
9.719764635039178 44 48 34
11.464752963347 58 65 42
12.338192795293837 64 70 47
12.583550672208851 63 69 46
11.336370974550904 62 70 43
11.688800320770618 60 68 43
12.231044555376657 62 70 47
12.170302189659617 65 71 50
12.268891741047458 61 68 45
10.217593662438581 76 76 65
9.925420208581203 66 67 53
12.703751182065675 76 74 73
11.025385898841265 55 60 46
11.07687192070586 53 58 47
10.618805221282836 59 64 47
11.546031943700838 62 67 55
10.228951124942588 68 71 53
9.87074217104714 64 68 48
9.70729936172325 61 64 47
9.268038745761032 63 69 48
9.547688991684073 66 73 52
10.235297435683961 63 72 50
10.13973011885938 62 71 48
9.845246210710583 63 72 50
9.645912036490804 65 74 53
10.043707466026962 66 74 54
10.797858780532659 63 72 49
11.254140883432546 67 75 53
10.532710593334814 68 75 55
11.067023456111366 61 71 47
11.760588795869308 65 73 50
11.254140883432546 67 75 53
11.507658097620636 66 74 51
11.337589733181424 67 75 53
10.527262055099623 66 74 53
11.259237678029315 69 76 55
9.093769959909473 61 67 48
9.778253257823108 64 70 48
11.868876035967157 85 88 85
11.172171009735308 83 86 80
10.842725749331155 64 69 57
10.736836942184802 72 75 69
10.489373867276498 78 80 73
10.46479280200155 66 71 58
10.712823707332472 64 68 55
10.871285781016812 108 111 102
10.220917764630425 60 64 53
11.198086547380155 67 71 59
10.212717591255785 56 60 43
11.007468918999331 64 71 49
10.768680601334616 64 70 51
11.304730095892074 66 72 53
9.778253257823108 64 70 48
9.62194917974237 48 53 40
11.618812876113628 65 72 50
11.185327832314568 61 69 47
11.193222840736249 68 76 53
11.10868955496492 68 76 54
11.113853053500112 69 76 56
11.10868955496492 68 76 54
11.621477764465478 65 74 51
11.567456160902635 66 76 51
11.567456160902635 66 76 51
11.170623562328885 67 77 51
11.209142404390407 67 76 54
11.085917951954377 68 76 53
11.292923774456998 66 76 50
11.418939094606905 67 75 52
11.418939094606905 67 75 52
11.085917951954377 68 76 53
12.20019522594122 66 74 53
10.72741972102141 64 73 50
10.780328900377446 65 74 49
11.343195524412431 66 76 50
11.343195524412431 66 76 50
11.599712868810293 65 74 49
11.029008665149052 65 70 56
10.74029785358806 65 70 58
10.641821808836001 62 69 52
10.99267584553955 64 72 54
10.958632471283533 64 72 56
10.8674419523744 62 67 53
11.137271315465224 65 73 52
11.468801400458641 63 71 50
10.7638006658852 73 76 68
11.152861908065196 63 68 53
11.455946161861108 65 73 50
11.42328349727089 65 73 50
11.575232138834153 64 73 49
11.351125130952656 63 73 48
11.016054127030573 65 74 49
11.477983675479882 66 73 52
11.055961271698935 63 71 51
12.076573144580024 62 69 49
11.11052828168129 61 68 50
10.537285681432905 62 70 50
10.42232893197207 63 72 51
11.517105921507174 61 69 50
12.003045907135638 62 68 46
11.055961271698935 63 71 51
10.859998919963342 65 73 51
11.79087446225146 66 74 51
11.71065611529861 66 74 52
11.71065611529861 66 74 52
11.642547651467424 64 71 51
11.723232052232122 63 70 50
12.17769323070377 63 69 49
11.03742861700124 63 72 51
11.715554306860081 67 75 53
11.647474485179037 63 70 50
10.607538038940621 64 70 50
10.975332818085771 57 62 49
11.081325638491116 59 64 49
11.759281532797866 62 70 49
10.954253421181031 61 68 51
10.75443260134752 59 66 49
11.242573025504791 64 72 49
10.818690238642024 59 64 48
10.797305035396283 61 68 49
11.19184930672558 63 71 49
10.147534515945697 62 70 49
10.874003337725439 61 67 50
10.667620619589846 38 41 31
10.6759242215205 77 78 69
10.252611572001902 47 48 39
11.375764519921466 68 69 61
10.080881884578092 44 47 33
10.324465000549734 49 52 34
11.405688063881767 41 44 34
11.018074497200798 55 59 48
12.248322198189516 52 57 44
13.211570379889666 77 80 73
11.628468806332066 56 61 46
11.01526363034698 56 61 46
11.062477859388725 54 55 47
10.888007369367603 47 48 39
10.6082950069849 57 62 46
10.678353710972134 47 49 34
10.221537628036662 51 55 34
10.678353710972134 47 49 34
10.766266386748255 50 54 40
10.945215660014115 50 53 41
10.77129737852136 58 64 49
10.260487146238656 87 90 83
9.592769728072351 32 36 22
12.726123708678525 64 65 58
12.899876672020033 29 31 17
10.664889072579374 96 99 92
10.307197752412298 65 69 54
10.043449409718 48 51 40
10.920985648309014 86 89 77
11.021734492446823 33 37 16
10.106234566940763 32 35 24
10.72242956132259 32 36 17
11.286272407816206 86 89 84
11.449205582499186 49 53 33
10.806797705022689 47 49 24
10.544966846946107 31 35 14
11.308051144218105 52 54 27
11.404153035061052 51 57 34
12.025624942511095 61 63 41
12.025624942511095 61 63 41
11.20858937427011 70 76 55
11.75175977063569 65 71 48
11.97795087519145 62 68 41
11.634283867187209 65 71 46
11.831969506409978 61 67 40
10.145265795694822 43 47 31
11.168995524746196 44 49 29
10.390188645473845 24 28 15
9.529515832354141 51 56 39
11.298568712986864 57 63 40
10.401515232972493 50 55 38
10.046513075993401 52 57 37
12.090817057379233 59 66 43
10.952276387207704 58 64 43
11.642822105348037 58 64 42
10.543335199002282 50 55 38
11.805463090586276 67 73 52
11.911891286244632 61 68 45
11.688800320770618 60 68 43
11.911891286244632 61 68 45
11.97846838495648 65 72 50
12.231044555376657 62 70 47
12.231044555376657 62 70 47
11.715827050493663 62 68 45
12.024357953962069 77 79 79
11.641787933300364 80 83 75
10.526110415013548 67 69 53
10.235297435683961 63 72 50
10.13973011885938 62 71 48
9.845246210710583 63 72 50
9.955177135317074 68 74 54
10.119835397746666 66 72 52
9.384247521539496 63 67 47
9.366375117425914 63 71 48
10.274752696837972 66 74 52
11.254140883432546 67 75 53
10.280335064937631 68 75 55
11.337589733181424 67 75 53
10.672385880410891 91 94 92
10.271294500106652 62 66 46
10.55139475876667 66 71 49
9.613238094677174 63 68 50
10.489373867276498 78 80 73
10.39865574226558 60 64 47
10.437056631875537 80 83 74
11.162304082571493 66 71 57
11.933885572286105 69 69 67
11.137124142561152 67 77 52
11.170623562328885 67 77 51
10.65214507016659 66 76 51
11.085917951954377 68 76 53
11.057351685608657 69 76 56
11.423962364807975 67 76 54
11.46365479720534 65 75 49
11.310207252770013 68 78 52
11.365451662656113 69 77 53
11.599712868810293 65 74 49
11.11693387807751 63 71 53
11.05189752608371 66 70 56
10.665994897321916 63 68 54
11.029008665149052 65 70 56
11.103671273495342 65 73 52
11.137271315465224 65 73 52
10.99507778651402 64 69 55
11.140051397282965 65 74 49
11.34717915930751 59 66 48
10.505174660855053 58 65 47
11.618157179421594 61 69 49
10.833846822373893 63 71 49
11.998265082194113 63 69 48
11.171464506153649 64 72 50
11.255526338028078 64 72 51
11.71065611529861 66 74 52
11.300888655729285 63 72 50
11.255526338028078 64 72 51
11.715554306860081 67 75 53
11.03742861700124 63 72 51
10.685598523669244 62 67 50
10.351753694224726 60 65 48
10.607538038940621 64 70 50
10.390327927294665 59 64 48
10.553330584454455 55 60 48
9.775921314693788 34 38 24
10.19955391197961 59 60 51
9.723118611219654 41 45 31
10.029867375709543 46 50 37
10.202276315759585 40 41 31
10.522023837671615 84 87 79
10.346827533107463 48 49 35
12.292540043198183 60 64 52
12.364604293761605 63 66 58
11.628468806332066 56 61 46
11.274437080126088 55 60 49
10.932479245448624 39 41 31
11.018364505949052 41 44 33
10.83215045094574 60 64 48
10.750115140050275 54 59 39
9.851438122378864 30 33 23
10.728356791449189 82 85 75
10.77090968310779 78 83 74
12.174243837415414 68 75 53
10.707199103710353 51 55 38
12.311769266625145 68 75 53
12.113744219070105 61 67 42
12.286818155135904 61 70 42
12.174243837415414 68 75 53
11.03688437167735 57 62 33
10.64534966782688 40 44 26
11.46152755478649 41 45 22
10.767712032165019 42 46 27
10.37314383118036 50 56 34
11.305595015766395 42 44 21
11.354415706611642 58 64 42
9.693401209552025 50 54 38
15.763558482586292 76 76 76
11.16914969163308 54 59 47
9.657328391159533 68 72 51
10.616425966893626 67 74 53
9.648649247542558 64 71 48
10.616425966893626 67 74 53
10.212717591255785 56 60 43
11.578864731325401 96 99 94
11.198086547380155 67 71 59
10.51886721708719 62 71 48
10.827109715088232 63 73 49
11.760588795869308 65 73 50
10.793988803960055 63 71 49
11.64454113921986 64 72 49
11.316681039193217 60 65 51
10.797305035396283 61 68 49
10.705451946524699 65 69 59
10.74029785358806 65 70 58
10.998308406511976 64 74 50
11.621477764465478 65 74 51
11.477983675479882 66 73 52
11.015640200924821 65 70 55
10.717168967880566 62 68 51
10.99267584553955 64 72 54
11.050795583541515 56 61 49
11.085917951954377 68 76 53
10.558739651912436 64 72 50
12.08310842959818 64 72 51
11.501192285156131 67 75 52
11.259933790157174 64 72 51
11.399247989629446 62 70 50
12.254854807582234 63 70 50
10.651645577638389 93 94 89
10.186919766136073 72 76 59
10.42329343057639 84 86 77
11.390663800991051 69 76 54
11.602123275411866 66 72 47
11.97846838495648 65 72 50
11.08342991393071 56 61 32
11.737904751236643 63 69 48
11.404153035061052 51 57 34
12.392984032697964 62 67 41
11.81715944214951 58 61 37
11.952035571866835 65 72 48
10.905028356951846 62 70 50
10.77258006708893 61 66 51
11.455946161861108 65 73 50
10.072074137015463 64 70 48
9.949412330853153 66 74 54
9.645912036490804 65 74 53
9.320097179554748 43 47 35
9.384247521539496 63 67 47
11.472467692767507 89 91 88
11.052161790031194 68 76 54
10.75443260134752 59 66 49
10.842443671250816 58 66 48
10.021374730464135 74 78 69
11.789749166437554 56 59 51
11.010028943000874 59 64 49
10.744776845431973 59 63 44
10.715454125111325 58 64 48
11.21084295572867 51 54 43
10.788581333012385 33 36 16
10.632626134175624 70 76 58
15.113467827849991 61 63 37
11.117091133091106 52 57 28
11.1940792315694 51 57 30
10.83415947685986 48 54 33
11.822537842117177 58 63 38
10.923360633228022 55 61 39
10.24046942375293 55 61 40
9.727729045523379 70 72 58
11.703546736200535 62 67 55
11.778509908827088 63 73 48
11.125721825417429 61 69 50
10.551826896266117 64 72 49
10.548891793403863 61 69 47
10.404014087115318 66 74 55
11.052161790031194 68 76 54
9.445166931733425 64 71 49
10.448520759709373 42 43 31
10.882736715054545 42 43 34
11.193284161484993 41 44 33
11.341045687443957 48 53 28
12.025624942511095 61 63 41
13.150387849455164 74 74 73
11.52319095040515 74 77 70
11.209142404390407 67 76 54
11.71065611529861 66 74 52
10.52196647485627 67 72 54
12.18240364161915 63 69 47
11.533650958124834 58 64 39
11.946715471796455 63 69 42
10.865431459232441 62 70 49
11.488651428280185 67 74 51
11.805463090586276 67 73 52
10.76622815136179 64 71 49
