8.969071779363986 32 39 2
9.238067287067834 40 46 9
9.108770504619436 39 44 11
9.19030297376639 43 49 13
8.571128003705542 45 48 13
8.951106678755522 44 50 14
8.767548416126392 45 48 12
8.553227835160124 46 50 15
8.573042888923137 47 50 15
8.633218403412007 48 52 18
8.372060343911798 47 50 15
9.527393186956475 33 40 8
9.046237402224842 34 41 7
8.91415862787082 29 39 3
9.061174902198161 34 41 5
10.071151245262858 44 49 15
8.763613881200177 41 47 13
9.755670933018 44 50 14
9.44679807435703 42 47 16
9.074379055377085 39 46 14
9.38202629668797 45 48 15
8.916976692158048 42 47 14
9.00407243843738 46 51 18
9.143236407261336 46 51 20
10.343545550395055 48 53 22
10.23059548594932 45 50 17
9.43257788729693 48 53 20
9.611409655879728 47 53 18
9.529052471563658 45 50 17
9.835342520800687 45 50 17
8.83390767729273 42 48 12
8.877969836905299 44 49 15
8.951562272616531 42 47 16
8.179907743648489 45 50 17
8.738701116665602 41 46 15
8.738701116665602 41 46 15
8.699965604622836 38 43 12
8.369052912393485 37 42 10
8.241591570048918 38 43 12
8.96734262449081 41 47 15
9.06915624027512 48 55 19
9.923911778950988 50 57 23
9.8156134799469 48 53 20
8.679367161709742 46 51 20
10.608127145495533 48 51 18
9.884513211197264 49 54 23
9.135022133016752 47 52 21
7.992334315827467 47 52 19
8.438850590265533 45 50 17
9.06915624027512 48 55 19
9.247567673450643 48 53 22
10.476255913298909 47 52 20
9.112080908584494 51 58 22
10.575359881891002 53 58 29
10.759617006527984 51 56 27
11.433217179879122 50 55 24
10.923039188296823 51 60 26
16.80881277869134 56 64 37
8.650953060603161 47 48 17
8.551420351485286 49 53 18
8.828838881719998 48 55 25
8.52589335151792 51 54 26
9.056911665149942 50 53 23
8.131995851824 51 54 20
8.409737603568122 50 54 22
8.61653403811383 45 48 15
8.58610039858501 50 54 19
8.360432955012003 53 59 32
9.009148248296226 51 57 27
8.023984582843493 50 54 22
8.693272608130956 50 57 26
8.536192159395577 52 57 32
8.14279286699298 52 58 32
9.10027580779871 57 63 40
8.932231365391418 52 59 30
8.152198482779077 52 57 31
8.601233930011498 50 55 28
8.923647950082328 55 61 37
8.152198482779077 52 57 31
8.16782175088639 54 59 34
9.195927483018696 59 69 42
9.186927079138787 58 60 39
9.298844426150861 60 64 43
9.61354102935853 59 63 42
9.883565339601144 58 64 42
9.332230912026347 58 67 41
9.802708824690557 56 60 39
9.855905353339043 57 66 38
8.814781406328347 56 61 37
9.06517987825925 58 60 39
8.814781406328347 56 61 37
10.10752090307062 56 60 39
9.675535402127453 58 64 41
9.568025230604183 57 63 40
9.4640186379373 58 62 41
9.924783966473385 57 61 39
9.397619019405035 57 61 39
9.485561936897867 56 60 38
9.960308671839472 58 67 41
9.06138001194371 58 60 39
9.564425142638466 57 63 40
9.480847261117324 57 62 39
10.033449487999016 54 58 37
10.120036392059092 54 58 36
10.33105192390766 60 70 42
8.32290758302076 44 49 16
9.191864177708219 43 48 15
8.109265859065962 46 51 18
9.056222436791188 46 53 17
8.503304431878274 47 51 18
8.925729813768207 46 51 18
8.587771443535159 48 53 20
8.745986497158832 46 52 19
8.503304431878274 47 51 18
9.803556411185784 48 53 20
9.134906117534735 46 51 18
8.340487085243524 47 52 19
9.000408708737135 48 53 22
8.647733879175812 46 51 18
9.521874090855468 44 50 17
8.33006112975733 49 55 22
9.025452727139918 48 53 20
8.920538771440764 49 55 22
9.540421588062824 51 56 24
9.766245134076817 51 58 28
9.766245134076817 51 58 28
8.876687918289626 47 54 18
8.63308994164122 50 55 22
17.360709644539522 48 55 26
17.360709644539522 48 55 26
9.835654412341867 49 54 23
10.12689509038857 49 54 21
10.504141766564796 55 61 36
10.081808833170832 52 60 34
17.368051457018282 44 53 25
17.368051457018282 44 53 25
17.17716162195751 43 50 20
17.042903255022747 40 47 17
8.92197774885682 52 57 27
9.475912278559365 54 60 35
9.69942276297619 54 60 32
9.668736831052737 51 58 28
9.347977162544371 52 61 35
9.791530992084917 55 64 38
9.051100248453583 58 67 41
9.417293619474203 55 64 37
9.432732401162987 53 62 36
9.294197680551298 54 61 31
9.385685328658987 52 58 31
9.275754996252166 57 67 41
9.316793126303171 58 67 39
8.736741508540673 55 64 39
9.402102461226477 54 62 39
9.857105766868589 51 60 34
9.454996783982265 59 68 40
9.694012277981912 47 54 24
8.736741508540673 55 64 39
8.786971642029526 59 68 40
9.112074961451928 54 58 36
9.77876475480948 54 60 35
9.890852485801481 54 60 35
10.488071676432943 56 61 36
10.297207223776995 55 60 35
9.639123147889473 53 58 34
8.645165624009676 55 63 40
8.86688635449999 56 60 39
8.651942192912474 59 65 42
9.70911461953592 56 60 38
10.121906946942858 56 60 38
9.627593267684377 54 58 36
9.445422364849708 55 59 37
8.645165624009676 55 63 40
9.895834917788823 55 59 37
9.901755589948129 56 60 38
9.04339277037684 42 48 12
8.06049705991349 44 50 14
9.780788567866836 28 35 0
8.975710354806074 43 49 13
8.45048908080096 38 44 9
9.779300737680064 48 53 22
10.151739410438035 47 52 21
8.28849929933102 35 42 5
9.923911778950988 50 57 23
8.445494643962897 39 46 10
9.04253534027472 44 48 15
9.400362224588031 50 57 22
10.056176786522013 51 58 24
9.131251330806885 46 51 20
8.89133849937071 41 46 14
11.011081082469817 50 55 26
16.929414211172244 56 64 36
10.759617006527984 51 56 27
8.744639186909907 51 54 22
8.383473084704002 50 53 24
8.287685106764462 50 52 18
8.314560904844509 49 55 22
8.104831332925533 49 52 20
8.750452681604193 51 56 27
8.600935536684892 50 54 22
8.866318544384653 48 55 25
8.866318544384653 48 55 25
8.378745016468645 48 55 26
9.167318540146272 54 60 33
9.614986515643723 53 59 36
8.566009612729909 53 59 34
8.51821857704879 53 59 35
8.51821857704879 53 59 35
8.900744702411563 55 61 37
8.616043011174465 53 58 31
8.424267576821153 54 60 35
9.18317759019557 57 59 38
9.160076787581106 56 60 38
9.485561936897867 56 60 38
9.802708824690557 56 60 39
9.675535402127453 58 64 41
9.4640186379373 58 62 41
8.886693353122949 59 65 42
9.651912364900726 59 66 42
9.48447907335871 56 60 38
9.717636455271608 56 60 39
9.592925611997766 56 60 38
9.06138001194371 58 60 39
9.48447907335871 56 60 38
10.432085486740458 58 62 40
10.430700473066015 60 70 44
7.846916542548984 45 50 17
8.951669110706709 47 53 18
8.3737741021547 45 49 16
9.638590614557433 52 58 27
9.253788592974093 46 51 18
9.178192659990652 49 54 21
8.587771443535159 48 53 20
9.46027267375627 55 62 32
9.175454823509305 45 51 17
8.026418958921916 46 52 18
8.883287873397412 48 55 19
17.905692273350915 47 54 27
9.86582118963267 51 58 28
10.504141766564796 55 61 36
10.428933353791649 53 57 34
17.368051457018282 44 53 25
10.024422658063818 55 61 36
10.270063094623781 55 60 35
9.317068593227273 55 61 38
9.907052621862148 55 60 36
9.72461845382373 41 48 18
9.55404360164713 57 66 38
10.933575557515336 53 58 34
9.832249588050827 54 61 35
9.447330471373185 53 59 34
9.170399233467242 55 61 36
8.645165624009676 55 63 40
9.627593267684377 54 58 36
10.325182151901933 51 58 33
9.857105766868589 51 60 34
10.164690430095728 53 57 35
9.237598101960463 58 62 43
9.694910737696349 58 67 41
10.886923303322959 58 62 40
8.204326348216021 46 49 13
8.571128003705542 45 48 13
9.470018224668339 41 47 11
8.828257470997706 47 51 17
8.916462750123305 38 43 12
9.76009293111042 48 53 20
9.112080908584494 51 58 22
8.06400060376616 46 51 18
8.91068419550984 47 52 19
9.819121472517729 48 55 21
7.979081260167965 39 44 11
8.949267187263937 36 43 9
9.803505296694844 49 54 23
8.971182321709504 42 47 16
9.465008525056529 48 53 21
8.731991878344376 42 47 16
9.236388491289174 44 49 18
8.495514646716186 31 38 4
10.626384900273184 46 51 20
8.355035401753895 39 44 13
8.483641208001343 32 42 5
17.26498230555129 54 60 31
8.287685106764462 50 52 18
8.389218600421296 58 68 42
8.917947359861175 51 58 27
9.675535402127453 58 64 41
9.357769799835214 49 55 21
9.852410457833848 57 66 39
9.292539621589807 60 64 43
8.433359273371073 53 57 35
7.7635202424764485 50 56 27
8.600935536684892 50 54 22
9.187656224387496 47 52 20
8.84507744509952 42 47 16
8.521008279797414 44 49 16
8.334079684211591 45 50 17
9.628294154941822 49 54 22
8.559947627325384 48 53 20
9.008634099552106 47 52 19
8.940688559259955 49 54 21
17.856897486393486 45 52 22
17.727787730362213 42 49 19
17.368051457018282 44 53 25
9.996437253971536 53 59 32
10.410179373313545 57 62 37
9.70911461953592 56 60 38
9.262169319245904 51 58 28
9.566304366266813 59 68 40
9.300777310562683 52 59 35
9.275754996252166 57 67 41
9.347977162544371 52 61 35
8.857080062300334 56 66 40
9.044622748606821 56 65 39
9.135022133016752 47 52 21
8.877969836905299 44 49 15
8.145711144691344 42 47 16
8.848327350553818 43 48 14
9.913495321195844 47 50 17
9.87405519071587 44 49 16
8.842686357994054 47 52 19
9.373032809645794 48 53 22
8.045172288230786 45 50 17
9.625726009452007 60 63 42
9.592925611997766 56 60 38
8.822015681855667 53 59 33
8.4581416114812 48 55 25
9.284289320725778 55 61 38
9.2739905163365 53 59 32
9.242279167575836 53 59 33
9.094852142159912 51 56 23
8.707988934154443 45 50 17
9.616651842238062 43 49 17
9.54457421726781 51 56 24
9.573133785606535 49 54 21
9.428055426986084 45 50 17
9.408333844753889 57 66 40
9.953962449257416 55 62 37
9.895834917788823 55 59 37
9.55501849087022 50 55 24
9.237598101960463 58 62 43
9.349905155475339 52 61 36
10.087460737272732 55 64 38
9.417293619474203 55 64 37
8.96734262449081 41 47 15
8.633218403412007 48 52 18
10.568020602581495 46 51 18
8.241591570048918 38 43 12
9.606368494309413 53 61 38
9.275754996252166 57 67 41
10.923039188296823 51 60 26
9.960308671839472 58 67 41
9.004927512997739 53 60 28
7.943170708752678 50 52 19
8.585871889008777 31 41 4
9.808218492185683 51 60 34
