15.388973854988608 31 28 9
9.918326771235966 23 25 9
9.916220059256375 30 30 14
9.561570377978867 30 25 10
9.25267638123008 31 25 10
10.685915509778617 25 34 16
11.413641138335919 31 37 20
11.413641138335919 31 37 20
10.873152343890677 31 36 19
10.733245586625975 31 35 18
14.532602014913934 31 38 44
9.514190054141684 29 29 13
9.776468946827684 30 37 18
10.216069296697563 32 33 18
10.175145351641287 28 30 14
10.373813025094202 32 40 20
10.516326145997223 32 39 19
11.47798643375482 33 43 20
11.121978710292561 34 44 21
11.121978710292561 34 44 21
11.121978710292561 34 44 21
10.698153374648985 31 38 19
10.698153374648985 31 38 19
10.756743046207413 33 41 21
11.478383296587994 32 40 19
11.25705518787353 34 44 21
11.336020390714845 31 36 19
10.218308764966213 30 35 20
10.218308764966213 30 35 20
11.143420906082163 35 43 20
10.604696891351683 29 38 22
10.521109752370839 32 38 20
10.521109752370839 32 38 20
11.267854999810284 33 43 20
12.745098070846504 32 47 20
11.62710626212764 36 46 23
12.690846066156292 34 48 21
12.618488484843812 35 46 21
12.403479378042086 33 47 20
9.924671748131095 38 40 19
10.433607030264461 36 41 18
9.20698818178163 32 26 10
9.564320584208906 38 36 18
9.634022707089978 38 40 19
9.369712506266985 37 34 17
9.341820756947278 37 28 14
11.756498551909344 37 47 22
10.794022072328808 36 42 17
10.36764348476992 38 42 19
9.769455936030084 40 41 21
11.5742890356686 37 45 22
11.5742890356686 37 45 22
11.383245227342147 38 47 21
11.383245227342147 38 47 21
11.105687322984123 37 43 18
11.108099737717417 36 46 21
11.096791800481329 37 43 20
11.909213384000468 34 45 21
11.849919306882892 40 50 26
12.224707303255373 33 49 22
12.08378068107767 37 48 24
12.30526587845015 28 36 18
11.714182245751896 29 34 17
12.104316123954849 29 34 17
11.906571905335811 29 42 15
11.252407803508497 33 41 18
12.771027760547948 27 39 16
12.195612721006045 23 42 14
12.046529143954913 26 42 16
11.39259489838554 29 43 15
12.090749514568623 24 40 16
11.275394355321357 31 41 18
11.65861246781337 29 37 18
11.810710036318977 30 40 17
11.65861246781337 29 37 18
11.812261560485949 31 41 18
12.312709953377047 29 42 17
11.375245633101686 32 44 20
11.497170957241593 34 42 20
11.497170957241593 34 42 20
11.99009564738 30 38 18
11.375245633101686 32 44 20
11.74680541114813 32 42 19
11.434138033218398 31 36 19
10.77029827799207 33 47 20
11.260772134246343 30 44 18
11.883589891956426 30 45 18
11.018889579665807 31 46 19
11.550975634066514 28 44 17
12.091564753145482 29 44 17
12.0346921001253 29 45 20
12.166567830851433 28 42 17
11.874117440304808 25 44 16
11.774392183554857 30 46 19
11.816198235958083 26 43 15
12.216245166828811 26 42 15
11.341393246079914 33 49 24
11.506273519356307 32 45 18
12.216245166828811 26 42 15
12.175812766167484 25 44 16
11.341393246079914 33 49 24
12.166567830851433 28 42 17
12.107511426998563 31 44 17
11.21654727954146 31 47 22
10.95477757523391 30 46 19
12.167699612667404 26 45 17
11.593531979258854 34 45 19
11.53386460790472 28 46 18
10.80721418911869 32 45 19
11.340524079898527 31 44 17
11.782721677983254 32 46 19
12.693927748022457 27 41 17
11.121278767305196 35 41 19
11.275170430716038 33 41 18
11.512129844550168 33 41 19
10.756144504881075 35 41 16
10.763619077764497 35 41 17
10.918722881178782 34 41 18
11.463337247195467 32 43 18
11.66305560641449 36 46 22
11.097612775867196 35 42 19
11.018120997384642 34 44 20
11.400981876183279 34 42 19
11.009154720519998 35 45 20
11.10609748947941 36 42 17
11.696095742986108 37 45 22
11.901301244104607 36 51 25
11.585524102559068 34 46 22
11.172089906770225 35 48 22
11.789663196281662 37 44 19
11.593651747991533 37 45 22
11.602166328163362 35 45 21
11.609488579503871 31 42 18
19.94041264450933 31 25 10
9.297661488980564 28 26 10
9.76662564459777 31 25 10
9.916220059256375 30 30 14
10.685915509778617 25 34 16
11.101726125431338 30 36 19
12.059177181499429 36 46 21
12.008850115703716 34 45 22
10.168134191952621 31 34 20
10.860095544060387 34 44 21
10.122946717486457 30 24 9
9.772253134037165 28 27 11
11.660974523488523 35 45 21
11.07837542389501 32 40 20
11.121978710292561 34 44 21
9.991860416927103 37 40 19
10.369281092668906 36 41 19
9.369712506266985 37 34 17
9.556384657710273 39 38 20
8.797375431623648 36 29 13
9.298029208756706 34 29 12
10.721492253436535 36 45 19
11.096791800481329 37 43 20
12.224707303255373 33 49 22
12.451531496929013 36 47 23
10.794022072328808 36 42 17
11.55385596924265 31 36 19
11.835712725306653 28 36 18
11.835712725306653 28 36 18
12.150702138028414 32 40 17
12.194918301690468 29 42 18
12.163233239321025 26 43 13
11.51433651259858 30 43 17
12.641215489368527 27 41 16
11.295738836661354 31 44 17
10.961217469273723 31 41 18
11.46001834730963 30 40 17
12.53042705744741 27 42 17
11.99009564738 30 38 18
11.948898031786012 30 38 18
12.058088447900886 25 41 17
11.576201256321072 27 44 18
11.314427172984868 28 44 17
12.240099811852824 26 44 16
10.751944925993516 34 50 23
11.985411208333925 31 47 20
11.992825777524175 29 43 18
11.680702403515685 30 46 19
12.0346921001253 29 45 20
11.350097066320082 31 47 22
12.547276542291115 23 42 14
12.556241171735554 29 45 18
10.751944925993516 34 50 23
11.805954419763843 27 43 18
10.95477757523391 30 46 19
11.593531979258854 34 45 19
11.9106929345503 32 40 19
10.923271504655705 34 42 19
11.55607650106564 34 41 18
11.62716510051266 34 40 17
11.585524102559068 34 46 22
11.463337247195467 32 43 18
11.585524102559068 34 46 22
11.40924098543762 36 43 18
11.172089906770225 35 48 22
11.22378176957878 37 45 19
11.091126883126787 36 49 22
11.206984115526753 34 44 20
9.86682833205422 29 33 16
12.403479378042086 33 47 20
10.365168357861569 31 37 22
10.838513122109639 32 39 20
12.191596593069994 33 47 20
10.516326145997223 32 39 19
10.216069296697563 32 33 18
9.927560828202296 31 36 19
10.860095544060387 34 44 21
10.930804052222024 29 38 22
10.650239647861644 30 38 18
11.075898580321672 33 41 21
11.25705518787353 34 44 21
10.930804052222024 29 38 22
12.016806993697474 37 47 21
11.772899089707561 37 47 21
12.08378068107767 37 48 24
11.53386460790472 28 46 18
11.418513155078477 31 44 19
11.189754161297662 34 46 20
10.271180163799228 35 41 16
11.533525309615804 32 47 20
11.720438222694638 31 41 18
12.397192190761036 29 40 17
11.206984115526753 34 44 20
13.373116009924892 27 43 18
13.057219790248112 25 44 18
12.37195520315878 30 43 16
11.190103883173164 33 47 20
11.340524079898527 31 44 17
11.56693544627658 32 42 18
11.12586558827667 35 43 20
12.043219807153223 27 43 16
10.786866056769233 33 41 19
11.703574959245582 32 42 19
10.823488291357839 36 42 17
9.921562308111646 29 26 11
10.941509561850326 32 37 20
9.769455936030084 40 41 21
12.313888937821199 40 48 25
9.927560828202296 31 36 19
10.18188928199494 32 38 20
20.61525225378543 31 38 48
11.12586558827667 35 43 20
11.645653993978058 33 47 20
11.266632825088074 29 37 17
11.602166328163362 35 45 21
12.198938461577285 28 42 14
10.091897003105275 34 41 17
12.175812766167484 25 44 16
10.023230534945448 38 41 20
11.35585513146496 35 45 21
11.07837542389501 32 40 20
11.899815271490544 31 44 17
11.418513155078477 31 44 19
11.627498035292819 35 43 20
10.733245586625975 31 35 18
11.822295209837124 39 45 22
11.393803561590735 31 45 19
12.108210859196339 26 43 13
12.309414951467234 24 40 16
12.400148282876405 29 41 17
11.752263513936136 30 41 17
12.346980163968341 27 43 16
13.360685832198373 25 40 16
11.268035196979143 33 41 18
