19.021215110224613 22 28 15
12.792519172474096 17 22 10
12.419290885546946 18 22 9
12.443031199090582 10 15 6
12.627674996299461 7 12 3
13.091974992673846 8 15 9
13.119529446328894 12 20 19
13.901253475899233 6 9 6
14.006950175780245 12 35 50
13.786900955786566 9 24 37
14.382566211452618 13 22 35
13.968081563106535 12 25 35
13.786900955786566 9 24 37
13.870419074537722 15 34 47
13.091935371948813 18 35 42
13.960642925890458 14 27 40
14.040963023631729 13 32 46
13.910098046075744 16 31 46
13.281866617225017 14 34 45
13.884112646011868 16 32 47
14.399428882181958 20 36 38
13.273912865254847 17 32 45
13.678247709638752 18 34 40
13.737336049700136 21 37 40
13.86084863906846 19 35 41
13.92581112514253 12 27 42
13.154965614886304 24 36 31
13.354786863855367 33 43 22
13.994805383924827 15 30 45
13.219298255857119 37 46 17
14.034132680079368 13 26 39
13.43587135966511 26 38 30
13.145494612302072 20 31 38
13.042286626670403 35 44 16
13.43587135966511 26 38 30
13.325567879713564 34 44 16
13.387510124862889 17 32 45
13.562846971808709 34 43 26
13.366136544661579 17 31 28
13.647493979930328 17 30 41
13.490922881903089 16 29 38
13.179595071697857 31 41 15
13.354786863855367 33 43 22
17.800286679060818 0 3 0
15.744864400451931 1 5 2
14.764144699555587 10 20 36
15.272140304838262 6 19 34
14.793775103682448 0 4 2
15.005949197045982 2 5 2
14.936044255781262 5 9 8
15.285214545074876 3 9 14
15.363505390609 0 3 2
17.85852711085276 24 29 16
17.134047872413113 2 7 0
17.673090924632334 4 8 1
17.54163596816719 0 2 0
13.71977431991118 39 45 26
13.899067856007813 7 17 32
13.913432411314357 13 20 17
13.705206791252404 23 35 30
13.899067856007813 7 17 32
13.655815578575762 32 45 23
13.861926044691534 23 27 18
13.470345412002631 39 46 9
14.155657168101355 22 29 18
13.999396974959888 2 5 9
14.155657168101355 22 29 18
13.806944686917431 24 29 20
14.155657168101355 22 29 18
13.916890518753897 37 47 11
13.158623050137514 36 46 20
12.996163620423994 35 45 17
12.980784053766895 35 43 20
12.61621243123572 39 48 17
12.53276293778884 39 49 18
12.726658811592035 41 51 18
13.853841829534518 38 47 18
12.637988478389074 40 49 15
12.898347130736418 41 52 17
12.33441212675556 41 52 18
15.709843111409326 42 46 31
12.670328989847022 41 52 18
14.633362344456954 52 58 34
14.633362344456954 52 58 34
14.633362344456954 52 58 34
13.129720588375546 31 42 44
13.07815616414998 35 45 43
13.577694893206305 24 37 34
13.515788104990065 20 36 40
13.577694893206305 24 37 34
14.155976556084028 26 39 28
14.353104667372623 26 39 24
13.29701628145052 27 41 16
13.667157219213651 26 40 15
13.615522876552658 26 38 31
13.279865814025133 27 35 26
13.78380192412856 25 35 23
13.638645497924882 27 36 20
13.748522105031451 29 37 22
13.472125258590589 32 42 19
13.283449810187482 31 41 20
13.85822949230769 30 40 19
13.319231161609338 28 40 23
13.319231161609338 28 40 23
13.713860878539021 30 40 19
13.967771647075681 31 41 20
12.761252017653797 31 40 23
13.506686615351429 30 40 14
12.34460381089311 37 47 17
13.41114320677193 35 43 21
12.34460381089311 37 47 17
13.235962399954415 29 41 17
12.19789971455004 39 48 17
12.705800382947206 42 50 27
13.350611251039846 34 42 18
13.350611251039846 34 42 18
13.186289002103713 32 42 19
13.062860903136606 34 44 19
13.235962399954415 29 41 17
13.705448061923713 34 44 20
12.953899327450175 25 31 16
12.774733379978837 24 32 15
13.282063192210865 26 31 18
13.205085822249314 24 31 21
13.529995238042448 29 37 21
13.969860822077669 32 42 21
13.969860822077669 32 42 21
13.287110917428665 33 43 22
13.397043640285858 29 34 19
13.640785080831526 28 36 18
13.566560436860165 28 36 19
13.605134406185194 31 39 21
13.057181447548148 31 39 21
13.641460175889511 30 40 19
13.969201597774907 30 38 20
14.112989297901313 35 45 22
14.32466133830512 34 45 22
13.84180034010882 36 46 23
13.096512968844943 32 41 23
13.642173260329013 31 40 22
13.641460175889511 30 40 19
12.680154905904581 43 55 22
13.169469782903846 45 58 30
13.13835798080394 41 52 17
12.658451396909015 41 52 18
13.046721282891399 40 51 16
12.658451396909015 41 52 18
13.304734669660188 43 54 20
12.924218357970986 46 56 27
12.425249061464838 42 53 18
12.132117360317743 39 48 18
12.642661016162878 40 50 21
12.611695988207561 49 59 33
14.587781015757969 55 61 36
14.014415462851291 54 60 37
14.366084547675088 51 58 34
14.101144139133584 57 61 39
13.95928800358664 57 63 40
13.95928800358664 57 63 40
13.86484629411462 51 60 33
13.573997874387647 53 62 36
13.573997874387647 53 62 36
14.320331777753728 56 63 39
14.180668452488396 55 63 39
13.351886526942055 54 64 38
14.101144139133584 57 61 39
14.925947187004654 54 60 35
13.007145829736794 44 56 23
14.023299629266415 53 63 39
13.808417288981383 55 65 41
14.028154591156264 56 62 38
13.961378448077651 55 61 38
13.353291478668417 55 62 38
13.888867219323206 56 62 39
14.111352480478704 55 63 40
14.182726266933622 56 63 41
11.594929826301666 53 61 38
13.57901347797679 55 62 39
13.201929320361556 55 62 39
13.124481959715945 56 62 39
13.731696364290057 56 62 39
12.958793718955162 56 62 37
13.744340007287711 39 47 24
13.685281907939505 38 48 23
13.947287319478392 36 46 23
14.288674551640273 33 43 20
14.498452728191557 35 45 22
13.876104608518169 37 47 24
14.873276053582716 38 48 25
13.876104608518169 37 47 24
20.16497485175602 44 54 31
20.16497485175602 44 54 31
13.299811942015918 43 53 24
13.33054693641833 49 60 37
13.389716647162196 44 55 28
13.164496474447812 46 57 32
13.073042997995747 46 56 30
13.33054693641833 49 60 37
13.420970581772831 54 64 38
13.874527380082485 53 64 40
15.344025506412294 52 62 38
15.008277503365338 53 63 37
14.676471513601188 55 63 40
14.538891311069449 55 63 40
14.468602195311675 55 63 40
14.106021634634887 55 63 40
14.033564596633124 56 64 41
14.670019855102762 53 63 39
14.60102828620823 54 64 40
13.658016733390372 53 65 41
14.033564596633124 56 64 41
14.952910793987773 55 63 40
15.020286173951963 54 62 39
14.247782349939373 54 62 39
13.482601794190124 17 22 10
14.08979241718801 15 20 10
13.393386140648868 23 28 17
13.501142326553078 28 33 16
13.137867924737003 23 30 15
12.875701848590603 27 32 15
13.341434658673887 22 27 15
13.596002123846574 28 33 18
12.735881117007928 27 32 17
13.693072476043504 28 33 20
14.054169821395949 28 33 19
14.60059945167286 28 36 18
15.338001468917087 32 43 20
14.478755047460037 36 46 23
13.80529708484989 34 44 23
14.703950793481257 32 40 20
13.621951512615095 32 42 21
14.4082085659859 30 38 20
14.852180480538125 29 34 19
13.759686197193151 29 34 19
14.798859238442581 30 39 21
14.225930000130479 28 36 18
14.344594435272256 30 35 18
15.351653291853042 34 44 21
15.351653291853042 34 44 21
15.718874624843542 34 43 25
15.788405384805621 33 43 20
14.900835525169908 32 42 21
15.345440158882814 36 46 23
14.969060524681085 38 48 25
14.929543091556033 40 50 27
15.339824857389608 42 51 29
15.494909761790225 37 47 24
15.181954509361606 39 49 26
14.740785973649155 41 51 28
16.065854601000172 36 47 24
13.672163635063523 28 31 25
13.419714133149895 30 34 20
14.533238587256855 31 40 22
14.49780532512433 32 35 27
13.874714308706421 34 38 25
14.184293310443921 40 46 35
15.475178257030915 42 51 36
15.979038838110524 39 50 27
15.979038838110524 39 50 27
16.153333030416395 37 48 25
15.481967663858097 38 50 30
15.984429586454121 36 45 23
14.887376987464625 36 45 24
15.43577480910875 37 45 25
16.0278599428664 36 44 22
15.364015207609336 38 46 30
16.386904948562986 33 46 23
16.386904948562986 33 46 23
15.959949477792089 42 54 32
15.865976061627842 45 54 32
14.42992866599251 50 56 46
10.115648656323334 50 58 36
10.065641493899147 46 58 35
10.527058241985168 52 60 37
9.502024736590409 46 58 36
10.365717805380044 55 60 37
9.793284200457435 42 58 36
10.278396963110504 42 55 37
9.454964431688838 41 56 34
15.169352492838794 43 54 32
14.577013195982273 46 56 33
14.501004553408567 45 57 35
14.404169697048475 43 55 33
14.418031032692113 45 56 33
10.585999076068637 46 58 35
11.173314159222233 51 59 36
10.76260843133319 47 59 36
10.456364415639303 54 61 38
10.456364415639303 54 61 38
11.07666587151346 47 59 36
13.180294154250369 56 61 38
12.533594999119025 56 60 38
12.276438609714734 53 61 38
14.284553176075946 49 61 37
13.497385909027347 53 61 37
12.179116810107695 52 62 38
14.767122772381823 47 60 37
15.002732485985257 38 48 25
14.582302862676434 38 48 25
15.553775153047464 42 52 29
15.02998556144018 43 53 30
15.891180458597947 43 53 30
15.215155332062734 41 51 28
14.921897074878842 37 47 24
15.002732485985257 38 48 25
15.77028609068937 36 46 23
15.32676335798175 44 54 31
16.27724135412647 45 55 32
14.841768615379474 50 60 37
14.624588248363095 48 59 38
15.32604940904967 51 61 37
15.115828667007593 50 60 37
15.115828667007593 50 60 37
14.995610522888867 52 62 38
14.624588248363095 48 59 38
14.86939839307596 46 56 33
14.86939839307596 46 56 33
14.949866981692953 48 58 35
14.719312290195829 49 61 37
17.910682068283602 38 45 22
11.798219207511014 52 56 34
11.993605896208331 52 56 34
17.882457484114177 40 45 22
17.835041535577812 38 42 18
13.149696278198311 54 58 36
12.739127200017965 54 58 36
13.70161989411823 54 59 33
14.910554216547707 54 58 37
14.572030832353636 57 59 38
14.084849791459542 56 60 38
13.942827876095807 56 60 38
13.982301367463608 54 59 34
14.02186256673127 57 61 39
14.233522905656324 57 61 40
14.511158422792676 56 60 39
12.772789374337318 58 60 38
11.344838869570163 52 56 34
12.188269322568818 55 59 37
12.433536107977691 54 58 36
12.044333609872336 54 58 36
11.607102330511541 53 59 34
13.116472317397081 57 62 39
13.115730651343352 57 61 39
12.547196945807274 55 61 38
12.69502280169834 56 60 38
13.259419665306705 56 60 38
12.362924891592733 55 61 38
12.695789044801318 56 60 38
17.427796861519685 37 43 19
17.76928695758082 35 42 18
17.962841499652974 34 40 16
10.762349384991163 56 58 36
17.962841499652974 34 40 16
10.849682735292062 55 58 36
17.678565280561475 36 39 16
12.555042462837825 18 22 11
12.419290885546946 18 22 9
12.861542082629663 7 13 7
14.114722550115681 2 6 5
14.402431462763053 8 23 40
14.206672595576006 11 24 38
14.432888628302731 11 25 39
13.043044716153437 14 35 46
13.824281861550475 13 32 46
13.582401061556402 14 33 43
14.098642875122676 20 36 37
13.847132061597419 20 36 37
13.65451773154791 14 33 45
13.230895161055344 17 34 41
13.179595071697857 31 41 15
13.585905248389778 14 29 44
13.017397379167013 30 42 36
13.68105424002663 29 42 20
13.95652439067859 15 25 38
12.8206781300156 34 44 21
13.366136544661579 17 31 28
14.01795932577252 21 35 36
13.769730789204019 17 28 40
13.68105424002663 29 42 20
13.84020605996881 30 42 24
16.525716250242475 1 4 0
15.744864400451931 1 5 2
14.936044255781262 5 9 8
15.759442482945332 3 9 15
14.693089376157308 10 20 38
15.688543309719368 0 3 4
14.788032452370166 0 3 5
14.231496103390823 10 20 37
17.134047872413113 2 7 0
17.302781942615656 7 13 2
12.980784053766895 35 43 20
13.913432411314357 13 20 17
13.965358419528684 39 48 22
12.898347130736418 41 52 17
13.158623050137514 36 46 20
12.366071501624456 37 47 17
13.670435739740547 37 45 13
13.23067236841564 36 46 9
13.757918720238134 37 45 13
13.899067856007813 7 17 32
13.655815578575762 32 45 23
15.103504161939187 44 53 27
13.21051782393489 40 51 20
14.633362344456954 52 58 34
13.97723175981111 24 38 35
13.638645497924882 27 36 20
13.97723175981111 24 38 35
12.993463646142112 28 40 20
13.713860878539021 30 40 19
13.28055925582417 26 38 32
13.283449810187482 31 41 20
13.330611114570823 21 36 37
13.798953865813779 27 39 16
12.569396526866893 33 43 19
12.705800382947206 42 50 27
12.853410294060618 32 42 16
13.71930629594424 32 42 15
13.048305495766419 38 44 20
13.41114320677193 35 43 21
13.062860903136606 34 44 19
13.530714196815618 30 38 20
13.89739385114217 32 42 19
13.565843377856131 27 35 19
13.51172720515436 34 44 23
13.397043640285858 29 34 19
13.096512968844943 32 41 23
13.715988728461845 31 40 22
12.752878340445777 44 54 23
13.046721282891399 40 51 16
12.924218357970986 46 56 27
12.680154905904581 43 55 22
12.658451396909015 41 52 18
12.658451396909015 41 52 18
12.642661016162878 40 50 21
12.752878340445777 44 54 23
13.484600422745967 47 60 33
13.185367044401044 51 62 38
14.180668452488396 55 63 39
14.218113413481662 55 60 37
14.101144139133584 57 61 39
13.663522370205145 54 64 40
13.86484629411462 51 60 33
14.311631999816269 55 61 36
13.196968244364065 55 62 37
12.209485987030126 52 62 38
13.353291478668417 55 62 38
14.680270007467822 56 62 39
13.125223131260121 56 62 39
13.888867219323206 56 62 39
13.576812912047327 55 62 38
13.876805635339698 37 47 24
14.498452728191557 35 45 22
14.359166966685386 34 44 21
14.287993732789637 33 43 20
13.55300800891063 48 58 33
13.180399734397607 53 63 39
14.103952628728523 54 64 38
14.103952628728523 54 64 38
14.72578960258902 53 61 38
14.806381667496137 53 63 37
14.247782349939373 54 62 39
14.033564596633124 56 64 41
14.247782349939373 54 62 39
14.457481019378871 53 61 38
14.469274516043791 55 63 40
13.174677447776968 33 39 23
13.042485483211772 21 26 14
12.851192789784278 24 27 22
13.13917600691438 25 29 14
13.233245391337771 28 34 18
12.886840709187714 28 33 18
13.084848813188556 23 31 14
15.864826325167218 34 44 21
14.128513445861637 37 47 24
15.493687581806405 33 38 19
15.00656389326505 28 36 18
15.415426855908413 30 39 21
14.60059945167286 28 36 18
15.107138195951425 29 37 18
15.788405384805621 33 43 20
14.601896383401366 33 45 22
14.845758313507222 30 37 17
14.247342882965263 28 36 18
14.886770288259502 30 38 20
14.253352195667285 30 38 20
15.494909761790225 37 47 24
15.345440158882814 36 46 23
15.22201500635482 45 55 32
13.924776259424249 27 32 18
15.538489631442737 29 34 21
14.785307875656938 33 38 23
13.76722055235373 38 44 32
15.979038838110524 39 50 27
16.36829126503648 38 48 25
16.134449886357228 37 49 27
14.42992866599251 50 56 46
15.475178257030915 42 51 36
15.121595754278697 38 48 27
9.810739036962303 42 56 34
10.27454283218881 46 58 36
10.31508715052379 44 57 36
10.124213163409502 43 55 38
14.563303180169605 45 55 32
14.418031032692113 45 56 33
14.418031032692113 45 56 33
14.577013195982273 46 56 33
14.418031032692113 45 56 33
10.44290033391367 42 58 35
10.515436369425732 56 60 38
9.600829405142612 46 58 35
11.394415422508143 55 61 38
11.56294667823141 50 60 36
12.542752480785994 54 61 38
12.169685701854673 53 61 38
12.348332225275316 56 60 38
12.36691477816583 52 61 38
13.264606672830077 55 61 37
15.0962921596204 47 59 38
14.921897074878842 37 47 24
15.215155332062734 41 51 28
15.02998556144018 43 53 30
15.77748809430793 45 55 32
14.949866981692953 48 58 35
15.46290521152134 39 49 26
14.431169048209737 51 61 37
18.67042596055634 26 31 21
18.045331050640605 34 38 16
11.824852086140732 52 56 34
12.272234399112888 52 57 34
13.481611300484555 55 58 36
13.989815302156066 55 60 35
14.233522905656324 57 61 40
14.8510694307491 55 59 38
14.572030832353636 57 59 38
13.33316537030158 57 59 37
12.316457384188254 55 59 37
11.841146966596531 54 60 37
11.99848614441672 53 59 34
12.775073972566796 55 59 37
12.706360876794417 55 61 38
13.807662398437055 57 61 39
17.466525055697655 38 43 20
18.348927224121617 34 40 16
17.31713210823294 35 38 16
18.143325943832764 36 40 16
12.845987559837209 17 22 9
12.705853779959464 4 11 3
13.901253475899233 6 9 6
13.60900068729423 27 42 48
13.760682914752993 14 28 42
13.547994568543961 13 30 44
13.764974357770686 18 34 42
14.214300555526927 15 34 46
12.679483503351527 37 46 14
13.490922881903089 16 29 38
13.847132061597419 20 36 37
13.83859880016398 14 23 32
13.281736121597943 18 30 37
16.525716250242475 1 4 0
14.482196792466874 0 5 4
13.757918720238134 37 45 13
13.705206791252404 23 35 30
13.965358419528684 39 48 22
12.785525450802433 39 49 19
12.888687558405557 40 50 19
12.61621243123572 39 48 17
13.186289002103713 32 42 19
14.077189274432778 32 42 21
13.529995238042448 29 37 21
13.235962399954415 29 41 17
13.51172720515436 34 44 23
12.953899327450175 25 31 16
13.969860822077669 32 42 21
13.235962399954415 29 41 17
13.64975915427084 36 44 39
13.391959884890964 22 35 34
13.141384388010547 19 34 37
14.305015797185515 51 61 36
12.8629075211351 50 61 36
13.663522370205145 54 64 40
12.924218357970986 46 56 27
14.747571730888541 57 63 40
14.323727863137632 56 62 40
14.182726266933622 56 63 41
13.007145829736794 44 56 23
14.52764422370285 56 62 40
14.366084547675088 51 58 34
14.10459300032807 55 61 38
13.888166801328904 57 62 39
14.311631999816269 55 61 36
12.924218357970986 46 56 27
14.676471513601188 55 63 40
14.952910793987773 55 63 40
13.284783908467839 42 52 27
13.073042997995747 46 56 30
14.247782349939373 54 62 39
14.03426790490565 18 23 12
12.793985550408408 26 30 15
14.475467001209081 28 33 17
15.30002735105565 43 55 35
15.979038838110524 39 50 27
16.065854601000172 36 47 24
14.128513445861637 37 47 24
15.30002735105565 43 55 35
15.718874624843542 34 43 25
15.699468927813502 31 40 22
16.153333030416395 37 48 25
10.574012775464007 50 58 36
9.887264179711403 41 54 34
11.367629830554954 55 61 38
15.31934945902515 36 46 23
15.46290521152134 39 49 26
15.693404781927692 35 45 22
15.36581327579122 49 59 36
14.855958211226454 45 55 32
18.64491688562866 3 7 1
15.249092028788926 51 56 33
18.0832746574449 36 39 16
17.619049111578995 39 44 21
11.405949067058884 53 58 34
13.879196135754984 57 61 39
11.82980195198988 55 59 37
17.720470332826203 37 41 17
13.640593675398058 17 35 43
13.760682914752993 14 28 42
12.8206781300156 34 44 21
13.547994568543961 13 30 44
14.24552545675769 2 8 16
14.701480814327551 0 1 0
13.255161155015752 37 47 17
13.034480165371297 32 42 19
13.205085822249314 24 31 21
13.85822949230769 30 40 19
13.17047162273498 28 36 18
13.602989215867035 29 37 21
13.016983799283569 27 35 17
13.642173260329013 31 40 22
12.628295428589336 53 63 37
14.110663106100155 55 63 40
14.587781015757969 55 61 36
15.008277503365338 53 63 37
14.034257758154903 55 63 40
14.60102828620823 54 64 40
13.299811942015918 43 53 24
15.577677931540071 33 43 20
13.09846294498104 53 61 38
15.339824857389608 42 51 29
13.416735659244743 24 29 13
13.084848813188556 23 31 14
15.114644471437433 37 46 30
15.959949477792089 42 54 32
15.0962921596204 47 59 38
15.115828667007593 50 60 37
13.25868599546221 57 61 39
11.45927850401929 53 58 35
13.193229384328173 55 61 38
11.356668359943626 54 59 36
17.58881641531039 37 41 17
18.3280979127012 6 10 2
12.443812958896402 15 18 8
13.521993069713668 17 25 25
13.351886526942055 54 64 38
13.319231161609338 28 40 23
14.693089376157308 10 20 38
13.205822469934475 25 31 18
13.264553855000806 40 49 18
13.472125258590589 32 42 19
13.667157219213651 26 40 15
13.390377591973245 27 36 25
13.671236149570236 24 36 32
16.648606016596137 1 5 0
14.07235122952132 28 40 21
13.969860822077669 32 42 21
12.637988478389074 40 49 15
12.63203587345959 39 50 17
13.876104608518169 37 47 24
13.730330132779581 53 65 41
13.180399734397607 53 63 39
16.0278599428664 36 44 22
15.984429586454121 36 45 23
14.969060524681085 38 48 25
15.764237953633588 37 48 25
12.768028169635006 27 32 15
15.891180458597947 43 53 30
14.86939839307596 46 56 33
18.251950025848462 42 46 23
14.295577571875906 56 59 38
13.942827876095807 56 60 38
19.2362272774654 5 7 0
13.555314175444858 37 44 26
15.338001468917087 32 43 20
14.601896383401366 33 45 22
14.304688086231202 37 47 24
13.336942425773149 19 33 38
15.054719997540111 30 40 19
15.437598119845584 44 54 31
13.157195993565889 30 41 45
15.199483501445789 40 46 29
14.47993096586771 49 60 37
13.594175208286044 41 47 23
18.64491688562866 3 7 1
12.66115387129838 54 58 36
13.752059400134241 31 39 21
15.225231088392386 3 7 3
10.899565914347427 46 58 35
15.46290521152134 39 49 26
12.187471171043471 55 59 37
13.428900941776918 31 39 31
13.896693862905224 32 42 21
14.237097534537527 18 35 41
13.555659647493298 15 28 40
14.719312290195829 49 61 37
13.642173260329013 31 40 22
