10.049653863185076 35 43 18
8.879765347857735 10 19 3
8.821512456586794 21 31 4
9.167416877681863 24 34 6
9.400150885395938 34 43 17
9.864678424770737 36 46 19
9.086554970005222 28 38 11
10.081328527686273 32 41 15
9.532417324538233 35 44 15
9.422734815881052 27 36 10
10.480731475152128 38 48 20
8.933598334676184 22 32 9
9.865180345058278 30 39 11
9.527750447720074 32 42 13
9.870189335166657 32 40 14
9.648286388610517 34 44 14
9.342126491073746 6 14 0
8.725728324518645 32 41 15
9.155704951050467 29 35 10
9.082091218258826 30 38 13
9.339741971702685 40 46 23
9.10410533740233 40 48 25
10.124773139646273 43 51 28
9.581193891626565 37 45 21
9.487978002526804 34 42 20
9.520742085660464 37 46 20
9.936472277261833 42 51 27
9.581193891626565 37 45 21
9.584027513692696 45 51 30
9.22723298951848 34 40 12
9.042379771282114 42 48 25
15.423585473754247 27 36 9
9.37533257487873 44 50 28
9.999785755759756 41 48 19
15.267483171359817 31 40 13
15.792638919141163 36 46 20
15.267483171359817 31 40 13
15.022134957412435 28 37 9
15.157621519679111 30 39 11
10.032915801637651 32 39 17
9.508533412193323 18 26 2
9.04046559974924 26 32 9
9.744684572348936 31 37 14
9.5295624636465 37 45 22
9.536045127017655 34 41 16
10.164002381564442 31 38 14
10.075688154342169 32 41 15
10.281405424852732 43 49 23
10.171534086765748 42 51 25
8.858132683871538 41 47 21
8.565170496236682 34 42 16
8.413722970324221 37 46 20
8.782754711639654 37 46 20
9.113058151339866 36 42 19
8.441586121150776 39 45 22
9.919691726057053 30 36 13
8.819542236109863 37 46 20
8.479853841340816 41 47 21
9.966273473363742 40 49 23
10.376543405650118 40 49 23
10.184892692348532 33 42 16
10.382497241286307 42 51 23
9.150409142068007 47 53 30
9.394883676626815 46 56 28
9.69749396028988 46 56 30
9.014452032586217 45 55 32
9.240343141018878 45 55 32
8.572210662092251 46 56 32
8.103310709570094 32 41 11
8.040972297489757 35 44 14
8.71126251718565 33 42 14
8.273130490805416 34 43 15
8.569613710725742 37 46 20
8.75992489281372 42 52 26
8.677832702852418 36 46 18
8.58200597309056 36 46 18
8.397841196202391 35 45 16
10.057901315381073 47 57 33
10.868872630240823 40 50 20
10.36772797359144 38 48 24
10.770737966194389 40 50 21
11.141027306133452 39 50 20
10.376066221500038 40 50 20
10.382020330789711 40 50 20
11.141027306133452 39 50 20
10.383211824546116 38 48 19
10.678648696388723 37 48 19
11.13658992530917 38 48 19
10.442455791594709 44 53 28
10.356994407013078 43 52 22
10.356994407013078 43 52 22
14.982599749593447 51 63 38
14.923161375660584 46 59 32
8.703596722675057 32 41 11
9.62010693842289 29 36 6
8.703596722675057 32 41 11
9.402552417808222 45 53 31
9.181192671436609 43 50 28
14.325669231421672 31 37 10
13.856617285259865 41 48 19
14.203828636738123 16 22 2
14.203828636738123 16 22 2
8.207148782082974 34 42 17
8.713139487182625 42 50 27
9.406242246384668 37 43 18
9.085080510983405 42 48 25
9.76109592289913 47 55 33
9.645812801442458 46 54 32
19.324366497162124 27 28 14
9.87938859289617 46 54 31
9.005564750914044 46 53 30
9.554628058005715 45 51 25
9.790276339378815 46 53 29
9.141813475434398 45 50 25
9.274036401601393 46 53 30
9.192766642718867 47 53 30
9.731123484681754 49 55 32
9.319339543855422 44 51 28
8.948130859101608 46 53 31
8.714668665854695 45 55 31
8.948130859101608 46 53 31
9.401087570819847 45 55 31
9.381346372791748 44 56 33
9.132995024936914 46 54 31
9.429437912427794 46 56 33
9.359455318134838 45 53 30
9.452629899673891 46 56 32
10.028372412354035 46 56 35
8.703886731167264 43 49 26
9.17866237557189 47 55 33
10.073664827334198 45 55 31
9.704315039078692 45 52 28
9.227273690879114 46 56 33
9.17661612069527 47 57 33
9.160332947969671 46 54 32
10.022993084694932 46 56 32
8.426395731410704 46 56 33
9.386768834646501 47 57 33
10.592330503384654 46 60 36
10.152845834729877 47 59 35
9.9551504352398 46 58 34
10.561250766213673 46 58 34
9.585721874241713 47 59 36
9.625241866322012 47 58 34
10.534633793112786 48 60 37
11.168317569045044 47 61 37
10.219959512746179 47 57 33
9.928301383325747 49 56 33
10.311210472534727 47 59 36
10.157712971693249 47 58 35
9.578650438529804 45 55 31
9.315207597382917 36 43 18
9.843611557671162 37 45 20
9.167416877681863 24 34 6
9.857909600507279 38 47 21
9.752396416749102 31 40 14
10.17955215452793 38 48 21
9.057131410817632 17 27 3
9.439244305188517 32 42 14
9.41039735646374 36 45 16
9.492664432684805 37 45 23
9.025144335991257 40 46 24
9.80814098015958 39 48 22
9.689593791489344 38 46 24
9.356397904140337 41 49 24
9.230175276620402 42 50 27
9.613640292531027 39 48 21
15.750075929228284 36 46 18
15.491156842577304 29 39 13
9.722952409981941 26 34 10
9.534228453507232 40 47 22
10.281405424852732 43 49 23
8.839863646666968 38 47 20
8.590526362697288 35 44 18
8.59179665235252 41 47 24
9.299958892120511 36 42 17
8.903549526704321 35 44 16
8.311578083084138 36 46 18
9.443054679833809 38 48 21
8.717618518014492 37 46 20
8.062461261455143 36 45 18
9.150409142068007 47 53 30
9.108599532540765 46 55 33
10.189258589798433 42 52 23
10.085739255913156 39 49 21
8.75992489281372 42 52 26
10.679112359989077 41 50 23
10.764998858357783 40 49 23
10.36772797359144 38 48 24
10.483794258993628 39 50 19
9.538312396743628 44 50 28
9.053893881145145 44 51 29
9.597364651855512 44 50 27
10.032111447287301 45 51 28
8.662903063559533 27 36 10
9.098834806736992 41 47 24
9.317909599322094 31 37 14
9.067926237483054 40 47 23
9.525351639297075 46 52 29
9.307553623990653 49 54 31
8.704054190219294 48 53 28
8.835833915872964 48 53 28
9.186041728160605 48 54 31
9.182546096853782 49 54 31
8.703886731167264 43 49 26
8.591964504096419 44 54 30
8.752308135669912 45 55 32
9.401087570819847 45 55 31
8.98479235250824 44 54 31
8.824632578160069 47 57 34
9.568324601544424 46 56 32
10.192594319779461 45 57 33
10.361231931459372 46 56 33
10.592330503384654 46 60 36
9.655496678277716 48 58 34
10.278077252986689 46 60 36
10.809945108048284 47 59 36
9.625241866322012 47 58 34
9.969996583713753 37 47 18
9.648286388610517 34 44 14
10.081328527686273 32 41 15
9.398570541260487 36 44 22
9.304589407346972 30 39 13
9.84662030872945 41 49 25
9.196376044502568 37 44 19
9.527750447720074 32 42 13
15.792638919141163 36 46 20
8.327624372888826 37 46 20
10.480023541298369 31 40 14
8.37249317792658 33 42 12
8.054177975442382 36 45 17
8.373796542883403 38 47 21
8.570361549242245 30 39 11
8.779096748593085 44 52 29
9.772394084909664 37 47 19
10.606320205776997 48 56 36
10.484266539977636 43 52 24
10.382497241286307 42 51 23
10.678648696388723 37 48 19
15.118768122040601 46 59 32
10.47436076912958 37 47 20
8.703596722675057 32 41 11
8.44497473959314 30 39 9
9.405185062058354 29 36 9
9.25401810696074 44 50 29
9.76220814349279 43 49 26
14.059153476888122 46 52 26
13.856617285259865 41 48 19
8.685979656110913 40 46 23
9.743862187498229 47 55 32
9.645812801442458 46 54 32
8.904381068302591 46 54 31
9.231288772075109 47 57 33
9.731123484681754 49 55 32
9.871878312104885 46 57 33
9.783962126123741 45 53 30
9.49468212913026 46 55 33
9.352850257337902 46 54 31
9.274187510999127 44 52 29
8.79878320136511 42 51 25
9.436783201267874 11 19 0
9.858161517061426 23 32 6
9.646748290511885 26 35 9
9.047298722614736 18 25 1
10.177607852251645 44 51 25
10.485446415187004 38 48 20
10.145882351104511 48 58 34
9.715319614573975 45 53 31
8.843608991623988 36 46 18
9.670035623882894 38 47 21
8.809448992488969 46 55 31
8.756143752969628 29 38 8
9.283999234574685 44 50 27
9.182000745922306 46 56 33
9.287456680827457 46 54 32
9.654215372559731 46 58 34
9.280800379399922 46 56 32
9.585721874241713 47 59 36
10.406551771093365 48 60 37
9.429437912427794 46 56 33
9.11442169424398 20 31 5
8.666198664573182 44 51 28
7.950838255402275 35 45 17
9.62565129781771 40 47 17
10.764998858357783 40 49 23
9.508533412193323 18 26 2
8.327624372888826 37 46 20
8.965353489402778 40 47 24
8.265058341326489 33 42 14
8.897832589214005 30 37 14
8.491389187433157 41 47 24
9.652322073514394 46 52 28
9.452629899673891 46 56 32
10.343182502125655 47 57 33
10.42990869560838 35 43 20
10.121494816719842 46 58 35
