11.695229442156945 23 26 8
12.003576160717369 24 27 10
12.14763871362143 24 27 10
11.040545033275201 21 24 4
12.415493939881099 27 32 15
12.35760399202252 34 36 24
12.706373940376222 50 53 37
12.326892704849008 37 41 20
12.199878721929027 15 19 1
12.199878721929027 15 19 1
11.790611326537483 30 36 11
11.458113921736665 24 30 3
11.575012989282039 25 32 2
12.87176850968188 38 42 22
12.742643980955851 36 40 19
12.702895502457215 42 44 25
12.702895502457215 42 44 25
13.396543419643296 40 40 25
13.547036052655935 41 40 25
13.504701057299572 34 35 21
13.682921266458036 36 40 27
13.623362838233135 40 43 33
13.074879547975499 44 48 33
13.274227432055849 40 41 25
13.106579342048532 37 38 21
12.61502604917365 38 42 22
13.353948457911594 31 32 19
12.401157997851785 30 39 9
12.401157997851785 30 39 9
12.128320931981103 26 34 4
13.384821721618387 31 40 12
13.817836464510446 34 41 13
12.788569210152085 29 39 11
13.275543435257264 30 40 13
14.330223181391323 36 45 18
13.719317920950797 33 41 16
13.893021871526525 40 47 24
13.61017651179687 37 41 20
13.857607195647448 44 48 27
14.41570078869935 46 52 32
14.037467636828428 47 52 35
14.095276407965311 45 51 31
13.798802767882506 45 51 31
14.142094479127511 38 44 20
14.587501799936874 42 50 28
14.587501799936874 42 50 28
14.711272145028776 40 49 23
23.82359704209282 30 36 11
22.652830331993755 25 26 5
22.628200969653186 34 40 15
23.96569109254944 18 27 1
24.236760947785864 22 28 3
24.036331888366643 22 28 5
17.23625556076944 22 23 10
14.07801632403395 43 44 34
14.07801632403395 43 44 34
13.991706534630994 33 34 26
14.246805931318184 22 23 12
13.859744628196758 41 42 34
24.237869088713957 25 26 17
19.34064512624495 17 15 10
13.971518005981645 40 37 25
14.904098472946648 42 44 25
15.213139065713502 40 38 24
14.571155009763379 43 41 27
15.584406102906575 42 46 27
14.571155009763379 43 41 27
14.056208451411472 42 40 27
15.640731962906287 43 50 29
15.746108893213142 44 50 29
16.554957254038797 46 54 34
15.746108893213142 44 50 29
15.66551944739754 45 53 35
16.53655075241688 47 55 36
17.003906650521994 47 56 36
12.979167759163975 37 38 30
11.90426118851555 42 43 33
12.718280020811129 44 48 31
13.134725425925831 48 49 42
11.950055833066026 41 44 34
12.733189950398462 45 49 36
12.288502163064447 47 51 36
12.31688416188505 43 47 34
12.641576519775338 35 39 23
12.591027568207995 41 45 32
12.295190769742225 44 48 35
13.375152060912221 50 52 44
12.562454214540963 44 47 37
13.364843226742316 43 46 36
13.637070640728291 42 43 33
12.082271873882794 43 44 34
12.500046112892578 45 47 37
12.66097010718016 43 46 36
12.792608226617556 45 49 36
12.989559457908616 47 48 41
13.939000333686497 47 55 35
12.906253851510778 31 37 17
16.483803323355783 48 58 37
15.864911052943052 49 58 36
15.25218577847714 46 56 33
16.280413474163087 49 59 37
16.071854330275244 47 57 34
15.67201169457944 48 58 35
14.421201784002575 50 58 38
14.118545252749602 45 54 34
14.561108169108925 44 54 35
13.716307762546753 48 54 35
12.707666485147536 27 32 17
13.297949040455656 47 52 35
13.308091819362275 47 52 33
13.471413753227203 45 50 33
12.523627576291876 14 22 5
12.826401610041108 33 41 23
14.544503086708925 46 54 33
12.76307399834499 39 45 25
13.023401177536643 43 51 31
12.750575966078538 41 46 29
13.377035139286235 44 50 30
13.36511124896491 42 48 28
12.750575966078538 41 46 29
16.241193958811944 47 57 36
12.866219247133694 39 44 29
21.69209727281173 47 53 33
13.956750022999053 38 38 33
13.358513517214071 22 26 8
12.956644263898069 62 65 49
11.64786618536738 19 22 4
12.790431325665601 9 12 4
11.232681412575207 26 32 7
11.290729854967756 25 30 6
12.460326347985728 35 40 19
11.427852973544212 31 37 12
11.417764130107837 15 19 0
13.396543419643296 40 40 25
13.333650888443062 39 43 21
12.35915273242678 37 41 20
13.136924851577938 41 45 28
14.471998776646062 43 51 28
13.987837450828415 40 44 23
12.867073252681065 38 42 23
13.695844055334382 33 41 16
13.372143164569266 35 41 18
23.486438368864757 39 45 20
17.1442191889454 19 20 6
23.708298059064212 10 11 0
19.448346706482006 6 4 2
15.913748591025739 41 45 26
15.413184766259828 44 48 29
14.48947472065466 42 39 26
15.990582479449978 45 53 32
13.338691256256919 41 44 34
13.427373721908792 44 45 35
12.748600354610122 43 44 37
12.16700882928877 48 49 38
13.198065635936956 51 54 46
12.34123020780394 44 45 37
12.54975639094033 49 50 41
12.082271873882794 43 44 34
13.285624070813924 50 51 41
13.15102668501954 51 52 45
12.64814194446427 43 47 34
12.374510245702194 45 47 38
13.58750895897057 44 50 30
13.783209346230722 44 51 35
16.145531340022508 47 57 34
16.071854330275244 47 57 34
14.118545252749602 45 54 34
13.818077656844885 35 43 23
12.92904165397222 47 52 35
12.931161135324249 23 28 11
12.939473609083574 45 49 32
13.812336459302745 47 53 33
12.841411794438057 41 45 30
12.775786758349685 42 46 31
12.18721363709814 40 44 30
16.241193958811944 47 57 36
12.52487825322553 23 27 11
11.819943591744687 28 34 9
12.49224180060969 39 43 22
12.48459020899723 20 22 7
13.520341804686701 35 36 20
13.817836464510446 34 41 13
12.006764773482708 29 38 10
13.072245152592794 32 41 14
12.892300475718597 27 36 8
14.13255026761084 41 50 24
23.279550181695434 25 29 7
15.03455057330472 12 13 5
24.331954782170143 26 27 20
14.12070009288398 29 30 20
16.636080089420226 47 56 38
16.924546975358417 48 56 36
14.620481204571504 42 43 27
13.089161769652401 45 49 34
13.132859581370454 42 43 35
13.802564228249846 48 53 36
14.200429235569914 47 57 36
16.35059911333567 47 58 37
12.676064689170941 47 52 35
15.885821094018361 47 57 36
14.428655857957423 48 54 34
15.726465657601922 46 56 33
13.564020748624827 43 51 29
13.501908357325462 44 49 31
12.37380729038884 41 46 29
22.69997018460921 50 58 36
14.091281852898563 48 49 41
13.87321886935007 40 41 34
11.263466729873395 27 33 6
13.076309628801459 40 46 27
11.271995776672803 13 17 0
12.326892704849008 37 41 20
12.788569210152085 29 39 11
12.867073252681065 38 42 23
12.363452243782785 29 38 10
15.336815204979562 44 52 30
13.275543435257264 30 40 13
24.05472942522173 21 27 4
13.991706534630994 33 34 26
24.08003277821061 23 23 18
13.121857244437509 43 47 32
13.179523377959914 44 48 33
11.90426118851555 42 43 33
11.806217219617993 44 48 31
14.30627173447276 45 52 32
14.056208451411472 42 40 27
15.34899284219503 48 56 34
12.76934989113026 45 50 35
15.650815999227346 46 56 33
14.142094479127511 38 44 20
14.531651296436461 44 52 31
11.933298687730003 26 33 6
12.671510629745573 41 46 27
12.106095313731087 22 25 10
14.094054636074477 38 44 21
13.94175444105335 39 47 24
12.49224180060969 39 43 22
12.750522429768676 46 47 38
12.389131788985248 43 47 34
12.055370372544877 44 48 35
13.798802767882506 45 51 31
11.84592606742595 35 40 15
13.005477094214706 20 25 5
22.915097879337708 22 27 6
14.263351020838071 34 37 26
16.53655075241688 47 55 36
16.031412195235337 44 50 28
13.451531655651456 46 49 40
14.720470065749067 42 41 27
14.935391511261978 43 40 27
14.031710290104394 50 51 44
14.13565926943998 39 40 32
16.674370825418436 48 58 36
