10.755674492362836 16 16 10
10.69725733016386 24 25 17
10.255392466485652 20 21 14
11.098973108664817 3 3 0
10.69725733016386 24 25 17
11.148480361531838 23 29 9
11.640470067684701 23 27 10
11.043985433938019 33 38 13
11.053952898333712 11 15 1
11.00586726788253 28 34 12
11.183186210734805 17 21 9
11.198294678377717 4 7 1
11.382706351783943 33 37 15
11.910409021098513 32 36 21
11.270419843610592 38 39 27
11.072697216665173 42 41 24
11.057417138379606 40 42 20
11.551627731647091 25 26 15
11.690987692375018 24 28 9
12.32629031661018 31 35 18
11.258092809954231 31 35 16
12.194193003091753 39 40 23
12.33999930507176 29 33 20
10.901878145992498 25 30 5
10.084217721611125 25 30 5
9.936268232561181 38 42 14
10.131377799773226 29 34 10
11.436387735576057 30 36 13
10.630009192223943 23 27 9
10.653611852031165 29 33 11
10.504282242996233 33 38 13
9.994444779106914 34 39 12
10.894596125857703 25 31 9
10.544213834483488 37 42 13
10.205021609715699 23 29 6
10.078190628093493 39 44 14
13.150209263661573 45 50 21
12.08587414951504 35 40 13
11.593381898209406 32 38 13
12.858134159052131 44 49 20
11.557904380307452 34 40 16
12.77500266393809 43 45 22
12.493498458450443 42 47 18
12.443810258863541 44 47 19
12.017722480200533 37 42 18
12.98115032956571 45 50 19
12.871825564278401 39 44 18
12.600711603562116 31 35 15
11.350872015290252 39 42 13
13.43784671638514 47 52 23
12.300913148168943 39 44 16
11.95385814201795 41 46 17
11.630958046532271 39 44 13
11.95385814201795 41 46 17
12.300913148168943 39 44 16
10.962977873399087 40 41 24
9.77993690461221 48 50 24
9.864533236721455 47 50 19
9.765985688739322 51 56 27
10.020837537977068 43 45 26
10.246218596330195 45 48 17
10.320412022164497 40 42 23
9.835710722521776 43 45 27
9.369750064541101 48 53 22
9.472420798174507 46 49 18
10.082722612638412 45 47 23
9.419505082111042 46 48 28
11.015961340437999 41 43 22
9.923613215632269 50 56 30
10.079919522622866 46 52 25
9.076056229821852 47 51 27
9.203963633495173 45 50 28
9.167150419136494 47 53 26
10.06383411667512 49 55 28
10.670676526953393 47 53 25
10.670676526953393 47 53 25
9.3820316233671 47 53 26
9.86381703769733 48 54 27
9.77849206205986 47 53 26
9.80509813177093 48 54 27
9.785906060326749 51 58 28
9.9679660436544 50 57 27
10.016606631551713 47 54 24
9.889479232691889 48 54 27
10.423839449350957 48 55 25
10.392028605206594 48 55 25
10.283473537493334 51 58 28
9.512706673194119 48 57 29
9.724771368506563 53 60 28
10.303079072317084 52 59 27
9.512706673194119 48 57 29
10.41907139549926 50 59 29
9.828988770063246 50 57 25
10.308776375604225 51 58 26
9.896810087478503 48 55 25
10.617056529948604 49 56 24
10.191528834680454 50 57 25
10.314934265690923 49 56 26
9.52972238340821 49 56 24
9.550875304333319 49 56 22
9.675889078168305 49 55 27
12.346281786808968 45 49 19
12.887688857179832 46 51 20
11.691417104851377 40 45 18
16.147005763763403 56 61 32
16.195927121832263 60 65 36
16.269962068480506 58 64 37
10.483323982032317 50 58 24
10.491825929009106 50 57 26
10.376646903047977 51 58 26
10.373492201580728 48 55 26
10.967481033304022 47 53 28
9.821935092160452 35 40 13
10.445737384964184 32 37 10
10.215553819373575 33 39 12
9.549766477946207 35 42 12
10.451814582116704 29 34 9
9.640308987669199 29 34 9
9.645428817352618 34 39 12
9.966903619069875 33 38 11
9.812156103094567 36 41 14
9.665597654542363 38 43 14
9.812156103094567 36 41 14
8.701697513914523 40 47 15
9.156003972353936 43 48 19
9.66413571764525 40 46 15
8.863410154700798 41 48 16
9.723940519268904 38 43 14
9.522232337458906 44 49 20
9.854892558434262 40 45 16
9.752167857100744 42 47 18
10.843126454439675 38 45 15
11.257570402186365 32 41 11
9.820496428602006 36 43 11
10.602541735534766 40 47 15
11.24276486583894 40 47 15
10.447758204881218 40 47 15
9.554195416201816 38 45 13
11.280082525200314 41 48 18
10.621395231186494 41 46 17
10.91868339275225 43 48 19
9.40693841519691 53 60 30
10.539522731642753 47 56 26
9.703940946476735 51 60 31
10.614320496928082 49 58 28
9.324487772468707 47 54 24
10.129556867854824 49 56 26
10.225537228831232 47 56 25
9.484718310519598 52 59 29
9.604040356204985 49 56 26
9.60818302714447 51 58 28
9.317430482805165 51 59 29
9.160435072037487 51 58 28
9.709989798372874 47 55 23
10.20323623889021 52 61 31
9.094044297440606 49 57 27
10.925395621793115 52 61 31
9.44132041912075 51 59 27
10.046261987426057 53 60 30
10.778943346455417 54 61 31
10.169377610759405 48 57 27
9.604040356204985 49 56 26
9.884453417994836 49 58 28
10.032008848566004 48 55 25
10.915426809365831 41 46 17
10.93454536000144 43 48 21
11.543192024890823 44 49 20
9.338038948441573 51 60 29
9.355372352675833 50 57 27
11.479368059301205 44 51 20
11.323108257611914 48 55 25
9.735565294491384 52 59 28
11.497548905754279 42 49 19
11.543192024890823 44 49 20
11.871026142204538 44 49 21
11.004575829363075 51 60 32
11.947526502628094 45 54 24
10.428582590282533 43 44 33
10.642687347956711 19 19 12
11.098973108664817 3 3 0
10.563335446789788 39 42 11
10.190073374296798 27 32 10
11.928143325654046 40 41 24
9.787246126962204 29 34 9
11.131224270975594 29 33 16
10.72827269972414 24 30 8
10.282940030977121 22 27 6
11.157721333668094 11 14 5
11.910409021098513 32 36 21
11.057417138379606 40 42 20
10.998405072149703 9 13 2
10.983021635746452 18 23 4
13.43784671638514 47 52 23
12.490878401338499 34 38 17
11.611600405853185 39 44 15
12.185693008827862 41 46 17
10.412032764209808 41 46 17
11.852086918851402 38 43 15
11.260999698597907 35 40 14
12.858134159052131 44 49 20
11.968584034233814 36 41 14
11.646914362122235 38 43 16
12.262144719291085 39 41 20
12.620069475161548 43 47 21
13.314664208425173 38 43 18
11.403292277202848 36 41 13
12.153850198718436 40 45 16
9.898753241596111 45 47 26
10.928448845719945 40 43 18
9.801991383525936 45 47 23
9.78472713993104 46 49 20
9.766709061801489 48 51 20
10.065939866877624 46 49 20
9.852168587256786 44 45 28
10.237980715614043 53 59 36
9.47092904245728 50 57 27
9.896611918346967 46 52 25
9.167150419136494 47 53 26
9.076056229821852 47 51 27
9.693873648485182 48 50 28
10.688911005886084 48 55 25
9.808435648355795 50 57 25
9.596248114557028 50 57 27
9.889479232691889 48 54 27
10.617056529948604 49 56 24
9.781838656512726 49 56 26
10.314934265690923 49 56 26
9.95050906316466 49 57 26
9.7983870079032 47 54 24
9.52972238340821 49 56 24
10.303079072317084 52 59 27
9.659130861439717 48 58 28
10.691972642409429 48 55 25
16.22126399233738 54 59 32
13.555603055550998 48 53 22
16.147005763763403 56 61 32
10.483323982032317 50 58 24
10.491825929009106 50 57 26
10.822548634256743 30 35 10
10.123464741867135 33 38 11
10.410171432869497 33 38 11
9.496297578457364 36 41 14
9.72466701987753 37 42 13
10.009685166069374 29 34 9
9.15292616186335 34 39 12
10.15544370096635 37 42 15
9.218339295651898 41 47 16
9.343274558535988 36 43 11
9.605429608626668 40 45 16
9.310587420445726 44 49 20
9.477250620119053 42 48 17
9.604694088885278 41 46 17
9.854892558434262 40 45 16
9.172637539060013 39 46 14
11.31331653876423 36 43 13
10.896044341096543 41 47 18
10.992344201900853 39 46 14
9.493321336484867 39 46 14
10.547719715679953 41 48 16
8.965356726266528 53 60 30
9.659805408014526 51 60 30
9.90747199057968 48 57 27
9.766420111361832 47 54 22
9.26466301543242 48 55 25
9.380466972838162 50 59 28
10.20323623889021 52 61 31
10.520193949557603 50 57 26
9.484718310519598 52 59 29
10.93454536000144 43 48 21
11.5480799807413 46 53 23
9.85419971676567 48 56 25
10.892044742104396 52 61 31
10.632099035233061 44 50 27
10.623043546321888 22 22 13
10.797846315477587 23 27 11
13.133038242894482 1 4 1
11.069237758689344 1 3 0
10.579996931305478 32 37 13
11.072697216665173 42 41 24
10.745569514830832 28 34 12
11.761846935896187 30 34 15
12.901348897867422 44 46 19
13.071439981264941 43 45 21
12.04913039560273 32 38 17
11.559907628749526 35 40 13
10.3967862586441 40 41 27
9.84929988226945 47 54 25
9.596248114557028 50 57 27
10.654819926355419 47 54 24
9.781838656512726 49 56 26
11.00060245505722 43 46 19
12.807305086754129 44 47 18
13.347583473189301 49 54 24
10.294344889806448 39 44 15
9.985715761801584 37 42 13
10.097495099531866 43 48 19
10.628509866971294 45 54 22
10.285259946433317 48 55 25
9.967431092965281 46 53 23
9.90316871248797 53 60 30
9.64843098828069 49 56 26
9.962499705124277 51 60 30
9.652554607724745 51 58 28
9.709989798372874 47 55 23
11.149487110715402 42 48 21
9.821263215529129 51 60 30
11.492639458458468 43 48 19
10.84059172663138 50 59 29
10.34791550491902 36 37 26
10.69148091448742 30 34 13
9.873465251294746 33 38 11
11.183186210734805 17 21 9
11.699383518207322 39 44 14
9.533897347062457 48 57 27
9.365501927418245 46 51 22
9.774622219478543 49 56 26
10.456446567969945 44 46 20
9.365501927418245 46 51 22
9.77849206205986 47 53 26
10.545412750678068 48 54 28
11.040076192506778 40 47 17
12.615347791681897 46 53 21
9.900830259483763 50 57 27
9.928911222924084 35 40 13
11.045194327763895 26 31 6
9.770493933834969 50 57 27
12.615347791681897 46 53 21
9.484718310519598 52 59 29
10.129556867854824 49 56 26
9.654644955073138 34 39 12
10.29217168711993 47 54 24
13.644490243280263 48 53 22
12.749767629242315 42 47 18
12.087997560678973 40 45 16
10.504282242996233 33 38 13
10.947544654981971 40 42 18
10.357180628744608 50 57 25
11.327004111222953 38 45 15
11.38285124993306 46 52 25
10.097495099531866 43 48 19
10.628295212243756 51 60 30
9.531410703589929 51 60 30
9.703997516262687 52 59 27
9.693144839915544 47 52 23
9.964328210309176 22 28 3
9.64843098828069 49 56 26
9.475129911866848 53 58 29
9.61311595325568 48 55 23
10.3967862586441 40 41 27
9.560839324781101 39 44 15
11.911706853301904 45 52 20
9.467621716952268 53 60 30
9.766709061801489 48 51 20
10.987665931912728 36 41 12
10.381811464865025 52 61 31
