12.589494486009173 5 6 9
13.530843839123428 21 28 30
12.113368986804646 19 30 34
13.575535202551789 34 41 24
13.311943421607157 1 3 1
13.014494223866935 1 4 4
14.188800928759614 22 34 32
13.87382278764466 11 15 15
14.116548877622305 35 43 34
13.03014270617505 28 40 39
12.600747112459272 17 33 48
12.97367645059925 17 33 48
12.959700659594057 24 39 52
14.220123594201281 7 9 9
13.237451373122518 8 10 11
13.646827836787542 9 11 11
13.991903475210306 12 14 17
14.028552263859911 11 13 13
11.754297002465782 40 45 14
13.880784414381033 5 7 7
13.753643810946972 5 5 4
12.28906796870402 41 46 16
13.145020604054809 9 10 9
13.024613171202166 14 16 5
13.040583546701335 22 29 20
13.634060180133496 20 27 14
13.620762002801124 2 4 0
13.565091214467651 10 13 4
12.938019281822147 43 47 26
13.578443913622003 33 38 23
12.643977741116702 45 48 19
13.200050170936061 42 47 14
13.370927348377876 37 43 21
13.919895629428266 36 43 31
13.181607731811493 45 48 18
12.124870292114613 42 47 14
12.124870292114613 42 47 14
12.124870292114613 42 47 14
13.795293141172136 9 23 37
14.631065419926951 14 28 43
14.342441767831282 15 30 45
15.831100151167268 14 27 41
15.128801976949902 17 31 46
15.831100151167268 14 27 41
15.672968315469522 11 24 37
15.421127003585287 14 25 43
15.240121145769722 13 26 41
15.421127003585287 14 25 43
13.442479236117302 14 22 31
13.455061965648332 13 22 35
13.701038348784667 6 14 19
14.584545243245277 17 23 39
13.442479236117302 14 22 31
13.90556450904244 15 23 37
13.928678185948801 25 36 43
14.508732889760779 13 23 38
14.708300643630807 25 36 42
14.036604996549174 26 33 40
15.845310551494988 17 31 40
15.118816501784067 43 51 37
15.03485785476775 43 47 29
15.523448699178145 49 51 26
15.523448699178145 49 51 26
15.777865884623596 44 51 31
15.619195103928767 43 51 32
16.0459562997883 36 50 36
13.088672960126482 40 45 19
14.457525201528258 46 51 22
15.326315026499326 48 53 25
14.143487503944984 49 54 22
14.715077058342171 45 50 26
15.09682536538468 50 55 27
15.549319004791593 56 58 32
15.644907084778414 53 56 25
15.789071517758618 53 55 29
15.789071517758618 53 55 29
13.122690042622535 30 38 34
14.218163511565447 52 54 32
14.617442714843607 53 54 32
12.981614453973954 50 54 33
12.308346683099995 53 57 36
13.657636170672035 45 53 49
15.51771649870548 54 59 34
13.960869525186713 3 8 12
12.950279529648943 47 52 43
12.962525208188614 52 56 35
12.669396271835604 52 57 34
13.43856584740189 48 51 22
15.627906321379172 51 54 26
13.568980133153099 47 49 26
13.586896774973308 47 49 23
12.97045151783104 46 48 22
13.624635031222924 46 48 17
12.67962878860323 47 47 18
12.93807956477134 49 52 23
12.565395213961793 48 51 20
13.185323251259614 44 47 17
12.283308389862004 46 49 20
12.8223284408791 53 55 29
12.93807956477134 49 52 23
12.344408083895887 46 49 20
12.722478578446538 45 48 19
12.795989938949834 47 50 21
12.776623359049339 47 50 21
13.200439248055531 48 53 22
13.397877658528357 55 60 36
13.593180132122429 52 58 28
13.186139584816619 56 61 36
13.630581422879628 53 60 30
14.236813234914926 57 62 37
14.268484999633632 56 61 35
13.664990694015085 55 60 34
13.684517624842771 57 62 46
14.133384758949607 55 61 39
14.61534015485399 2 5 2
13.893573570499086 57 63 38
13.1916920101126 5 7 9
14.118199420485237 0 2 0
14.132666786683012 21 26 17
14.16528777834853 12 13 11
13.77251950819737 3 5 2
12.518555051254278 52 58 39
11.511237582703338 50 55 30
11.511237582703338 50 55 30
12.228114920414553 51 56 34
12.228114920414553 51 56 34
11.611831143327317 52 56 31
11.817241490158658 53 56 32
12.028055212584203 53 58 33
12.199422550363709 50 55 31
12.974230478283575 50 54 31
12.481946755297258 52 57 32
11.611831143327317 52 56 31
10.839298264372031 52 57 32
11.546478451069953 50 55 28
12.375457259351148 50 55 30
13.038582157885036 49 54 29
12.316140012643457 44 50 28
12.518555051254278 52 58 39
14.19981632861637 54 59 35
12.307992774313568 54 59 33
13.560712912560293 0 4 1
13.614424742034059 53 58 41
13.614424742034059 53 58 41
13.689645451106571 2 5 1
13.504794586248101 32 37 28
12.821395741321599 6 11 3
13.268841582439485 0 3 0
13.331632472908458 41 45 35
13.141746787716633 49 54 38
14.12584628954102 54 59 34
15.06399274452751 54 59 34
13.62294582597354 55 60 35
13.46323219593666 54 59 33
13.788267283417323 54 59 34
14.08108039118905 53 58 32
13.876650818862112 53 57 35
13.900125955545704 53 59 34
12.907810377351254 54 59 34
13.232464277583873 54 59 34
13.730306973054773 55 60 34
12.893425353267542 54 59 34
13.523774656939942 55 60 35
13.991074815357901 55 60 34
13.543416949693224 55 60 35
14.015789185581415 55 60 35
13.70969745744903 53 58 33
13.543416949693224 55 60 35
14.807214793955863 53 59 33
15.093928928748097 51 57 32
14.673061355286956 52 58 37
13.909275746026866 57 62 50
16.34259580263278 55 55 28
16.358853849514556 55 59 32
16.25111200471075 56 61 34
16.32881817803115 57 62 35
17.369725619032586 41 41 13
17.512543055166304 46 49 20
12.871616673512754 47 51 20
13.41793409017955 50 53 24
12.82716684646702 47 52 21
13.019908044440228 45 50 17
13.263176142226142 54 59 32
13.024101827543383 54 59 32
13.797172748673795 50 54 23
13.451210220961535 52 57 28
12.671725097631702 51 55 27
13.498202308180694 49 54 23
13.906120223778093 50 55 24
13.333706863374157 55 60 36
13.531281044774445 52 57 28
13.024101827543383 54 59 32
14.306921670032699 48 53 22
13.603460878117216 53 58 30
13.859016981153061 53 57 31
13.072629328421023 53 58 29
14.328206303199678 55 60 31
14.50226532954332 55 60 33
17.777328255285756 47 50 21
15.650199191232149 51 56 30
14.814070868445533 51 56 31
15.022061296012902 50 55 30
14.730032393274412 51 56 31
15.490621395442913 53 58 29
14.96677890524958 54 60 33
14.225442331460602 52 58 31
14.748068212768077 52 58 31
16.534284681646707 51 55 28
15.949829874443699 49 54 29
14.753258109641589 52 57 32
13.854538932153723 54 58 33
13.857480876662969 51 57 32
15.004231508083265 51 56 31
14.400486515538548 51 57 32
14.318095952122723 54 60 36
14.24662952575052 53 58 33
14.024330282708286 54 59 34
13.869239635350752 53 58 33
15.004231508083265 51 56 31
14.169139835911272 51 56 31
14.26105580297865 51 56 31
14.94431641240244 51 56 31
13.989415442804443 51 55 33
15.435973232385043 49 54 29
13.869239635350752 53 58 33
14.520411501836332 51 56 31
13.44409077386443 8 10 12
12.93091907128356 23 38 53
13.390591672843897 12 17 18
13.250293472924326 20 28 24
14.380208972557492 33 42 37
13.238313987881545 20 30 34
13.5220338041849 5 7 7
13.84949868825028 26 36 30
13.84949868825028 26 36 30
14.002381503298773 13 15 15
14.513133926786912 13 15 15
13.598370098741654 7 9 12
13.596348084513538 37 42 13
11.854363647228263 42 47 14
12.938019281822147 43 47 26
13.578443913622003 33 38 23
12.956808444083682 43 48 19
13.749131442279339 1 4 1
13.239263907064547 3 5 5
13.238891202645181 41 45 20
13.181607731811493 45 48 18
12.89793453378219 45 48 19
15.672968315469522 11 24 37
16.050094335388344 14 25 39
15.5775524277447 23 36 43
15.58181485704679 13 25 42
15.532002083321846 14 26 44
13.899478482020287 14 21 36
13.374209145083704 13 22 34
13.185267021756417 15 21 36
14.508732889760779 13 23 38
15.559308156044137 25 36 36
15.246173218695535 49 53 33
14.845897690365472 51 55 23
12.852501318160657 38 46 44
15.115627855213804 52 55 31
12.609871369347985 52 56 34
15.550489675750391 56 58 34
15.75794984172496 53 58 33
12.609871369347985 52 56 34
14.197778886005207 76 81 72
13.324433108130668 51 55 38
12.962525208188614 52 56 35
12.87633107593241 42 47 17
12.67962878860323 47 47 18
12.796330351179941 45 48 19
13.586896774973308 47 49 23
12.840208450863665 45 48 19
12.384462808662896 46 49 20
12.649634759327228 45 48 16
14.059468242591024 55 62 31
13.740849818958594 54 60 32
13.922254040513614 56 61 38
14.236813234914926 57 62 37
13.896374097293288 16 20 15
13.312900349407316 55 61 39
14.337037197068657 54 60 35
13.41087304565489 0 1 1
14.299155966676445 0 2 0
12.375457259351148 50 55 30
12.878047770673389 50 54 31
11.611831143327317 52 56 31
11.445310515897695 50 55 28
12.942877677241697 49 54 29
12.355784081075164 53 57 31
13.096632517540717 5 7 4
13.078044241385191 1 5 2
13.1602450870923 47 51 30
13.560712912560293 0 4 1
13.52279626913874 49 54 39
13.232464277583873 54 59 34
14.43023580546966 53 58 33
13.919237165936288 54 59 33
13.368880262017413 55 60 35
13.900125955545704 53 59 34
14.418934550990729 53 58 34
14.073776859723422 55 60 35
14.545777454988434 53 58 33
13.97780465922913 55 60 34
14.360944140578596 55 60 35
14.015789185581415 55 60 35
19.393656808951466 58 63 34
19.367388068657228 54 59 30
16.358853849514556 55 59 32
16.25111200471075 56 61 34
16.34259580263278 55 55 28
13.019908044440228 45 50 17
12.71040570275103 51 54 26
12.82716684646702 47 52 21
13.449856830674948 52 54 28
12.871616673512754 47 51 20
13.535866037088203 50 55 24
13.419290700005309 50 55 25
13.52516340755778 54 58 32
13.413308785943789 52 57 28
13.746689203271695 55 61 37
13.999630990592925 55 60 37
13.067881806052878 53 58 30
13.646899764980365 50 55 25
14.222492469522624 54 59 30
15.377740390471867 51 56 31
15.137062590860294 51 56 31
15.381775000892306 50 55 30
14.877792391203458 55 61 34
15.431012954101957 51 56 31
14.064997204451823 54 59 34
14.563954110293515 52 57 32
14.895108416374404 51 56 31
13.3916990797046 54 59 34
14.635241253606036 51 56 32
14.520411501836332 51 56 31
13.869239635350752 53 58 33
14.481023572244883 53 58 33
14.509180485711672 51 56 31
14.69641645658593 52 57 32
11.981598174548697 19 30 38
12.22434424233149 23 38 51
11.846457776084236 2 4 9
13.431497766441208 9 12 11
12.465297068180046 42 47 14
14.153223537412686 12 15 14
13.583012985958014 12 16 4
13.620762002801124 2 4 0
13.753643810946972 5 5 4
14.831957099405841 55 57 34
15.412994796378637 33 44 36
15.8832167891606 50 55 29
14.636847254965053 11 26 42
15.047608274431294 11 25 40
15.95277146442395 42 46 31
15.32414310433476 11 25 39
14.543779903719988 11 21 35
14.733131185681296 46 50 29
15.95277146442395 42 46 31
15.07920669038579 48 53 22
14.457525201528258 46 51 22
15.148069237889434 50 52 26
15.672968315469522 11 24 37
13.034632585374359 0 2 0
12.736862975293699 23 26 20
13.474999622263395 6 9 7
13.474999622263395 6 9 7
13.731668561193572 51 56 43
13.678095850433884 47 49 23
13.624635031222924 46 48 17
13.586896774973308 47 49 23
13.123410404219703 46 49 20
13.200439248055531 48 53 22
12.776623359049339 47 50 21
13.922254040513614 56 61 38
13.934447808347258 8 10 7
14.47998207641812 56 61 52
13.199203252946136 49 54 40
14.140395792460136 53 59 34
12.377429567206619 46 52 30
13.477009036098476 53 58 33
14.517691521140863 53 58 31
11.762146078895196 55 59 37
14.71193515547035 55 61 39
13.603418367302506 55 60 35
12.475515400090835 51 56 31
11.762146078895196 55 59 37
16.449738461396702 54 55 24
16.25111200471075 56 61 34
13.562937006044205 53 58 29
13.560252392349868 47 52 21
17.777328255285756 47 50 21
13.067881806052878 53 58 30
13.290802542948345 54 60 37
14.724708646835932 53 58 29
16.79866494306372 49 54 25
13.625844416294553 54 60 36
14.62131073163521 50 55 30
14.69641645658593 52 57 32
15.126167106456752 51 56 31
13.698513065229983 9 9 6
12.871300820328427 5 6 7
13.838037940364432 17 33 44
14.400934984524161 4 6 6
15.148069237889434 50 52 26
15.549319004791593 56 58 32
15.385429048771032 18 31 45
15.627906321379172 51 54 26
14.03934193845614 56 61 36
14.265573142103378 48 52 25
11.93805786306564 43 48 19
12.370588642655726 46 49 16
13.210120370743985 2 3 5
14.091314299244411 53 59 32
14.768591790404273 54 60 35
14.770119263339296 49 55 35
14.865025966638859 53 59 34
12.654051786593104 52 57 32
12.30091267679757 50 55 31
13.445337119209357 55 60 35
13.136454969130241 55 60 35
13.560252392349868 47 52 21
14.622937945406187 48 52 22
13.381298855859463 49 54 24
14.65646991378814 49 52 22
13.66769704594795 54 59 34
14.62131073163521 50 55 30
13.793115545592038 41 46 30
12.70080664736289 17 32 45
12.866479011215988 1 5 6
13.68443029026293 55 60 34
14.480702888010828 14 21 37
12.59728288459941 47 55 42
14.312828427189137 46 54 44
13.651403564108138 56 61 35
15.408685667280182 49 53 30
15.672968315469522 11 24 37
12.702999926014753 44 47 18
15.333306039995579 32 44 36
14.180640165567707 53 57 32
14.043450885996485 55 60 35
13.849017801656991 55 60 35
12.449905381675736 53 58 33
12.370943876155469 53 57 41
11.88110492828216 53 58 32
13.778211174763788 44 47 40
13.144911422964277 13 19 20
13.962794574776884 30 40 40
13.634063006963986 9 18 26
13.788267283417323 54 59 34
14.575230196717335 53 59 34
14.081258331217734 55 60 35
