13.841424013115422 42 45 9
13.093901825877301 40 43 9
12.886970887929358 47 51 10
13.448338064939783 42 45 9
13.1956629452107 44 48 9
12.489626370651424 41 44 8
13.471696422236356 47 51 10
12.51497618079318 45 48 13
13.195854451568053 41 44 8
12.56923676024562 49 52 16
13.091917298916412 47 50 13
13.14043669592936 47 50 14
13.039831848316823 42 45 10
14.791915903678621 54 57 20
13.642597495354213 49 53 13
13.54227619044543 50 53 17
13.955440815237413 51 55 16
11.890310159476696 53 56 20
13.145388570456133 49 53 12
13.121256751581745 48 52 12
11.972157840918667 58 61 24
12.86398130114905 51 54 17
13.841241438812002 50 54 15
12.083787783327189 58 62 23
12.680561939113552 52 56 17
13.841241438812002 50 54 15
11.832723169917564 57 60 24
14.262890606474771 58 63 30
12.755141994394238 62 65 30
14.49535830108671 55 60 25
12.21806291809804 64 68 34
12.781979937465735 60 64 30
12.050395967737476 47 50 15
12.478224916954971 44 47 16
11.817768373267842 44 47 14
12.610141914750091 54 57 24
18.074769922192274 60 65 32
17.793239111780977 60 67 33
13.09141275075297 57 59 36
13.48953104598743 31 32 18
12.307247441993063 45 47 19
11.914604656500929 48 51 22
12.1879127948208 53 56 27
12.325027473537157 54 57 24
12.054828412300306 54 57 24
12.595362954092698 46 48 26
12.466628963002664 53 56 23
12.1879127948208 53 56 27
12.517774156877836 39 41 17
11.33735306737033 52 57 24
11.391308301436025 51 56 23
13.316475951615272 38 40 18
12.595362954092698 46 48 26
12.356373739058391 52 57 24
12.679823406911707 55 58 25
12.807851338479104 55 61 25
11.333032468101257 52 58 22
11.034140705030916 54 60 24
11.336927752008757 56 63 28
11.709540769291905 54 61 25
11.886950854197744 57 64 30
12.1326687484221 59 66 31
12.185404083449328 53 59 23
12.160880510207944 57 63 28
11.700012197059666 45 50 17
12.359430881970646 35 37 18
11.087911765008453 50 53 24
11.112279411900584 50 52 25
11.234096384966966 46 51 18
11.641700970307381 48 51 18
12.038566752122367 47 53 14
11.264130756139146 48 54 17
10.99902683616028 49 55 19
13.661377693768063 46 50 25
13.686438701006216 46 49 21
12.313100879547898 48 54 18
13.29070668594145 45 50 21
13.113257428538175 44 49 20
13.095986404192848 52 58 20
13.377738728173279 55 61 20
12.526669378783849 55 61 25
12.898700682852681 63 69 33
13.12212725602907 47 53 16
13.460455067762956 30 34 21
13.602920760858126 45 46 48
13.602920760858126 45 46 48
13.503854612723284 48 49 50
13.478454124154995 53 53 51
12.277465164863495 57 58 42
13.5197286657359 32 29 22
14.408792072606113 7 5 0
11.888144253468951 55 60 24
11.221202607774703 59 63 28
12.13575180588409 57 62 30
11.888144253468951 55 60 24
10.885688428463737 55 57 31
11.998409716234733 60 65 31
11.340024788895457 54 58 28
12.271743871430225 62 67 34
13.824537648413777 48 50 24
13.991129444035572 49 52 23
13.378095671183155 47 49 29
13.354384368437966 51 53 34
13.479826405878937 51 51 34
12.157811652192757 59 63 34
12.455184058140624 65 70 40
12.370677437836061 65 69 40
13.3071449990181 66 71 42
11.937242059823161 62 67 37
12.66287078218715 62 67 38
12.823480671056503 55 57 30
12.66287078218715 62 67 38
12.823480671056503 55 57 30
12.451067050433979 57 60 30
12.454999813150414 57 59 31
12.916746902576566 65 72 41
12.971312052825587 65 71 41
12.70935538765985 68 74 44
12.89778608998275 71 76 47
12.309472969760117 62 66 35
12.251960617252161 63 68 38
12.816019147738306 62 65 34
12.682182815613322 63 66 35
12.575701655741337 55 58 29
12.680007832345485 56 58 39
11.912619974402958 55 58 29
13.577154241342406 49 52 23
12.225690078117545 58 61 30
11.859271741260832 58 61 30
12.63376014064151 56 59 29
11.99822599283864 54 55 39
11.912619974402958 55 58 29
11.624640008280458 48 50 31
13.750306501010277 55 58 29
12.251773316141401 62 65 36
12.390259691252298 60 63 34
13.257310914976031 54 57 28
12.916391577838386 61 64 34
12.728236316903466 60 63 32
12.254107508533554 61 62 52
12.449430608819524 63 64 54
12.664948018462987 65 66 57
13.233789497179977 76 75 68
12.154798960436331 54 55 40
12.717652031796039 59 60 44
13.136313595839109 61 68 34
12.703854003464519 65 72 40
12.564743590182285 59 63 33
12.380846793074529 61 66 34
12.380846793074529 61 66 34
12.824203509788425 59 62 33
12.883140949115804 60 67 34
12.275909462852066 63 68 35
12.08183475876909 62 68 36
12.649608267275465 58 63 34
12.75147064024251 57 61 33
12.31780760045985 59 61 35
12.08183475876909 62 68 36
12.873731924291802 61 66 34
12.321969132801138 61 67 34
12.833648846556631 65 72 40
12.833648846556631 65 72 40
12.564378310678961 59 62 31
12.841285872226694 55 57 33
13.100604751468108 54 56 34
12.443776979750126 52 54 30
11.86596552193933 51 53 30
11.589093306596537 46 48 29
11.700192213910146 47 48 31
13.235491623254603 56 59 28
13.100779916889385 58 60 34
13.089202630065234 59 61 35
12.852347181967433 59 62 29
13.029591024252035 57 59 33
12.323481322680022 59 61 35
13.434934471786942 59 62 31
12.768830026957415 57 59 33
13.709408326662624 46 51 27
14.007941968069353 57 59 33
13.551200094727983 58 62 32
13.551200094727983 58 62 32
13.76251831052841 50 55 24
13.426784039919987 58 64 24
13.882418608549903 49 54 25
13.549655561306086 56 62 25
13.076916748859036 64 69 35
13.74437346718343 56 61 26
12.949560435829747 68 74 38
14.007941968069353 57 59 33
13.072995541528817 57 59 33
14.964565912421962 45 46 35
13.219637477016983 53 55 31
13.587288825173017 55 56 46
13.011348579863087 48 49 34
12.518297715474825 49 51 33
13.713987428867464 54 56 35
13.957265590998052 54 56 30
12.194429763225303 60 61 50
13.921331806335415 41 43 32
13.527134277160616 62 62 57
14.033748702329586 44 48 9
13.841424013115422 42 45 9
13.247326471264211 43 46 9
13.295088660515052 48 51 15
12.73122645125214 41 44 9
12.518705559298507 42 45 10
12.51497618079318 45 48 13
13.44815015403779 46 50 10
13.091917298916412 47 50 13
13.641248564053218 45 48 12
12.59941066853634 56 59 23
13.597595402969946 49 53 14
13.121256751581745 48 52 12
12.705530804301112 56 59 21
14.123793766178201 55 58 22
12.390312405089418 40 43 14
11.653302414024386 48 51 16
11.672491743310536 44 47 16
17.98012018629546 60 65 32
14.345075540346782 74 74 71
12.678571360364959 38 41 14
13.731528029105199 43 41 32
13.09141275075297 57 59 36
11.877970563766072 51 54 24
13.118772866613478 50 53 21
12.362419808748363 53 56 24
11.877970563766072 51 54 24
11.799192277390372 51 56 23
12.577380786834079 55 58 25
12.160880510207944 57 63 28
11.999373501759564 58 64 30
11.827791784754268 56 62 26
12.252208603166158 47 50 18
11.75032628915438 46 48 26
13.095986404192848 52 58 20
12.526669378783849 55 61 25
13.77895390571931 33 33 23
13.285273305681306 31 33 22
12.733763650272202 60 57 48
14.473040163922587 10 7 2
14.15415297454279 32 31 17
11.797394722685377 57 60 31
11.221202607774703 59 63 28
10.57196296735218 55 57 30
12.08340796461497 53 57 23
14.462513230635821 52 54 27
12.451067050433979 57 60 30
13.102195319805585 66 71 42
11.92492763253885 60 63 32
12.626368248315934 61 64 35
12.66287078218715 62 67 38
12.071223406060374 58 61 32
12.447317406566444 62 67 37
12.66287078218715 62 67 38
13.105932696664878 72 77 48
12.15397153590559 69 74 45
13.102195319805585 66 71 42
11.624640008280458 48 50 31
12.115557091531041 60 63 32
12.540980350850443 58 61 30
12.002287784402803 60 63 32
12.525177991259797 55 58 28
13.550177331484585 52 55 26
12.511769522409432 54 57 27
12.336908424103065 58 61 30
12.897430242873407 56 59 30
12.606788688767196 59 62 33
13.250093696671648 62 65 36
12.22821691430722 63 64 54
13.65817595003916 86 83 80
11.742362224311016 53 55 37
11.282537677024765 49 51 30
12.53577119626419 60 66 34
12.380846793074529 61 66 34
12.380846793074529 61 66 34
12.665636086795917 63 68 35
13.15475616778634 59 62 33
12.75147064024251 57 61 33
12.05170150378199 61 68 36
12.93946539539653 65 71 38
12.734473341042632 52 54 35
12.846728403790042 58 60 36
12.818214349207242 55 57 31
12.751290676334818 60 63 31
12.852347181967433 59 62 29
13.279972004214171 57 59 35
13.360466078613896 59 61 35
14.020597313165093 45 47 31
14.007941968069353 57 59 33
13.076916748859036 64 69 35
14.422008335217141 48 52 30
14.074020064491817 51 53 29
13.470292069029258 54 58 26
12.949560435829747 68 74 38
13.146082917515269 53 59 22
12.734653542609982 56 58 32
13.247114290504625 55 57 35
13.219637477016983 53 55 31
12.278052166534453 61 62 52
13.80176956359956 38 39 27
13.000969961108918 55 56 47
13.572725615667526 45 48 11
12.623664481881725 39 42 7
13.295088660515052 48 51 15
13.06768673615639 43 46 10
11.91614904886116 53 58 25
11.55707599334784 46 52 16
12.989657044855255 45 51 13
11.541719745292875 57 63 27
11.503898264147816 50 56 19
13.316475951615272 38 40 18
12.898700682852681 63 69 33
11.858087399977085 59 66 32
12.411919826194808 45 47 21
11.704197326708018 51 54 21
11.914604656500929 48 51 22
11.149119751706948 48 53 20
13.157802216077503 35 37 25
11.56372212981433 45 47 28
11.569956182607688 59 63 32
12.277446245358128 58 61 32
12.303252122987068 54 56 37
11.797589237612414 66 71 39
12.002287784402803 60 63 32
12.055003130696456 57 60 31
12.971312052825587 65 71 41
13.378095671183155 47 49 29
13.54587120130246 55 57 31
12.661587509289243 59 61 35
12.93009735703524 60 62 34
13.332878634514218 56 59 30
12.703854003464519 65 72 40
12.732443934425213 67 74 42
13.54587120130246 55 57 31
13.187669986178362 59 61 34
13.15475616778634 59 62 33
14.536470018421102 47 52 32
11.894616934390386 50 51 35
11.88268367621925 51 52 36
12.270213743519058 61 68 35
13.921331806335415 41 43 32
14.033748702329586 44 48 9
11.943500305323107 60 63 27
13.145388570456133 49 53 12
14.427990649225945 52 56 16
12.888594835887332 53 56 20
11.943500305323107 60 63 27
13.642597495354213 49 53 13
17.88887765947236 61 66 33
12.481548987701057 61 67 31
13.460455067762956 30 34 21
10.912219801385424 50 55 22
11.387008174546601 49 54 21
12.15322011654328 50 57 21
12.891852754486695 44 50 14
12.925240544393802 56 62 27
14.274847277806806 51 52 55
11.609607046486444 50 53 20
11.886950854197744 57 64 30
12.251960617252161 63 68 38
12.783606125248749 61 64 33
12.954284779057721 71 72 64
11.006001748543316 57 60 32
11.770507259615949 52 53 37
12.764807095933548 69 75 45
12.08340796461497 53 57 23
13.066744480453563 61 63 35
13.032120252907502 55 56 45
13.587288825173017 55 56 46
12.564743590182285 59 63 33
13.013856557290136 49 54 21
12.824203509788425 59 62 33
12.275909462852066 63 68 35
12.554007060838387 54 57 26
13.47207158456409 40 43 8
12.91212774966903 39 42 7
18.223882505293528 59 64 31
12.679823406911707 55 58 25
12.649278709658502 54 57 26
12.169328568407087 53 58 23
11.790887968956378 50 56 20
12.629905131027273 45 51 15
13.434934471786942 59 62 31
13.739119498728272 54 57 27
12.666737784352497 61 66 37
11.94546407068129 52 56 21
13.860113762659582 19 16 9
12.283359696149985 45 48 17
11.935127508450943 53 56 23
13.459203136206481 65 70 36
12.32140307541221 72 77 45
12.954284779057721 71 72 64
12.149752461175728 58 61 30
11.367938429641175 56 60 30
13.29070668594145 45 50 21
12.189422559256762 54 60 24
12.466628963002664 53 56 23
12.96324906488881 46 52 16
13.271553497973388 53 59 24
