12.297960031809248 38 42 3
12.461831950523822 40 45 2
12.878284157644092 43 47 4
12.677163051480465 40 44 3
12.592606132332639 42 46 5
12.895745870035656 48 52 11
13.608236884516325 47 49 9
12.66637262101118 46 50 8
13.785020634189191 55 59 20
12.364923827361645 52 55 18
12.176345180164825 59 62 25
12.958711065736649 62 65 30
13.318504673446954 48 52 10
12.160212081461692 55 59 20
12.299754686043622 53 56 18
12.315704990671398 53 57 18
12.176345180164825 59 62 25
14.149945665404525 55 58 21
12.732089109634096 47 51 8
12.956376046005042 30 34 13
12.696234362230435 46 49 13
12.508830505752568 44 50 9
12.479876372088437 46 50 11
12.662310483947472 49 53 14
12.71261501158795 47 51 10
12.76847852248445 38 44 5
12.575778076070595 38 44 6
13.719738270443449 50 53 17
13.540582286183326 50 53 17
13.177421055737566 48 51 15
13.435203231398864 45 48 12
13.322315957770316 49 52 16
13.03000995816794 49 52 14
12.38696762751372 63 67 32
12.728855389796356 66 72 36
13.21363889767284 48 51 16
11.080256532552045 53 56 20
12.42507525520228 38 44 7
12.594236617449356 37 42 10
12.08815827560715 41 46 13
13.109276760648688 45 48 14
13.142944371329152 45 48 15
13.180151871565206 50 53 20
12.790395325632955 47 53 16
12.618445937489735 52 56 19
12.10366131249724 56 59 24
18.231655607521112 60 63 28
12.82036985963675 55 60 26
12.475510289316732 58 64 28
12.615353007295319 60 66 30
12.284739745709425 62 67 34
12.475510289316732 58 64 28
12.42672946272028 59 64 31
12.42672946272028 59 64 31
12.25525618911241 65 70 37
12.303813212520478 53 56 26
12.041228985788669 52 55 23
12.178086941681196 52 55 23
12.29980561508259 51 54 20
11.869818620704399 52 55 23
12.367296742115453 52 55 23
11.754351557901733 55 58 27
11.81431284575925 53 56 25
12.29808109243854 58 61 28
12.274200830478517 55 58 24
11.626924096126015 54 57 22
12.081829832350245 52 55 24
13.996254074629395 70 71 54
13.325886118732862 40 43 11
12.713001519314584 48 51 19
12.982387670249546 44 46 20
13.215795808761749 49 52 19
11.955991867047262 61 67 34
12.39082459137305 70 75 40
12.818649781274459 59 65 30
12.188112367952222 60 65 31
12.297957724985082 56 61 27
11.639246757603452 58 64 28
12.188112367952222 60 65 31
12.471440223038169 51 55 20
12.297957724985082 56 61 27
11.94374194615094 53 58 26
12.077445473475704 57 63 28
11.587076749372514 55 60 28
11.873535261421084 57 63 27
11.986084996080288 59 66 31
12.13830159475767 61 66 33
12.566827687788651 63 69 33
13.657234459466473 72 73 58
11.189196819994558 54 57 21
12.656415907339674 63 65 43
11.61664850155066 59 61 37
13.456894714950572 46 49 16
11.342374767978932 55 57 33
12.969354872494456 47 50 16
12.183450524689542 54 57 21
14.46054347382558 49 52 16
12.177661749086264 55 61 25
11.688910776305738 55 59 22
11.688910776305738 55 59 22
12.069404323159459 55 60 25
12.384404050442079 54 60 24
12.555461353961183 54 60 27
12.213722121167176 58 65 29
11.82787108536964 61 68 33
12.555461353961183 54 60 27
12.962724786525753 54 60 27
11.95216974653641 60 65 30
11.766976568754774 62 67 33
12.55093595731174 53 58 33
11.955718333720727 51 56 31
11.542801129126325 49 54 29
12.84064788881128 56 62 26
12.849690232970435 55 62 27
13.773210650119696 53 58 24
12.685439315783164 53 59 23
12.098417687248444 47 53 16
13.048709589561355 51 56 26
13.547888971853721 47 53 28
13.07961798575601 52 59 25
13.240419462093122 52 59 24
12.729356663785028 52 59 25
12.765520085934645 48 54 17
13.139469172798883 57 64 29
13.148306013391776 55 63 28
12.504064437706331 68 73 40
12.388211247058361 67 72 40
12.352486727018748 64 69 37
12.946098925190906 55 62 28
12.522628686503348 60 65 32
13.529163840508714 56 63 29
13.652352381242645 54 61 27
12.869658157980629 66 71 37
12.564250951892816 64 71 37
12.52902839096355 64 70 37
12.696804846119075 60 66 31
12.825183310245436 56 63 28
12.816123675376103 58 65 30
12.825183310245436 56 63 28
13.142207874640404 58 64 30
13.89523921901941 69 72 68
13.101523668063976 69 74 61
13.22652407566006 67 70 64
13.444927402714812 72 77 65
12.901539196694426 70 73 69
13.27008749004429 69 72 69
13.062516565903818 49 52 42
13.27008749004429 69 72 69
10.975894891303522 38 43 6
12.733346518270015 33 38 25
12.797797541136772 51 55 47
10.814873746147725 41 46 20
11.332790311082222 44 50 14
10.814873746147725 41 46 20
11.060449124478751 40 46 9
10.579525872957493 46 52 15
11.821653921378065 54 57 21
10.967263074577433 51 55 19
11.136649814749196 50 56 17
11.375280646490475 49 52 15
13.070849125254426 33 35 13
11.024234377777928 50 53 17
10.824936580219214 48 51 15
12.830912541465173 50 53 17
13.045275911092848 50 53 16
13.27181566955161 52 55 19
11.966004509804376 66 72 36
12.768122051700654 53 56 20
12.394142471630438 54 57 20
11.482260637827821 41 45 6
12.449762737675965 33 34 27
12.304032522097023 31 32 27
13.278949524887453 36 36 35
13.65826703155131 40 42 22
13.001518518439838 45 49 12
13.672632606252453 42 44 22
13.685590014170758 46 48 29
13.672632606252453 42 44 22
12.894311999409124 60 66 30
13.303638911859451 53 56 20
12.956490954641609 54 60 24
12.956490954641609 54 60 24
11.542243991470738 66 71 35
13.18749571069726 50 55 30
12.195579973025872 58 63 30
13.574407345076665 51 56 31
12.853056438794365 46 51 24
12.536463910882114 50 55 24
13.042564883916675 48 53 33
13.299254021944044 50 56 43
13.318594985663525 48 53 28
13.113064582022064 35 41 21
12.886829180259694 51 57 31
13.235804348834408 49 55 33
12.916347204616761 47 53 33
13.042564883916675 48 53 33
12.929712697777129 48 49 38
13.453720830584956 48 50 33
13.931282144754768 47 49 28
13.772726604284523 48 51 17
12.461831950523822 40 45 2
11.992773385387244 39 43 1
13.556212731968522 49 53 13
12.66637262101118 46 50 8
12.895745870035656 48 52 11
12.597506610737588 50 53 14
12.958711065736649 62 65 30
12.973851261889886 62 65 29
12.732089109634096 47 51 8
12.06722014209352 52 58 19
12.574141220692574 52 55 19
12.42507525520228 38 44 7
12.741323648537554 50 56 17
13.510302559186623 48 51 15
12.469909604198063 37 43 7
13.540582286183326 50 53 17
12.728855389796356 66 72 36
13.142944371329152 45 48 15
17.98636752183962 60 63 28
17.829807646497017 60 65 32
12.678900087084791 57 63 27
12.41092184566658 58 63 29
11.135921359629476 52 55 23
11.81431284575925 53 56 25
11.626924096126015 54 57 22
12.835725934229858 51 54 21
12.412462024016211 53 57 18
13.508586922800431 59 61 36
14.370822002555203 46 49 14
11.47907322546888 55 60 27
11.750156558402555 53 56 24
11.47907322546888 55 60 27
11.931299788579256 58 63 29
11.863876814769348 56 60 29
11.986084996080288 59 66 31
11.992930082725744 62 64 40
12.656415907339674 63 65 43
11.690541799524095 50 56 20
12.542739583046712 52 55 20
11.89758871061649 54 57 21
11.941210269752927 54 60 23
12.133318905629707 53 59 23
12.608930437862249 53 56 20
12.580036297450619 56 61 27
12.632008238339806 57 64 29
12.962724786525753 54 60 27
12.596975135837802 53 61 27
12.64119982487212 52 60 27
12.177485721302222 55 63 27
12.55093595731174 53 58 33
11.214526999241485 52 56 31
11.908948334585839 49 54 29
12.685439315783164 53 59 23
12.013891047664048 51 57 21
13.65111278593351 55 62 27
13.113361743423424 55 62 28
13.618701506887813 55 62 27
13.122216165447938 53 60 25
12.765520085934645 48 54 17
13.166124713147676 51 56 24
14.731941786535126 80 80 79
12.946098925190906 55 62 28
12.697853244658369 72 78 44
13.187886704612168 73 76 72
13.048940469789072 65 68 63
13.228145398540354 34 38 22
13.087988033858677 67 72 63
13.505983163541224 71 74 67
13.51245527184466 68 71 69
10.808550333664334 43 46 10
11.072804635443664 25 30 7
11.492503843138206 32 37 4
10.967263074577433 51 55 19
11.396851989325533 51 54 18
12.825467056008204 30 34 17
10.967263074577433 51 55 19
13.27181566955161 52 55 19
13.045275911092848 50 53 16
13.843766311462465 48 51 16
12.534892984262006 52 55 19
12.165828853286971 54 59 24
11.5706716220362 42 44 15
13.685590014170758 46 48 29
13.303638911859451 53 56 20
13.243089986009203 59 64 27
11.335778314681685 61 66 31
12.835722038523734 55 60 28
13.12551247869129 47 52 23
13.762093891109442 48 49 34
13.502489039368424 53 54 38
13.326428024764537 48 53 32
13.414476342729232 46 51 36
12.688276018109997 49 56 27
12.796640461494716 45 50 35
13.656541393470482 47 51 30
11.992773385387244 39 43 1
12.610463429373898 46 50 9
12.858514687006842 59 62 25
12.176345180164825 59 62 25
12.226125051942278 54 57 21
13.763720476518946 53 57 18
13.11370882953801 51 55 15
12.10366131249724 56 59 24
13.252201187290419 45 48 13
12.795739385269352 34 38 11
13.366563098662446 47 51 11
13.21363889767284 48 51 16
12.464425847471322 48 51 18
12.630904780698465 62 68 33
12.300709520194726 62 67 34
17.635707843761605 63 66 33
12.678900087084791 57 63 27
14.742675063308177 78 79 71
14.247525271845497 78 79 69
11.85742684598142 53 56 19
13.172767599495506 46 48 25
13.599081355041736 43 45 24
12.793664144771563 49 52 19
12.023202760793115 54 57 26
12.59755633603368 50 53 19
12.907355431681815 48 51 19
11.38742969535155 53 57 26
12.398830174080652 58 63 29
12.208247563594151 65 71 36
12.467314572689615 60 66 31
11.766976568754774 62 67 33
13.587616185450749 51 56 24
12.654909371053478 50 53 22
13.432232054710989 53 60 27
12.504064437706331 68 73 40
12.573492071059725 62 68 33
12.696804846119075 60 66 31
12.816123675376103 58 65 30
12.781595225243482 57 64 28
12.928142775476482 60 67 32
13.018073601563097 47 47 48
13.002984896373512 38 38 39
13.091752191198347 46 50 11
12.501112950306288 49 52 16
13.532204717439221 71 76 61
12.119621664274346 42 47 20
10.808550333664334 43 46 10
10.35458277265442 42 48 12
13.759851251592584 46 48 28
13.276124752973159 46 47 32
11.64706627735166 54 59 28
12.835722038523734 55 60 28
13.675752029014337 46 51 29
12.886829180259694 51 57 31
13.656541393470482 47 51 30
13.353162710859706 37 43 22
13.950397356860362 56 61 24
12.59733644962053 51 55 15
11.903355814369856 43 47 6
12.99695731012305 49 52 16
12.696234362230435 46 49 13
13.269718839001298 42 48 13
12.696234362230435 46 49 13
12.769402223711213 48 53 14
13.151778876893987 44 48 13
12.341414725229516 45 48 12
12.405000930768654 42 48 7
12.588807018400999 49 52 18
12.41092184566658 58 63 29
12.134890197100876 45 51 15
12.82249521796534 65 70 36
12.753122905546384 46 50 33
12.331214766342256 58 65 29
13.142207874640404 58 64 30
10.371686268209444 43 49 13
12.056163729596474 43 45 20
13.064646651743836 42 44 22
13.671238054966862 45 49 12
13.016494545518535 74 78 74
13.23436376750466 53 59 31
12.06556621170573 66 72 36
13.02741221483633 47 48 8
12.224984958326829 50 53 16
12.45634463770718 44 48 8
13.08399036774573 47 53 29
11.510863130453103 53 56 26
11.411811280018686 64 69 36
13.113361743423424 55 62 28
11.307861137962954 57 62 31
13.266276850014304 55 62 28
12.678495634053295 65 71 36
11.538679280393593 50 56 19
13.43367109498862 52 55 19
12.195653012331016 51 57 18
12.4605916656477 36 42 6
13.504367887436663 49 52 16
12.678495634053295 65 71 36
12.907355431681815 48 51 19
11.94374194615094 53 58 26
11.931299788579256 58 63 29
12.555461353961183 54 60 27
12.928142775476482 60 67 32
13.28659908505378 55 58 22
12.28651536418855 33 36 9
13.960759531416318 68 72 64
11.730985484563462 60 65 32
13.986928533621148 52 56 17
12.359147977322209 56 62 26
12.483172316581598 59 63 31
12.768122051700654 53 56 20
13.82957850427795 47 51 12
12.37656233514491 54 60 24
11.316477934764432 56 58 34
