16.711759214938247 23 27 2
17.355001836307583 40 43 9
16.577880337208583 12 14 0
17.341836960223475 40 43 8
17.822512249703255 47 50 17
18.94459203682141 49 47 21
17.728579846314233 49 48 20
17.522125627391937 47 43 16
17.806114995071376 53 49 21
17.02540326217355 39 35 8
17.473546552958933 48 49 18
17.473546552958933 48 49 18
17.771169163487524 49 52 22
18.739388073315375 49 52 21
18.43691550159302 49 51 20
17.948651938738966 48 51 20
17.425971482793464 48 49 17
17.040075498554764 36 31 5
10.628540493977527 38 42 7
10.588975554537628 34 38 5
10.535592899676812 34 41 7
9.429311238255238 39 45 9
9.740588571143231 38 44 8
9.157975036435161 39 45 8
9.525797668494464 41 47 11
11.571871806771794 43 46 15
11.492466266484143 43 47 15
9.935188800696954 42 47 14
10.243435822553286 50 55 20
10.329833061217316 50 55 24
10.744396049449575 46 51 18
9.902305943447864 48 53 20
9.793743845254038 51 56 24
10.18720638915595 55 62 28
10.329833061217316 50 55 24
10.465482710051441 51 56 25
10.276702303820215 53 58 27
10.422148012077946 49 54 23
10.943946848425771 46 49 17
9.53008802032682 52 59 25
10.08288514491647 46 51 20
10.188366764931892 45 50 15
10.239321049943197 49 54 21
10.183068895392084 53 60 26
10.05727045802584 33 38 7
9.598860876247908 30 39 9
8.940592608947709 40 45 12
9.582122395200969 39 45 9
8.42536653524218 48 55 18
8.42536653524218 48 55 18
9.152218692337856 42 49 12
8.779157623201256 40 49 19
9.33421508093992 32 41 11
9.530968228249206 40 48 16
9.25906379051241 41 47 10
9.82866098356755 43 50 16
9.687616544445406 40 47 14
8.826838522967174 45 52 18
8.487061029184119 45 52 18
9.315238372510658 40 46 10
8.378621254113813 38 47 17
9.163353147989595 38 45 13
9.432793852252225 36 41 9
12.970708555344464 49 56 22
11.11181199220686 53 58 27
12.818875235941883 50 57 25
12.970708555344464 49 56 22
10.790342326502486 47 52 19
8.520952794834425 26 34 10
8.47652338410212 24 32 9
8.263601537820145 36 41 27
7.676273290071919 26 34 11
8.837045259102204 45 52 18
8.451330568655335 39 48 14
8.555158395703215 41 50 18
8.027175550902363 38 47 20
8.413496724470749 23 29 7
8.487151423305317 25 31 13
7.983954125166493 35 41 14
8.21311802322435 42 48 21
8.460049306355792 40 46 19
8.980320551551186 47 52 24
8.232487033423594 42 48 21
8.264065428161688 45 52 18
8.391180131751177 45 52 21
8.255139702976216 46 53 17
8.276394826452494 39 45 17
9.27405499016501 38 43 29
9.905817612048134 58 63 53
9.421426845821765 40 45 28
9.905817612048134 58 63 53
10.068268704826885 61 64 59
9.181164759281856 37 41 24
8.539269857210373 37 42 26
9.007400072973537 46 51 24
8.965381655235717 42 46 26
9.164899239477705 53 55 54
9.561325559308093 45 51 28
8.900423470912028 46 52 24
8.857897612356737 45 49 29
8.991527439658354 44 51 19
8.991527439658354 44 51 19
8.857897612356737 45 49 29
9.05978255570944 44 47 45
9.667177281893329 55 58 49
9.234945503716885 47 52 22
11.047030409766752 51 56 25
10.963824362339423 53 60 28
10.954635373151904 51 58 26
9.728495863993404 51 56 25
9.026938957705275 47 54 20
9.728495863993404 51 56 25
9.398143257242985 49 56 22
10.363340177100397 51 56 25
10.363340177100397 51 56 25
10.568089231397407 53 60 30
10.568089231397407 53 60 30
10.564100913746508 51 58 26
10.27049665368045 51 58 26
9.476505792654388 48 55 25
9.476505792654388 48 55 25
17.71024755110741 43 46 11
18.387758098930185 49 52 18
16.14007691302249 50 53 17
11.545074634670364 42 46 16
9.133185441934208 47 54 21
10.344672993271752 50 55 20
9.9675429428939 45 50 18
10.209026729887574 47 52 19
9.899580819075593 52 57 25
10.288996836534544 55 62 30
9.964835659166713 47 53 20
9.1992958290617 46 53 19
8.694559616084208 52 59 25
9.120995008145183 53 60 28
9.448641797928811 54 61 27
7.863181297843722 52 59 25
8.797383612650176 53 60 26
8.514724075762395 53 60 26
8.707347087132334 52 59 25
9.001658776560296 52 59 23
8.637472191674998 52 59 25
7.721930563870849 53 60 26
8.797383612650176 53 60 26
8.480206483908121 51 59 24
8.180737188911147 52 59 23
8.374749452244343 53 60 23
9.270567398825058 49 56 20
8.802649618887003 50 57 21
9.975357547553099 43 50 15
8.794793677039841 51 59 23
8.585540312428954 52 61 29
8.970322753775875 51 60 27
8.844910237068111 49 59 22
8.321237651101477 49 59 22
8.24809242263178 51 59 24
8.68339607308542 50 57 21
8.604616703263625 47 57 19
8.713340462045823 48 57 20
8.196269943329447 50 58 24
8.518925406558056 49 59 21
8.561306418210025 50 58 26
8.628728960857554 49 59 21
10.239175863917728 60 63 53
9.27246463336798 52 58 33
9.31309767089482 54 61 31
9.878639087697977 45 51 29
8.800337431294498 50 56 32
9.697643518312105 44 48 37
9.463776492880708 49 55 36
8.909315870342018 41 44 37
10.181934595741241 41 45 29
9.94403135281589 36 41 26
9.461597158714456 53 60 29
9.697643518312105 44 48 37
9.628793351342193 55 62 28
8.809488846954157 54 61 26
9.301196316245298 55 62 28
10.271401752877674 55 62 28
10.0648042941481 57 64 30
10.271401752877674 55 62 28
10.070621236153235 55 62 30
9.25696362915874 52 59 25
10.039817891267234 54 61 27
9.695870807908008 52 60 26
9.636577853211714 54 61 29
9.94890744371305 53 60 29
9.94725663728289 55 62 29
9.741482301816848 54 61 31
9.94890744371305 53 60 29
10.570522559180104 54 61 29
9.812084826598271 55 62 28
9.49525576494923 55 62 28
9.804439674259879 53 61 27
9.811137354486624 50 57 27
10.14956176586799 52 59 29
10.316345281276645 50 55 34
9.813758370775206 52 57 31
10.348810845992277 53 60 31
16.046542425518496 54 57 19
15.917738445250524 52 55 19
16.046542425518496 54 57 19
16.977617394621557 37 40 8
17.309292984062 41 44 10
18.290026510240182 48 44 17
17.490856058833447 48 46 18
18.239381597615846 49 49 20
17.632620175928604 48 50 19
9.592014973881199 38 44 8
9.910130432116093 34 41 8
11.488798849284374 45 48 17
11.503571270697895 41 44 14
10.332444709595682 48 51 18
10.753219430941453 49 52 19
10.663770909811165 49 54 21
10.633260174657604 44 49 16
10.663770909811165 49 54 21
9.583092509851356 40 46 10
9.831277328061734 49 54 23
10.276702303820215 53 58 27
9.325414071195132 39 45 8
10.127671598857392 45 50 17
10.474661591183303 41 47 11
8.767535266574088 48 55 18
9.20611470969496 45 52 15
9.25906379051241 41 47 10
8.653946645274251 41 47 10
8.487061029184119 45 52 18
9.108044903844858 40 49 17
9.317001161977785 42 47 14
9.013584069603205 30 40 10
13.465251700964506 49 54 23
7.884794466142096 26 31 12
8.843669799013258 42 49 17
8.555158395703215 41 50 18
8.633019784875634 44 50 22
8.413496724470749 23 29 7
8.14748947349864 41 48 15
8.358268365835206 24 30 4
8.444398248432487 41 50 17
8.140298404740006 44 51 16
8.174181696989892 36 42 16
8.21311802322435 42 48 21
8.143612264986968 38 47 19
8.143612264986968 38 47 19
9.421426845821765 40 45 28
9.27405499016501 38 43 29
9.94386295228014 36 41 27
8.905156924418556 49 56 26
9.039201417184408 32 36 24
9.356206415343374 47 50 42
9.064432792166045 40 43 37
9.497868416130066 34 40 20
9.222200073065299 42 48 23
9.359634263618192 46 53 19
11.04172786622424 51 56 25
11.059953492252394 53 60 28
9.614687893333835 49 56 23
10.959980052959468 51 58 26
9.455228450924873 46 51 22
10.058059774190367 50 55 24
11.142441719698148 52 57 26
9.728495863993404 51 56 25
9.16366334017833 48 55 25
9.2676018432586 50 55 24
9.960723045670129 53 60 26
9.927706174579237 48 55 23
9.606632644682731 49 56 24
9.284562934404931 51 58 26
9.643191455586312 53 59 28
9.760513840545277 47 52 19
8.990464517482314 50 57 22
8.16196377650172 54 61 26
8.854632537403367 52 59 25
8.434867357118513 53 60 24
8.707347087132334 52 59 25
8.854632537403367 52 59 25
9.80126850931727 54 61 28
8.480206483908121 51 59 24
8.726829107785942 51 58 22
8.643028090656902 52 59 25
8.551366524921638 49 58 20
9.448641797928811 54 61 27
8.228760144772773 52 59 25
8.81002183914861 51 58 24
9.209545827524993 48 55 19
9.300387048785016 48 55 20
10.105868181171711 55 58 50
9.821823897623439 50 55 40
9.445814550714694 49 55 35
8.7466333422868 32 35 28
9.461597158714456 53 60 29
8.242210191113317 49 58 24
8.525797129011385 49 58 22
9.378699692457518 43 48 31
8.560621517128112 48 58 20
9.695870807908008 52 60 26
10.144706496117475 54 61 27
9.622709327434407 54 61 27
9.391098272161887 55 62 29
9.154698369368933 53 60 26
16.90510907432691 31 35 3
17.115511024929685 42 46 14
19.236563617581158 29 32 1
17.566150440203355 49 52 21
18.15021291649258 50 49 21
8.893521600673482 37 43 12
9.898896847800966 35 40 7
10.520224892553093 45 51 15
9.55331438132535 32 40 9
10.684533120833866 31 36 4
10.183068895392084 53 60 26
11.739843918272587 39 44 11
9.902305943447864 48 53 20
9.897237699873813 38 44 8
9.82866098356755 43 50 16
10.324730083495025 54 59 28
10.512648068401658 51 56 24
9.039201417184408 32 36 24
10.394274417976703 64 67 62
9.144554684262683 37 40 31
8.630730555940103 28 38 11
8.836989184533529 41 47 22
8.264065428161688 45 52 18
8.191698716123371 47 54 18
8.276394826452494 39 45 17
9.168260887381331 51 58 29
9.707770845910185 48 55 21
9.598108573783966 47 54 20
10.27459894108862 53 60 28
10.363340177100397 51 56 25
9.2676018432586 50 55 24
17.456419772225562 51 55 16
17.09590043492536 48 51 18
8.015831522083369 52 59 22
8.964315632886679 51 58 22
9.590650786301017 56 63 31
9.299935443829728 53 60 26
8.497124616904802 53 60 32
9.98193104546169 50 56 35
8.970322753775875 51 60 27
8.61142004623174 48 58 20
8.628728960857554 49 59 21
8.812971421875407 51 60 29
8.85152889078213 50 59 24
9.528875991365789 33 37 22
9.158369179845542 38 43 26
9.738110083861757 55 62 29
9.622709327434407 54 61 27
10.175192316837013 54 61 31
9.813758370775206 52 57 31
10.01712024863238 51 58 31
10.033983091836022 54 61 27
9.301196316245298 55 62 28
10.373949130951868 55 62 30
8.900423470912028 46 52 24
10.235654110556064 57 64 30
9.617573512038858 64 68 62
9.262610415427115 44 50 16
11.056142607791736 51 58 24
9.94890744371305 53 60 29
16.046542425518496 54 57 19
8.889345851521316 51 60 24
8.649123328492628 51 58 23
9.239688819199195 54 62 29
10.265698581512128 56 63 30
9.669706734851696 45 51 27
9.94890744371305 53 60 29
10.265698581512128 56 63 30
9.498714201038075 53 58 31
10.375532048390454 54 61 31
16.694424996901045 45 38 13
13.346241187133087 53 58 26
9.432793852252225 36 41 9
8.722623889480118 38 47 16
10.276702303820215 53 58 27
7.725306432397236 32 40 16
9.534508878916355 53 58 27
10.01712024863238 51 58 31
9.654722566042095 49 56 22
9.564986987873693 54 62 30
16.046542425518496 54 57 19
8.933374245209167 47 56 19
8.42355712307907 52 61 30
8.216512948367106 53 60 26
15.939602524035548 14 15 2
8.165157716181701 35 43 11
13.393927178288136 52 59 27
10.373949130951868 55 62 30
9.741482301816848 54 61 31
8.980321793316136 50 57 23
8.453728315025176 50 57 21
17.495142668437705 46 46 15
10.042931507111303 37 44 10
17.332618670290348 48 48 16
10.095665870669606 38 44 8
