16.908298295603228 48 58 35
17.795672537201025 47 57 34
17.85825364525664 47 56 33
9.152254859022566 38 44 17
9.632779505922743 38 45 15
9.050663560459142 38 44 18
8.9060438372162 26 36 8
8.750456342321632 39 49 21
9.057179820545576 29 37 11
8.919623484987207 40 46 18
9.84230467607235 37 44 14
9.610155717371448 40 46 19
9.21838695108914 31 39 13
9.085334880036752 39 47 19
9.246051133360934 37 45 11
9.365104968133036 34 40 15
8.452677751052455 35 41 16
7.802795240936204 34 40 15
9.168710529008088 34 40 15
8.31190107391465 33 39 14
8.595528445694033 34 40 15
8.936507532262082 37 43 18
8.691594456349987 41 50 24
9.603724660175901 43 50 16
9.857873960788062 41 49 17
9.907119007136247 42 49 17
9.789535187137094 40 46 19
9.362536033768313 40 46 19
9.210564307845306 37 43 16
8.788838107086189 38 44 19
8.982413539179385 39 45 18
10.261688614108424 40 49 21
9.346421626663785 40 46 19
10.208102647137181 42 50 27
9.72006517973343 40 46 19
10.017789253852865 41 50 22
8.860989910186719 40 48 28
10.208102647137181 42 50 27
9.758690058594553 40 48 25
9.24696377755906 40 46 19
17.565020966521367 44 55 34
14.809785281226787 5 16 1
15.74055552303157 13 22 3
15.74055552303157 13 22 3
8.116903220022897 38 44 19
7.751658130605665 36 42 17
8.500948298300026 37 43 18
8.930639787391407 43 52 26
9.963001171921313 37 43 18
8.394653528343916 35 41 16
9.59462360647343 36 42 17
9.278145206147705 37 43 18
8.769638794215975 39 45 20
9.761586380715476 39 45 20
8.311961747086322 38 44 19
9.52378489312159 42 48 23
10.07335893984881 43 49 24
9.960628584960704 42 47 21
10.047670540181967 40 46 21
10.08483130935085 43 52 26
13.114274796881343 30 39 12
9.307418107607361 43 52 26
8.992179604347806 43 52 26
8.86571235227903 44 50 25
9.18529222759525 43 49 24
9.864874301512122 42 48 23
9.710881520848918 44 54 30
8.953858435447355 44 54 30
8.813732475603333 43 51 28
9.333688047087513 43 53 29
9.24395034303374 43 52 28
8.664214555129712 43 53 29
9.128365263332597 46 59 32
9.395382060306531 45 55 31
8.673259433668475 44 55 29
9.333688047087513 43 53 29
7.4918980001923305 46 59 32
9.147679049499455 39 48 22
9.427864137462922 40 49 23
9.815683925216998 42 52 28
14.426567434773299 50 60 32
14.537208746931775 50 60 32
9.049375667524126 47 60 33
9.780589847496238 47 60 33
15.361123305943886 27 37 13
14.448512692267125 25 35 11
15.811112722919816 31 41 15
13.755702590356863 25 33 9
8.965013393860831 27 36 8
8.828143465899613 38 48 20
8.456171853929224 40 50 22
8.715692363258954 41 51 23
8.257999490070322 39 49 23
8.982103475369884 41 51 23
8.335446365175676 35 45 19
8.33387655372569 41 54 27
8.318356802232223 40 50 24
7.966151635452066 45 55 31
7.474540272326592 45 57 33
8.331040023224565 44 58 33
8.4971546806423 42 55 31
8.585565615393923 40 52 28
9.153822003029385 40 52 26
8.30159786655814 42 54 31
8.131489244895482 46 60 36
8.997988535345655 38 51 24
9.270227919365782 41 54 27
8.752009055944885 40 49 23
9.391249341833305 42 55 29
8.9202573118783 41 51 21
9.465630820319515 42 53 23
8.344544122318725 42 56 30
9.089820616041095 39 52 21
8.597089586628977 39 52 25
12.05968871406963 37 42 15
11.5414396707355 35 40 15
7.189046075189694 48 61 34
7.876317140994081 47 63 39
7.328266256174642 46 60 35
6.923492509450642 46 60 35
7.376881169753869 47 61 34
8.011686063846858 48 62 35
6.670749292214456 48 62 37
7.317974066725511 50 62 38
7.920620669675311 47 59 35
7.420856903149194 47 59 35
7.7437813858803395 48 62 37
7.53402680845367 48 62 37
7.501861947959889 47 61 36
7.162723273411556 46 58 34
6.822610557741255 45 58 33
7.266386989406857 46 60 33
7.561903461891938 47 61 34
13.041864093589485 29 35 10
17.466194924437403 48 56 33
9.21838695108914 31 39 13
9.679542729452246 36 43 12
9.509764100073019 37 45 15
9.868219946745722 38 45 15
9.033114535092528 39 47 22
8.881882620221907 37 43 17
9.087703511842712 39 46 16
8.873392643137075 38 44 17
9.998392615569214 37 43 18
8.595528445694033 34 40 15
8.982122191271229 34 40 15
9.908490467171308 40 49 19
8.974018671069965 39 45 18
8.94645656507436 37 43 18
9.102838633383453 39 45 18
10.025310140575737 40 49 21
9.789535187137094 40 46 19
9.712307924388801 41 47 20
14.840778801595613 12 22 0
14.97584360743508 17 26 6
8.322596809838183 34 40 15
7.828971450681956 36 42 17
8.042358340773546 38 44 17
9.201918407266312 38 44 19
9.566599755148175 39 45 20
10.379354452687682 43 53 29
9.568020024627119 43 48 23
9.607036298759786 43 52 26
9.452780978825883 40 53 26
9.939056654241138 43 53 29
9.675093451273288 44 54 30
9.680343819718868 45 55 31
8.813732475603333 43 51 28
9.566873303494052 42 51 25
9.073063132332926 41 50 24
9.4552366042025 43 53 29
9.189959062103501 46 56 32
13.464889967445158 48 58 31
9.318656107523783 43 53 29
9.049375667524126 47 60 33
15.653917524331227 17 29 8
8.46662577401926 32 41 15
8.81046732702439 40 50 20
8.653454150385185 38 48 18
8.379840803646935 40 50 24
8.275274643053352 42 52 24
8.774796149481372 40 52 28
9.209730140909011 40 50 24
9.465630820319515 42 53 23
8.9202573118783 41 51 21
6.511318832808116 46 60 34
7.025989430036297 47 61 34
7.295194243962106 48 61 34
7.356418424235236 51 63 39
7.316532074082608 43 54 31
11.101181527076964 36 41 19
8.283164737609521 47 61 36
8.082432031366494 49 63 39
8.156610677448528 48 62 37
7.185629044709834 48 61 36
6.5774542411090735 46 59 31
7.053122114222453 49 63 36
7.217027809877134 46 60 33
12.408628924157467 23 27 8
8.170144501586154 50 64 38
8.675819440637984 35 41 16
8.731733559914032 35 41 16
9.033114535092528 39 47 22
9.18598221360087 38 47 19
8.745854210536923 40 49 25
9.873836871183192 37 43 18
9.174838110196202 40 53 26
8.116903220022897 38 44 19
8.619356025065592 39 45 20
9.027618096078433 41 47 22
9.382787854480801 43 49 24
8.801744836802436 37 43 18
9.05620039175559 43 53 27
9.279609624484538 40 46 21
9.335044762504095 42 52 28
9.049375667524126 47 60 33
9.68418831542442 43 53 29
8.943739133462854 38 51 24
8.787560957582299 36 46 18
8.471439130790026 41 54 27
7.474540272326592 45 57 33
8.752009055944885 40 49 23
9.728926721292032 40 53 26
9.012337998860646 40 53 26
10.251261964672985 47 62 37
9.742199632103922 41 55 28
13.157389218263694 32 41 15
7.576410928741017 48 62 37
7.229635807739448 49 63 38
6.951025292399042 45 59 34
7.3084640092159265 45 58 31
12.88260142758815 11 18 1
8.142007717040787 34 40 15
8.804353348042628 40 49 21
9.438851877742692 36 42 17
10.351401418783917 40 49 19
9.210564307845306 37 43 16
10.36595365092104 40 46 19
9.908490467171308 40 49 19
9.200441622961485 37 43 18
8.860274615730656 43 53 29
10.340624109190712 38 44 19
9.200441622961485 37 43 18
9.147679049499455 39 48 22
8.627098377062577 41 54 27
8.924769511703298 41 51 21
8.44043612068271 48 62 37
11.669539736767861 35 39 18
8.815351665932344 39 45 18
9.421406730932313 45 58 31
9.92635291126586 43 53 29
8.410624765227459 41 53 27
6.951025292399042 45 59 34
8.285671449251739 35 41 16
9.654266173213152 42 49 19
7.659253363143424 44 56 32
9.203551442715804 41 51 25
9.010670309193314 43 52 26
6.912597677306149 49 62 36
7.80013334997608 48 60 36
9.998392615569214 37 43 18
8.99631818565141 43 49 24
8.585565615393923 40 52 28
