11.299990615836599 20 29 17
9.907407966174132 21 30 20
8.903961025741879 37 43 20
10.777805671369588 33 43 21
10.269408088082432 26 36 8
10.269408088082432 26 36 8
10.354296361411661 32 40 18
9.172600735557054 46 50 29
8.842075178116787 41 50 24
8.68659027343781 41 47 22
8.644732945655388 40 46 23
10.14080876457695 29 38 12
9.857023768510063 29 38 12
10.423890469890251 25 35 9
10.707393879055244 32 40 18
11.412921198387279 31 39 15
10.367431610682846 34 42 18
9.581678004161773 35 43 20
10.348096950577574 33 42 17
9.604341736566893 36 44 19
9.908318826389289 38 47 21
8.772538571121153 43 53 26
9.834251680924893 39 48 22
8.95531635349827 42 51 27
8.772538571121153 43 53 26
9.11248710819531 40 49 23
8.388922435085899 43 53 27
8.464548230413886 43 53 25
15.613356230481404 30 39 12
15.508137723685495 23 32 6
15.629469531133036 20 28 5
8.300908655740555 35 41 18
7.801973173323418 35 41 21
9.925275841492224 27 36 4
10.441443119677078 29 38 20
9.965196517579278 32 38 15
10.394219227912115 27 34 21
10.479397669986419 29 37 18
10.148371066716157 34 40 18
10.0160471529651 29 37 16
10.139010570488264 26 35 21
11.095829077427393 35 42 18
11.130011900535328 35 44 18
11.19704156736745 33 40 17
11.130011900535328 35 44 18
8.901246032157408 34 40 20
10.077662295346455 29 38 22
9.407801977513842 31 39 19
9.164710738237888 36 40 21
9.407801977513842 31 39 19
9.082694972323818 38 45 24
11.129913910954572 36 46 23
10.587587142377684 35 43 24
10.21366826021006 33 42 26
11.129913910954572 36 46 23
11.440857653275131 33 42 17
8.810172376292991 38 46 23
8.685781983756105 38 45 22
9.074391449396524 43 49 26
10.579926447107685 43 53 30
11.687131232869245 47 57 36
11.779871182867906 46 57 34
9.870735463049606 41 49 27
10.917884039606067 49 59 38
11.687131232869245 47 57 36
11.212173107566057 47 55 33
11.779871182867906 46 57 34
10.186192369848248 39 49 26
11.63247520225994 49 61 40
9.430164024915028 35 45 21
11.566486297152034 49 61 40
11.63247520225994 49 61 40
11.663615314647387 44 56 33
9.430164024915028 35 45 21
9.429816356174054 49 51 29
10.135764292478232 50 53 31
8.855394483955202 46 50 28
9.28602674710628 47 51 29
9.089643095554806 50 55 30
9.441093448129287 50 55 30
8.776999711750891 44 50 27
9.766809225237333 50 55 30
10.267660958361999 49 54 28
9.958340454613907 50 55 28
9.625794030533653 52 57 32
11.32174684953876 48 56 35
10.457123422160024 43 51 29
10.153576380784086 48 54 31
10.66867171663376 48 54 31
10.308025175300276 51 55 33
11.005880811371103 46 54 32
9.484458797276591 32 40 17
9.604455983385982 31 39 16
9.92653971917507 29 39 15
9.886462951536068 29 38 12
9.57642159569038 29 38 12
10.432008764179685 30 40 16
9.898952358251224 33 41 18
10.39343816571868 33 41 17
10.607873582830877 35 43 20
10.236371373450284 35 43 19
11.362579551688258 34 43 17
11.162651522991327 33 41 18
9.962551120381056 36 46 22
10.76260456141211 36 44 21
10.643623628252552 36 46 22
12.182564962455636 36 44 18
11.40720268097706 36 45 19
12.616442884388077 39 47 24
10.01009824008084 35 43 20
10.365438957685038 34 42 19
9.520341043964377 36 44 22
9.45256295310644 44 56 32
9.584662827401957 42 52 26
8.397773881481044 42 52 28
8.820270023508382 41 51 25
9.348616773831706 38 46 24
8.905989404257687 44 54 30
9.348616773831706 38 46 24
9.331222878632568 38 46 23
10.571463941711636 38 48 23
10.571463941711636 38 48 23
13.254359890229708 43 51 28
13.624776994101621 45 55 32
13.337573433157626 45 55 32
12.977037372860368 47 57 34
13.138352558892487 45 57 34
13.39484001971874 46 56 32
14.094346635280647 45 57 35
10.64127211647052 51 63 42
9.155092016569679 48 61 34
8.813293986671576 52 57 33
8.551445368478277 53 56 30
8.555582818151365 47 54 30
8.802761692662612 49 58 32
8.470237916592405 48 58 34
9.612470742342262 52 57 32
8.39262021819611 48 57 31
9.23213390673776 46 56 32
8.72207994684378 50 55 28
8.74681962744473 45 56 32
8.72810157943884 50 57 33
8.72207994684378 50 55 28
9.648216711609212 50 60 36
9.51531148774135 47 59 35
9.26170769768566 49 59 35
9.540299064809082 46 58 34
7.872324429179383 46 56 29
8.489652997533355 44 57 31
7.858071827444405 43 56 29
8.213323126829602 40 53 25
7.858071827444405 43 56 29
8.029616162816259 39 52 23
7.837370584068601 42 54 25
9.115505920999182 45 57 33
8.901375046178815 40 53 24
8.646822134317294 44 57 30
9.672610448373623 46 56 30
9.425176391405198 46 59 32
9.279466963797935 46 60 36
8.61488465015585 44 53 25
19.581372914039548 4 4 2
19.99216051717655 4 4 2
10.906904633628232 49 54 29
10.112834663133109 49 54 29
19.81868650673345 3 3 0
20.559954684405266 0 0 0
18.115818490562752 3 3 2
18.23385575358588 6 6 4
18.873472649453422 5 6 0
9.901889066823834 50 55 30
9.58076667839344 50 55 30
9.555770788783166 49 54 27
9.220745051686452 49 54 27
10.378682933081837 31 40 10
10.485183701663281 32 42 19
11.165641394060225 15 25 21
10.742400656205005 32 40 17
9.787762716415491 48 53 28
8.68659027343781 41 47 22
8.683960005496177 44 50 28
9.606127175217436 37 46 21
8.766671867974635 41 50 23
10.256920860263161 26 36 9
10.42224512351243 26 34 10
9.753287571854024 29 38 12
15.733876666217112 23 32 6
15.508137723685495 23 32 6
9.85133618795455 30 39 14
10.2122026369206 28 37 9
9.670944083498535 33 39 17
10.137426570662818 31 37 13
11.817485596905925 37 45 23
10.792767440386186 17 26 15
10.492815767859415 31 39 17
10.323638773043719 30 38 20
11.721631664883848 40 47 22
11.341821145505374 36 43 16
8.031064672985863 41 47 24
8.234491849439591 36 44 21
8.022217291043528 33 41 18
8.06730519700367 36 44 21
8.10126702361014 36 42 19
8.07397941196756 43 49 26
11.683708663737317 48 60 38
11.978764876307006 49 59 36
9.391621300921209 37 45 22
11.535083978251789 49 61 40
10.221739473907528 40 50 26
11.687131232869245 47 57 36
9.212921824830516 51 56 31
10.341495384025407 52 57 30
9.778168554200843 50 55 30
10.289261257263979 48 53 28
8.185439806533616 44 50 28
10.51245451645312 50 54 32
11.221659181207098 48 58 37
10.200126177135372 48 54 31
12.670570123430934 48 60 39
12.670570123430934 48 60 39
11.304430502444584 40 50 24
10.437379927011913 31 39 16
9.649146051563633 39 49 25
9.89328820983286 35 43 20
9.604455983385982 31 39 16
11.90189678470944 35 44 18
9.197347682449845 43 53 29
9.933337440512272 37 45 23
12.253920683543711 36 45 19
11.570132067483884 36 44 20
9.884262326110433 34 42 19
10.864919048500584 38 48 22
11.162651522991327 33 41 18
10.44012010852052 36 46 23
11.02621149803764 35 45 21
11.785389475248667 33 41 17
12.917918752942676 45 57 36
13.188418140383682 43 51 28
13.120487111031489 45 55 32
13.60755019127203 44 55 31
9.753182355962764 50 62 39
9.597204066363252 48 60 36
11.555400828890985 49 61 40
9.11929366802927 52 57 30
8.72810157943884 50 57 33
8.91166841560154 52 57 31
9.23213390673776 46 56 32
8.090384064067548 48 57 31
8.773996075466805 49 59 35
9.171094684541455 52 57 32
8.246286880138898 47 61 34
9.648216711609212 50 60 36
8.489652997533355 44 57 31
9.277736214148632 45 58 31
8.64867914166156 43 56 28
8.63186160893757 40 53 24
9.155211142986042 41 53 28
8.91768432791251 43 55 27
8.213323126829602 40 53 25
9.279466963797935 46 60 36
8.61488465015585 44 53 25
11.077610779776874 49 54 29
18.061483291709614 3 3 0
10.617841157922822 48 53 28
10.31902291445312 49 54 29
19.47984764602567 5 5 3
19.368519539167682 4 4 2
9.673110787829991 49 54 28
9.54234973273828 49 54 27
10.441001497517973 33 42 16
9.352659948610818 40 50 24
10.237270304433235 30 37 13
10.242744235513259 25 35 9
10.610357461172049 32 40 17
8.577877273406429 40 50 22
10.355847189527037 19 28 16
9.473489117402233 23 32 19
10.829591468163658 30 39 21
11.022797702920263 28 37 19
10.360369660724777 31 39 19
10.479397669986419 29 37 18
10.821979563586567 31 39 17
8.872280754826095 40 46 24
10.231823387448959 52 57 32
11.590199286830078 51 61 40
10.267660958361999 49 54 28
9.671087846656118 50 56 33
9.212921824830516 51 56 31
8.702118575569383 45 49 28
11.779871182867906 46 57 34
9.916969170761359 36 44 20
9.838318339138633 29 39 15
10.024603874250145 35 43 20
8.077626448491527 45 55 29
10.462563443599654 40 50 26
10.19964537381848 28 37 9
10.571463941711636 38 48 23
13.254359890229708 43 51 28
13.188418140383682 43 51 28
12.909679156450249 46 56 33
13.39484001971874 46 56 32
9.753182355962764 50 62 39
8.872806218239841 49 59 33
9.4714544822425 52 56 34
9.075532747927024 50 55 30
9.566760817094702 49 59 33
9.099311493438051 47 59 35
7.837370584068601 42 54 25
7.790952110951469 43 55 29
8.472519811659671 43 57 30
18.10779565611049 7 7 6
19.573074618603744 5 5 3
10.556102014063997 17 27 20
8.718139986534688 39 45 22
10.751546758189523 30 37 15
10.467293788340415 50 56 33
10.893130243556866 43 51 29
11.663615314647387 44 56 33
10.457123422160024 43 51 29
11.590199286830078 51 61 40
9.35623583417919 47 52 30
9.759871410569463 39 47 25
10.633621911406948 35 44 18
10.07015519601384 34 42 19
11.196630341951789 34 43 17
9.870710951986068 39 47 24
8.905989404257687 44 54 30
9.389162772821779 41 52 26
12.772194089251046 46 58 37
13.120487111031489 45 55 32
20.35924673556603 1 1 0
9.901889066823834 50 55 30
9.062510290413647 41 49 26
8.766671867974635 41 50 23
10.242294695384478 32 40 17
10.587587142377684 35 43 24
11.508182683243787 46 54 32
11.523968302605219 49 61 40
8.872280754826095 40 46 24
9.76993007306264 29 38 12
8.13297869912209 33 39 19
9.600404557224625 35 43 21
10.113351267037498 32 41 15
9.208791024679062 45 57 31
9.86739439647215 48 50 28
8.06730519700367 36 44 21
9.328774368007231 43 53 29
10.21366826021006 33 42 26
10.308025175300276 51 55 33
11.630604944303764 50 62 41
9.926210106277548 39 46 24
