11.99978560105715 5 5 5
11.719252228461816 0 0 0
11.217660180108492 5 5 4
12.37329450297558 3 3 4
11.374870597479571 2 2 3
11.164013376489994 4 4 1
11.288688560878244 19 22 14
11.84218351522556 5 5 3
10.7599000982059 1 1 1
10.748577715068706 49 53 49
11.074706621884895 54 56 55
9.806515238180125 0 3 1
9.814616430182376 5 9 6
10.798255342680275 2 4 3
9.990146329842585 8 11 8
11.312275258120884 13 16 13
10.085143142197861 28 33 23
10.085143142197861 28 33 23
10.414537850407878 10 15 7
11.312275258120884 13 16 13
10.91642234257351 26 29 26
10.538317252843989 23 26 21
10.481844625521187 38 42 31
10.694343458454206 12 12 10
10.479611559522107 9 12 5
10.736644488365835 45 49 35
10.481844625521187 38 42 31
10.85069978236042 79 83 79
9.360609891868483 22 24 21
10.500540831159844 2 5 2
10.85069978236042 79 83 79
9.926351723652086 1 4 1
10.413379651152924 42 49 38
10.413379651152924 42 49 38
10.316022116193912 11 14 9
11.19700711538243 39 42 39
11.713838559028288 1 2 1
10.559511259476807 3 4 2
11.407040223000536 49 54 45
11.798691692524535 47 53 42
10.875638887168833 47 53 41
11.951753353807788 50 53 46
11.951753353807788 50 53 46
11.269576868063973 51 56 47
11.293807433904455 0 1 0
10.875638887168833 47 53 41
13.867232586262679 15 18 14
10.732742642200332 30 34 15
10.475229829630267 1 1 1
10.479214730387502 0 3 0
11.693260346471572 11 11 9
11.35876761723753 11 11 10
11.693260346471572 11 11 9
11.292990404867094 11 11 9
11.166109572521018 12 15 5
11.804066446042091 38 42 24
11.166109572521018 12 15 5
11.09429643904623 7 7 5
11.116584034653734 3 3 0
11.062447078001057 15 18 7
12.10268062098191 11 11 11
11.003109110496997 0 0 0
11.490285436250254 4 4 1
12.10268062098191 11 11 11
11.726748436991748 10 10 9
10.49779869394986 37 41 19
9.800246061387876 34 39 14
10.670881165656276 14 17 1
11.332455323921298 33 39 14
10.44045363826454 33 38 13
11.940833229872151 32 37 13
10.76636025621732 42 46 24
10.80341649297627 33 38 13
11.208266989798929 40 44 24
9.744193588325503 29 34 10
10.451725835420836 28 33 9
10.427631447633566 18 22 4
9.897189818876091 31 36 12
10.870148535365532 32 38 14
9.712573660765107 34 40 15
10.481930400878928 33 38 12
11.185632681699863 33 39 15
9.976712502710113 35 40 16
11.392425709517495 32 40 12
10.883815582873105 28 34 9
10.060314512029395 28 34 10
11.023298175898514 35 43 16
10.255400285413174 32 40 13
10.694575272538726 30 36 11
10.628237103817606 34 40 14
10.84566314210101 35 41 13
10.832319453371415 34 41 14
11.002267061285563 37 43 16
10.703177726408025 38 47 16
11.279494603041396 37 46 18
11.292309894440532 38 47 17
10.703177726408025 38 47 16
10.282513011475691 35 44 13
11.209218190809395 38 46 15
12.007716177901719 38 47 18
10.825818843957526 41 48 17
11.022142164489868 39 46 15
11.051626101798082 36 44 17
11.647970523100854 37 43 16
11.077769089398087 37 43 16
10.577761028975544 35 43 14
9.64462557274399 34 45 9
9.942828967828044 36 47 10
10.283462412554458 45 55 24
10.462329326606996 47 57 28
10.402473719040536 38 48 12
9.15678666620214 37 48 13
10.402473719040536 38 48 12
10.725642129366381 39 47 14
10.718229542806599 37 49 14
10.803772025424514 39 50 17
10.068260941468331 38 49 12
10.068260941468331 38 49 12
10.29751734363482 40 51 17
10.068260941468331 38 49 12
9.364175750987936 37 48 12
10.123590383329734 39 50 13
10.980097241026533 40 51 17
15.765281573803183 20 28 6
11.596361718195725 29 39 9
11.281617785286432 30 40 10
11.460818165656557 32 42 12
10.786347639592497 30 39 10
11.235352649663197 31 40 9
10.633018798732737 33 42 12
10.991752946516868 34 43 12
11.179337520274139 33 42 12
10.561367071471663 35 44 9
11.17468072749297 33 44 9
11.18179072941135 34 43 10
10.893102325890244 35 44 11
11.073192573564162 49 57 41
11.095522560624214 46 56 33
11.214232443706186 41 49 30
11.633547840291033 53 58 45
10.937490553338993 49 54 36
10.897059395466707 49 57 36
11.681465627920568 51 56 41
10.954150675856685 50 59 36
10.954150675856685 50 59 36
11.783597140790565 47 57 31
11.269965223167036 48 59 32
11.240913417261213 46 57 33
10.444616998459507 42 50 25
10.616131839353882 44 53 25
10.616131839353882 44 53 25
11.374147892809656 44 53 27
11.101393182407948 49 58 32
11.141082834557157 45 54 29
10.98989119161311 47 56 28
10.655054896266522 46 55 29
10.81974919559298 46 56 25
10.699226176295367 44 54 22
10.778876403386601 46 56 25
10.243127431527462 41 51 18
10.130764794746291 45 55 24
11.23869058484809 42 49 38
10.714625200352904 46 54 40
10.438493556973839 41 51 32
11.011897810624387 42 48 36
10.476493712770441 36 44 26
10.48206032862285 39 51 32
10.393870467147252 38 47 30
10.162679609673722 38 50 29
10.393870467147252 38 47 30
10.821411129639577 38 44 33
10.1704971070162 38 47 30
10.401514209132374 34 43 28
10.504782358417975 38 46 31
11.953567076634087 34 38 19
11.466529454878723 40 46 27
12.084003193345481 39 48 18
11.12671239984285 40 50 27
11.488094918727201 37 43 18
10.637828191398263 38 46 24
10.637828191398263 38 46 24
10.637828191398263 38 46 24
11.071331388998267 41 53 30
11.24346139629925 43 54 31
10.915093483391477 44 55 33
10.949509221427821 47 55 39
10.585400641689464 45 55 34
10.54979716895647 43 55 32
10.585400641689464 45 55 34
11.6674470213215 49 61 33
11.352612317625479 48 60 36
15.909802243619515 39 52 23
12.08181962455975 47 58 33
11.411740654136445 45 55 32
11.356949907269481 46 56 35
11.288688560878244 19 22 14
11.427527569660441 3 3 3
12.196201905113586 1 1 1
11.447122134507687 7 7 6
10.734464427928318 0 2 0
11.27481567238862 13 13 11
9.897574361762286 5 8 3
9.899938715048298 2 5 2
9.806515238180125 0 3 1
9.990146329842585 8 11 8
10.085143142197861 28 33 23
10.085143142197861 28 33 23
10.826591572444956 3 5 3
10.826591572444956 3 5 3
10.15232840285969 14 17 7
10.4122903495091 31 34 31
10.339109050911613 22 26 19
10.034511104014863 23 27 21
10.343364990560794 74 78 73
9.78911540527493 42 50 39
10.732705259998692 42 48 40
10.413379651152924 42 49 38
9.360609891868483 22 24 21
9.78911540527493 42 50 39
10.200764426101124 1 2 1
10.950561801985652 57 61 54
11.295075529272465 62 65 60
11.751251924424816 58 63 54
11.603389391044793 100 103 99
12.230980936507649 92 95 90
11.798691692524535 47 53 42
10.858058884882007 0 2 0
10.647482455298814 28 33 10
11.09429643904623 7 7 5
10.04086644616246 17 21 2
11.261702986696129 6 8 0
10.045023662075954 28 32 13
11.883912009622458 8 8 8
11.746482498663447 12 12 10
11.042472678418573 0 1 0
11.025802707799414 11 11 11
11.348089964635568 7 7 5
10.261205407981597 33 38 14
10.499696689090788 29 35 11
11.332455323921298 33 39 14
10.261205407981597 33 38 14
10.189409041439637 32 37 13
11.326257931169414 8 8 6
10.876140808117652 32 38 12
9.855274054989772 31 37 13
10.634365690160271 35 41 14
10.993055885199366 37 45 16
11.358091047797744 36 42 15
10.993055885199366 37 45 16
11.67542536724617 39 48 17
11.635546959854825 36 44 16
9.702371169068769 35 46 12
9.702371169068769 35 46 12
10.503719707536918 39 50 14
10.908579777013255 42 53 20
9.962590534912412 36 46 10
10.095652293105656 38 49 13
10.29751734363482 40 51 17
10.908579777013255 42 53 20
10.095652293105656 38 49 13
9.970564914851776 36 45 12
9.83087161976969 39 50 14
16.021955487899877 25 31 11
11.138859663688512 32 41 8
10.782476247140448 31 40 11
10.435618535537648 34 43 12
11.277916406468727 33 42 11
11.391965684036489 36 44 13
10.655054896266522 46 55 29
11.335274330666014 47 57 30
10.865002234399768 42 50 25
10.789485204517575 44 53 25
10.971836037935377 51 56 40
11.471950488709641 47 57 31
11.64921253893721 50 58 38
10.897059395466707 49 57 36
10.931531910363113 54 59 45
11.03916243798771 50 58 38
11.673030013344292 48 58 29
11.451743353240463 47 57 28
10.17424156694352 43 52 20
10.714625200352904 46 54 40
10.934151984630326 43 52 38
10.721193230314453 40 49 38
10.975751483014724 35 43 29
10.344294759661521 36 44 23
11.948875244797796 37 46 18
10.585400641689464 45 55 34
10.972090927084832 44 56 32
11.6674470213215 49 61 33
10.949509221427821 47 55 39
11.105262948889418 42 54 33
15.841807121541839 46 59 29
16.192910993307407 46 59 27
11.778066559472098 46 58 33
11.39003062485725 46 54 38
10.48315984433431 63 67 64
10.4122903495091 31 34 31
12.487916005332535 2 2 0
10.889203133261274 11 12 8
10.252637724732578 43 47 31
10.234169307359322 32 38 31
11.667911876096898 4 4 6
11.45770749754406 10 10 8
10.732705259998692 42 48 40
11.760211426376369 1 1 1
10.663444139163591 6 9 4
11.751105101288754 31 35 19
9.800246061387876 34 39 14
11.005917580671404 4 6 0
11.062447078001057 15 18 7
9.943128647702853 31 37 13
10.146736611228913 39 43 21
10.275290783079102 33 39 13
11.04163363112397 35 41 15
10.300079183134788 36 42 15
9.64462557274399 34 45 9
10.573663836476316 37 43 16
9.671030603841745 38 49 12
9.909481217369896 40 51 17
10.633018798732737 33 42 12
11.101393182407948 49 58 32
11.603525560687272 46 51 31
11.120274481304222 46 55 26
11.158471926766236 48 53 38
10.214848558565679 47 57 27
10.616131839353882 44 53 25
10.252858249967723 40 52 31
10.162679609673722 38 50 29
11.85206108589431 36 45 17
11.433670071356946 37 43 20
11.50028128417408 43 55 33
11.2768750373953 43 53 32
12.024663911405682 46 58 34
11.694079559213245 48 61 35
16.259437905171346 43 56 23
15.909802243619515 39 52 23
11.39003062485725 46 54 38
9.846706340683811 36 41 26
11.196788834759468 48 55 42
10.808619003971408 55 58 51
11.565286387468335 78 82 75
11.940833229872151 32 37 13
11.060331235477358 0 0 0
11.50083107185938 11 11 11
10.415999312151232 37 41 19
10.900876764640199 34 41 12
11.303720105406086 12 12 10
10.718229542806599 37 49 14
10.186424331841996 37 49 14
10.410111143992454 39 47 14
10.411486872110537 40 47 17
11.495938541554079 40 48 16
11.143531425816203 32 41 12
10.863670562162977 34 43 13
10.331659095436226 34 44 11
10.714511654409161 43 50 28
11.240913417261213 46 57 33
10.130764794746291 45 55 24
11.650577569910347 47 56 29
10.700906828520486 40 48 32
10.276087093771235 37 45 27
11.022060593143323 40 52 31
16.259437905171346 43 56 23
11.948875244797796 37 46 18
10.775082514389771 66 70 67
9.882703368150038 40 48 36
10.80341649297627 33 38 13
11.040050191529462 0 1 0
10.323963633671093 33 44 8
12.033321882690052 13 11 12
12.007716177901719 38 47 18
10.99437188589789 43 50 29
12.005635319158774 29 33 11
11.248463742321844 0 0 0
11.862548543818555 0 2 0
10.897059395466707 49 57 36
10.79536242957285 32 40 13
10.414537850407878 10 15 7
11.418936190260485 31 41 11
11.158147245716444 29 37 10
11.553152743658877 45 56 33
10.44045363826454 33 38 13
11.292309894440532 38 47 17
11.57306513855391 36 45 14
11.427451960123527 34 41 14
11.275857231652381 14 18 6
11.628578521157603 38 44 17
10.663706399650271 42 51 33
