8.034021280734178 38 46 27
11.316724968133261 39 44 30
11.372175767202686 36 43 26
8.034021280734178 38 46 27
8.561251417842909 39 45 25
7.960941997054641 38 47 27
7.892404082356505 40 50 27
11.297842531641525 39 44 31
8.876990125001925 43 49 28
11.047758725295965 40 45 30
12.131305052203913 35 39 22
11.206533213273008 31 36 21
18.021942699470408 47 60 45
8.635828457490932 42 47 34
8.953535958749777 40 45 31
7.962953766561055 42 47 32
10.348097446198302 28 36 18
10.614318075007084 28 35 17
9.282965675937518 34 40 22
10.140397675432842 34 40 22
11.059589775413148 33 40 22
9.717453755008362 29 37 17
9.478289535967017 28 36 17
9.949835546903996 33 39 21
9.695851428427128 32 39 19
9.469234928604914 29 37 17
9.35855313536926 37 43 26
11.078808418191677 29 34 17
11.542773336385029 33 38 21
11.860305414848467 37 42 25
11.974315928755399 44 51 31
11.617504791093586 41 46 32
11.827404950614506 37 44 31
12.591788690272189 42 47 32
11.411193693160412 46 54 33
11.681744376029942 45 53 34
11.720842314171254 43 48 33
11.23863338775735 37 42 28
11.356943275154153 31 36 19
11.473434433583403 34 41 27
11.556040038532622 47 54 37
10.619913662139739 52 64 42
10.030884775173153 48 60 39
10.963543077591606 48 61 40
11.998074360277736 48 57 37
12.036398076230782 49 58 38
12.036398076230782 49 58 38
11.556040038532622 47 54 37
12.289784191270154 51 60 40
12.657317880452206 50 59 39
11.994577733675017 51 61 40
11.816178944357997 51 61 41
12.11573296602028 50 59 40
8.859019049661896 45 52 36
8.859019049661896 45 52 36
9.155472755440007 41 46 33
10.326478976889211 50 60 40
8.994106153746312 46 53 34
10.354794983091685 46 55 37
9.603355719619572 49 58 39
9.19618875247792 43 49 33
9.839209935725316 44 52 36
8.764570596172103 45 50 36
12.481426267201636 52 62 44
12.47149515894176 53 62 44
13.339787047853976 54 64 46
12.686800310654075 51 60 41
10.437238575803894 30 37 20
10.693580303675352 30 38 18
9.648430977663768 36 41 25
8.760656113655001 38 43 29
8.986475455801878 35 40 25
9.946538462380696 40 46 30
9.596209495963613 40 48 31
10.311405315177279 48 60 39
9.995666690685585 45 53 33
9.95439092190534 42 50 32
9.543823906314126 40 47 32
8.553409993932576 40 45 31
9.246834448249128 38 43 29
9.543823906314126 40 47 32
9.473214353996788 44 55 34
9.050727832385178 40 48 31
10.400679410632353 48 58 37
10.456721888889131 46 55 36
10.587377416612702 44 52 32
9.754529985789498 46 57 37
9.58686751342183 42 50 32
9.745732032492784 50 61 42
10.73403267356823 50 62 43
10.123799587951073 44 53 34
9.096232734803564 41 48 32
10.459016198081962 50 62 43
9.19606251971848 47 56 37
10.098347929907481 49 58 39
9.47293335379239 44 52 34
10.351112566883236 46 55 37
10.475406656581974 48 60 40
9.227847904484385 44 52 35
10.788343612253534 50 62 43
9.940207767176972 50 60 40
9.936488534170564 44 52 35
10.531051470749883 48 57 39
10.325518329023588 39 47 26
9.180502333020197 41 51 28
10.481847287926154 37 45 26
8.121098526773023 40 50 27
9.91782207581586 42 50 30
9.846140569006511 44 52 30
8.121098526773023 40 50 27
8.187722306162177 38 48 27
9.194404756518027 37 46 27
8.677226071903263 40 48 28
9.654115176686464 39 47 27
9.337829930198911 44 54 31
9.79929422695825 45 55 32
9.739742848712915 50 60 36
9.705431883042476 52 64 42
10.337693873898223 54 60 38
9.892417744078802 48 56 34
10.802608584778136 54 60 38
10.57267039820887 56 62 40
9.22110781208996 47 57 34
10.30111949541538 50 57 35
10.536911671716533 55 63 43
10.236146609612081 54 62 42
9.913782178629228 56 66 44
9.989367185019281 56 66 45
10.453981969613094 57 63 43
10.7140150593897 57 62 44
10.175443311868866 56 65 45
10.979176131602319 57 62 44
10.010640674987377 56 66 45
10.462475750198141 55 63 43
10.195730564489857 55 61 41
10.269240547163468 55 61 41
10.658971138551832 52 64 41
10.389564357446142 51 62 39
9.871546343372392 55 65 43
9.658023244063415 44 56 32
10.15440534922339 49 61 39
10.4177088949174 46 57 33
10.199359827121345 43 56 29
9.683962552540853 46 59 33
10.26846287432403 48 60 36
10.211685793762337 55 65 43
9.76519250316246 45 57 33
10.29682568457223 55 63 43
10.592306411239075 53 66 45
10.635300949747789 58 68 47
9.726739264706993 47 57 34
10.06355261715458 55 65 44
10.31310323770099 58 68 47
9.364532227336962 55 65 44
9.658178666271258 54 66 45
9.709673177503351 57 67 46
10.31310323770099 58 68 47
9.48841098655854 58 68 47
10.485663781825794 56 69 48
11.410286298114785 60 70 49
11.027753353600659 56 68 48
10.600292250662552 59 69 48
10.77582412789729 59 69 48
10.473840498184513 57 70 49
10.357957621760898 57 67 46
10.733392495070865 55 67 46
11.016511873717894 57 69 50
11.219580855981139 50 63 44
11.345047118680343 52 65 46
10.733392495070865 55 67 46
10.305744824559396 57 67 46
10.632002442160717 57 67 46
10.733392495070865 55 67 46
10.446504998499302 54 66 45
10.713554241551769 55 68 47
10.584995884071033 57 67 46
10.022783373545295 58 68 47
10.701982728568977 56 69 50
11.410655218590838 55 68 49
11.573903505450144 53 66 47
11.457834098241092 57 70 51
11.46864300546928 57 70 50
10.142343910507147 56 68 47
9.939360755573205 58 68 47
10.055592979187486 59 69 48
9.744868117318946 56 66 45
10.457956671125855 56 68 47
11.09942770329332 59 69 48
11.031451204116422 58 68 47
10.11757986194609 56 68 47
10.191392351553944 57 69 48
10.276997027304668 57 69 48
9.684432368174168 58 68 47
10.203803805384238 56 68 47
9.680494952437446 56 66 45
9.812704749113998 57 68 47
17.970666177471642 42 43 17
17.560182382794228 23 25 1
10.487481997897474 50 62 39
10.61736254650103 55 65 43
10.487481997897474 50 62 39
10.367118298132365 56 66 45
10.011327070258892 55 65 44
10.38302928576746 55 65 44
9.965218482951608 55 65 44
10.419023539311771 55 63 43
12.247146709646374 47 57 33
10.420453885764127 49 59 36
10.628416070164867 57 67 46
10.869105413544325 55 65 44
10.861210342140879 56 66 45
10.873244375268035 51 63 41
10.546316006483437 52 64 43
9.72838588520795 50 63 42
10.302044875623485 53 65 44
10.515000911171649 49 61 40
10.772923505241621 53 65 44
10.446759811302705 56 66 45
10.903286500848617 52 65 46
10.546316006483437 52 64 43
10.064841234623696 54 66 45
9.9491013021546 49 60 39
10.652601341647513 55 65 44
10.090377409280242 47 60 39
9.585590483568417 56 66 45
10.818724499749953 55 66 45
10.733888493737972 56 66 45
18.051714184221687 25 27 4
7.966112141943455 40 50 28
11.880859366461731 39 44 30
8.629203483621131 40 48 30
11.105790223847553 31 36 21
9.455736586486495 38 43 28
8.855578010763459 36 41 25
10.62598505370233 30 35 18
10.95784474302993 33 37 19
11.168775408925798 34 39 21
9.95845318334855 33 39 19
10.761991165220659 36 41 24
8.185163755588764 40 45 32
9.695851428427128 32 39 19
10.053629950421241 30 38 18
11.685661752271347 37 44 31
12.133438306726728 40 46 31
12.374275284378285 48 56 37
11.773999680881976 48 56 36
9.503191891557373 47 55 35
9.068318937829059 43 48 35
8.741050895212753 43 48 34
10.830314178582402 50 62 43
11.182481613788587 50 62 43
9.200333436390991 44 50 35
8.994106153746312 46 53 34
9.507803383363102 44 51 35
12.02261099511364 50 59 41
12.414567285113213 53 65 47
12.02261099511364 50 59 41
13.339787047853976 54 64 46
9.639019174977923 45 53 34
10.681054020357347 47 56 38
9.588063696488948 36 41 25
9.713136163729231 32 38 21
9.535633356638673 32 38 22
10.251709330746765 40 48 31
10.512101956525422 46 54 34
9.802799715715457 37 45 29
9.214825682573842 41 47 32
9.513094326926815 42 50 32
9.940207767176972 50 60 40
9.940207767176972 50 60 40
9.745732032492784 50 61 42
9.966063296918048 44 55 35
9.881236258476166 50 62 43
10.371238220494764 49 61 42
9.47079785471443 44 53 31
8.187722306162177 38 48 27
9.862892042715954 44 54 32
8.01297054915635 38 47 25
8.800597908404328 40 50 28
9.624567485466839 55 65 44
10.195730564489857 55 61 41
10.619804404107628 43 51 29
10.771683689806592 54 60 38
10.450334504283727 55 61 41
10.465827687530448 57 63 41
10.722018517393998 56 62 42
10.026509225517607 54 64 42
10.454273596428095 57 65 45
9.773893740485414 54 65 44
9.988834216983639 55 66 45
9.683962552540853 46 59 33
9.858677377685492 53 63 40
9.934374761460498 50 61 37
10.084405652959031 54 64 41
10.059614373419992 44 54 28
10.592306411239075 53 66 45
10.014032577096897 48 60 37
9.024779979187821 57 67 46
9.709673177503351 57 67 46
10.465318984260442 51 61 38
9.748193735977736 57 67 46
11.132866918852702 58 68 47
9.87563796995923 54 66 45
10.868615585619986 51 64 45
10.783534863786803 56 69 50
11.095752507139123 57 69 50
11.695569327512441 55 68 49
11.573903505450144 53 66 47
11.46864300546928 57 70 50
10.142343910507147 56 68 47
10.276997027304668 57 69 48
10.06790744530202 58 68 47
11.26718621380476 59 69 48
10.7294476824794 56 68 47
11.009241292816007 54 59 37
18.07476231373569 34 36 10
18.21697800352332 38 41 15
10.715333788426857 49 61 38
9.75366684988009 55 65 44
10.923723793173986 49 59 38
10.648771934036304 51 63 42
10.454967859805206 55 65 44
10.306003117616024 56 66 45
11.059340617109552 55 65 44
10.772676407393337 51 64 45
10.648771934036304 51 63 42
10.632648725228263 51 64 43
10.903286500848617 52 65 46
10.903286500848617 52 65 46
9.923201576961075 51 64 44
10.628416070164867 57 67 46
10.302044875623485 53 65 44
10.8574545108546 53 65 44
10.411228638706868 50 62 41
10.648771934036304 51 63 42
10.180163788200767 55 65 44
8.696669087677211 42 49 28
10.91510550263367 39 44 32
8.696669087677211 42 49 28
11.943747383024187 39 44 31
11.683380484558022 32 37 22
17.09645287557774 43 56 41
10.108466615498262 30 38 18
8.636271112188352 37 42 27
8.943950121177709 40 45 31
10.182045752653055 29 36 19
12.232418081709294 42 50 32
11.844797796856028 42 48 33
12.029586935177383 45 51 34
11.628756198285023 33 38 21
10.433909120597312 46 57 34
11.649290887889734 50 60 39
10.377743448267665 47 58 34
11.337419359441965 49 60 39
10.519320444848766 30 38 18
8.43003605563866 44 49 36
8.543375218834482 44 49 34
9.19618875247792 43 49 33
9.43300665502714 44 52 35
11.710100961004684 50 59 41
12.686800310654075 51 60 41
12.414567285113213 53 65 47
9.460248502936798 40 48 31
9.051150196075662 39 45 30
10.626194734097927 49 59 38
9.874291144618756 44 52 32
10.959023959176724 43 51 33
9.29494504943738 49 57 39
10.427438932214981 49 58 40
9.568955216264825 46 54 36
9.355858869519235 41 50 31
9.901276024898168 56 66 45
10.635587656284727 53 59 37
10.13015816590983 52 58 37
9.858638146351057 51 61 37
10.55715513845121 55 69 48
10.956131342514212 55 67 48
9.431062290993788 55 65 44
9.87563796995923 54 66 45
10.203803805384238 56 68 47
10.15440534922339 49 61 39
10.373808093589812 56 66 45
11.534043179160248 56 69 50
10.675231436594224 54 66 45
10.212245004399566 57 67 46
9.527826139790355 57 67 46
9.84195802837288 52 64 42
9.976994543932372 57 67 46
9.930268388124876 47 59 34
11.027753353600659 56 68 48
11.020213496331115 59 69 48
10.77582412789729 59 69 48
9.795012710605116 51 61 37
18.27648352324273 26 27 3
10.35162688252648 51 61 40
9.728619751346654 55 65 44
9.838895348402483 54 63 43
10.632648725228263 51 64 43
11.036046742457984 57 67 46
10.834570807859025 55 65 44
17.805567354821296 46 59 44
11.51357182478601 37 42 29
11.68624976510789 31 36 19
10.910104323762697 49 61 38
11.394480980908005 32 37 23
11.234624849167911 49 61 42
11.873184702473905 36 43 29
9.6833387129351 32 39 22
8.793883381010701 39 44 29
10.375944224783577 42 50 32
9.995666690685585 45 53 33
9.237139131939466 42 50 33
9.907245690874719 47 59 38
7.944881480574541 41 51 28
9.475629315589217 37 46 27
10.192289800730643 55 63 43
10.53745362300174 57 63 43
10.453981969613094 57 63 43
10.170834780692775 54 61 39
10.183570669445439 55 61 41
10.101552570234002 57 67 46
10.06862834986743 55 67 46
10.990526182400378 57 67 46
9.744868117318946 56 66 45
10.713554241551769 55 68 47
10.52909379422669 59 67 47
11.263565755816447 56 68 48
12.481426267201636 52 62 44
9.10607807655037 37 42 26
9.966063296918048 44 55 35
10.802120959308654 40 48 31
9.976460969789404 47 55 33
10.998086392148425 53 66 47
9.645657177896794 57 68 47
10.00542415512945 45 57 33
9.536545992821745 54 64 41
9.680494952437446 56 66 45
9.84195802837288 52 64 42
10.20354292524883 56 68 47
10.171733989840849 57 67 46
10.873244375268035 51 63 41
9.868806489964795 46 55 37
10.129818973058713 55 67 46
10.485663781825794 56 69 48
10.358214612836186 55 67 46
11.186919759685086 39 44 33
10.317577813833067 36 44 24
7.966112141943455 40 50 28
9.915631886193022 44 53 34
10.193001908302781 54 64 43
