18.389432136297764 43 54 21
18.089705602191327 46 57 24
17.665823406125835 46 57 25
17.126141446632392 48 59 26
18.70743668567047 46 57 24
14.12918727209471 45 55 29
14.322816902254921 44 54 28
9.073910466949277 23 32 6
9.129849574522238 16 25 1
9.193999407210187 14 22 3
9.471277471711968 17 25 7
10.097800145606387 29 38 11
9.21014115617212 25 34 7
15.426469821337133 52 60 28
11.090010683094768 28 37 9
11.563774999125009 25 33 10
11.266955953762535 19 25 3
12.069112608218118 50 55 30
12.28165098821111 49 55 30
11.749828225541656 42 49 19
12.412185755533283 49 55 31
11.90498534357118 48 54 29
11.561123961350885 48 54 27
11.716734509383226 47 52 27
11.42372005508189 31 37 10
12.069112608218118 50 55 30
11.716734509383226 47 52 27
11.229537114986815 46 52 23
9.501604205091164 4 13 0
8.940332140220034 15 25 4
9.716632720603814 18 24 4
9.407705581144572 22 31 6
9.328077923636714 2 11 0
10.741040384321895 43 49 24
10.422926328934755 43 52 25
10.366384201447675 43 52 26
10.075209863783632 50 56 31
9.776050264802755 39 45 22
10.631039687861161 50 56 31
9.860031190984909 44 50 27
10.248720375657397 41 47 22
10.949496124742945 51 57 32
12.26930885138732 54 59 33
10.307395843689886 50 56 31
10.267321019861653 46 52 27
10.94310559777761 50 56 30
11.300775178587555 49 55 28
11.33719752807559 52 58 32
11.548011774510185 52 58 33
12.137237554612451 54 59 34
10.853547462068368 49 55 28
11.266362495083186 51 56 29
12.086733687124012 53 59 34
10.722637938387553 50 56 29
11.891362761747912 54 60 35
12.41519486801224 54 60 35
13.071710633652735 53 60 34
12.544340072094421 53 60 36
12.968615808866284 54 61 38
13.071710633652735 53 60 34
9.49494500293414 42 51 23
9.007534541568615 35 45 15
9.615147197291273 39 49 19
10.200232509154775 44 51 20
9.847766689070504 42 52 22
9.726093623644019 24 33 7
10.041176769050004 50 56 31
10.552730468880762 49 53 31
10.469089104295229 48 56 31
11.064644360633364 49 55 30
10.904916495860919 50 56 31
11.321865946144523 48 53 28
11.422534185309086 50 56 31
10.601052510961573 50 56 31
10.365357029048948 43 52 23
10.1946787734611 44 53 25
10.03630463613328 46 55 27
9.576487281779166 45 54 26
9.850100799794113 45 54 26
10.120391506679084 44 53 25
10.643470138280527 44 53 25
10.493235189306104 44 53 25
10.251325897019354 45 54 26
9.183056934880486 46 56 27
9.478274405969302 46 56 26
10.275238761279638 45 54 26
12.22593951859766 53 62 34
11.992686971865925 48 57 27
12.655363290098844 49 58 28
12.480358325159084 53 61 33
12.366681679850299 52 59 29
11.847502781043168 51 61 33
12.19790860026564 55 67 41
12.291245707103661 54 63 37
9.884699891916934 57 66 38
10.330808005400879 57 66 38
9.808065094995369 57 66 38
9.123871749277788 51 60 32
9.096932820619564 50 59 31
9.751300730778647 54 63 35
10.005306993454845 53 62 34
10.276931403822473 51 61 33
9.107577102634655 49 59 29
9.107577102634655 49 59 29
9.38801154300989 47 56 28
9.442089960537297 46 55 27
15.708295685186043 56 64 41
15.810564745348941 58 66 43
15.99025361759191 59 69 45
15.99025361759191 59 69 45
11.509801420534707 43 51 22
10.49850476545644 39 48 20
11.114759166012824 39 49 20
11.88010606194826 38 48 18
11.915084221146673 49 56 25
10.367735477490108 41 52 20
12.049590708013897 49 55 30
11.137418590781166 38 47 19
10.87504182509523 42 50 20
10.116678277334225 35 45 17
11.548555999547668 51 57 30
10.696469111028822 39 49 23
10.409924065810216 38 48 18
11.650481554482983 45 54 26
12.412388958237129 47 56 28
11.826339142275721 47 54 28
11.922585471284428 46 51 24
11.922585471284428 46 51 24
11.163312840982192 43 49 22
10.96618811109898 40 49 23
12.021244370601233 45 54 26
10.093347814354305 38 48 18
12.769381701685822 48 54 29
13.36466207863872 51 57 32
12.600450874131012 51 57 32
12.855435083488729 51 57 32
12.944031752037407 49 55 30
12.136342277811853 47 56 28
13.52106854574179 54 59 36
13.278872153321009 53 59 34
13.968139938114012 54 60 37
14.198583812660317 55 61 38
14.198583812660317 55 61 38
13.806450824753327 55 61 38
14.067179144984943 54 60 35
14.067179144984943 54 60 35
14.171209776119186 56 62 39
14.214309366002007 56 64 42
13.321685829062215 50 57 33
12.761186751907463 53 59 34
13.657728500987576 54 59 35
13.50573843778687 54 63 37
14.851985732350652 55 61 38
13.690404111684723 57 67 44
14.467689361925764 56 62 39
14.509908328684103 55 63 41
11.122696649756286 40 50 20
11.369760955946033 43 52 24
11.820413045353183 55 61 35
11.767727930245107 50 57 27
12.436851280495112 55 63 40
11.976976815515195 48 57 29
11.637380888779914 42 52 23
11.84099326986683 48 57 31
11.715631285024054 49 56 30
12.530165883668248 53 59 34
11.748728108735769 47 56 26
11.430312252260496 47 53 28
12.436851280495112 55 63 40
11.813762940213868 56 65 39
13.182774546306073 56 63 38
13.21219665707027 54 63 37
10.347480029362277 45 54 26
10.56225316456934 45 54 28
11.410925055491514 45 54 28
10.911144690843173 46 55 27
11.649081387564607 46 56 30
10.60953483947865 45 54 26
9.975737302099954 45 54 26
11.646282681324076 50 60 32
12.068993375240192 52 59 35
11.808396777531295 53 60 30
12.075427700167033 49 56 32
11.772533708098901 50 57 33
11.772533708098901 50 57 33
12.379891962839492 52 60 30
13.257170662173047 50 56 31
11.977453437574928 53 62 36
11.799873906669314 51 61 35
12.044107055704117 51 61 35
11.008509214295131 57 66 40
11.726932860745794 59 68 42
12.113808589955347 59 68 42
12.174131144050529 55 64 36
12.061381091455013 56 65 37
11.247009199093808 55 64 34
11.93174919564295 55 64 36
11.920416932493888 58 67 39
11.820263117128027 55 64 36
12.784086723195266 51 60 32
13.041506510206803 53 63 35
11.968975056459255 49 59 31
11.283685602804558 46 56 27
11.999685978641061 50 59 32
11.015645458910065 56 65 37
11.202750315506949 53 62 34
11.504229621268765 51 60 33
11.944914331132578 54 60 33
11.428555884151477 53 62 34
11.426628947771182 56 65 38
10.873553692828466 55 64 38
11.953333786873541 50 59 33
11.907613251348012 54 63 35
12.413927374286068 50 59 31
13.796835154785017 48 54 31
15.904579701321207 58 66 43
15.802919073451024 56 66 42
18.28517770598729 46 57 24
18.244393998781845 46 57 24
14.91318518732803 40 48 26
9.046822768674524 21 30 3
9.21014115617212 25 34 7
11.870141362970113 34 41 10
11.867394789763209 45 51 24
11.070023504221265 41 50 19
11.630906055129316 41 47 21
12.201921298856421 51 57 33
12.23174340650549 50 55 28
12.018322466809298 50 55 28
12.414116465424447 52 59 29
9.116194964119005 9 19 1
10.072534652041831 7 16 5
9.993037450747282 44 50 25
9.914822946436441 39 48 20
10.592189419154876 45 51 26
11.302895736236783 52 58 32
12.02031643940675 52 57 30
11.33719752807559 52 58 32
10.94310559777761 50 56 30
10.996682771203734 45 51 25
10.538829974534087 50 56 31
10.94310559777761 50 56 30
12.968615808866284 54 61 38
10.469089104295229 48 56 31
10.12361890866911 43 52 25
8.923369737490182 37 47 17
10.200232509154775 44 51 20
10.382824130071223 41 51 23
10.275238761279638 45 54 26
9.825153271664556 45 54 26
10.365357029048948 43 52 23
9.478274405969302 46 56 26
11.136859653762674 53 62 34
12.581658287603847 54 64 37
12.750838093160398 53 60 34
9.658242069841375 52 62 34
10.06063829977297 57 66 38
10.330808005400879 57 66 38
8.799932365355938 48 58 29
9.123871749277788 51 60 32
9.38801154300989 47 56 28
15.723911799792006 56 64 41
11.405701436279006 39 48 18
12.099927961109325 41 51 19
11.029374809407475 39 49 19
12.049590708013897 49 55 30
10.314800616315626 39 48 20
12.16858978948738 39 48 18
11.89631974728931 45 54 24
10.400512964419233 34 44 16
9.909087223952621 35 46 18
11.446732401660034 38 48 18
11.502400361457935 44 50 23
10.321031383108949 35 48 19
12.261857382245427 45 54 26
10.609977436280383 38 48 20
12.600450874131012 51 57 32
12.30525826388776 50 56 31
12.944031752037407 49 55 30
12.66957378990974 55 63 40
13.968139938114012 54 60 37
13.90664158388701 53 59 34
13.343264175316488 54 59 35
13.14118402435159 50 59 31
12.94698741342642 48 57 30
14.62056236744855 56 64 42
13.940313395486205 56 62 39
12.921937330517942 52 57 34
13.278872153321009 53 59 34
13.968139938114012 54 60 37
11.25951701188035 43 50 20
10.770335536762977 41 51 22
11.808155057021736 50 59 33
12.362541790762045 53 61 38
11.983536347613487 44 53 25
11.469335426201559 54 60 33
11.859845280791163 54 60 33
11.274497524952931 45 54 26
11.683268392411401 55 61 36
13.307336907418563 51 57 30
12.264421733791254 50 55 32
12.555454778618243 51 57 35
11.032604482516364 45 54 28
11.85345810023652 53 59 31
11.394608836446526 52 61 35
12.843255125007177 53 62 36
10.395738576729766 45 54 26
10.777013210590816 45 58 30
11.574433217104644 47 59 32
11.333786650629536 56 65 38
12.35261870207653 60 69 43
11.607110702721304 52 61 35
11.975538971475519 51 61 34
12.450488246543394 55 61 34
11.008509214295131 57 66 40
11.944914331132578 54 60 33
12.553487288453459 53 62 34
14.508390648851623 57 67 44
14.508390648851623 57 67 44
11.820263117128027 55 64 36
13.593953687410316 48 54 31
16.067951322720486 58 68 44
18.517661017923768 45 56 23
9.450796213601231 28 37 8
9.668232456152701 29 38 9
10.588802459947654 28 37 11
12.184307096004645 43 49 22
9.715744280989114 44 50 28
11.514338026037898 54 60 35
11.942692852331142 55 61 37
12.137237554612451 54 59 34
12.15365836022671 52 58 31
11.278601087625507 51 57 32
11.121946387579431 51 57 32
10.722637938387553 50 56 29
11.321865946144523 48 53 28
9.757984407841317 45 54 26
10.03630463613328 46 55 27
10.493235189306104 44 53 25
9.751300730778647 54 63 35
9.36183271466026 46 55 27
9.179506402223463 50 59 31
15.974897865104092 59 69 45
15.826079948024866 58 66 43
11.91492090183105 44 53 21
12.761186751907463 53 59 34
14.825818170596312 57 63 39
12.312962084514904 52 61 35
10.934222011982133 45 54 24
12.316863551770707 48 54 30
11.748728108735769 47 56 26
9.868374797661819 39 49 19
12.74952258423857 53 61 37
10.347480029362277 45 54 26
12.451480168060248 49 57 33
11.37887211186258 48 58 28
11.907613251348012 54 63 35
11.283685602804558 46 56 27
11.561089238768817 50 59 33
11.901011872462512 56 65 37
11.202750315506949 53 62 34
11.015645458910065 56 65 37
11.481730252810971 7 15 0
12.184307096004645 43 49 22
12.23174340650549 50 55 28
9.34010061941151 30 36 13
9.678863370658567 11 21 3
10.777311176918175 48 54 27
11.923971825606118 52 58 33
8.950831046688318 38 48 18
10.915993317446114 52 58 33
12.26930885138732 54 59 33
12.544340072094421 53 60 36
10.853547462068368 49 55 28
13.81679525752233 53 59 34
9.438630521971538 31 41 11
10.949496124742945 51 57 32
10.038789693984551 46 55 27
9.850100799794113 45 54 26
10.226411589782963 44 53 25
11.72286930427653 52 60 31
11.898133046272346 55 65 39
12.404534380315198 50 59 30
12.404534380315198 50 59 30
12.027014133141497 50 59 30
11.25098956128166 40 50 20
14.494503483719043 55 61 38
13.555698139171023 54 60 37
14.327246594724642 56 65 42
12.344457503716605 51 60 34
13.968139938114012 54 60 37
12.456413080314444 50 56 31
11.808155057021736 50 59 33
11.245549512160478 44 50 23
12.646307105634252 50 58 32
11.2935347619299 46 55 28
12.917540359200125 50 56 34
12.444174855012688 57 63 36
11.694830454194642 51 60 32
13.929069641906919 49 55 32
15.802919073451024 56 66 42
15.904579701321207 58 66 43
9.320048513768585 13 21 0
11.440410459566474 49 55 27
12.263447416161334 49 56 26
10.660664100370676 51 57 32
11.768826271001208 46 52 27
10.627783277111485 41 50 17
9.345022870765025 35 44 12
9.7955484974772 44 53 27
12.02031643940675 52 57 30
11.419749531178747 58 67 39
10.96618811109898 40 49 23
13.47695718563913 57 63 38
12.080911517715203 52 61 33
11.618350351013893 56 65 35
10.324671117885343 45 54 26
11.586781675671295 58 67 39
11.863634677592783 47 53 26
18.324619447735763 45 56 24
10.408380371263611 49 55 30
9.828378146351529 54 63 35
11.391064307355931 38 49 17
12.724395069919114 49 55 30
13.806450824753327 55 61 38
12.766469682649314 50 60 32
11.719350346501244 38 45 15
10.71770830888957 47 51 29
11.94434954164089 44 53 25
