10.350021495864649 33 39 12
9.724918516898423 37 43 16
9.39649744219714 39 47 18
8.701868126277407 40 46 19
9.72374874576496 34 40 14
9.47168516905356 35 41 14
11.312931886616115 29 36 6
9.82715024572846 32 38 9
9.81179971726233 32 38 11
9.637496672832595 46 52 23
9.712193370788958 46 52 24
10.405764961257283 25 31 4
10.434287240275337 34 40 13
9.593927844937095 47 54 24
10.085700306817062 27 33 6
9.16724022567533 44 50 23
9.958340343618238 42 48 21
10.771051149525364 41 47 20
10.770811702331084 39 45 18
9.94313168488686 34 40 13
9.813162798590673 34 40 13
10.366083853226392 39 45 18
9.166956255428055 43 49 22
10.086376521185441 37 43 16
9.533820226094038 42 48 21
9.593892637213795 41 50 20
9.593417852518881 42 51 22
9.651673704377163 39 46 17
9.637666639914595 44 51 19
10.129878144799164 43 50 18
9.533312077028961 41 46 17
10.352824571663712 31 37 10
10.969269178205527 34 40 13
10.85225463636701 35 41 14
10.298093394776979 40 46 19
11.35368709025742 38 44 17
10.558120767202613 36 42 15
12.765123859627144 48 57 29
12.753822189260172 46 55 27
11.701082017695418 39 45 18
12.964689236636216 45 54 25
12.25044807576839 44 50 23
11.442446782258225 45 51 24
11.664663227703592 41 47 20
11.467001954196625 40 46 19
10.199857200929731 36 42 14
9.772333313597654 50 59 30
10.626191590434479 43 49 21
10.970334731687242 43 50 20
9.698773220537099 48 57 28
9.42937974894238 48 57 27
9.276974198555795 46 56 27
9.9451916962552 40 47 17
12.493508155721273 47 56 28
11.542010010443098 45 51 24
11.035655788059255 46 52 25
11.859825025202987 48 57 29
10.653752864356678 49 55 28
11.087594261309846 48 54 27
12.157487300397905 49 58 30
13.25929968988447 47 56 28
9.486780922292764 42 51 21
8.815329060626405 38 44 17
8.911859464106591 50 56 30
8.33272468356425 53 59 33
9.333701586592332 36 45 16
8.33272468356425 53 59 33
8.95991599751673 46 55 27
8.750568730182678 48 57 27
8.975488374320152 45 54 26
8.50153768325581 49 57 27
18.352848057063476 44 49 16
19.535897260747138 36 43 9
10.570224739665457 52 62 32
11.225600476618396 53 59 32
11.377451492724461 54 60 34
17.983432521028146 42 47 13
17.491895000002444 41 48 13
18.75297395806904 41 47 12
11.302588113416114 61 67 42
11.415411627198088 59 65 40
11.869643467732443 58 67 41
9.104228847420158 46 57 24
9.008727431765282 45 55 25
9.857667273882608 43 52 22
9.351625578346056 42 51 21
9.799797484494395 47 58 25
10.115465976092327 45 54 24
9.427201908420358 41 49 20
10.651881988786288 45 55 25
9.351625578346056 42 51 21
9.087657269381674 46 56 26
9.457776078917021 44 54 24
9.59276725731578 44 53 23
10.558015899987403 46 56 25
10.43551840831552 47 58 27
11.163517374641977 45 56 23
10.435679999354775 44 54 21
11.454322883119012 50 61 28
11.454322883119012 50 61 28
10.65273718749054 48 59 26
10.865195114669527 48 58 29
10.786408523642683 55 65 35
10.571936610832461 55 65 35
10.002712153202092 55 65 37
10.786408523642683 55 65 35
10.531341523834898 50 62 29
10.50416579255842 54 65 34
8.384644659614858 49 59 29
9.198125888920961 56 61 36
9.321903147294156 56 61 35
8.090517414698068 54 61 32
8.333508396598377 52 61 32
8.536495486986642 55 61 35
8.752232181889394 56 61 36
8.785572548439276 57 62 37
8.914057647349514 52 61 33
8.914568614443855 52 61 31
9.290977951254668 57 62 37
8.833061145096188 49 59 30
9.3681317241338 54 63 34
10.55896325247319 58 64 39
9.072442325339173 56 61 35
9.48840939629007 54 61 33
8.751485966486245 53 61 32
10.017572908520854 55 68 38
9.50428225233539 57 62 37
9.90295503371561 58 68 41
9.989257721275175 61 65 41
9.564923066305424 59 65 40
9.564923066305424 59 65 40
9.713749282133568 58 72 44
9.564923066305424 59 65 40
9.989257721275175 61 65 41
9.989257721275175 61 65 41
10.679943543784045 59 64 39
10.130787204976187 59 64 39
9.460069312798982 59 64 39
9.654248012486729 59 64 39
9.916677416020676 59 64 39
9.917766041542311 62 68 43
8.98005457276123 60 65 40
10.61387967116005 62 72 45
9.87411107601998 59 64 39
10.43678179552901 59 64 39
10.43678179552901 59 64 39
10.42295579627625 59 64 39
10.42295579627625 59 64 39
10.27141768424973 59 64 39
10.720558098822252 59 64 39
9.946456717674652 47 57 28
9.277592616950892 53 63 36
9.277592616950892 53 63 36
11.126827175763745 50 60 30
10.840566234425097 50 60 30
10.047003000204848 56 66 38
10.047003000204848 56 66 38
9.200538618310913 58 68 42
10.721297542222342 50 63 34
10.761176069587998 57 69 42
11.010659730698242 51 63 35
10.694604513247235 55 65 37
10.244105143058066 49 59 29
10.285747131534057 50 60 32
10.285747131534057 50 60 32
9.68466015671812 47 60 31
9.961171555583528 48 61 32
10.075187034163973 48 61 28
10.018198323312339 49 59 31
10.478660758731383 53 63 35
10.089518303360142 54 64 36
9.640452146211171 59 68 42
9.640452146211171 59 68 42
10.0318809234816 58 63 38
9.490540140975146 58 63 38
10.0318809234816 58 63 38
9.960237871369895 57 62 37
9.460553338574178 55 64 38
9.974903351580195 57 62 37
9.520402079682222 58 61 37
9.669676756546902 58 63 38
8.819631350223267 59 63 39
9.816652295426016 60 67 41
9.39969041241756 59 64 39
10.03247177773887 63 68 43
9.385001628819026 59 68 42
9.758183502333907 61 72 45
9.816451017886006 60 63 39
10.089351168196998 62 65 41
10.299074291971923 59 64 39
9.728645243218056 59 64 39
9.669881089177936 61 65 40
10.39609708866901 59 64 39
9.989120309376592 59 64 39
9.728442144847842 58 63 38
9.669676756546902 58 63 38
10.54584377676072 60 65 40
9.106579316413322 60 64 40
9.886691271293346 55 62 32
10.08740671011262 57 65 37
10.394868478866833 61 70 44
10.394868478866833 61 70 44
10.503122122545607 60 66 41
10.489383566480436 58 64 39
9.901925699293033 57 63 36
10.086307686649924 53 62 33
10.745814327331711 59 67 41
10.665877004440121 60 69 43
10.679388511998317 61 70 44
11.124611479557698 61 70 42
11.18839430563621 55 65 37
10.312402683760656 60 67 42
10.395058556625687 61 67 42
10.87771502487834 61 69 43
11.353479536916343 60 66 41
10.36733734507243 61 63 39
10.144652780414734 59 63 38
10.284871066399532 61 66 41
10.811678304214432 59 68 42
10.851799832545288 60 66 40
10.982993782339848 60 69 41
10.394898653893872 61 66 41
10.144652780414734 59 63 38
10.463566047642054 62 67 42
10.518084622480151 62 69 42
10.640059645561447 61 66 41
18.912873466545584 45 50 17
18.70789110182976 45 50 17
9.901290223419576 48 55 25
9.120775604192168 47 56 26
9.81506134928218 47 58 25
9.443759628415442 46 56 26
9.81476907764299 46 56 28
10.172090029929125 49 60 29
10.172090029929125 49 60 29
9.988181716212326 46 59 26
9.75734386757865 57 61 36
9.975241454253034 47 60 27
9.975241454253034 47 60 27
9.383727770731346 48 58 30
9.276857448398706 46 59 26
9.230782545853716 48 58 29
9.595299529632417 50 63 35
9.50559804745303 47 59 27
9.276857448398706 46 59 26
9.844460418483076 58 61 37
9.338794550237921 49 62 30
9.36896016878444 55 62 36
9.414957692813005 51 61 32
9.47168516905356 35 41 14
9.650525058788968 35 41 14
10.01580669713419 38 44 16
9.365543179429883 36 42 15
9.664954820443672 32 38 11
10.268085084102005 34 40 13
10.876677609195815 31 37 10
10.622761834182477 30 37 7
8.961209406245032 40 49 19
9.682654084182266 42 48 21
9.943616465892358 43 50 20
9.009607370939078 41 50 20
10.611510881063534 35 41 14
10.930829061703973 33 39 12
10.366523250033158 38 44 17
11.099307062147398 37 43 16
11.504467607503505 44 50 23
11.429837341294693 44 50 25
12.765123859627144 48 57 29
11.467001954196625 40 46 19
9.771107484140192 40 46 18
10.059841088717052 46 52 25
11.164078593489945 44 51 21
9.120992233565635 49 58 28
9.75783017962051 49 59 31
10.69361502317541 46 52 25
8.798314823115327 39 49 19
8.451236907739931 44 54 24
9.621365161019128 40 49 21
8.36630507242237 44 53 23
8.141818256625069 49 58 29
8.815329060626405 38 44 17
8.211598440580453 52 58 33
9.456603881599527 43 52 24
9.812595903284405 52 61 31
17.9118994427452 43 49 14
11.225600476618396 53 59 32
18.980035191310176 42 48 12
9.182337807557653 47 57 27
9.518505596388621 46 55 25
10.435243514531713 44 53 21
9.182337807557653 47 57 27
9.472227192757737 39 45 19
9.275251667442065 46 55 25
10.65273718749054 48 59 26
10.115916258789342 47 56 26
11.138293169116874 48 58 29
10.812874924505797 53 63 33
10.50416579255842 54 65 34
10.326423173358169 55 65 35
10.40809248403363 49 60 27
10.531341523834898 50 62 29
9.306698109952588 56 61 36
9.136664786615764 57 62 36
9.653509035921985 56 61 35
10.172639535819703 58 63 38
10.600284663984617 61 75 47
10.61387967116005 62 72 45
10.42295579627625 59 64 39
10.50474182523167 59 65 40
9.276821037318564 57 64 39
9.261541987201626 60 66 41
9.9459165544894 59 64 39
9.903215464606069 61 65 41
9.989257721275175 61 65 41
10.50474182523167 59 65 40
10.200592348342202 59 64 38
9.121150960555738 59 64 39
10.354400732440338 59 64 39
10.285447387482721 59 64 39
10.600659724312996 51 61 31
9.917967694300904 50 63 32
9.728991903875327 50 60 30
10.075411881418043 53 63 35
11.126827175763745 50 60 30
10.0318809234816 58 63 38
9.520402079682222 58 61 37
10.003319472291329 58 61 37
9.231156041349664 58 63 38
9.106579316413322 60 64 40
10.187789519442406 59 63 39
9.339068131376063 59 63 38
10.14549127849454 58 63 38
9.98931810775578 59 64 39
9.53595123103353 59 65 40
9.505689430653215 59 64 39
10.54584377676072 60 65 40
10.299074291971923 59 64 39
10.03247177773887 63 68 43
11.466001970457496 61 67 42
11.073079557143128 62 68 43
11.124611479557698 61 70 42
10.61150229880124 60 69 43
11.11164136636662 59 69 41
10.612948843755746 58 62 37
10.326376703781005 61 67 41
10.436592477659943 62 67 41
11.060256018600429 60 66 41
10.825611115049018 60 66 39
10.982993782339848 60 69 41
10.785997668577474 61 70 42
10.679388511998317 61 70 44
10.517681380232133 61 66 42
10.312402683760656 60 67 42
9.181789479391696 54 61 31
9.81476907764299 46 56 28
9.742026718515383 45 58 25
9.742026718515383 45 58 25
9.902159351198694 55 61 35
9.75734386757865 57 61 36
9.519685662385415 54 60 34
9.307617278982052 45 58 25
9.53502876396926 50 61 33
9.444754878031507 47 57 27
10.36498644295171 33 39 12
9.024557213959378 37 43 16
9.304486071579525 37 43 16
9.75523401547072 44 50 25
9.229912940482311 43 49 22
9.79921202197763 43 51 22
13.25929968988447 47 56 28
9.533820226094038 42 48 21
12.820747783140733 45 54 26
9.44438727644638 48 54 26
9.932147110416548 50 60 32
10.395679568269944 48 54 27
10.825225513516012 39 45 18
8.913092168945784 43 50 21
12.122040106549232 48 57 29
10.3667441044911 34 40 13
19.68153640004028 37 42 9
8.702333639542514 51 60 32
9.260279809993056 50 60 32
9.756162868870797 43 52 20
8.195371475316907 54 60 34
9.427201908420358 41 49 20
8.03626548485103 50 59 31
10.53047646637772 45 55 25
10.558015899987403 46 56 25
9.457776078917021 44 54 24
8.670477216539624 53 61 31
9.290977951254668 57 62 37
7.982897911859805 50 59 29
10.187252410902376 58 66 40
8.70442704256527 58 63 38
9.713749282133568 58 72 44
9.9459165544894 59 64 39
9.903215464606069 61 65 41
9.369561924038168 49 61 29
10.244105143058066 49 59 29
10.560042787996474 60 73 44
9.946745119851574 50 63 30
10.117807810387289 52 62 32
10.694604513247235 55 65 37
10.451348047141204 55 65 37
10.11783642840852 57 67 41
10.840566234425097 50 60 30
9.743224013534345 57 63 38
10.088312150485244 58 61 38
10.54584377676072 60 65 40
9.98931810775578 59 64 39
9.989120309376592 59 64 39
9.339068131376063 59 63 38
9.669676756546902 58 63 38
9.277623826724069 60 63 39
10.086759271001286 55 63 35
10.61150229880124 60 69 43
10.283570509919572 58 64 37
10.158632177464172 61 67 41
10.116633651754883 61 64 40
10.476873769239667 60 69 42
10.837871747413915 54 63 33
10.40873178678826 62 69 42
9.974475732393417 61 66 41
10.158632177464172 61 67 41
18.912873466545584 45 50 17
9.593721894610125 46 55 25
9.18333511041575 47 57 27
9.771322319848135 44 57 24
9.230782545853716 48 58 29
10.367309415775967 55 61 36
8.850852809358672 46 56 26
9.547472240947819 39 46 16
10.839616780872314 46 52 25
10.865534382114223 42 49 17
10.28413725401334 42 51 19
10.892490063666525 48 54 27
12.964689236636216 45 54 25
11.035889488896904 49 58 30
9.195704356721084 30 36 11
9.164266722478338 49 55 26
9.087320660142273 54 60 32
9.59369703049678 56 63 35
10.93114447014131 49 59 29
10.652533842247351 58 67 39
10.39535282042769 55 66 37
10.36733734507243 61 63 39
9.354465306726228 59 66 41
9.50428225233539 57 62 37
9.338698951758495 46 56 27
10.50416579255842 54 65 34
8.670477216539624 53 61 31
9.121150960555738 59 64 39
10.200592348342202 59 64 38
10.367309415775967 55 61 36
9.53502876396926 50 61 33
9.595299529632417 50 63 35
9.984549447036347 31 37 12
10.797709133456904 32 38 11
9.80011454310497 41 47 20
10.31208680548735 40 47 17
11.979820146520533 48 57 29
10.326423173358169 55 65 35
9.610429019689002 47 59 29
10.017572908520854 55 68 38
9.261541987201626 60 66 41
10.572078115456764 59 65 38
10.93114447014131 49 59 29
9.445119912262033 57 62 37
8.553069845212358 53 60 32
10.492195145841077 59 71 43
10.54584377676072 60 65 40
8.980309524971444 60 66 41
9.277623826724069 60 63 39
9.354465306726228 59 66 41
10.798762568937557 32 38 11
10.570655650828513 55 61 36
9.18398055629516 49 58 28
9.975497580651238 59 69 43
9.640452146211171 59 68 42
9.353524941101929 48 59 28
11.314734460075156 56 62 37
10.984669881754535 56 66 38
10.42295579627625 59 64 39
9.39701298959786 42 48 21
11.54139190484372 39 45 18
10.018198323312339 49 59 31
10.156937740318936 39 45 18
