16.960486354858002 23 20 3
17.24682253112927 28 25 8
16.71030217353516 25 24 6
10.539952785095132 25 29 3
10.685045369851483 28 32 5
10.903840845323728 31 33 7
9.181914020821303 31 37 10
10.317636402968496 37 41 13
9.895141536228053 36 39 12
10.531083859941472 30 37 10
10.823302186721946 31 38 12
9.766633756290078 31 37 10
10.41187858992509 37 42 14
9.673882078120936 19 27 1
10.675683269911842 36 43 12
9.728847849347078 34 39 11
10.803095284835507 37 43 13
10.206227158522397 37 43 14
10.057186086054315 31 37 10
10.838528580286916 40 47 15
12.618654329257598 43 48 18
11.60819327722152 38 46 13
13.066519260595465 45 50 21
11.57384930373888 42 49 17
10.514017609901114 35 43 16
9.970229057330947 34 42 15
10.154103382069323 32 41 15
10.052986226274058 24 35 8
9.912675719160527 20 30 2
9.912675719160527 20 30 2
10.207920009057688 24 34 7
12.900940803895567 45 50 21
12.78407311109896 42 48 18
12.799803502469413 45 50 23
12.559147155432893 44 48 18
12.342264022277577 44 50 20
12.447119551100844 44 49 19
12.86605291998807 46 50 23
11.26764126317686 24 37 13
11.37207673629589 27 39 18
11.905116647259458 40 48 35
11.959284148071218 29 41 23
12.339837815252245 36 43 29
10.79381821090027 29 39 13
11.877194987134095 30 39 21
10.698748905449952 26 37 13
12.652927208056424 45 49 19
13.030614527737354 43 50 20
13.114639701584043 40 46 20
13.215816892073507 39 46 24
12.896312679786616 31 38 23
16.98283194890104 31 24 9
21.606530958440835 31 26 0
10.481289938003613 31 32 9
10.591701873668253 45 47 14
10.447384465262745 43 46 13
10.591701873668253 45 47 14
9.870020999380214 41 43 15
10.397669726883954 45 47 14
9.50689266335495 44 46 17
11.828553428778791 45 47 15
11.953174047165055 44 47 16
11.161483675565965 47 50 19
10.96387034977714 45 49 16
11.381669975195699 45 49 19
11.631950329342494 44 44 16
11.134015901135673 44 47 15
11.082367111763887 46 50 18
11.082367111763887 46 50 18
10.305205112469219 42 47 16
10.424223448325934 46 49 18
11.46491920523139 47 52 21
11.682494545179031 47 52 21
10.663054952324051 46 49 18
12.657456554732656 47 52 19
11.412297570522663 45 50 19
10.663054952324051 46 49 18
11.179319759802787 44 50 18
11.402749551938424 47 53 19
11.049674663787185 47 52 19
11.983271618458842 49 56 22
11.983271618458842 49 56 22
11.6731675351728 51 58 24
13.09255677777533 49 56 20
12.322294495821039 51 58 24
11.529392088339405 48 57 21
11.704118545562396 49 55 20
11.911783053389152 46 55 21
11.375864344789296 45 51 17
11.758187154981222 45 55 18
12.048527913676574 50 60 23
12.158579954464035 51 60 26
12.84890703738396 47 56 21
12.414939326109868 50 60 23
12.297099607464807 43 50 16
12.656988558199165 49 52 25
12.402705131106737 49 54 23
12.375906146490056 49 54 27
13.391730963846644 47 52 23
12.279690067486522 49 56 24
12.604102545791813 49 54 25
11.535005735758725 44 55 21
12.534253702743104 55 64 30
12.429606113290385 49 58 24
11.131812901694058 43 53 21
12.797326185855399 52 61 27
11.694302260592206 47 58 25
12.393391474728041 47 58 25
12.336752253719414 48 58 25
12.785613225234275 51 60 28
10.750161517259174 52 61 29
11.215748382419527 50 59 27
11.069311913190711 50 59 27
13.13243909534443 44 50 23
12.193768725193905 46 53 23
11.583162567805392 43 49 23
12.290657448514308 49 52 22
12.025613618115647 46 53 23
12.758607401491414 45 51 28
12.00099804604042 49 52 22
11.442748320428496 43 51 23
11.696676554649747 45 51 24
11.487941309926832 43 49 22
12.593061712447332 46 51 21
12.398560486571467 47 52 25
12.398560486571467 47 52 25
12.593061712447332 46 51 21
10.589408495320823 39 48 18
11.155641087452647 42 51 23
10.756936070196852 40 49 19
10.941664592715036 40 49 19
11.095010854664297 40 49 19
12.586442045324958 49 56 24
11.313839982031961 54 62 32
11.613090729575854 49 56 26
10.72743266557999 44 53 22
11.693572148526068 48 55 25
11.531117410007182 49 58 27
11.819616033405243 52 60 30
10.984257504814874 45 54 22
12.187812357470063 53 62 32
12.265397573290883 46 52 25
10.239666618790206 45 54 22
11.026832000655286 43 49 20
11.027426163891084 38 47 19
10.915769394724798 43 50 18
10.603323575862671 45 50 20
11.327602332137234 42 48 23
10.300939987301378 46 53 19
10.62228389972467 42 49 17
10.707044835186212 43 52 22
11.215164196227894 44 53 22
11.220702056864718 42 54 21
12.121015089257849 44 52 20
11.144676155493386 42 52 20
10.574630796840331 40 49 19
10.32212996981967 46 49 18
10.265759299614379 47 50 19
10.569149456322384 41 48 14
10.653718142368106 42 51 19
17.84633046535327 52 59 27
16.78249278846342 53 60 28
11.831326881884653 33 40 28
12.5273955365503 36 43 31
12.624930375842233 29 40 28
11.868041016823401 37 45 17
12.531849708198994 40 46 19
12.052978728906533 32 41 13
12.707130115465016 39 45 18
11.585391186381042 43 49 22
10.714418496014382 39 48 22
11.164460918644762 43 49 21
11.24529583929358 38 47 19
10.902815074055123 43 49 26
10.902815074055123 43 49 26
11.170962951624327 43 48 23
11.443076044943167 35 43 26
11.931743988373727 44 50 25
10.839418108408207 35 44 16
11.712599306977989 44 51 21
11.034224342966255 41 47 21
10.37659303731265 33 35 9
10.18187415545787 37 44 13
9.224287667219087 32 38 11
10.194455838904783 35 41 13
11.776699119847486 41 47 17
10.838528580286916 40 47 15
12.429552792740854 43 49 18
10.39992055177464 18 28 2
10.431019294961398 31 40 13
10.499757822893633 35 43 16
10.737908317062324 26 37 12
10.622815929084219 32 40 13
10.469112999081199 24 35 10
9.867227778233895 24 34 7
13.00906091068986 47 50 22
12.410956016105802 43 49 20
12.8115034895879 45 50 21
13.2263378837887 45 50 19
12.354397320691211 44 51 21
11.142871092316014 26 38 15
13.081776383504986 41 47 17
12.792608768831085 29 37 19
12.686901437573722 43 49 22
16.823713597151173 28 23 8
18.843880433564824 54 39 20
11.031211950048297 45 48 16
10.813742581005236 34 36 11
10.651788486273194 44 47 16
10.412698571487024 44 47 15
10.951154279201285 45 50 18
12.329875063789428 42 39 14
11.47720206003021 44 44 15
11.68358271287609 46 49 16
11.953174047165055 44 47 16
11.678825374901155 48 51 18
11.412297570522663 45 50 19
12.023086838805584 45 54 18
11.560728028590098 47 55 21
12.414939326109868 50 60 23
12.188621425990181 49 56 23
12.103841673790704 49 58 24
12.023086838805584 45 54 18
11.182978304543301 48 53 20
12.880206030979858 49 52 23
13.330523165600267 50 55 24
13.455066192559377 48 52 24
12.785613225234275 51 60 28
11.467055411737206 48 57 25
11.131812901694058 43 53 21
11.474130086754988 46 57 21
12.886861893768979 51 60 26
12.90595788862419 48 53 24
12.068624167976347 46 53 23
12.869402072713449 44 50 24
11.451347023671657 42 48 21
12.709344696218082 48 53 24
12.58932628029127 47 54 24
12.036812503956419 46 51 24
11.825757854773933 45 51 24
10.902854063708842 39 48 19
10.499445923989652 42 51 21
11.82487081864772 43 52 24
12.149095881880273 45 51 24
11.576892044482014 47 54 24
10.568359349858243 48 57 25
11.102536677951818 49 58 26
11.230637641719238 47 56 26
10.352155587519187 42 47 16
11.290715477172268 44 53 23
12.025778761981353 43 52 20
10.726821885589342 40 53 20
10.81588505882502 40 49 19
10.403137069239682 42 52 20
10.970011720175737 42 51 20
17.873309840735768 52 61 30
12.413040059733211 40 46 19
11.622281906217419 35 44 16
11.131382796162294 42 48 27
12.22304467061079 39 47 26
11.170962951624327 43 48 23
10.98716525930391 40 49 22
11.411820160809025 41 47 20
11.059034868104714 41 47 20
17.03732681926681 26 25 6
9.791190982177065 35 40 13
10.158261435778284 36 42 12
12.461082389550707 36 44 25
12.410956016105802 43 49 20
10.22258689731787 23 33 5
12.928817719288748 33 41 22
13.447424340227167 41 47 18
11.285717200262372 30 39 18
11.166321639944059 49 56 20
12.60137929329327 49 58 24
11.54198133995621 45 51 19
11.189469577352773 46 51 20
10.974816445239648 47 52 19
10.045934652108144 45 48 19
12.60137929329327 49 58 24
9.906607146373164 41 43 14
10.984139960471829 46 49 16
12.036812503956419 46 51 24
12.604102545791813 49 54 25
12.429606113290385 49 58 24
11.406009040891536 41 50 22
12.67914068676681 46 51 22
12.270461455522605 47 54 24
10.99397441084479 39 48 14
10.437854736762445 45 52 18
10.760495266925398 45 50 17
10.357119181423704 45 52 18
11.31554263740358 43 52 20
11.09964225978156 42 51 19
10.006121548900886 43 50 17
16.881588271616376 50 58 27
12.283824954023263 52 62 50
12.078879605059656 31 39 23
11.240141558442634 38 47 19
10.911878219005974 38 47 19
11.192227025856006 42 48 20
10.76267021344561 41 48 24
11.92701302370177 40 48 14
10.75486237411677 29 38 15
12.799803502469413 45 50 23
11.686370234962778 26 35 19
10.920594837166174 21 35 10
11.668539719153154 46 49 17
12.048527913676574 50 60 23
10.413327775982184 43 48 17
10.591701873668253 45 47 14
12.704612069899023 55 64 30
13.055701796338832 49 54 21
12.322294495821039 51 58 24
12.297099607464807 43 50 16
12.479813957336754 46 51 24
10.534468148157387 41 50 20
12.0656154619876 49 56 26
11.652293165228844 45 52 22
12.479813957336754 46 51 24
10.66838629073358 42 51 20
10.872760019434669 44 55 22
11.131812901694058 43 53 21
10.67677237570326 43 50 18
12.62664446410683 48 55 43
10.133793164646741 38 43 13
10.945965253754466 29 31 6
10.119799282385246 32 36 9
11.903298658639065 28 37 22
10.65640856759139 19 33 8
11.304094584894962 45 50 18
11.819616033405243 52 60 30
10.816774773581832 44 47 17
12.391484853634477 43 49 22
12.080980279469186 47 54 20
12.565765024209862 48 53 20
12.695467695964982 49 55 19
10.390241067948395 41 45 16
11.613090729575854 49 56 26
12.041191557371356 39 45 14
9.799030408834046 17 27 0
9.970229057330947 34 42 15
12.548100644160382 47 54 22
10.903736682037694 47 50 17
10.795884424264266 43 52 21
10.37722443100271 33 40 11
11.794851112320178 47 50 19
9.582491190779658 22 30 3
11.682494545179031 47 52 21
10.255592209532617 37 39 12
