16.333949260294307 29 39 24
16.43403163970385 8 15 4
9.396237310297163 22 32 8
9.506166526028807 21 31 7
15.88978671780561 27 34 25
16.088087813532887 27 34 24
10.76530198323385 10 22 1
10.367317123484419 14 24 1
9.145856959165107 19 29 5
10.132698920891801 16 25 3
10.009717604715219 26 33 11
9.13733257899528 26 35 11
9.119734569723656 29 37 15
9.383278424070916 17 28 4
9.721920312525793 27 36 14
9.344806658275653 18 28 5
9.031543228504123 24 34 10
9.699466889434346 20 30 9
9.716593742736622 20 28 9
9.835889892813144 17 24 9
9.794644101042794 34 42 22
10.013370515877643 35 42 22
10.305614708077595 26 35 14
10.224393895654673 28 38 17
11.14969502861803 31 39 19
11.279367574615428 35 47 23
12.00665841826315 36 46 22
10.581678280113929 29 37 15
10.122267735262213 29 37 20
10.138680393743838 29 37 18
10.253066670447481 28 36 17
10.849540163701938 34 40 20
12.185745048826709 38 50 26
11.383000516459134 32 40 18
11.499468370408238 34 43 21
10.83060752277803 34 44 21
10.005824308720179 29 39 17
11.104867903974533 29 38 18
11.044598825173974 31 39 19
10.15634182920395 29 37 17
10.559881401382322 23 31 13
10.43577411096518 29 37 16
10.071403515999652 27 35 15
10.77018791122025 30 35 18
10.52875750995283 29 37 15
10.77018791122025 30 35 18
10.126478432084305 32 42 19
11.008509014646053 29 37 17
10.432039822868822 32 40 19
10.964285925771653 30 40 19
10.618358085728264 33 43 20
11.530546016474373 39 49 25
11.226979014228927 32 39 19
11.181744848958196 32 41 19
11.181744848958196 32 41 19
10.461758512178134 14 22 0
9.915514419974611 17 25 2
9.452106332276289 21 29 6
9.632613705126522 24 34 6
9.452106332276289 21 29 6
9.55323964357052 22 30 7
9.081076960098702 26 34 11
8.748936231588708 26 34 10
8.726091376915535 27 35 12
10.578794422370125 29 39 12
11.596843926720332 29 39 13
10.578794422370125 29 39 12
9.611869346077555 27 35 12
11.145949016020353 28 38 12
11.05285035743063 32 44 20
12.032489237900812 29 42 15
11.335735875087535 34 44 21
11.66734645071825 29 42 15
11.709540267762614 36 48 24
12.23632946332199 34 47 20
11.920557594492825 36 47 24
11.88077151909158 33 43 19
11.709540267762614 36 48 24
11.795787939761436 27 40 13
12.032489237900812 29 42 15
12.82242005106035 40 52 28
11.921936358468878 39 51 27
16.24065781431895 44 56 33
11.694646869740495 35 54 28
10.854909116080508 36 53 30
10.948958786572843 36 52 28
10.749286603673537 36 52 28
11.422910136102745 36 50 26
11.157693487575212 37 53 31
11.303911063285343 40 54 30
11.481193489057148 35 48 24
9.966541601851352 33 47 18
11.040284851838596 27 41 17
10.295485590575332 34 50 24
9.732870801260312 34 49 22
10.233158165924442 30 44 17
10.666328542383416 28 42 17
10.336094576023369 30 44 19
10.448319822184569 30 44 19
9.88846866604039 32 45 21
11.526961544934785 32 42 19
10.720668684149686 36 51 24
11.42755236382459 31 44 16
11.307893284112263 35 49 22
10.112550420394268 35 45 22
10.055916818739583 34 46 25
9.746559726041674 34 44 21
10.773546088638103 37 50 31
10.649670007324088 36 49 30
9.630293789287325 38 51 29
9.409360181114485 33 52 26
10.009326668646747 40 53 34
9.409360181114485 33 52 26
10.264779367187202 38 54 32
10.296031834204076 35 51 29
9.863014624921913 36 52 30
9.771541357058554 36 52 30
10.462068145037183 38 51 32
9.957998416135137 37 53 31
9.988801625238011 38 54 34
10.73142106715947 34 46 26
10.7027553773814 31 43 24
10.324586326386564 37 49 32
10.195256679059007 36 48 29
10.3951773916434 35 45 24
10.1347687227112 34 46 27
10.163140985580501 36 48 29
10.13481168284256 40 53 34
11.36647936019851 39 51 27
12.100684887016554 38 51 30
10.148541276682897 38 48 24
11.599268467740007 41 53 29
10.750292445997806 37 49 28
10.47365078162102 36 48 27
10.266613487214853 36 46 22
10.750292445997806 37 49 28
10.750292445997806 37 49 28
12.100684887016554 38 51 30
10.812722303627629 37 49 27
10.582024859439848 34 46 25
10.53771970761414 35 47 26
11.640054177077845 37 49 28
12.209848434521287 42 55 35
11.753496726694507 42 55 35
12.398960555348705 43 56 35
11.949833026596213 42 55 35
11.529400781671296 39 52 33
10.814584273364682 37 53 33
11.794905569799422 43 56 37
11.025863161599382 39 55 34
11.191441838358385 40 54 37
12.156217399322724 40 56 36
10.2406428780451 34 42 22
10.2406428780451 34 42 22
9.747005870707023 16 24 2
9.807632877462204 29 37 16
9.767463227968822 17 27 4
10.138680393743838 29 37 18
9.332289761523834 29 37 15
11.044598825173974 31 39 19
11.11910946679685 34 44 21
11.397597851295869 34 42 20
9.91822210327843 29 37 16
11.911725522677077 41 51 27
10.67524970523356 26 34 16
11.004969072940337 30 38 18
11.4876947799272 33 43 20
10.130325358281379 30 38 18
9.85258102846496 32 42 19
10.427305410856443 20 27 14
11.004969072940337 30 38 18
8.996838314126334 23 31 8
9.37647117771918 22 32 6
8.996838314126334 23 31 8
9.168791866386188 28 36 13
11.709540267762614 36 48 24
11.378626856610452 31 44 17
11.63981391221582 33 44 21
11.88077151909158 33 43 19
11.709540267762614 36 48 24
11.863720443934383 43 56 37
11.653327014772515 39 51 27
11.780763582828293 39 51 30
11.229912793464607 42 56 31
10.961824115562292 37 53 31
11.76572264613508 34 52 28
11.408345189172861 35 49 24
10.532995064107228 35 51 28
10.598564033297132 34 50 25
10.233158165924442 30 44 17
10.68190528867479 28 42 17
9.580869508790007 33 49 22
11.293179999571242 33 46 19
11.307893284112263 35 49 22
11.586907137187115 29 43 17
10.055916818739583 34 46 25
9.777542918769488 39 53 29
9.978586819138037 39 52 33
10.397114137782388 39 52 33
9.84466861118887 35 47 26
10.074393167534629 35 47 28
10.886210270868508 34 44 25
10.250490624422829 36 51 29
10.182680565253333 37 53 32
11.04042329330131 36 52 31
11.1581585023713 38 50 29
11.309346740490044 36 48 27
11.782949884049964 41 57 35
11.208007595740666 37 50 30
11.753496726694507 42 55 35
10.459151307746538 34 51 26
16.008790052220355 16 22 13
16.984599212254412 24 33 20
15.616726432576817 5 10 2
16.224234464592506 28 37 22
10.125324621029828 28 36 14
9.828207415000547 23 33 10
9.722498781090234 30 37 15
9.930000452037815 21 29 7
10.204301449985449 30 38 20
10.474602886546569 28 38 17
11.029534314143959 31 39 19
9.332289761523834 29 37 15
11.397597851295869 34 42 20
10.553671671111726 33 40 20
10.720665144129736 34 39 20
10.62936064513107 28 36 16
10.589506099573493 34 44 22
9.212229546714598 24 32 9
11.172256937739371 31 43 19
10.609651996643452 30 40 14
8.930031145083072 30 38 15
11.464984487757036 39 51 28
10.656378863062013 37 53 31
10.854909116080508 36 53 30
12.331079064301262 43 56 37
10.082880913885129 34 48 19
11.36899402199964 32 46 17
11.366766403888162 33 45 20
9.984463928661818 37 53 32
10.758219915516465 35 47 30
10.758219915516465 35 47 30
10.727789692732795 34 46 27
10.324586326386564 37 49 32
10.229154932528644 34 46 25
9.982320076197098 36 48 26
12.225069873936947 42 56 37
11.40982400876201 40 56 37
10.002858419220631 36 46 23
11.656019726903612 40 53 34
11.949833026596213 42 55 35
11.218318818117528 38 50 29
11.640054177077845 37 49 28
11.33821625105748 37 50 29
10.310257462672578 38 54 32
9.47230837476689 19 29 6
9.865691845921614 37 43 23
9.16340480140786 20 30 6
9.990122740779968 23 33 10
9.119734569723656 29 37 15
10.083672122451585 16 24 7
9.702903502725555 10 22 1
9.124005976071194 23 33 10
10.476791892343973 35 43 21
10.484227258783772 31 38 17
12.05826218121574 43 56 37
10.831468206860704 29 43 16
11.354359913711924 31 45 16
10.140984845416014 35 47 26
10.217171005761095 40 53 35
10.518225809751094 35 47 26
11.325778486501118 37 50 31
9.15915176887546 24 34 10
10.208477595957905 21 31 8
9.785045831117905 16 27 6
11.556672051479232 41 51 27
10.75570741171004 36 46 23
10.105164450983365 31 45 20
12.144082611554941 41 53 29
9.81811349709783 18 26 4
10.754219615499283 29 43 16
10.822424418678445 35 49 30
11.640054177077845 37 49 28
11.556672051479232 41 51 27
10.199931061914365 30 38 16
10.753575182314 29 37 15
10.005824308720179 29 39 17
11.002783018556322 25 30 15
11.422910136102745 36 50 26
10.48714074043253 38 54 34
11.45464848063244 39 52 33
11.911725522677077 41 51 27
10.318315705884293 34 44 21
