7.767720958819843 -0.23300287203772677 2.142696807540456 20 25 15
8.771638669458667 -0.17858380739793686 1.8247981638753585 5 8 8
8.351392282382939 -0.23300287203772677 2.2435543839688483 25 30 20
8.487137349108659 -0.06897991873597456 2.089037894454465 3 5 3
9.596708976309687 -0.5498687248693985 2.0242587010922586 5 7 7
7.877292781514423 -0.43801943523736525 2.292480387427881 41 46 33
8.323713434543356 -0.79948077443178 1.9659393772228486 3 7 0
8.566747852420612 1.910166323738001 1.9541358101341153 19 20 9
9.021811306588067 2.1918413781948507 2.055556813066483 29 35 12
8.33123099847899 2.2728295171681747 2.099741740829509 30 38 16
8.730522767028479 1.9576730197930599 2.2094123883039942 32 38 15
9.332046439030744 2.0235912681301094 2.0381270577465025 27 33 13
7.78102480367422 2.2524706462209645 2.3034214089817366 33 41 19
8.988739229008116 1.910166323738001 2.0574955944404865 30 35 16
8.481295300394017 1.8189431831711913 2.2314094441044516 31 35 18
8.210421038585334 0.09158600232669516 2.427428786186866 34 40 20
8.432611434432271 0.11245474218904929 2.5950336588804164 34 40 17
8.211415488768157 -0.0946091649990742 2.4272890806204193 36 41 23
8.552286068694835 -0.3333685775390908 2.572450003655917 33 41 20
8.549421319936277 0.3300164912280105 2.5729739790479758 34 40 18
8.680414812796913 0.8053551224753409 2.549777574710077 29 37 15
8.514217631488815 1.7133779961013635 2.5794774718886537 33 41 19
9.018712829922807 1.2005929478751265 2.7133063963904935 33 41 19
9.617091496514286 0.5646379669019599 2.847480312792611 33 41 19
8.667708854546394 -0.5695709462330644 2.8130599857249092 35 43 20
9.333635763922446 -1.339511746456643 2.974816456030581 37 45 23
9.3163532223602 0.3481485621987706 2.986222971067278 34 43 21
8.59842005447426 1.8240182629216146 2.837583860864261 35 43 21
8.98835507081547 0.4183854705828488 2.7207651943444167 32 40 17
8.680640057446869 1.072691145773942 2.8087176660731075 33 42 20
9.207290382122052 0.6388029335503712 2.6704437820447917 32 39 16
9.51339999950934 0.20587308644306324 2.885911828725237 34 44 21
8.36356133064869 1.9787823404642766 2.9460256008425434 36 44 22
9.42221346953275 0.8333639020521767 2.9260222821396566 34 42 20
8.878242409155543 -0.15031493090815246 2.7493958942567387 34 42 18
9.514258260579291 -0.2125079991117861 2.885566963651497 35 44 18
8.103268065566677 2.102945888875141 2.442821611537028 31 41 18
9.129109164241704 1.8189431831711913 2.3180119855816894 31 37 14
9.066760973355654 2.0110169332104775 2.701842599946659 34 42 20
8.431343202653176 2.219037264109187 2.595280953531145 34 42 20
7.998058630310648 2.377628991528807 2.458627366724845 34 42 20
9.206803407868284 1.8617984245847974 2.4694337489678846 33 41 19
8.697506691236045 2.0196101657528307 2.365024735933268 33 41 19
8.499342088928945 2.404931976957314 2.877258668585042 36 44 22
8.068697472285278 2.3859704402960547 2.674429454961352 35 43 21
8.686996961584747 -0.8076860000767899 2.5486513010877188 35 43 21
9.136752536263613 -0.9309898067992703 2.4791275016758645 36 44 24
8.81872466528106 -1.0893713351206393 2.526834819446003 36 45 25
9.856440431020015 -1.4698988519180256 2.7757400191434556 37 45 23
9.169290770473495 -1.329558094401068 2.4745915390174122 37 45 24
8.949207420051243 -1.0236929621430513 2.3367997585536666 39 44 29
8.92979024446206 -1.4698988519180256 2.735667253141961 38 46 24
9.228317191333197 -0.9795654375003243 2.665990411101589 35 44 23
8.333521795270332 -0.6419326402458506 2.6149039323135286 33 42 20
8.333521795270332 -0.6419326402458506 2.6149039323135286 33 42 20
8.685341979371675 -1.0754279352977583 2.807155387360161 35 44 22
9.546365134013525 -1.4301256724333467 2.873019248649549 37 45 22
9.228317191333197 -0.9795654375003243 2.665990411101589 35 44 23
8.038857892914821 -0.06897991873597456 1.980764904952876 2 5 1
8.655940979997824 -0.06074563176654348 1.8282697413670908 6 8 8
8.229788718789102 -0.07979115751836434 2.2553832462079466 25 30 19
8.250337706060048 -0.5799511617449784 2.2533518428190535 39 44 30
8.730522767028479 1.9576730197930599 2.2094123883039942 32 38 15
9.37915158173633 2.1257815854827506 1.9194393720302363 26 30 11
8.926299713771106 2.0235912681301094 1.9379434215620452 17 18 6
8.014883560223412 2.0196101657528307 2.277471179537904 32 40 18
8.549421319936277 0.3300164912280105 2.5729739790479758 34 40 18
8.433579684953171 -0.11615568408632532 2.594844975769748 34 41 19
7.98433864130101 -0.5225142385606798 2.460742223721344 34 42 22
8.352604039298726 -0.6780960636245547 2.4080066008492382 36 42 24
7.98433864130101 -0.5225142385606798 2.460742223721344 34 42 22
8.013649278672917 1.4694301904647424 2.6882375938427097 33 41 19
9.00283157231795 1.6698008018942836 2.3310857422915903 31 37 17
9.081606200338026 1.687677097809417 2.4869512057046004 32 40 18
9.526692263444868 0.8053551224753409 2.608369543082026 35 41 21
9.00283157231795 1.6698008018942836 2.3310857422915903 31 37 17
8.98835507081547 0.4183854705828488 2.7207651943444167 32 40 17
8.581559859376858 1.4292159927340216 2.84390999360492 34 42 20
9.3163532223602 0.3481485621987706 2.986222971067278 34 43 21
9.822022101074221 0.8135861554796231 2.7849990099252357 32 41 18
9.317229634506077 -0.3587552660121614 2.98562357932077 36 44 21
8.172997637819854 2.0110169332104775 2.649731236435908 34 42 20
8.647633184257527 1.9218138081014136 2.55544099091259 31 41 17
8.449469611305778 2.541915475693952 2.5917629591385447 35 43 21
8.730548965918587 2.154230281875367 2.7925601739794774 35 43 21
8.89637608723456 -0.8168464946460118 2.7444969416385683 34 43 22
10.60044628925285 -1.8183456753255134 2.455839202947088 39 47 24
8.69403723060376 -0.714122184299492 1.827116087913244 3 7 7
8.746872304657959 1.7869169339595816 2.072185334161329 32 36 19
8.39809599236973 2.1567294089035762 2.23913123874637 32 40 18
8.740159693840097 -0.9017670061450994 2.208594069877502 40 45 30
8.5500538851263 2.082386437727916 2.084846793809487 31 37 14
8.746872304657959 1.7869169339595816 2.072185334161329 32 36 19
8.312611560384388 1.7869169339595816 1.966496471125836 17 18 8
7.618097588464083 -0.2745175738232508 2.3228329443226308 36 41 26
8.835392565093473 -0.3286409462219718 2.066702153391251 2 6 1
8.923387188827526 1.4694301904647424 2.737340045049741 33 41 19
9.222121409713564 0.977404284588855 2.667296523730636 31 39 19
8.499342088928945 2.404931976957314 2.877258668585042 36 44 22
8.450966489124125 -0.8387795624645771 2.8993071493032962 36 44 22
7.798347330437768 2.154230281875367 2.748692097494314 35 43 21
8.877322658177471 0.14555336261904783 2.7496464548979667 34 42 19
8.482488500171968 2.2524706462209645 2.391175877420093 33 41 19
8.991079967059852 -0.4224420008903912 2.7200885608594056 34 42 19
9.224104031118593 0.94536850739272 3.075775129655502 35 43 21
9.458743399379738 -1.2787857896312238 2.620668508747538 37 46 25
9.025048254550931 -1.2021640261860498 2.7117713906133316 37 45 24
8.655940979997824 -0.06074563176654348 1.8282697413670908 6 8 8
8.022083245169298 -0.3758990335637434 2.1224189479963513 14 19 9
8.296626109962435 2.372938015595008 2.248824856147799 31 41 17
7.618097588464083 -0.2745175738232508 2.3228329443226308 36 41 26
7.998058630310648 2.377628991528807 2.458627366724845 34 42 20
9.224989207323508 -0.960790052674285 3.074335083974527 37 45 23
9.207290382122052 0.6388029335503712 2.6704437820447917 32 39 16
9.331010903356685 1.3370706750816805 2.9764958886548256 35 43 21
9.025048254550931 -1.2021640261860498 2.7117713906133316 37 45 24
8.22879648901171 0.07723729618596521 2.255481676886872 24 27 17
8.165545836146954 -0.6997341623590696 2.1116433955373664 29 34 21
9.224104031118593 0.94536850739272 3.075775129655502 35 43 21
9.369430901627561 -1.1667440000112066 2.447911351846166 39 45 29
9.51339999950934 0.20587308644306324 2.885911828725237 34 44 21
8.163306126859132 -0.20224495113924826 1.974149057242032 2 6 1
8.147027726446625 -0.8026579237732878 2.2637036793788203 37 45 26
