18.49356916934593 1.7385308355078841 0.7904118891528478 27 37 7
18.415457266246953 1.5847015199138361 0.8602675500198105 30 40 11
18.755979264683784 1.5822418055990128 1.1294824947236866 49 58 30
18.480821315340044 1.6994667362846134 1.1816733785186015 49 56 29
18.591240709965124 1.5169703902462393 0.9369120365105557 32 42 14
17.990202682886007 1.7074327726874956 1.1092769408075231 48 56 28
18.327394639147162 1.5829589674018867 1.0567791511629832 41 50 22
17.992830749289023 1.5822418055990128 1.2301582038680001 51 60 32
7.937734906287161 0.5267330193959485 1.4430577224015473 45 50 25
8.380176739836966 0.798316883272841 1.449835864678994 45 49 20
10.318217569168645 1.3913923151218541 1.3746231113922054 38 45 15
10.080070000961827 1.6901414728894857 1.4703105459426997 37 42 11
8.475253660906194 1.070266039618563 1.9311980942613294 41 48 16
7.9921664410465905 1.070266039618563 1.6948353058520316 41 48 16
8.513901885391919 0.9663303866514953 1.6871984827553472 43 48 20
9.438985706621564 1.2672441954435267 1.675745904041401 37 45 14
8.876400635502158 1.1246951832045562 1.682424522465181 39 46 14
7.523974871588088 0.8009627453765159 1.9793003011825112 44 49 20
7.420880791361231 0.4099783971624487 1.569287077995637 43 49 24
8.631544577101888 0.8920161813362216 2.0511793924556017 43 49 22
7.486459230988328 0.4099783971624487 1.703261850725181 42 49 19
7.150615917296814 0.2801107080560225 1.7095226646925754 43 50 18
7.3026457426585925 0.5983381621721795 1.846620093591991 45 48 24
9.44532946418771 1.5924609554846962 1.892761674435368 41 46 15
8.938002341510416 1.4698696926824484 2.033393960668829 41 46 17
9.477660554152656 1.4810723620682384 1.8916239777560853 40 47 15
9.959779727214631 1.5902859109191951 1.5696718085988026 38 45 13
10.102946087711071 1.8762665702423842 2.334717875879199 48 53 28
9.467939805951685 1.7197375546398317 2.1257630967300996 45 50 23
10.59578791474377 1.598685450208699 2.424865830135589 50 55 29
9.426849206097545 1.4698696926824484 2.128467704634384 43 48 19
10.025802871688201 1.316852217853118 2.342115017010708 47 52 25
10.12200014546764 1.3476434561785682 2.203914827211903 45 50 23
10.66109378260699 1.7407588635189797 2.417863414446192 48 53 28
10.621708250079854 1.4698696926824484 2.288920511742952 47 52 25
10.198415728636089 1.8398262283220832 2.198426806744174 47 52 25
10.198415728636089 1.8398262283220832 2.198426806744174 47 52 25
10.204477249144166 1.9236522866480417 2.470064923405946 52 57 30
10.785757173760894 1.6033634253097406 2.5560193411809893 50 57 27
12.57226813187895 -0.43033274988214665 0.8799210571930244 43 50 15
12.928501930204721 -0.5200167293322511 0.9024943361336581 43 52 16
12.975789277164656 -0.7986323413025493 1.3365983300998003 46 57 24
12.582101219123809 -0.7400955200947295 1.246330982911356 48 58 21
7.096969780309496 -0.006188387914469412 1.2834706554022492 38 47 15
6.632155592711795 -0.48263927047773564 1.4177300465452503 29 38 5
7.172950316437053 -0.15193968785839465 1.2865993694016442 34 43 9
7.161197098472993 0.1398244492691096 1.2861199243367134 43 50 18
7.439484093737889 -0.6992892038353068 2.1366850592764752 51 62 30
7.14317325708253 -0.6081768968189465 1.709668143227816 41 50 15
6.587163531116148 -0.6992892038353068 1.8775029053751267 46 56 23
7.090654444637054 -0.006188387914469412 1.8550924251959806 38 47 15
8.122246358558828 -0.8257689827725202 2.606951682353992 57 67 37
7.644751797212089 -1.1916307313743837 1.7005033608587454 57 62 36
6.734834360363234 -1.1360401558256081 1.7181477374680572 50 58 30
6.965612634205427 -0.8093798766810733 1.5691884343400702 40 48 15
7.627854093564326 -1.0629822090698084 2.283688099686631 57 67 39
8.586319596975233 -1.3118307169856502 2.7663269886620943 59 72 45
8.273047878253916 -1.1506310251967922 2.576926438996952 57 69 43
8.113662570207913 -1.3740010506246265 2.6087409436811018 55 69 43
8.161367441661685 -1.858040780836231 2.5989114409257437 54 68 43
8.366368245847578 -2.068102139603334 2.55955556493487 56 68 44
8.631412540020518 -1.9448399396763527 2.7532808031985385 56 70 45
8.631412540020518 -1.9448399396763527 2.7532808031985385 56 70 45
7.461835783626524 -1.2803624807625211 2.1347835349022066 56 65 39
8.133352847907727 -1.4568519623906255 2.0833737545748825 56 62 39
8.785612664257789 -1.919123717927712 2.320825250120034 56 66 44
7.876851684954896 -1.4381984984191505 2.2566701775240325 56 65 40
8.590622257965691 -1.765911329273368 2.342186068172974 53 62 40
8.034298804355833 -1.2268678831786994 2.411937307056311 56 67 42
8.619974222116465 -1.6092729661236131 2.5162594047624856 54 66 42
8.70012383229478 -1.8033370599958316 2.5036100698458634 53 66 42
8.785612664257789 -1.919123717927712 2.320825250120034 56 66 44
13.07071316539923 -0.9100408596718267 1.3383305908733263 48 57 27
12.49926964904158 -0.9751697460257206 1.3274928953626433 46 55 27
13.60232448714354 1.3699232746055838 2.840104385899497 54 63 33
13.34569097622873 1.304794341162993 2.90980792088208 58 67 37
12.998515114290566 1.4096563492408494 2.7448400673939894 52 61 28
13.34569097622873 1.304794341162993 2.90980792088208 58 67 37
13.34569097622873 1.304794341162993 2.90980792088208 58 67 37
12.206166553402728 2.118458756860703 2.952589840731554 57 70 41
11.341453952708292 -0.01500941592838228 2.891565724023307 59 69 41
10.689376902160154 -0.011066072555500617 2.7775370866334685 52 62 32
11.381754767255984 0.3289761427897854 2.8780571541253597 58 69 39
17.720417370262087 1.7683439151386449 1.164013653938707 49 55 28
18.273110181206 1.7569699803556404 1.2355897584867832 49 56 29
19.83528907982317 2.2832954262185274 1.041742657131421 46 52 25
19.736902719574424 2.323216515727674 0.9789441892983823 33 36 11
11.216827017963318 1.9694302694423533 1.299008764444448 30 35 6
10.649253933551254 1.8811893756602645 1.3807969367852184 35 40 12
9.940414725804203 2.0086836325680952 1.670433821470373 43 48 20
9.716030357678491 1.9133108927368956 1.77694603021729 44 49 24
9.502982695453479 2.1490663945658097 1.5696177543273193 47 49 23
9.080918576247365 1.9524879953002985 1.9061781086622867 48 52 25
10.057082807743768 2.3728844293677014 1.669274194610783 46 51 24
9.182794595465218 2.2120574267744573 1.90231381682522 46 51 22
9.533662343008928 2.113260336460593 2.1214948918067402 47 52 25
8.36314679566354 2.5730061381306357 2.067977249042155 49 55 19
8.960523816070571 2.5381793182388344 1.7946115737464436 51 54 21
9.128549908563167 2.638629160554815 2.0230111335017384 48 54 21
9.196252589556414 2.6239245318519773 2.434050563517739 52 61 28
9.346825822559545 2.2878127868065894 2.133816584134371 49 55 26
8.883683043843561 2.5730061381306357 2.1670770125877863 49 56 22
9.540146237071808 2.272932025721729 2.3928823865655975 51 56 25
9.350133113189907 2.3794584242510792 2.2659510342963114 51 56 25
9.431466161080731 2.184173833779684 2.2587800096702697 48 55 25
9.564874568517606 2.490458350181602 2.390104191970529 51 58 22
8.97086929398045 2.87587699214581 2.160495593756533 47 56 21
8.924981673391338 2.781119208674688 2.470367761013944 54 62 28
8.485520644186884 2.696080307811963 2.1992803689464235 48 57 23
8.935751704505648 2.795172387469257 1.7952426626501192 47 54 20
8.939211083852985 2.907052057506708 1.9117087914742301 47 54 22
8.403339441043839 -2.563408964450763 2.065383621455698 55 65 37
9.165386673169564 -2.629685133455384 2.021059611860665 56 65 36
8.491105856715956 -2.6117636847718466 2.353646404719623 59 69 40
8.699901129340551 -2.514066337426523 2.5036445970742958 58 69 42
8.760110390275882 2.9592243454540026 2.494430756183727 57 66 33
9.223691168269474 -2.6117636847718466 2.4305793831813074 59 69 41
8.842705721169159 -2.5727472693478752 2.6985089497087804 57 70 43
8.68241422257876 -2.239535744728637 2.506366309589927 57 69 43
8.51524971328563 -2.685064892897447 2.1967452597632766 58 67 39
8.760110390275882 2.9592243454540026 2.494430756183727 57 66 33
8.806857105070428 3.0092229564174353 2.1730094948623893 51 59 26
8.769720999479736 -2.943586605181423 2.492982053505922 58 69 37
8.816416756711646 -2.997735961856444 2.1722643469663954 54 63 32
8.615936933318551 -3.134793046923448 2.3393330843787163 54 64 33
8.8545379098979 -2.8231268001212575 2.3135973950866218 56 65 34
10.127153779624624 -2.6884777359197365 2.662891409146 58 69 41
8.455232274410319 -2.1354730228972 2.3578765190338133 56 68 43
8.88139357992546 -2.2646367069471536 2.3108243390207006 57 68 43
9.113482718381196 -3.1364526478414536 2.0238144393188335 51 58 31
15.400794079205813 -2.300593782066643 2.3653081441218804 82 78 67
18.401736372257673 1.6626891653842053 0.7854590763679129 29 39 9
17.895787031142486 1.6454853316986577 1.1066513142564665 48 57 29
18.365227833227426 1.6454853316986577 1.057941963127465 47 56 28
18.388924856614526 1.641095897211933 1.1796234393350078 50 57 30
17.992830749289023 1.5822418055990128 1.2301582038680001 51 60 32
9.441358534368542 1.2672441954435267 1.4634872718076326 37 46 16
10.765621798888315 1.4900414195593472 1.1889942083056602 35 44 14
10.041484601873771 1.4900414195593472 1.469923106906157 37 44 12
8.87736023344553 1.070266039618563 2.0368034533613777 42 49 19
8.951753322370255 1.231812574154692 1.9112117781386508 39 46 15
9.802504156585673 1.231812574154692 2.104739017065283 41 48 17
7.311108493038423 0.3252469657073015 2.147878255263194 44 51 20
7.908752214552212 0.8920161813362216 1.8249932776236668 44 48 19
8.652708303847099 1.0023342514223732 2.185307717145712 45 51 24
9.211321809712489 1.4810723620682384 1.7884182149573777 39 44 13
9.694877353616961 1.8110023581180648 1.8841876268498288 43 49 16
10.029227852728583 1.6901414728894857 1.5696795954109628 37 43 11
9.082933818405506 1.3476434561785682 2.025452304222969 39 46 16
10.12200014546764 1.3476434561785682 2.203914827211903 45 50 23
9.645210380102434 1.8398262283220832 2.1144084933722502 47 52 26
10.849919673372971 1.7685990663887594 2.547161070063069 52 57 30
10.81408150071116 1.4363461067543972 2.552081456055947 49 54 27
13.231943390228162 -0.43033274988214665 0.8216435258680767 40 47 11
13.413851110056317 -0.473033469937066 1.4202942359808988 51 60 28
12.582101219123809 -0.7400955200947295 1.246330982911356 48 58 21
12.780794476989195 -0.7986323413025493 1.412778432866534 49 59 29
12.60086133464837 -0.8586415686573659 1.246831701127722 44 53 21
7.755898411198715 -0.7151066152210174 1.4400459166719266 35 44 8
7.105677491755105 -0.2915036980483939 1.5692201286318925 34 42 10
6.955862026739976 -0.15193968785839465 1.7134329852555064 38 46 14
6.947063221356983 -0.5643289419034685 2.1823871930987 50 60 27
7.203880079274178 -0.48263927047773564 1.998615521127714 46 55 22
8.166353095697175 -0.8154880959311274 2.394033720452361 55 65 36
7.301588461207722 -1.1360401558256081 1.9925220609397325 55 64 36
7.537110138902374 -1.3197631090243167 1.8378261739381936 58 64 39
8.509441325477502 -1.6029097054528336 2.3515049167223814 54 64 41
7.876851684954896 -1.4381984984191505 2.2566701775240325 56 65 40
8.632336170095337 -1.5983520168671648 2.1869740293954565 54 62 40
7.870079820750539 -1.4123032069262655 2.4355847058581017 54 67 43
8.590622257965691 -1.765911329273368 2.342186068172974 53 62 40
8.70012383229478 -1.8033370599958316 2.5036100698458634 53 66 42
12.273644151966726 -1.0465942386129898 1.2378657330595466 45 52 24
12.650914249803787 1.3699232746055838 2.8166302762822895 55 64 32
13.322749969143166 1.6363235084104335 2.9172199076653955 55 68 37
13.322749969143166 1.6363235084104335 2.9172199076653955 55 68 37
13.374747319019358 1.9544890474536636 2.9007762260353767 57 67 37
18.47416452242985 1.8132552852187693 1.2393783904354967 49 57 29
20.358317533197486 2.2832954262185274 0.9993253988079457 46 52 25
19.736902719574424 2.323216515727674 0.9789441892983823 33 36 11
8.835490754905821 2.8354421483707513 2.3155786974417465 51 59 24
9.720088408077956 2.001160652669314 2.234611180780215 48 53 27
9.060829233804354 2.385163099153198 2.451709107981267 52 59 24
9.36785543731883 2.298186085632143 1.6765457602475806 46 51 22
9.196252589556414 2.6239245318519773 2.434050563517739 52 61 28
8.741547895686256 2.7515080004673793 2.0446330354007993 47 55 21
9.723268737310303 2.062915464914014 2.3728287848573264 50 55 27
9.37206424668682 2.4665955929070336 2.1321178035361843 50 55 23
8.776486356797804 -2.629685133455384 1.9182942039406057 54 63 33
8.354335146622558 -2.3746452188885767 2.3700693179322454 56 68 41
8.51524971328563 -2.685064892897447 2.1967452597632766 58 67 39
8.491105856715956 -2.6117636847718466 2.353646404719623 59 69 40
8.678629236139246 -2.974909980434216 2.3323722829030205 55 66 34
8.668917640598188 2.9881637710025926 2.3334409626273676 53 62 28
8.186247155474101 -2.7669957146226363 2.391415992653195 57 67 37
15.945804916953833 -2.242861472615554 2.331089935382307 96 87 82
18.031365934944358 1.641095897211933 1.2309156150240779 52 58 31
10.558788458295973 1.3913923151218541 1.2815976925709573 36 45 15
10.246756088226254 1.7876689828328556 1.4719505580576098 36 41 10
10.025802871688201 1.316852217853118 2.342115017010708 47 52 25
10.785757173760894 1.6033634253097406 2.5560193411809893 50 57 27
10.66109378260699 1.7407588635189797 2.417863414446192 48 53 28
10.592869547819689 1.5951823479420175 2.291301756267888 47 52 25
7.635851945947217 0.5983381621721795 1.9729669614773204 43 49 24
8.518532623850277 0.8009627453765159 2.1964666824310415 45 50 21
9.352018518735605 1.3718636966895246 1.7850927295123837 37 42 11
9.518531808759361 1.7033166319252442 1.890197430108361 43 49 15
10.030926391255232 1.7197375546398317 2.2105945631275716 47 52 25
9.394343248030337 1.5951823479420175 2.1306273001248206 44 49 20
8.176327079994268 1.070266039618563 1.8164998795815313 42 49 19
7.090654444637054 -0.006188387914469412 1.8550924251959806 38 47 15
7.140881924283704 -1.0086846969406709 1.5692278992697608 43 51 21
7.154938453530051 0.1398244492691096 1.8524680358304875 43 50 17
8.273047878253916 -1.1506310251967922 2.576926438996952 57 69 43
8.034298804355833 -1.2268678831786994 2.411937307056311 56 67 42
8.161367441661685 -1.858040780836231 2.5989114409257437 54 68 43
8.075872671761495 -1.6187787378114198 2.61672955541227 54 68 43
8.785612664257789 -1.919123717927712 2.320825250120034 56 66 44
9.212691311342713 2.0558389859785535 1.788385344195196 49 51 25
9.564874568517606 2.490458350181602 2.390104191970529 51 58 22
9.550222556512477 2.4499139161316332 1.780578098602799 48 53 26
8.935751704505648 2.795172387469257 1.7952426626501192 47 54 20
9.050586587224622 2.113260336460593 2.027200083786144 46 51 23
8.88020203297026 2.4665955929070336 2.0366425073123313 49 54 21
9.125660559688049 -2.3805604431330183 2.6371036106540267 57 70 43
9.251034730153652 -2.6884777359197365 2.6130788901530284 59 69 39
8.754711203036779 -3.135738187966547 2.1771096067365527 53 62 31
8.258663012361502 -2.480278089964055 2.219393102983336 57 67 40
7.471168507518655 -0.9242164275831573 2.133993612759265 54 64 36
8.892713523136505 -1.9812362547164515 2.4749495874949643 56 67 44
8.825501772892844 -2.1956360467061025 2.702634643903721 57 70 45
11.984153740117124 -1.0465942386129898 1.3168092298340004 49 55 28
19.736902719574424 2.323216515727674 0.9789441892983823 33 36 11
9.783246684501853 2.298186085632143 1.8812617683112423 47 52 25
8.860543178260496 2.490458350181602 2.3129752325464246 50 56 20
8.738010261808599 2.638629160554815 1.9198895218075538 48 54 18
9.920598892392887 1.9524879953002985 2.097715597229975 45 50 23
8.754711203036779 -3.135738187966547 2.1771096067365527 53 62 31
8.668917640598188 2.9881637710025926 2.3334409626273676 53 62 28
7.565665040112939 -0.5643289419034685 2.290816806926763 48 57 25
10.689376902160154 -0.011066072555500617 2.7775370866334685 52 62 32
10.404078230818135 2.096257154784629 1.4734500006997289 42 47 14
8.860543178260496 2.490458350181602 2.3129752325464246 50 56 20
9.457308405994315 1.9524879953002985 2.006191850585228 47 52 25
8.707684550399586 -3.1334839975672044 2.5024398760073483 56 68 37
7.698493265936212 0.7067761264001219 1.6995928466782058 44 49 20
18.35114051700614 1.5822418055990128 1.1787741188283614 50 58 30
7.639899948136125 0.4711880128306429 2.12010893198472 44 51 21
6.622926745210612 -0.9242164275831573 1.875793215847338 49 58 28
9.555172247540149 2.2120574267744573 2.001432864222479 48 53 26
9.474901158688725 2.3756306536242655 2.0053283125564754 50 55 28
8.776486356797804 -2.629685133455384 1.9182942039406057 54 63 33
12.276802112029493 -0.8003022444415837 1.1503319033239847 44 51 17
7.750969100113488 -0.9639966228108515 2.453804070370281 57 67 38
8.785612664257789 -1.919123717927712 2.320825250120034 56 66 44
8.550618885713021 -1.6345140388816053 2.7770725450952973 58 71 45
10.624618695601216 1.4554846094190745 2.4217569411810027 49 54 27
8.475602663517082 -2.865008045234131 2.0607912477782566 56 64 32
9.251034730153652 -2.6884777359197365 2.6130788901530284 59 69 39
8.774607169618948 3.0252218354262155 1.918371773545072 51 58 25
