19.848703058140345 2.0226362944771394 1.1745785510871947 13 13 0
17.104076569513268 1.981402954827182 0.8206807572936878 21 27 2
16.71868900057659 2.0818870424187876 1.026287490845021 17 17 0
11.076478582897089 0.7510633028602676 1.4203398206627724 32 39 3
11.213906274469117 0.6232731405574166 1.4221974620896771 35 42 6
11.172226718680545 0.6800010849041764 1.969735583818566 35 42 5
10.624118577210698 0.5997308759770206 1.9915857638574939 38 45 8
11.358843724809294 0.22107608582721477 1.689019467679873 42 52 13
11.260964724979774 0.04298809711589744 1.780096571289994 44 55 18
10.9794243998191 0.4204501561884258 1.5106250135158648 42 48 11
11.347073668933536 0.13309066839141934 1.7784849341493456 42 52 14
11.545153991223945 0.3057221086767075 1.6002286977294073 41 51 13
11.041139838821241 0.4204501561884258 1.6924379244696224 42 49 12
10.595079390136826 0.46105544508477353 1.8914819332295947 39 46 9
10.915942144129275 1.2913810843998001 1.5102746573344648 44 51 19
11.626604568243877 1.1249994134920056 1.5139780889018204 43 48 15
11.14433964295648 1.2913810843998001 1.782319971109365 39 44 13
11.124537460874475 0.8177344907557663 1.971543368351713 29 36 0
10.391053844777948 0.9542589752078721 1.6034987617792613 36 43 7
10.966753970931288 1.0847452353628073 1.7857985146049915 37 44 8
10.330383368239813 0.8177344907557663 1.7008531262060456 28 35 0
10.668984339774006 1.3816438247645673 1.6026465607189728 38 48 12
11.263328647707693 -0.0478164234840716 1.7800519911442514 46 56 20
10.986649887348761 -0.42487659093578484 1.6017253520101928 48 55 21
10.863343815198386 -0.33888673277804443 1.78787776355093 52 59 26
11.561284552518911 -0.31011597873055985 1.6001876211940806 45 54 19
10.651647671698862 -0.6042493881889476 1.990429451715021 52 59 25
11.201892745139721 -0.6271605824413387 1.6906838312635737 54 60 24
10.82167546081064 -0.5504509486148021 1.788727087227455 52 59 25
9.99487613779756 -1.1316734562570046 1.9114957889875965 54 61 25
10.514688826265107 -0.9572110763899622 1.6985608418588896 53 59 23
9.827087310976472 -1.3633573524885816 1.7075548076953744 55 62 30
9.374295073101939 -1.3398422367891343 1.9350660418953924 56 63 33
10.012549595986332 -1.3633573524885816 1.8066591002549581 53 60 28
10.140082296034123 -0.7500578384817285 1.9064235369746725 53 60 26
10.368968409167625 -0.8212759552616792 1.7003664265438854 54 60 24
9.636097434493225 -0.9839640231486795 1.924727124101616 54 61 25
11.018977530717223 1.8493229507049367 1.4195486575274097 35 40 11
10.478887629419985 1.5703155627948746 1.603224554222685 34 44 7
10.541229108093328 1.6655115000248764 1.5081204979198495 33 42 7
9.980049276817553 1.9105465363029102 2.0206599860995196 45 55 18
10.207307631770977 1.8769988319966877 1.8020759337901653 49 56 21
10.745531603983615 1.7590211301461565 1.695801570754115 40 47 17
11.038825552556343 1.4751283121082366 1.878159007934441 37 44 10
10.60934532970053 1.7783501257562853 1.9922090108553911 47 54 17
10.992979538487505 1.5703155627948746 1.8794830891245429 38 45 11
10.837479901672403 2.0560159986627133 1.4169956874481344 52 57 26
10.370020303976725 2.323140382509473 1.4100036301223042 46 56 16
10.3739582383655 2.4609760166107604 1.700303753016006 47 55 19
10.248476179874155 2.541275138453314 1.9027365275746504 48 57 18
10.11050116889921 2.1034514885821918 1.8043313482482086 49 56 20
10.750871716999269 2.1034514885821918 1.9863156811421423 47 57 17
10.616532786365765 2.541275138453314 1.99190555133443 47 57 16
9.673980811157792 2.246862770724909 1.7097331569769214 42 52 12
9.372146303431233 -1.8006309487718366 1.9351534613694108 65 70 43
10.095073695337025 -1.5702677845510973 1.90797918381069 58 65 33
10.14398553173848 -1.6748595040925713 1.906289318296159 59 66 36
9.825037569032052 -1.7772228397710497 1.7075835181118386 62 64 38
9.046047248175467 -2.7261599763979296 1.832419803567653 60 66 33
8.705040213990337 -2.8354980243368884 1.842923894985688 58 65 28
9.86761661014043 -2.313760660004647 2.0261694072911203 62 69 39
10.368051400100175 -2.0089511736309658 2.002666177798275 68 73 44
9.97235710378241 -2.1007152487540663 1.7055503746369722 66 71 42
10.021635280727356 -2.156700321755575 2.0186571548021535 65 72 41
9.216698575979194 -2.472926214354878 1.8274653602872668 57 66 34
10.59201240251779 -1.9678694686874012 1.7935312377419859 65 70 43
9.519823372047833 -2.472926214354878 1.9292438116680237 60 67 35
9.410349192505395 2.979234246901171 1.822068171957858 51 58 19
9.998346183393705 3.0890142531611606 2.0197764946107784 54 61 22
10.204297376171969 2.7730854085533125 1.9042292417397975 49 57 14
10.314792041422107 2.680091228699549 1.799622699786318 48 57 15
9.617766177021196 2.8732510581502395 1.8165361349306668 47 56 13
9.410349192505395 2.979234246901171 1.822068171957858 51 58 19
10.288850034134787 2.8732510581502395 2.0062168932510502 50 59 18
21.327271567444466 -2.676574263744227 1.100721698703805 39 39 16
21.766699253132643 -2.7454423574137046 1.1109520380367282 42 42 17
21.07124858837717 -2.5870329243462096 1.2491991488938516 48 51 22
21.327271567444466 -2.676574263744227 1.100721698703805 39 39 16
20.997165409858372 -2.6990962478967293 1.2480234373883328 48 48 22
21.91550980336136 -2.559529610378852 1.0628031569304122 43 45 17
21.496159867059692 -2.8106329470956957 1.20643326371034 36 38 10
9.715653008754495 -2.97347492283384 1.9217032840805417 57 66 27
10.001008553741842 -3.0831130048589106 2.0196482390691477 56 64 25
22.023076292027163 -2.6355461663472606 1.4038209383947315 54 59 28
21.336117116097988 -2.7196633661167033 1.350600614440967 52 55 26
20.887632937387842 -2.654698769956834 1.3457922010649999 51 54 25
20.31027360609527 -2.7454423574137046 1.2883676756465796 47 47 19
11.436106137389274 0.1462126592597924 2.05660145231571 43 53 16
11.877719319780848 0.26805568283842945 2.236919884542992 43 54 16
12.78185858525112 0.4093840097866149 2.390148573620613 46 56 16
12.282760765076167 0.052519709455526045 2.3171690833894742 49 59 24
11.853998214492774 0.04727863359869283 2.1350907209707426 45 55 18
13.308217723531692 0.29967270554710007 2.460594855355212 47 57 19
13.529797237500976 0.4093840097866149 2.4406286129538217 47 57 19
11.057938076514684 1.362224860171189 2.0747467331548832 42 49 12
11.609207811459896 0.9806860812024876 2.25523137940562 45 52 15
11.606046675259224 1.2299900199037206 2.2554536595881682 44 54 17
11.31507337492472 1.1292581043999612 2.1655353743017063 41 51 14
12.85286080738152 0.8229127278900394 2.384254416176038 46 56 18
12.669909115126222 0.7459734469976964 2.2892654701063693 44 54 16
12.18933315134969 0.6632644571700834 2.3242811878852683 44 54 16
11.376422946853507 1.3086786305566782 2.3936259441691288 46 56 18
11.574000989224276 1.362224860171189 2.150478487813917 45 55 18
11.45284192663533 0.7459734469976964 2.157420510129831 40 47 10
10.786629737105056 1.1292581043999612 2.0886706873111494 42 50 14
11.214438709248698 1.078837412936319 2.2843058855441525 45 54 16
12.724728310314656 0.8300643223924227 2.5193469097404044 47 57 17
13.21318071168667 0.9390908053852993 2.602578600203265 48 58 18
12.502503459633909 0.568315482607254 2.4143803926522214 47 57 17
12.766441426902142 0.6402533594547866 2.5148061543119002 47 57 17
13.17768798594384 0.7293654102635708 2.60709902508416 50 60 20
13.761693599933617 0.6066719411212839 2.682994474817991 52 62 22
13.761693599933617 0.6066719411212839 2.682994474817991 52 62 22
13.589022448324032 0.6402533594547866 2.5579827261771046 49 59 19
12.9159307898485 0.24060398680783845 2.6423936905228476 53 63 26
12.57584328066278 0.20730934182841176 2.536046879186194 49 60 22
13.397414008551124 0.28629194934099933 2.741576693885933 56 64 26
13.397414008551124 0.28629194934099933 2.741576693885933 56 64 26
13.731497305527967 0.07866735635793523 2.6874689593550944 57 65 31
12.498203067194309 0.06747411426907432 2.5450789456760754 51 61 26
13.397414008551124 0.28629194934099933 2.741576693885933 56 64 26
13.556477895282697 0.3394210459936811 2.561628293767954 49 60 20
13.543908462016711 0.45897898775566753 2.716722854296453 52 63 23
12.498203067194309 0.06747411426907432 2.5450789456760754 51 61 26
12.831266118693145 0.8405814238827196 2.6546325034422846 49 59 19
13.723006033783339 0.8405814238827196 2.688738171515674 50 60 20
14.108280343140807 0.8575653188202835 2.8100042764125392 51 61 21
14.145914264403459 0.5532362939820853 2.802362020674467 54 64 22
13.753183835705876 0.45585979020840434 2.8957771839305186 59 66 31
14.858543815738425 0.6886550998690476 2.8765625870030056 57 65 27
13.936046130589597 0.11764966765182656 2.848006044031811 59 66 33
13.68222610936376 0.1562440298035438 2.9173798361055465 60 67 32
11.418827432251241 -0.4149680508615083 2.268913326815204 54 61 28
11.62927140050473 -0.05841439894294665 2.253824329621777 49 58 26
11.7172180570147 -0.1679332393223069 2.2477320895775668 51 59 26
10.634089374624656 -0.5146442137642835 2.096862553017746 52 59 25
11.298979612785134 -0.27354543277779975 2.1664991811796392 53 60 27
11.945095754383722 -0.34616333735979327 2.4684882597791167 54 61 30
11.44810263213511 -0.4663967216014414 2.3869017863397346 55 62 31
11.522658680492638 -0.7352483114357952 2.515895998243951 60 67 35
11.650256985331447 -0.5310122903607729 2.5008930867244588 59 66 34
11.44810263213511 -0.4663967216014414 2.3869017863397346 55 62 31
11.229524883928391 -0.6459315743774983 2.407834519790983 59 64 31
12.922113032908303 -0.24895003197219254 2.6415169770337315 58 65 32
12.2210779610377 -0.39826596376764956 2.579344784493686 59 66 35
12.582192626362595 -0.2145771271563511 2.5353183548764218 54 61 29
13.724174945281469 -0.8999925287184369 2.9043485653143684 62 71 38
12.00016831489438 -0.6991265832529857 2.808287283742932 60 69 37
11.635628531646395 -0.7219631943187482 2.6651425349815434 61 68 38
12.650066421885965 -0.46749313885353183 2.6824175227305185 59 66 36
13.68417176875493 -0.1734851349552838 2.9167572042995653 59 67 33
13.326559702135805 -0.10483287790705073 2.754344612144479 58 65 32
12.50033301947829 -0.07503660931594701 2.5448280584731737 53 61 29
12.989484948341653 -1.0538285166179133 2.823968496288483 64 71 41
9.443684197261772 -1.3104499982578468 2.1717520916303137 56 63 29
10.39841488258538 -0.6679667525921968 2.1100736122340855 53 60 26
9.941306293211207 -1.020403465475727 2.2623286392869595 58 65 31
10.384586715975106 -0.9165890302909058 2.227483445093579 57 64 31
10.289448287362587 -1.1909331101201115 2.234630265871436 58 65 30
11.260762312731522 -1.0727734505573372 2.5488412163814154 61 68 36
10.4625952787587 -0.8348834197183153 2.3483288153129838 58 65 33
10.920985489316767 1.4651011934043339 2.0816752929190394 43 50 15
10.874642688920932 1.57026481384802 2.0840655499776664 47 52 18
11.603443314434744 1.9105465363029102 2.255636840189187 46 56 16
11.386393950565132 1.8020244205552731 2.2713057856648966 46 56 16
10.894638242747408 1.9519501123823346 2.310004767400958 48 58 20
11.984025300405703 1.57026481384802 2.2299668238941477 45 55 18
10.212294473251529 1.8020244205552731 2.1210164481366336 46 56 19
11.374652402646486 1.8316565707905093 2.393793728296314 47 57 19
11.889054314129837 1.570202086458621 2.3482469138596356 46 56 18
11.931457703503588 1.4527369671850043 2.3447550377492035 46 56 18
12.026093831620052 1.4651011934043339 2.2272594106951 45 55 18
10.999704412095415 2.159975725478866 2.185059562803278 46 56 18
10.94392171389693 2.401643818209904 2.3059070497651337 48 58 18
11.922185274316666 2.3105253925920857 2.4709020760756606 48 58 18
11.47676682654443 2.3178431356734404 2.2646848253254888 47 57 20
10.968314469998305 2.246862770724909 2.0792582771231953 45 55 17
10.864468343933792 2.3178431356734404 2.193866082471406 46 56 16
12.140662304232087 2.3178431356734404 2.328048723288485 47 57 17
10.499024443258707 2.84156471595566 2.2191086678816063 49 58 16
10.984163108057263 2.93399335028739 2.4329599235387644 55 62 27
10.446678578775249 2.5726243932134154 2.222910030515032 49 59 17
10.895186316600567 3.0740216940160123 2.4425412125847075 57 65 29
13.903331460404091 -2.4408121096748947 2.8558920760239577 64 73 39
13.613330473847828 -1.9459398633221483 2.940774201783789 64 73 39
13.576922959064024 -1.5688034625143963 2.954404163149759 63 74 38
13.756793958216722 -2.6701915239413725 2.894733377012231 69 76 42
13.57422006801842 -2.4884103437509393 2.955458381386328 70 78 44
13.426823576234469 -1.5674980630211135 3.0276461396134926 63 76 39
13.46438493929417 -0.9885812721243568 3.00542517801708 64 75 38
12.873097870249742 -1.2931708824501322 2.852731720155216 64 70 43
14.121942429009616 -1.787158612378311 2.8072057848830205 63 70 40
13.941518634390661 -2.0856034922916864 2.846710430884582 64 71 39
13.83387191928666 -1.8457787356204038 2.873515102557639 64 71 41
10.637592221269133 -1.4180063957075504 2.471861696608779 59 68 34
9.702206913212184 -1.9495049907451496 2.1535973078598745 68 73 44
10.10970848086868 -1.6869601818764202 2.127252837911171 62 69 39
10.700555977238317 -1.8298929211505712 2.326667017948674 67 72 43
10.560876363281048 -1.4380508795148716 2.3392087375102486 59 68 36
9.734628530239284 -2.9529158593225078 2.15140346679829 60 67 30
10.217105819518846 -3.0758183563161574 2.2401812037337407 58 66 28
10.449177840672972 -2.794969899963347 2.3495936265701407 60 67 33
10.217105819518846 -3.0758183563161574 2.2401812037337407 58 66 28
9.896100248836238 -2.5672405473758126 2.1407362364559166 61 66 37
12.343032974111535 -2.4053422580303407 2.563853430964641 61 68 37
12.883195322027136 -2.5268274409001688 2.647073826711306 61 68 38
13.441216334327747 -2.4183805725066336 2.733938158573304 63 70 39
10.60323118868229 -2.1200675227941144 2.335354831595929 65 72 42
10.896277637513732 -2.313760660004647 2.191770000021528 62 69 39
12.743771368360258 -2.3057072173542243 2.5172667052436903 60 69 37
21.87235015047806 -2.571891421125518 1.3560846755823084 55 59 28
16.325582144112552 2.0188207486774226 1.0116402448965514 31 33 12
10.917244873657706 1.3816438247645673 1.7867889516973212 38 43 10
11.260964724979774 0.04298809711589744 1.780096571289994 44 55 18
10.328207816018606 1.1292581043999612 2.004444888550182 38 45 9
12.031698316478174 0.5742717756764573 1.4323651389116334 36 43 6
11.255754865098991 0.9542589752078721 1.9666093952135337 33 40 3
11.170953724556 0.6232731405574166 1.6910174778439213 34 41 4
10.392422371252165 1.037259632511262 1.89796604823051 37 44 8
10.617670106224265 -0.46578680448035914 1.8907753151832754 52 59 25
11.012027799556423 -0.15141754518154743 1.9758760277987522 50 58 24
11.194552333489602 -0.24736323844527297 1.9688950365684854 52 60 26
10.60005552768973 -0.37326826144862485 1.9926019038995904 54 61 28
10.82167546081064 -0.5504509486148021 1.788727087227455 52 59 25
11.126675005547826 -0.6271605824413387 1.6013359997624037 50 57 23
10.28484777366571 -0.6042493881889476 1.901517798240561 52 59 25
10.59017634517855 -0.6840096602227972 1.793570505806084 53 59 24
9.90883140530111 -0.897374296530683 1.809175521543277 54 61 25
10.913387754325266 1.9698722584521033 1.2287764992310324 26 31 7
10.777570426255993 1.6655115000248764 1.7896334084188465 39 46 10
10.526972803051079 1.4751283121082366 1.6030763767694256 36 46 9
9.945441605429567 2.0113626526861945 1.913258528014062 47 54 18
9.841911658679415 2.1034514885821918 1.605324142681482 50 57 21
10.715159423335248 2.1865420997309903 1.3199028620410278 53 60 24
10.308249159885927 2.4609760166107604 1.5067020206022208 48 54 17
10.839794827135501 -2.0537072984914566 1.694708897904319 66 71 44
9.63467985387962 -1.9085830973092461 1.9247814887914798 65 70 43
9.861089136901672 -1.4656875855396316 1.8103521673764633 56 63 31
10.075777527651418 -1.8753915928920728 1.7041589212228752 64 66 40
9.572970779252826 -2.390817257215392 1.606294561419634 62 68 39
9.741609159204513 -2.5367545889611987 1.5029682786089065 60 67 35
10.431055315471298 -2.1007152487540663 1.8967094255941477 67 72 43
9.902731666802392 -2.24340026302875 1.809325203519669 66 73 41
10.302055474546064 2.8990038191489673 1.6037813767289064 47 56 14
9.306337497314448 3.0890142531611606 1.8249381924305161 52 59 20
10.134862133411268 2.680091228699549 1.7033768374790452 47 56 15
10.011934796965699 3.0942664553730896 1.6047375625071545 49 56 17
21.441454024559324 -2.7936563157195486 1.1034254224647135 35 37 12
21.595187865508894 -2.858457314783546 1.1581589406391655 48 50 23
21.427080119044682 -2.7246807452265864 1.0500670858760859 37 37 13
20.95586326461851 -2.7454423574137046 1.1965813110291859 45 45 18
20.956541887983704 -2.7643292133188924 1.3465447347697692 47 50 21
21.13323698188515 -2.654698769956834 1.2996497581068698 51 51 23
20.86729253686856 -2.8106329470956957 1.2961051070524672 44 47 18
21.140231739183488 -2.7196633661167033 1.3967780466582456 54 57 26
21.56299245641511 -2.6767185060471648 1.4002236468082874 54 57 26
9.12991786397482 -2.97347492283384 1.6080179827527585 56 63 26
21.13323698188515 -2.654698769956834 1.2996497581068698 51 51 23
12.125467848724895 0.3681313925648618 2.2209604218046315 42 52 14
12.388801405762619 0.18201914064692107 2.424754235254998 48 58 20
12.361754176615083 0.16218000798964627 2.3112752244985675 46 56 18
11.38484589585492 0.46105544508477353 2.058980320516488 42 51 13
10.918829327612464 0.6632644571700834 2.1902932377244007 42 49 12
11.282201245776426 1.2636276840621594 2.063818078619491 40 47 11
11.31507337492472 1.1292581043999612 2.1655353743017063 41 51 14
11.594527567428564 1.1884820376980492 2.3735667172039685 46 56 18
11.214438709248698 1.078837412936319 2.2843058855441525 45 54 16
11.388162669286464 1.3384424705418607 2.2711748400522067 46 56 19
13.150238819789136 0.7391131599888593 2.4755591999207187 45 56 16
13.589022448324032 0.6402533594547866 2.5579827261771046 49 59 19
13.17768798594384 0.7293654102635708 2.60709902508416 50 60 20
13.589022448324032 0.6402533594547866 2.5579827261771046 49 59 19
13.430344012432741 0.7144252003803061 2.7358168383478296 52 62 22
13.944444301357217 0.3907089294525884 2.6571238605650978 51 62 22
13.802201728807175 0.24060398680783845 2.6770851444813535 55 64 28
13.802201728807175 0.24060398680783845 2.6770851444813535 55 64 28
14.25564632698522 0.0942996691428938 2.7811822914533733 58 65 32
14.005717977486455 0.3525149690944983 2.8319759776209814 58 65 31
12.312144071992249 -0.06569179028475577 2.4319280914239467 51 60 28
11.832830541887715 -0.3057331224987915 2.352934318248483 55 62 28
11.8562438975517 -0.05258725221599421 2.134970839252217 46 56 21
11.110031285752601 -0.5736961137613508 2.292469835890283 55 61 27
10.741487303039909 -0.4663967216014414 2.3230811293184885 53 60 26
11.387503771030337 -0.39826596376764956 2.532514128061698 57 64 33
12.2210779610377 -0.39826596376764956 2.579344784493686 59 66 35
13.180925220535935 -0.8650843839177332 2.782404622857434 63 70 40
13.733435984514431 -0.08747309223683786 2.687179862222941 58 65 33
12.016568635539413 -0.6138165625910414 2.606964132754836 61 66 35
12.922113032908303 -0.24895003197219254 2.6415169770337315 58 65 32
10.334237563494392 -0.7439350724805252 2.2312443480370776 56 63 29
10.024416906615576 -1.2727392508955637 2.392324377724773 58 66 32
11.008111062227586 -1.139304983220924 2.4304256374230158 59 66 34
10.607029518671663 -1.020403465475727 2.335011415171558 59 66 32
10.352304444578573 -0.8269957508237429 2.1127413043334644 56 63 29
10.059985691338905 -1.081787356583923 2.1303302234895822 56 63 27
11.591921619596365 1.9519501123823346 2.3737995022007645 47 57 19
11.930613648851569 1.6876835314283332 2.344824186671047 46 56 17
10.920063331571644 1.6754401487318469 2.0817226267565494 47 53 15
11.984025300405703 1.57026481384802 2.2299668238941477 45 55 18
11.572260674297869 1.7783501257562853 2.1505769513539095 45 55 18
11.889054314129837 1.570202086458621 2.3482469138596356 46 56 18
10.912371311461483 2.477630110624451 2.1907153482008574 47 57 17
11.679287291250603 2.2279890826344655 2.3660817476879537 47 57 19
11.210846176545662 2.061707797223642 2.2845833175723604 47 57 19
10.36341368684452 2.477630110624451 2.112096023164769 45 55 17
10.863494374865901 3.08245228862008 2.3126214119505875 56 63 24
10.895186316600567 3.0740216940160123 2.4425412125847075 57 65 29
10.717548386259187 2.6807057098099825 2.3251735637078266 48 58 16
10.778509570952274 2.731748790174327 2.1996084358311956 49 57 15
10.603938819492711 2.6314665315917662 2.0985143140964357 48 57 15
11.425644305960962 2.6807057098099825 2.3889943045983584 50 60 19
11.162374008040233 2.8017197006967645 2.4145310204315864 52 61 23
13.46438493929417 -0.9885812721243568 3.00542517801708 64 75 38
13.613330473847828 -1.9459398633221483 2.940774201783789 64 73 39
13.83387191928666 -1.8457787356204038 2.873515102557639 64 71 41
13.722707318311064 -2.2391497527356443 2.90479127749758 64 73 39
13.614070202644237 -1.1922068509491357 2.9405074527697703 62 73 36
14.119343872393511 -2.2748515751149725 2.807735908368809 63 70 38
10.060630000865451 -1.5702057972746564 2.1302901140477575 60 67 37
10.041035495778283 -1.8298929211505712 2.2541333584561407 67 72 43
10.512946262315928 -1.5701273385333883 2.3436250192698433 60 69 38
10.253393187475893 -2.9267160211266448 2.3686175380752896 60 70 32
10.077651454605574 -2.6746178660590694 2.2511786247035395 61 68 36
13.441216334327747 -2.4183805725066336 2.733938158573304 63 70 39
17.638948913084413 1.859046425779777 0.9218359536335389 40 47 21
10.622779900064089 0.5461445308496401 1.6972537752714074 37 44 7
10.813839586719535 1.1708182130519187 1.8847700762305686 38 45 9
10.719640099829595 1.0847452353628073 1.6024960015852152 39 46 12
11.182655029198894 0.2423541135437811 1.9693425088603282 41 51 12
10.668984339774006 1.3816438247645673 1.6026465607189728 38 48 12
12.01488815612879 -0.3902292155640093 1.4321702089499215 44 51 15
10.026658374632007 -0.9839640231486795 2.01841649111679 55 62 26
10.07877549426123 -1.26523934596112 1.7041190153000065 53 60 28
11.370556679855635 -0.22567695052396627 1.6888971148415584 47 56 22
9.63781503058391 -1.2319585963514166 1.9246612766080136 54 61 26
10.160123771960148 -1.0399985512143328 1.80316971249154 53 60 24
17.49037181263193 2.090674707887015 0.7614432418052827 10 13 8
10.146177286235032 2.246862770724909 1.906213999520055 46 56 18
10.323557249731476 2.323140382509473 1.7009396107195554 47 57 19
11.038825552556343 1.4751283121082366 1.878159007934441 37 44 10
10.667096374256653 1.7590211301461565 1.602652199787783 41 46 17
10.650727989897348 1.6655115000248764 1.4142768743147396 35 43 7
9.77326100784436 -1.8006309487718366 2.030902694357556 65 70 43
9.44122523384817 -2.8354980243368884 2.0484084792078385 62 67 34
8.744824871154394 -2.7261599763979296 1.609657908844635 60 65 32
9.734920449201812 2.7730854085533125 1.7088578398190182 49 57 14
10.288850034134787 2.8732510581502395 2.0062168932510502 50 59 18
10.095230592410925 2.979234246901171 2.0151577799281903 53 60 20
21.07124858837717 -2.5870329243462096 1.2491991488938516 48 51 22
20.61783110504967 -2.7936563157195486 1.1901344030594025 44 46 18
21.321005196638605 -2.6306814645729824 1.1525223411451342 46 46 19
21.362267094484224 -2.6122934511866016 1.3508745946163834 53 57 26
12.145638169293232 0.8229127278900394 2.327661546975528 45 52 15
13.731497305527967 0.07866735635793523 2.6874689593550944 57 65 31
13.29341102915608 0.5243937994655954 2.5925711293454885 50 61 21
11.291429743263732 1.0167450098568012 2.401774758434617 45 55 17
14.858543815738425 0.6886550998690476 2.8765625870030056 57 65 27
11.443087898497271 -0.15141754518154743 2.0562793243222903 48 57 23
11.260762312731522 -1.0727734505573372 2.5488412163814154 61 68 36
10.920985489316767 1.4651011934043339 2.0816752929190394 43 50 15
10.312961165533798 2.3178431356734404 2.115039779795296 46 56 19
10.499024443258707 2.84156471595566 2.2191086678816063 49 58 16
11.442346243671654 1.6754401487318469 2.158030320225125 45 55 18
10.782894672399983 2.0113626526861945 2.088868050436791 46 56 16
10.952728625493698 2.9593492816846867 2.305180265131735 54 62 21
19.421297850587774 2.16474888457634 3.04992241587497 60 70 33
11.277919713435976 -1.7022270061271347 2.403088123519729 65 72 42
14.40170535304518 -2.155306248402571 2.755166766224396 63 70 40
14.121942429009616 -1.787158612378311 2.8072057848830205 63 70 40
9.746595111638554 -2.3968212031636393 2.150598217125865 58 67 35
13.463636986385213 -2.1483954306606066 3.0058312346949947 69 76 42
11.035949550853418 -2.156700321755575 2.182745101407696 65 72 42
9.8920475719629 -1.4380508795148716 2.266458422476219 58 65 32
9.694985860013114 2.541275138453314 1.605847618429207 48 55 17
8.763130584022425 -2.7261599763979296 1.4953810322088437 60 65 32
11.292779645827062 1.2055525050162872 1.6897143558893095 41 46 15
11.198499693061697 0.7510633028602676 1.7812815455191744 31 38 2
10.721258616042128 -1.382578102858572 1.602491214495578 53 60 28
9.284649272359498 -2.6264089090963227 1.7155993890889008 61 66 33
10.09891522722019 2.3949020834244856 1.9078458332712103 45 55 18
10.286887277227338 1.9698722584521033 1.6038300314547191 50 56 23
10.60934532970053 1.7783501257562853 1.9922090108553911 47 54 17
9.109426925357255 -3.0831130048589106 1.7184049258088732 54 61 22
11.607380320149701 0.2423541135437811 2.0488261885104855 42 52 14
12.379389186181923 0.7391131599888593 2.425627102430413 46 56 18
11.585806158040793 0.5997308759770206 2.1498115229226076 42 51 13
12.309981558087724 0.059066138595535354 2.432132635814856 49 59 21
11.493662256273938 0.8939105129475707 2.1550617210892926 38 45 8
12.39528776631638 0.5095898962921523 2.308805406175383 44 54 14
13.774064296214622 0.4603141305261551 2.5379413265884287 50 60 20
11.196492822824696 1.037259632511262 2.06793545621277 38 46 10
12.28877984309105 -0.562803283501678 2.7460116498616287 61 68 36
10.634089374624656 -0.5146442137642835 2.096862553017746 52 59 25
13.937956358195247 -0.13074014872069406 2.8475530529852913 59 66 33
12.249787152225503 -0.8650843839177332 2.753705148104842 62 69 39
10.987549646624428 2.2279890826344655 2.3023227146556873 46 57 19
19.522642354768767 1.9532578406981014 3.0046052947323107 57 66 28
13.463636986385213 -2.1483954306606066 3.0058312346949947 69 76 42
10.897629584569035 -3.066448422177861 2.4422745601253406 60 69 31
17.104076569513268 1.981402954827182 0.8206807572936878 21 27 2
17.151550775404242 1.9516906365723838 0.9000987757167548 38 42 18
11.354110177169623 -0.13784071574594475 1.7783543414848235 47 56 23
9.620126925667282 -1.453467437171343 2.038806966778345 58 65 35
20.701701853796568 -2.6990962478967293 1.2938501785788712 51 51 23
11.638252741474382 2.401643818209904 2.369684629924862 49 59 19
13.543908462016711 0.45897898775566753 2.716722854296453 52 63 23
11.124818768005456 -0.8464577194356844 2.5672359283602413 60 67 35
12.520372224260205 0.26805568283842945 2.299756724172318 45 55 17
12.963230416903155 0.4603141305261551 2.494137905308804 48 58 18
10.776610502169465 -0.9436976578745653 2.455733589455967 59 66 34
11.788450676180073 1.2636276840621594 2.1386140498107875 43 53 16
12.754351160845475 -0.8999925287184369 2.885920492796405 62 71 39
12.282760765076167 0.052519709455526045 2.3171690833894742 49 59 24
10.998199505226712 1.9105465363029102 2.1851560715380067 46 56 16
10.01053782907904 -1.7772228397710497 1.80670739966445 61 64 37
9.258806667676968 2.6314665315917662 1.7160064152022256 47 56 15
11.660301580319295 -0.18844501912833828 2.3677439125728474 53 61 28
14.005717977486455 0.3525149690944983 2.8319759776209814 58 65 31
13.798046337267962 -1.5693685530057955 2.8831359458459724 64 70 43
11.708883191364164 -2.224031299130517 2.3635069969646696 63 70 39
10.387576150423328 2.1034514885821918 1.8981243801396521 43 53 13
10.10868896987431 2.9952347712030423 1.604412574790196 48 57 16
12.309981558087724 0.059066138595535354 2.432132635814856 49 59 21
12.2210779610377 -0.39826596376764956 2.579344784493686 59 66 35
11.104909878900505 0.33414511371185396 1.8762706227021337 41 51 13
11.317771946372254 2.0560159986627133 1.2414684482217377 48 53 20
