12.878595026537132 0.8413355198579727 2.181445700255427 13 13 15
12.983197125309772 0.9166163509252632 2.272870221379934 11 11 12
13.589116875847308 0.7734717364152079 2.3331082532807446 12 12 16
13.099623384189444 0.8499866970454494 2.3694261982271545 12 12 13
13.65036885910385 0.9166163509252632 2.3288323111695393 12 12 14
13.67463436225203 0.6308109402400308 2.327153698581446 11 11 13
12.416219146282362 0.6952611835804281 2.3121577073365227 11 11 13
12.696425603352294 0.6053449821464684 2.402605952173971 11 11 12
12.957793826055601 0.6788349146231019 2.500455000910328 17 18 10
13.123869410902055 0.5026934370025804 2.483686623641712 9 9 7
12.616337965375509 0.5699891439296241 2.5376549358220295 13 14 7
13.198814676686935 0.44358724135243477 2.6110759149938128 24 25 16
13.018305254046597 0.3000465708907067 2.6352119110943963 39 40 27
11.365923106700187 -0.39085973873867025 1.873166011891517 13 13 12
10.77717415904885 -0.3027747024557658 1.7939048808762987 10 10 12
10.857688787422774 -0.42922440450071536 1.9864878953520004 7 8 3
9.773977638801721 -0.5314410059310887 2.1542504606307222 39 43 26
9.773977638801721 -0.5314410059310887 2.1542504606307222 39 43 26
10.041187237906236 -0.47531078202234744 2.022678588072046 29 30 21
10.77717415904885 -0.3027747024557658 1.7939048808762987 10 10 12
10.164990935737249 -0.3719974482285204 2.1290646719158492 33 34 23
10.264223310533762 -0.23199365126823113 2.0121582360318326 11 11 15
10.546991787934598 -0.3400068974668932 2.489760569285816 38 40 19
10.479916044537276 -0.2596629019521888 2.2258737522428507 33 34 20
10.036804082865745 -0.4791473826011366 2.397570138631037 37 41 19
10.173662046623717 -0.7051285987847831 2.2492113346163443 41 43 21
12.243189634189868 -0.7916952821828245 1.937054278337845 10 10 5
12.332854113258206 -0.9146883626639136 1.9342671074751527 7 9 2
11.791324180136627 -0.987142219544135 1.9517953858362864 6 9 2
12.03181465736591 -1.0338878001719054 1.7703069193326415 10 13 10
12.738248088818013 -1.0742913529152918 1.6797062926256103 11 11 13
12.58819755659506 1.0545823586922818 2.19768437638618 12 12 12
12.067366024213397 1.3099547161086935 2.8035900831909006 36 38 17
12.193657671928264 1.086899788574709 2.7752614518989454 37 39 18
12.68121511275025 0.7644137129267523 2.685434822700061 36 38 18
11.804417570395511 1.2830693096674575 2.489813574307416 29 31 12
12.016997912710872 1.1549667988068475 2.466969256847906 23 24 7
12.023200826090559 1.5625242649141429 2.8142011573265426 37 39 15
11.514538529588968 1.3618217322794501 2.694867930202401 35 37 15
11.889975341486059 1.2029013486825293 2.353474303920386 20 21 11
11.675082396424932 1.3180048291062996 2.3719513787458513 26 28 11
12.546622039503868 1.175236549239569 2.707809530190805 34 36 15
11.862231108229986 1.0135879293198657 2.6371259833315115 34 36 15
11.889975341486059 1.2029013486825293 2.353474303920386 20 21 11
12.183409961048739 1.097143897323879 2.329796775949234 12 12 12
12.157455776920537 0.8617972443786579 2.452651897088802 19 20 12
12.306297739249137 1.0937560988816308 2.5752013122551185 33 35 14
9.482145120929909 1.9315923026072666 2.0515008089881692 29 31 11
9.581657883946043 1.6932408152209248 2.1675589428182778 28 30 9
10.129859594924131 1.7108558952080701 2.3876437805129456 31 33 12
10.420499794539237 1.8944804942406999 2.5058378072910275 32 34 13
10.278656557441124 1.734338147152148 2.5247818372702437 33 35 14
12.47717395277123 0.1704718487794593 2.719986102629569 39 40 24
12.586195097395482 0.35514621729814533 2.7010706946684495 38 40 18
11.739885899041587 1.559638419386109 2.8949404593075583 40 42 18
12.13058246029016 -0.27411835253144723 2.789063408891704 42 45 16
9.845863819797941 -0.6877148453892509 2.4188865574246097 42 44 19
12.191070166481927 -0.8019070398379726 2.775815081784027 42 46 17
11.581044522285383 -0.9379621356639883 2.6830257287009385 44 47 18
10.305755536398914 -0.7954117423242255 2.369638909679794 39 44 22
10.82207896262532 -1.111712008132896 2.4571415760116455 41 46 22
11.759705112299361 -0.8098303755778907 2.8883333336944834 45 48 19
10.585529198649558 -1.250897373942993 2.485004597346668 42 47 22
10.439801902221479 -1.4041116899653119 2.503336649163819 43 48 23
11.393971687274044 -1.250897373942993 2.538604015719588 42 47 20
10.888297754579995 -1.1939105452344476 2.6097933849876584 44 49 23
10.888297754579995 -1.1939105452344476 2.6097933849876584 44 49 23
13.484696275402413 -1.34391726053858 1.5993200209032068 13 13 15
13.304281513372919 -1.4172991449981465 1.524522615205923 12 12 12
12.256047646003616 -1.4859501658415286 1.6840092811235592 33 34 23
13.56484011414553 -1.1776748604274156 1.822971910927359 12 12 15
13.008139168857555 -1.223347982226391 1.9975737054084257 5 6 5
13.616728050326252 -1.3259311486692456 1.977341756025885 11 13 8
12.597025999542748 -1.5681605240080976 1.842819715616328 51 55 41
13.187755016433659 -1.3049208036901814 2.076164355186272 18 23 13
12.778061216321515 -1.0672471003935733 2.186962864570748 46 48 34
13.497690333732683 -1.2800777207318583 2.2410519952772656 48 53 40
12.900328753578357 -1.2800777207318583 2.180267058900217 50 55 42
13.308782051243664 -1.3729049454560118 2.252354231417174 45 50 36
13.171273537826009 -1.1921228424008765 2.165976674530401 49 53 42
13.714246467335967 -1.4172991449981465 1.8201659035760136 3 3 0
13.897644434387873 -1.34391726053858 1.8168066170262378 7 7 5
10.646912027023083 -1.6763843118976118 2.1010371593029933 45 49 27
10.646912027023083 -1.6763843118976118 2.1010371593029933 45 49 27
10.385486762212839 -1.6892511739692009 2.2328778857984677 45 50 25
12.42822338185644 -0.12891641524254394 3.0577643106937713 46 48 22
13.068510905644954 0.7573014406026239 2.816639948967872 38 40 18
13.336039215179156 0.6179846190470146 2.761567020628724 38 40 18
12.580029342936667 0.4029647987471263 2.9650889443192057 43 45 19
13.395858772122562 0.1704718487794593 2.750539614283121 40 42 19
12.779714508821497 0.2782807308408328 2.8922758044363492 40 42 18
12.45765522124097 0.6982923758225957 3.033227194776609 44 46 20
13.452224202943265 0.6982923758225957 3.0412671037377716 42 44 20
12.566845697839279 1.0656677703530548 2.971071129621615 41 43 19
12.566845697839279 1.0656677703530548 2.971071129621615 41 43 19
12.886176318403063 0.5517466745698894 2.861663247991376 40 42 18
12.80063391254528 -0.3578415919596605 2.885936166404317 43 45 19
12.753746429002375 1.2251963830141153 2.9004024378539386 39 41 18
12.550884474297352 -0.06574299923672254 2.9786221717916668 44 46 20
13.025076982606615 -0.033167890247541534 2.826688115091816 42 44 17
12.604272911422289 0.7714672325283537 2.4106651200029177 11 11 8
12.696425603352294 0.6053449821464684 2.402605952173971 11 11 12
12.616337965375509 0.5699891439296241 2.5376549358220295 13 14 7
12.416219146282362 0.6952611835804281 2.3121577073365227 11 11 13
10.173662046623717 -0.7051285987847831 2.2492113346163443 41 43 21
9.707514440931885 -0.6007991225268636 2.2885507072185742 39 41 19
10.001611793142416 -0.41922802731408165 2.2631559131352845 39 41 23
10.517691903954757 -0.3339684451437775 2.000802867841848 9 10 2
11.041587080189624 -0.3027747024557658 1.882342052464696 11 11 9
12.040542849498431 0.14262919043458885 2.610922037517291 37 38 28
12.67176588763204 -0.987142219544135 2.098838390331056 16 20 8
12.864816793581687 0.38703876043483415 2.5102027221217185 9 9 7
12.386336515963428 -0.7331207032410683 1.764522882528419 12 12 10
12.025011025185766 -0.8579211666849009 2.035079319457459 9 10 1
12.09880156830474 1.2373437631022488 2.6027728433322563 32 34 13
12.09880156830474 1.2373437631022488 2.6027728433322563 32 34 13
12.590032911191438 0.9686297178052106 2.5406899606538396 30 31 16
12.183409961048739 1.097143897323879 2.329796775949234 12 12 12
11.646826271874412 1.175236549239569 2.6717140469068164 35 37 16
10.838561800835755 1.4403496393840642 2.320367354028245 19 20 7
12.523595976425042 0.7686528734878169 2.5484734400787943 30 31 20
11.673915774855802 1.4216144641366957 2.504608527087042 31 33 14
9.48059166038108 1.734338147152148 2.4637312085663003 33 35 14
9.580236341557612 1.8499361179223999 2.300209907443604 30 32 11
10.615437147794639 1.767159035068413 2.6552546642098465 35 37 15
12.586195097395482 0.35514621729814533 2.7010706946684495 38 40 18
11.11840782892168 -1.0373214465404144 2.57560244105876 42 47 20
11.051203430394704 -1.7056674423587654 2.4321161429543308 45 50 25
10.82207896262532 -1.111712008132896 2.4571415760116455 41 46 22
10.180679353319753 -0.7978640894432181 2.538486499771367 43 45 18
12.530286767516158 -1.1099083157843954 2.0149848561363903 4 7 4
12.597025999542748 -1.5681605240080976 1.842819715616328 51 55 41
10.985966609309964 -1.5668643101244772 2.3079497965664766 45 50 25
12.994341757689613 -1.3902770632635018 2.0844187466050936 51 55 42
13.308782051243664 -1.3729049454560118 2.252354231417174 45 50 36
13.308782051243664 -1.3729049454560118 2.252354231417174 45 50 36
13.388331827156874 -1.4923827824945788 1.7498606247928334 18 19 11
10.646912027023083 -1.6763843118976118 2.1010371593029933 45 49 27
13.053163125649577 0.21162026255082825 2.8201483016186963 40 42 17
12.601280248656051 -0.5089401978712328 2.9558718712554226 45 47 21
12.479114521765315 -0.8323673721902057 3.0184268571661264 47 49 23
12.779714508821497 0.2782807308408328 2.8922758044363492 40 42 18
12.580029342936667 0.4029647987471263 2.9650889443192057 43 45 19
13.053163125649577 0.21162026255082825 2.8201483016186963 40 42 17
12.524441949063696 1.5536605000396893 2.992007423878275 40 42 18
13.157412540724224 0.4334916356894141 2.7971466424269815 39 41 16
12.753746429002375 1.2251963830141153 2.9004024378539386 39 41 18
12.414878531563538 1.5338913144020592 3.0717156410590154 42 44 20
12.918782259582283 0.7734717364152079 2.2770952597325818 12 12 15
13.018305254046597 0.3000465708907067 2.6352119110943963 39 40 27
13.555860902035931 -1.1094529315131392 1.5991702388710594 12 12 16
12.340591712602762 -0.964165980117981 1.6019652920985064 12 12 12
10.72955929027119 -0.23199365126823113 2.096527432623855 11 11 8
10.417957479163315 -0.29460933125313427 2.3586372444766806 37 39 20
11.771192199137245 -0.9146883626639136 1.774785824951782 8 11 8
10.041187237906236 -0.47531078202234744 2.022678588072046 29 30 21
12.156335447942128 0.8788782783869747 2.594907769166348 34 36 18
11.889975341486059 1.2029013486825293 2.353474303920386 20 21 11
12.399566608475078 0.9057490477930542 2.734165828212372 35 37 16
13.085922431639 1.039826730477235 2.487448377445504 17 18 9
12.54987820406305 1.0016993922928668 2.302449469913533 12 12 13
12.6702868219219 0.9383548557112288 2.404872736876546 12 12 11
11.543118482692456 1.4403496393840642 2.383822707826323 29 31 11
9.733663398081434 1.8159500299173787 2.1569869622360756 29 31 12
12.067366024213397 1.3099547161086935 2.8035900831909006 36 38 17
12.772812697745602 0.5177667854585807 2.671030516538801 38 40 24
11.973079344348925 -0.6132435710902692 2.8267600289876817 44 47 18
10.439801902221479 -1.4041116899653119 2.503336649163819 43 48 23
10.626090292912153 -0.9050322341447182 2.480067286041886 41 46 19
12.586195097395482 0.35514621729814533 2.7010706946684495 38 40 18
10.585529198649558 -1.250897373942993 2.485004597346668 42 47 22
11.008772044047548 -1.566313134387876 2.4366169371759057 45 50 25
12.212564810197554 -1.5681605240080976 1.684414116218187 44 45 31
12.678222450498373 -1.146316755513515 1.8410337297919241 10 10 12
13.944150138590993 -1.27293611305558 1.742650429072648 13 13 11
11.516262350657854 -1.6660311975750373 2.057328472442346 48 50 28
13.187755016433659 -1.3049208036901814 2.076164355186272 18 23 13
10.646912027023083 -1.6763843118976118 2.1010371593029933 45 49 27
12.751026066360051 -0.04409481230083609 2.901271302575314 43 45 19
11.921683187528263 -0.7916952821828245 1.8586566988770625 12 12 9
11.365923106700187 -0.39085973873867025 1.873166011891517 13 13 12
11.468244542716802 1.5642241048867416 2.703370477527141 36 38 16
11.889975341486059 1.2029013486825293 2.353474303920386 20 21 11
10.38871980081242 -1.5655822448194132 2.5099948216456442 44 49 24
12.772812697745602 0.5177667854585807 2.671030516538801 38 40 24
10.268526376015961 -0.5569960847418622 2.5261744333050684 41 44 19
10.305755536398914 -0.7954117423242255 2.369638909679794 39 44 22
13.395858772122562 0.1704718487794593 2.750539614283121 40 42 19
12.414878531563538 1.5338913144020592 3.0717156410590154 42 44 20
11.804417570395511 1.2830693096674575 2.489813574307416 29 31 12
13.033694080869033 0.6551289202636971 2.6330871294308578 36 37 22
12.54987820406305 1.0016993922928668 2.302449469913533 12 12 13
12.403706582323714 -1.6504064457801295 1.7642481509647423 49 51 31
10.800420474750029 -0.2095747192574167 1.8895412473753632 10 10 11
9.425756893636516 1.7108558952080701 2.314957212777037 31 33 12
13.171273537826009 -1.1921228424008765 2.165976674530401 49 53 42
12.873306204434273 0.9540942926069971 2.8651622142447883 39 41 19
12.68816674902788 0.742900627406471 2.922400064268261 40 42 18
12.227415346389435 -1.0672471003935733 2.1201697644939443 22 25 17
10.585529198649558 -1.250897373942993 2.485004597346668 42 47 22
11.360309307819092 -1.1139272386753145 2.724105706533145 45 48 19
13.873689035522489 -1.2499814958331785 1.969381265106412 3 6 1
