8.61313201419815 0.7709233804152784 1.8547460701240124 29 38 12
9.357332979705982 0.5406943861578632 1.722376827012341 18 26 7
9.372187489717199 0.7709233804152784 2.061058728591348 28 34 8
9.417481840839212 0.4428598966746484 1.9416457719386988 11 18 5
9.664857469511231 0.6516780755393193 2.444951779139403 41 49 28
9.496125267422265 0.6019486077646753 2.0541057094062203 10 18 5
9.345318465086162 1.1020193755533947 1.9446501105033156 29 39 12
8.828459062846699 0.9720949195344608 2.2308087700095998 27 36 6
9.761950442048759 0.2185421532424642 2.1585537020145478 26 35 4
9.60523481160621 0.24886587553818984 2.301848068922354 4 14 0
9.244985062660335 0.2185421532424642 2.068416808048521 20 29 0
9.60523481160621 0.24886587553818984 2.301848068922354 4 14 0
9.57380178310985 -0.20591025451187212 2.4563994082913436 45 55 24
9.631879614802736 0.09570102096694655 2.16757897904893 28 37 6
9.604714123548346 -0.030091565081488806 2.1695018849621337 24 35 2
9.704135701351156 -0.31244172792175207 2.2927451160746886 45 54 22
9.217221906889948 0.3791463494674091 2.1984735474441948 6 14 0
9.681320254806453 -0.15494360138480417 2.16411336475851 25 36 3
10.004997172232972 -0.4262176771805223 2.5696963962638306 45 54 20
10.443410734499798 -0.5177438988928983 2.6936277242513174 43 52 18
9.829676491897034 -0.24613905570083602 2.598034587505852 46 55 25
10.32127662861564 0.12766895582641172 2.523713374958513 51 60 30
10.229004952895266 0.19131619891798662 2.7394457358390354 45 54 24
10.29593025061087 -0.040230009392423646 2.527185693773412 47 58 27
10.435367783552545 0.8806872626711301 2.5084924414197163 45 54 21
10.771080823967793 0.3430924189944179 2.633986846292322 50 59 29
10.203429365041563 -0.060658775237204976 2.7453804584304144 42 51 19
10.97901423787264 0.5105171389259827 2.60091416916372 50 59 29
10.97901423787264 0.5105171389259827 2.60091416916372 50 59 29
10.367430164051292 -0.20591025451187212 2.5174768659306945 48 57 26
9.673005743555127 -0.8107172495921416 2.0445326769160803 47 53 27
10.185355510841063 -0.7235374925318334 2.2518679372099917 47 53 27
10.098802926677275 -0.583773575710039 1.9155419350996907 32 38 11
9.772244308294905 -1.008593040743182 2.28662468821979 47 52 28
9.371325976993406 -0.43715606430134435 2.1865931575159063 38 47 15
9.891676195881507 -0.9271121807893897 2.4179733881736527 47 53 27
9.619350262254013 -0.9019903455015698 2.1684642055919525 46 51 27
9.860471477280367 -0.7100908364313806 2.4215626416090275 46 53 26
9.856381672694878 -1.0733526329306553 2.1521834251166556 46 50 29
9.762129841797229 -0.548905234210863 2.1585414571652928 47 54 27
11.371542343545858 -1.1220109154935392 1.6071198635939616 49 48 36
10.13902167542159 -1.1256514404670022 2.0211072966711607 47 51 30
10.967095742068881 -1.168551629339154 1.9849138150990238 48 53 33
10.207534330450988 -0.823104696714281 2.5395695147967627 48 53 28
10.275086223357269 -0.5811887854917674 2.5300669917927827 45 54 21
14.512957659341842 1.8794934364523808 1.1756222879758604 32 41 23
14.14827373910803 1.7449691930508147 1.004806293560899 40 50 32
14.081102260784926 1.903907868305502 1.084004659723028 20 29 11
9.828377079841841 1.6799230566833332 1.6128261978437592 35 45 21
9.828377079841841 1.6799230566833332 1.6128261978437592 35 45 21
10.09806851899024 1.475754480244914 1.812083803906553 32 43 17
10.055342835681653 1.5779126732993298 1.8131295528610802 32 42 16
9.868036025542773 1.6922626340342515 2.034426254572532 36 45 19
9.448510142845885 1.4649832434349594 1.9403691604391051 30 40 12
10.967739068575174 2.176646496084271 1.3326755050976937 17 22 8
10.139241776182484 2.0953477917257874 1.5128664869419788 15 21 7
10.139241776182484 2.0953477917257874 1.5128664869419788 15 21 7
10.26585520065618 1.7797104584183352 1.8080637849522838 38 47 21
9.390325637939585 1.9077777719988023 1.7218401581844374 33 41 15
10.249338118000713 1.875459475609529 1.5134894435135202 29 37 19
10.025820002886677 1.802750604627887 2.0265730576785037 35 45 19
10.245438134302727 2.0056286017767206 1.910407329378725 32 38 13
9.462693029881992 1.5797463914820844 2.179777474504648 37 46 18
9.83526697154882 1.100244947161946 2.4244892072749304 44 53 19
9.13448237700576 1.3270048780693502 2.075000090428458 29 39 11
8.834335317742271 1.247467964316873 2.3831580557020136 40 49 19
9.143478149599092 1.1618083552652254 2.204337851344644 32 42 14
9.36520067879725 1.4340287174342061 2.3250778308034574 40 49 19
9.319115595538937 1.5810700266316917 2.3297346932807246 41 50 20
9.953513914904615 2.2344761120871905 1.713233757269983 39 48 22
9.545877588821378 1.8678178752789614 2.3074385878264474 41 50 18
9.811356209496974 1.9969523131106124 2.2831628723196253 40 49 17
10.031667997812017 2.4763960877173647 2.2643474271309043 43 52 18
8.960237925142339 2.5868091602912213 2.219444121239123 44 53 19
9.87755368372527 2.0603184370047583 2.419593177657554 44 53 18
10.000900089912736 2.2924056303135085 2.266907733611239 42 52 16
9.423822748445692 2.4763960877173647 2.1826569375859872 41 50 16
10.267000068079135 2.1493992158954116 2.015089938657705 42 51 25
9.947831651389915 1.9474037184121331 2.1461541565973667 36 45 17
9.686094302427703 1.8313734166697768 2.163781020698256 36 45 17
9.533557514326619 2.2141555818980474 2.0520461675059267 37 46 14
9.96649420373513 2.3822376730333725 2.144940198350021 41 50 18
9.704763108122929 2.2780120468450487 2.440050804214244 44 53 19
10.492313295638768 1.9969523131106124 2.3553561955957667 42 51 18
9.533051498840443 2.1857692118885264 2.3086595068382785 42 51 19
9.96649420373513 2.3822376730333725 2.144940198350021 41 50 18
9.251444199712761 2.7146323585889434 2.336695211557184 43 52 18
9.00370191984583 2.859161885498875 2.363507014759432 44 53 23
9.97071448816995 2.7146323585889434 2.409045970247556 44 53 19
10.10127875602287 1.0190633315010857 2.5550536569756352 46 55 21
10.196822996034605 1.5828530969879935 2.541100023952039 43 52 18
10.3188235928807 1.0965935828314932 2.7194493330610015 44 53 20
10.846045475669744 1.7276715642398228 2.458574015530256 42 51 19
10.793413303094788 1.5810700266316917 2.4645893132613597 43 52 20
10.551738653516715 0.9089105821877104 2.6727172588332153 44 53 21
10.23895832023881 1.4106642194589678 2.535117307906684 43 52 18
10.237998685932487 0.7556715517080627 2.737385331618558 45 55 18
10.014691486720492 0.5411631798128136 2.793179059258301 46 55 26
10.404473204838643 1.9156453594422311 2.5125498074388357 43 52 18
10.376577493177368 -3.1022825606107736 2.5162537877775004 48 58 28
11.421652466179818 -2.788225830950472 2.5394665665873193 53 64 33
10.447525494247511 -2.9402679945075416 2.5069084649602047 51 63 31
10.762796330335457 -2.901940479651558 2.635372440157371 50 63 30
9.883764437910738 2.3784730419952074 1.7142458617013507 40 49 17
9.790958678286092 2.3784730419952074 1.6129869198610416 40 49 17
10.340286257349325 2.658161540786428 1.7078716790311033 38 49 14
10.760680097209667 2.57566374423957 1.5162154123124572 39 47 18
10.756949031655456 2.784108045896428 1.6091961851176986 38 49 14
9.919624406446239 2.7484616716360777 1.7137237171061699 39 50 15
10.25161412947854 2.658161540786428 1.6110900380977387 40 48 18
9.936689564875268 2.7054199567271886 2.030974830508333 40 51 16
9.737457737703 2.4578000154448576 1.9288995857273268 41 50 18
9.971682074929044 2.608530883714585 1.9201234059522663 40 51 16
10.486039048297723 2.521558062993199 1.9023124068965283 42 51 19
9.38800244531889 -3.115278078754675 1.8307402192713296 42 52 22
10.23918364946655 2.968430894704469 1.5134325483764888 39 50 15
9.648287250874457 -2.8995895550370276 1.8235720666935222 47 57 28
10.115251370506801 3.066132817576769 1.5127289399282804 39 50 15
10.153772445491189 -3.0191907469901436 1.6114785213508251 42 52 23
9.548807933519257 2.949780665514648 1.8262639785269474 39 50 16
9.782755464091071 2.8460495405153043 1.8200232301508337 39 50 16
9.415793191881226 3.0578495391708307 1.829955314923407 41 51 20
8.779310693947732 2.769221740203407 2.0974634754447417 43 52 18
10.318129339062438 -2.968133198676564 2.3723543075505225 55 67 35
9.54779749221679 -3.1078385370437234 2.307256230105362 42 52 24
9.364435726234346 2.9266974039248606 2.061500591835666 41 50 20
9.795451471886691 -2.9892752905504194 2.1562765989092534 46 58 28
9.57512446244667 3.034319577693556 2.304671806032726 44 53 23
10.331568231579999 -2.8995895550370276 2.0121170010822635 50 60 30
10.271754285201135 3.034319577693556 2.3770287490501865 44 54 24
9.364435726234346 2.9266974039248606 2.061500591835666 41 50 20
10.381560439658886 -2.9892752905504194 2.2366445427778583 51 63 31
8.936818720695353 2.9266974039248606 1.9626466975120556 42 52 22
11.214595363313867 -2.8349098996816986 2.4191304018268793 56 67 36
10.361266420748592 -1.5803924691260491 2.3680637206698423 56 60 39
9.747684088519096 -1.7405702399498801 2.4348554219127307 52 58 36
10.402735703307075 -1.4429478390267134 2.36399005190041 53 57 36
10.302697008273705 -1.6748720583468373 1.6108901462481537 56 60 39
10.24727446277396 -1.5775808504146451 1.6111071115189342 58 62 42
9.60832932468813 -1.6860425469092304 1.8246464050013174 54 58 36
10.289203185210543 -1.4801614381811745 1.6109427557216396 59 63 44
10.74317301140612 -1.2920283394423993 1.7027005076853068 59 63 44
10.28419271930202 -1.229050078869275 2.1250845553041184 45 49 28
10.649700500229008 -1.2636339810307722 1.9980516875221164 49 54 34
9.892828542844555 -1.4704136927059592 1.923028430987868 55 59 39
10.617413962016386 -1.3406244332035893 2.2193122769434033 52 56 35
9.858063454571717 -1.579227766011069 2.1520713192353065 57 61 40
8.846977286998797 -2.1817416127183997 1.6174918152832594 50 54 32
9.349240249192356 -2.342444471237364 1.944485553877798 52 56 34
9.7092592868776 -2.3397771237656912 2.2922805589188897 51 55 34
9.582159467796233 -2.100798325720847 2.455332898540174 52 55 34
10.163425040177822 -2.028025860303938 2.388206495864398 52 56 35
8.65773396470326 -2.148781386396553 2.1056480686756083 51 55 34
8.978187916300802 -2.082943244385488 1.9607434345367363 52 56 34
9.545720600349858 -1.9718490540447695 2.1737242805298806 51 55 33
9.889781477630043 -1.8492571348785312 2.2763342560194033 51 55 35
9.802784316167662 -2.1224062210733066 1.4081841512317212 50 55 31
8.904745912386678 -1.9274314859487747 1.7301452027589663 51 55 33
9.5725125498132 -1.7911581198109603 1.7189440184198994 51 55 34
9.572531060691544 -1.816892761737544 2.0499212609213995 51 55 34
10.650186736726912 -1.2706977779325386 2.4815006235957218 50 55 32
10.47398400728677 -1.5819305110469972 2.5034856514990933 57 62 40
11.074567591217754 -1.0332638570531099 2.794187091124504 53 62 33
10.376954658249923 -0.8353109116676548 2.70714512614708 46 55 25
10.731198277005758 -0.9658835434168861 2.640709241116272 46 52 28
10.731198277005758 -0.9658835434168861 2.640709241116272 46 52 28
11.281064113919387 -1.3546922978797642 2.7467263738287118 59 65 40
10.81267350839713 -1.3950034111151326 2.627113536912627 55 61 38
10.7727823763439 -1.5840556477423107 2.6337029496096687 57 63 40
9.968241782417552 -1.7721758340955052 2.5754508322440275 51 57 34
10.32353677995236 -1.5871832881317922 2.7184340004707126 53 58 35
10.32353677995236 -1.5871832881317922 2.7184340004707126 53 58 35
10.754241492615039 -2.4693828387350294 2.6368091422306956 54 63 35
11.17106269834502 -2.573083679245691 2.572926969430399 54 62 35
9.732486698772709 -2.418537729460356 1.8213380513337394 52 56 34
9.92808518075984 -2.7986059423397682 1.8162992816766195 49 57 30
11.085850373369233 -2.601481628542008 2.3032378154273188 54 58 36
9.84356257201414 -2.5038545531324625 2.035669706191227 54 58 36
10.208267640193753 -2.5657785465701854 1.9116940606852686 53 57 35
9.340978067191562 -2.759919384186202 1.9448324055006505 51 59 33
10.44366558620715 -2.601481628542008 2.2319818365077415 54 58 37
11.456202583923586 -2.712000778401908 2.3955179436928296 54 61 36
19.66886729505531 2.8984793574353476 2.980106452817405 51 62 27
10.096139926968648 0.7679369253039107 2.3953390659596807 36 46 19
8.979884927944244 1.0442183515688046 2.084524577873378 27 37 9
9.948225071431317 0.6764718653295307 2.2713407230535885 17 26 9
9.654094123764127 0.29987202703934385 1.8234167036453484 17 26 1
9.523277861597943 -0.1768653019471052 2.3095929834803917 44 55 22
9.859279403544777 -0.2751313934140606 2.151990294268037 29 40 7
9.523277861597943 -0.1768653019471052 2.3095929834803917 44 55 22
9.886757135589558 0.4357549173283417 2.4185367200275567 16 24 7
9.753722830966334 -0.3609514387979359 2.4341306531433564 46 55 22
10.275572942100554 -0.3052987614767939 2.728920624133915 43 52 22
10.567766337513463 0.6124164165820697 2.6697319696610196 47 56 20
10.653338002592582 0.1531925600615705 2.6542266694428696 48 57 27
10.018698980358822 0.7633980292585526 2.5675750871081826 44 54 17
10.018698980358822 0.7633980292585526 2.5675750871081826 44 54 17
9.754235564836263 -0.04837771642713603 2.6109725104183727 45 55 25
10.351575428180935 0.4212756035812134 2.712459303211056 46 55 25
10.442764134240075 0.28868939126886517 2.5075279565641835 47 56 26
9.399865568217262 -0.9728446634770744 1.9423746010282688 45 50 25
9.25964969589278 -0.8107172495921416 1.9482822328943976 43 48 24
9.63744772287212 -0.8156939926854574 2.298854508088446 46 52 25
10.329875422060821 -0.8156939926854574 2.3711805629833846 46 52 26
9.929863078702276 -0.7329134263336043 1.9216579192752867 37 43 17
9.636228059463702 -0.3877141910858501 2.046490340081925 32 42 10
10.207534330450988 -0.823104696714281 2.5395695147967627 48 53 28
9.29028979991398 1.3539138568634885 1.8335385718664048 36 49 22
9.135010470451489 1.4649832434349594 1.8381132555453639 35 48 21
10.111817406973236 1.6799230566833332 1.8117492240229465 34 43 17
9.868036025542773 1.6922626340342515 2.034426254572532 36 45 19
9.402833384056859 1.5787248901070343 1.9422516093017863 30 40 12
9.59871929949975 1.3539138568634885 1.934314291192251 32 42 14
10.447601090560342 2.0953477917257874 1.3205732288981096 1 5 0
10.591877245605472 1.965785009998494 1.5153446701004885 5 12 2
9.890908493912576 1.9077777719988023 1.9230997836450205 39 46 17
9.391063570448948 2.2924056303135085 2.185106782540788 41 50 18
9.96649420373513 2.3822376730333725 2.144940198350021 41 50 18
9.251444199712761 2.7146323585889434 2.336695211557184 43 52 18
9.87755368372527 2.0603184370047583 2.419593177657554 44 53 18
9.508082227710519 1.4514715746359326 2.1764520956357942 32 42 14
9.686094302427703 1.8313734166697768 2.163781020698256 36 45 17
9.87853039544515 2.1493992158954116 1.9235604881094006 44 53 27
10.244496403677708 1.8678178752789614 2.379806754267603 42 51 17
9.105303332532962 1.100244947161946 2.3522482044651785 35 44 14
9.533557514326619 2.2141555818980474 2.0520461675059267 37 46 14
9.584957388038388 1.247467964316873 2.454976586041427 43 52 18
9.870186624668923 2.2344761120871905 1.5112855135575314 35 43 18
9.460712398592543 2.3822376730333725 2.0560712212972283 42 51 19
9.741282045277137 2.859161885498875 2.435625449012154 46 55 25
9.97071448816995 2.7146323585889434 2.409045970247556 44 53 19
9.736466874318065 2.5032640479308266 2.4362057363150513 44 54 17
9.705757208154491 2.302327760326682 1.9301221889168183 39 48 16
9.59748880173154 2.5868091602912213 2.3025721106050776 44 54 17
10.252518273152832 1.7543369057685392 2.5332132955184004 43 52 18
10.237998685932487 0.7556715517080627 2.737385331618558 45 55 18
10.488486764495013 2.2780120468450487 2.5016234782455573 44 53 19
11.795810313561429 -2.7257397958404646 2.6525180459128346 54 66 32
9.923670291268996 2.521558062993199 1.6124223666599848 40 49 18
10.260100615272776 2.658161540786428 1.5135496222767966 39 45 18
9.675149393123496 2.608530883714585 1.8228549853255815 40 51 16
10.260100615272776 2.658161540786428 1.5135496222767966 39 45 18
10.765037150211326 2.784108045896428 1.516237525401824 37 48 14
9.597991420020746 2.5488741403463897 2.048543690706794 42 51 17
10.131338056631773 2.4578000154448576 2.021473969627631 40 49 15
10.230679812784016 2.968430894704469 1.6111725330578732 39 50 15
9.548807933519257 2.949780665514648 1.8262639785269474 39 50 16
9.648287250874457 -2.8995895550370276 1.8235720666935222 47 57 28
10.106643256430047 3.066132817576769 1.6116683355809613 40 50 18
9.746589792128013 3.0475295279935226 2.1596041800248753 43 52 23
8.517847424197123 2.8974236945267173 2.11540614150649 43 52 22
10.088926858775412 -3.115278078754675 2.0235091242079855 43 53 25
10.318129339062438 -2.968133198676564 2.3723543075505225 55 67 35
10.114791974167504 3.0578495391708307 2.0222656850616487 42 51 23
9.076323725281334 2.8974236945267173 2.209783623363693 44 53 23
9.602876026989914 2.8118929180542884 2.0482803489924986 40 51 16
10.547711867667175 -2.870968429910437 2.22433001499744 53 63 33
10.161883370849937 -3.0058518183611085 2.0200199662035425 45 55 25
10.991464515740734 -3.1078385370437234 2.442472670267126 48 59 29
11.058468279188773 -2.968133198676564 2.4352968167907605 54 66 34
8.64765463210728 -2.082943244385488 1.8535812205016877 50 54 32
9.907384963674367 -1.891088341953389 2.416180552783995 52 58 36
10.539353793472689 -1.3101668069816694 2.350910205694181 47 51 30
9.20772963481116 -2.148781386396553 2.199221735504265 52 55 34
9.889781477630043 -1.8492571348785312 2.2763342560194033 51 55 35
8.846977286998797 -2.1817416127183997 1.6174918152832594 50 54 32
10.74317301140612 -1.2920283394423993 1.7027005076853068 59 63 44
9.72979167024668 -1.7174777396208452 2.2904256817760826 55 59 38
9.464777399460694 -2.2685601447162687 1.508733248847841 52 57 33
10.302697008273705 -1.6748720583468373 1.6108901462481537 56 60 39
9.226634498610332 -2.2312338621912016 2.339284489243627 51 55 33
9.915661692657482 -1.6998842892405948 2.148259736421769 56 60 39
10.7727823763439 -1.5840556477423107 2.6337029496096687 57 63 40
9.480950150259122 -1.8179470080352529 2.6623719220554665 50 55 32
9.645068557587917 -2.024983375042827 2.630591787276903 50 56 32
11.61828490288539 -0.9658835434168861 2.682052472779509 50 55 32
10.754241492615039 -2.4693828387350294 2.6368091422306956 54 63 35
10.867642150670257 -2.6514216776712902 2.456135332459189 53 60 34
10.876007806096926 -1.1316536043226486 2.4551952361633593 48 53 29
9.437660838013898 -2.418537729460356 1.6145673114529224 53 58 34
10.127054228994414 -2.65792761343508 2.021678669703753 54 58 37
10.242349657190985 -2.759919384186202 2.1276154263346045 53 60 35
10.079321524561609 -2.712000778401908 2.260423442899633 54 61 36
8.773644058843747 0.862942102940056 2.097839056846766 24 33 5
9.590741261069107 0.08503967631765022 1.9346307656545285 31 41 9
9.037337769832682 0.940720903483184 1.9580549451347775 28 38 12
10.178091406190383 0.9720949195344608 2.3866714357436853 42 48 22
10.567766337513463 0.6124164165820697 2.6697319696610196 47 56 20
9.744263948854286 -0.6472594019279098 2.040787153886535 45 51 24
11.014187653323761 -1.0805677009386705 1.8858523859309142 50 52 34
9.83444602538948 -0.6891977824282977 2.5972325360917745 45 53 20
13.638166204476947 1.7449691930508147 1.0667352844463085 36 45 28
9.986787659324346 1.7797104584183352 1.6121591358473901 35 43 21
10.245438134302727 2.0056286017767206 1.910407329378725 32 38 13
10.033535922456265 1.5810700266316917 2.402112054115247 42 51 19
9.545877588821378 1.8678178752789614 2.3074385878264474 41 50 18
10.090132547994248 1.7276715642398228 2.3959831978805597 40 49 17
9.533051498840443 2.1857692118885264 2.3086595068382785 42 51 19
9.522682978375885 1.707728939818025 2.175390745617257 37 46 18
9.85772611892578 1.1855877462389204 2.593343928246132 44 53 19
10.923150339042255 -2.7257397958404646 2.6094943633218532 53 65 32
10.401727356111511 3.0168154880912406 2.5129126824485426 46 56 26
10.237998685932487 0.7556715517080627 2.737385331618558 45 55 18
10.376577493177368 -3.1022825606107736 2.5162537877775004 48 58 28
9.433565368902087 2.4578000154448576 1.829455878151931 41 50 18
9.143241645052834 2.652637591336561 2.0744715659384196 42 51 17
10.449372275436922 2.8739483451883663 1.6103270637440659 39 50 15
10.485285954071907 -2.8349098996816986 2.356025506349031 57 67 36
10.617607456977426 2.309580618848187 1.4207619634914308 26 34 11
10.015246361124529 2.521558062993199 1.7123498645715491 41 50 18
10.080757233153646 -3.1178903501209243 1.6117733480874663 40 50 20
10.161883370849937 -3.0058518183611085 2.0200199662035425 45 55 25
10.106643256430047 3.066132817576769 1.6116683355809613 40 50 18
10.246285403822425 -3.1078385370437234 2.3796237255469794 44 54 25
9.901640437093738 -1.4583264429745042 2.1491826425341696 56 60 39
9.431137524846816 -1.9274314859487747 1.9410828170316088 53 57 35
10.767499554451561 -1.1861229615764817 2.3301561945686005 45 49 28
10.515008761576304 -1.422733089119818 2.498243216821159 54 59 37
10.944632431531138 -1.2910165462826837 2.828618200411816 68 78 47
10.334898031294005 -1.06076526130999 2.5218613084681447 49 55 30
10.365157013675988 -1.3546922978797642 2.709604589109252 56 61 38
10.502263955418563 -1.143417138791604 2.6821042282933756 53 58 36
11.407167738465459 -1.143417138791604 2.7209921854606507 54 59 36
9.428964530031235 -2.65792761343508 1.829584984775125 54 58 37
9.72403583731675 -2.5657785465701854 1.7166188929038593 52 56 34
19.849515671657308 2.956657572673006 2.9314776104781717 50 61 27
8.747830579416195 0.6019486077646753 1.850255331621975 32 40 10
10.150927069601485 -0.034430233108035384 2.3895200937155807 43 54 21
10.657105342555937 0.4357549173283417 2.480664746032218 41 51 25
10.016702036849862 -0.49084986577558787 2.0270193237159178 36 43 15
14.081102260784926 1.903907868305502 1.084004659723028 20 29 11
10.513168634132724 1.875459475609529 1.8023789924862617 38 47 18
9.763050103088586 2.0056286017767206 1.7160320286697701 9 16 3
9.56952009111764 2.1125952086357045 2.1720131210582037 39 48 16
10.076354071704095 1.4340287174342061 2.397465180571503 43 52 21
10.164711442714761 2.387532807266762 2.3880715763124014 44 53 19
8.970725106854683 1.2097625180043685 1.9610853666156887 27 37 11
9.811847872295226 2.053717031375295 2.0372914650956466 39 48 22
9.150963837250774 2.0603184370047583 2.347309815768437 42 51 19
9.466362468992513 -3.0058518183611085 1.8285393035901694 43 53 24
9.71974490699476 -3.112018869324827 2.1614497939679187 42 52 24
8.936818720695353 2.9266974039248606 1.9626466975120556 42 52 22
9.582159467796233 -2.100798325720847 2.455332898540174 52 55 34
8.393058672739189 -2.253162173135926 1.862406892064477 51 55 33
10.124464230842422 -1.947013629531397 2.5516165546042298 51 57 34
11.206385429569226 -2.531963550640595 2.419961953835908 54 58 35
9.593858918804084 -1.4704136927059592 1.825037748595467 57 61 40
9.54887745668512 -1.5783151820793828 1.82626207697809 56 60 39
9.198233736366813 -2.0295876433771376 1.6157074131703504 51 55 33
9.770308293013812 -1.7911581198109603 1.820347494956261 53 57 35
10.28419271930202 -1.229050078869275 2.1250845553041184 45 49 28
10.944175467814855 -1.217725010635904 2.606240233232989 52 58 34
9.07985618143898 -2.3397771237656912 2.2094946066191934 52 56 34
9.829676491897034 -0.24613905570083602 2.598034587505852 46 55 25
9.564504754550306 0.4972307950525448 2.1723728435298217 1 6 0
10.176634605375767 0.1094065536819473 2.386823602388228 40 49 19
9.347698258553226 -0.2751313934140606 2.0624575120936237 32 43 10
10.203429365041563 -0.060658775237204976 2.7453804584304144 42 51 19
10.402735703307075 -1.4429478390267134 2.36399005190041 53 57 36
11.291904870462647 -0.8353109116676548 2.744429079041437 47 55 26
9.931197577316176 0.862942102940056 2.2727873442771873 33 38 16
13.825285138101483 1.8260825512238934 1.074185527784653 42 51 33
9.516724858125922 1.2926692123902042 2.3102203780302846 37 47 19
9.770264289909862 1.5779126732993298 1.6130763369504684 36 46 22
10.196822996034605 1.5828530969879935 2.541100023952039 43 52 18
8.863598182528984 2.8118929180542884 1.8465092336072222 40 51 17
9.407147239149166 -1.6998842892405948 2.0590762947361045 54 58 37
10.036390030745483 -1.36479912697597 1.9177758624337171 53 57 38
10.47398400728677 -1.5819305110469972 2.5034856514990933 57 62 40
9.224204261631165 2.7054199567271886 1.8354659994434264 38 49 14
9.458820271213018 -2.028025860303938 2.315817944536795 53 55 34
10.109587503866724 -0.6523549875700855 2.768193479614713 43 52 20
9.315933121279222 -0.4998504745459111 2.3300587431615543 47 56 24
10.220375680193495 2.0953477917257874 1.7094902462769779 27 33 12
11.057885630812622 -1.2042550537620582 1.6989254646337906 54 58 38
