12.06961424845056 1.1265859085029173 2.060841652797077 9 16 0
12.24272239751207 1.2147134095145673 2.1480110039447053 21 29 8
11.276578791530977 1.2147134095145673 1.9988342047203715 4 10 0
12.407258668390886 1.4082985237911219 2.238333127470667 13 22 2
12.573500518896344 1.309005182165064 2.227953437562636 2 10 0
12.320195616549071 1.51092162950604 2.2439157804277654 29 39 19
12.313990920725464 1.614818520963965 2.2443176055602745 29 38 19
12.320195616549071 1.51092162950604 2.2439157804277654 29 39 19
11.557263911182659 0.6378466678311343 2.187141686408101 22 28 6
11.557263911182659 0.6378466678311343 2.187141686408101 22 28 6
11.275210074974288 0.49372325554717544 2.098819843279922 18 23 4
10.114652957011032 0.296021866642052 2.0519134494051015 21 27 6
10.728825776811 0.4452624700115932 2.242974935079544 28 37 16
10.074954408451674 0.1671384777674635 1.840121674599109 13 18 0
10.008796955283072 0.39897159005875454 1.9473868419910287 15 21 1
11.730179557830567 0.9963619203619212 2.076342629273013 31 36 13
11.289121525815032 1.0825208926375376 2.098101243167725 11 17 0
11.564052075619273 0.9387646801740616 2.1867259092391467 16 23 1
10.931421551008539 0.8704313460668537 2.228311017896117 23 31 11
11.028425321619682 0.7889040035840691 2.3412359728553773 34 42 21
11.115200827114531 0.6119663521377278 2.333686768948846 34 43 21
11.027584007818218 1.3368720154029021 2.4770284548257835 33 43 22
11.12225879585603 0.9656246847687635 2.3330803059320826 32 41 20
11.028425321619682 0.7889040035840691 2.3412359728553773 34 42 21
10.939926006895993 1.003709644853289 2.4873237709765226 30 39 16
11.484365225492537 1.1406546039052798 2.573541185030267 28 38 15
10.554375480944465 0.691410383995222 2.385805499559765 31 40 18
12.083643475840885 1.1773346556427777 2.259623783893243 29 39 17
12.331676918126306 1.3898262733006952 2.351725379506275 34 43 22
11.027584007818218 1.3368720154029021 2.4770284548257835 33 43 22
11.028425321619682 0.7889040035840691 2.3412359728553773 34 42 21
10.844514990948403 0.7896667905317702 2.498882472530217 29 40 16
10.164667717436245 1.003709644853289 2.427415915084416 32 40 18
10.655005086907911 1.1406546039052798 2.5230278903509875 30 41 17
11.302114713547036 1.297120871701652 2.5993310959891422 28 38 15
11.74461425521406 1.029698660163502 2.283631305587511 30 39 18
10.444378529310713 0.37855065413878536 2.3970474067383183 26 36 14
10.932750328323152 0.575238058130125 2.4881800239364975 30 40 17
11.47509814231564 0.5026830880442809 2.428720209743114 32 42 20
11.60875857846321 2.5535946372639042 2.082141534401844 30 39 20
11.451962567575459 2.4136779859418525 2.0898409729762553 31 41 20
11.45764524663937 2.4939679605837113 2.193314468662422 29 39 16
11.468723449680692 2.2714866966463285 2.0890062584914992 30 42 21
11.48989093013803 2.6861388016768584 1.9903800663258506 28 38 15
11.750046073516353 3.087750792446538 1.8009719510541724 24 38 14
11.887008204568934 3.0825968547084335 2.069054440939141 26 36 13
11.95149854586981 -3.0095569318470803 2.066121119348119 31 41 18
11.310015837892356 2.870842688035962 2.097025824491978 27 37 14
11.58221833394434 2.775231706787767 2.0834277997 27 37 16
11.539964302665796 2.9878156665161986 1.9884453309364747 28 36 13
11.84461506388188 3.0010923095998456 1.7991014488421162 27 35 12
11.794971516495592 -2.893775148147325 2.172935966405089 31 41 18
12.037027448384498 -2.7968028231115705 2.1591798045338484 34 39 13
12.037027448384498 -2.7968028231115705 2.1591798045338484 34 39 13
11.451043902669884 1.978222402303466 2.578116973440305 29 39 16
11.81145957860329 1.7827471440093494 2.531521154502582 33 43 21
11.703570345264186 2.1182796677438276 2.544835987427473 29 39 16
11.281810763135452 1.8190673818220309 2.6023255672712233 28 38 15
11.635307878534679 1.7555911110527425 2.412936840074856 34 44 23
12.553447854053246 1.8788981271471938 2.451462385928533 35 44 24
11.199647393088979 1.6460814227490923 2.6147131716144085 30 40 18
11.81145957860329 1.7827471440093494 2.531521154502582 33 43 21
12.244076444498509 1.5039916997487004 2.3588413870458895 33 43 23
12.468314444051602 1.845009097166266 2.340921744698715 33 42 23
12.468314444051602 1.845009097166266 2.340921744698715 33 42 23
11.78441443150465 2.3289134397532294 2.705350514462145 29 39 16
14.10785823779568 -3.029798477739079 2.8949021896161167 27 41 18
11.776694071068214 2.160172215817583 2.39958467018576 31 41 20
11.636486692577188 2.5853286678838834 2.2916922340708226 29 39 16
11.744027478310862 2.5185251098768457 2.4026237598003015 29 39 16
11.685903272526472 2.0970177999546733 2.2879826757859156 34 44 25
11.601266651122238 2.334947504963225 2.557942626429531 29 39 16
12.000971491692361 2.341464214735847 2.265309109046393 32 42 20
12.171832429552301 2.4232008118616273 2.364826275369062 29 39 16
12.034147713578285 2.2380052731892945 2.505529300563323 30 40 18
11.675031148884653 2.338795999569397 2.4091327101906788 30 40 18
12.360892305033055 2.0451335216709814 2.2412933632803558 31 41 22
11.71779361541386 2.802830074157619 2.4050840683767265 27 37 14
12.167677237665735 2.6289194131582403 2.4908142194592164 29 39 16
11.535829572755198 2.9272952141104214 2.4226519669991506 27 37 14
12.305969086671805 2.9272952141104214 2.47619530747195 26 37 14
12.102060557349999 -3.095997768352495 2.370709604640536 27 40 19
11.908864180862437 2.7548973122838527 2.51991640159231 27 37 14
11.670699079075542 2.5535971746543518 2.548994475128155 29 39 16
13.402192932951085 -2.9293300513871507 2.6291624237555133 29 43 19
13.501332597605481 -2.8383019515995627 2.7911549032779948 27 43 19
13.797262683540495 -3.070846539585476 2.7365298238239038 26 42 20
13.57689106734135 -2.443980260801024 2.4762193894886892 27 39 16
14.247921996352913 -2.71385094010245 2.531895897607682 36 41 12
13.334827040110373 -2.5140862108847615 2.383247884832875 28 41 20
13.726268491542339 -2.608116159557359 2.462471792442944 31 41 17
14.04402380003458 -2.830815512751098 2.553002582229604 33 42 16
14.413499344736943 -2.786170386179364 2.646202425300244 28 43 21
14.57450410339414 -2.6472285526682393 2.789570099441057 28 42 15
13.99649281052429 -2.7274002020384716 2.7045213349287014 29 42 21
14.57450410339414 -2.6472285526682393 2.789570099441057 28 42 15
14.201073470455592 -2.583709203248255 2.674638239869295 30 42 15
14.472013143702473 -2.4617596969086577 2.6387705874722247 30 39 12
12.407258668390886 1.4082985237911219 2.238333127470667 13 22 2
12.573500518896344 1.309005182165064 2.227953437562636 2 10 0
12.388766070976695 1.7177763484532569 2.239510291472156 25 35 10
12.388766070976695 1.7177763484532569 2.239510291472156 25 35 10
10.434384469981143 0.33242530455694874 2.265637584716234 28 36 13
10.456726518922071 0.9656246847687635 2.263858014215858 32 41 20
11.473832174133443 0.7883725004076092 2.1923023026070108 24 32 11
10.927831508510701 0.7067585532039322 2.2285647051902435 19 27 5
9.312892760587804 0.39897159005875454 1.5365097790558213 16 22 4
10.554375480944465 0.691410383995222 2.385805499559765 31 40 18
11.302114713547036 1.297120871701652 2.5993310959891422 28 38 15
11.214296976797698 1.1994237170871977 2.456055892270178 31 43 22
11.301933168161671 0.6686521570821017 2.599357757164432 28 40 17
11.60875857846321 2.5535946372639042 2.082141534401844 30 39 20
11.34293350064043 2.736143614632531 2.2005918560456497 27 37 16
11.45764524663937 2.4939679605837113 2.193314468662422 29 39 16
11.689015689285172 2.4758335606545643 1.9827938788362878 30 39 21
11.815284007005339 -3.0209981050965427 1.7996783043980202 30 40 18
11.74019844159274 -3.107961027606871 1.80116850950196 27 39 18
11.66390355764588 2.9717946448453563 2.1806796834080866 27 37 14
12.044695685638532 1.9932711078122871 2.375625035534651 35 44 25
11.97320883233286 1.921952430719335 2.5124541714995283 32 42 20
14.170403691354702 -2.75733806212172 2.8779446589925306 27 40 17
12.099896183873609 2.189637403561608 2.2585183318553534 32 43 22
11.675031148884653 2.338795999569397 2.4091327101906788 30 40 18
12.01817541376873 2.4364971180928254 2.5073312496576303 29 39 16
13.336045091923785 -3.081831440074968 2.6380498206698433 27 42 20
11.695825252996867 2.8405155929710975 2.287243079318876 27 37 14
13.909202988587023 -2.9572315622327143 2.5676854839733108 27 41 17
12.112785635811825 2.4563546137258165 2.650409323648289 29 39 16
12.261133917506283 2.6922243649495847 2.6282476558935457 27 37 14
11.852774045654831 2.607594597028875 2.693139013824232 28 38 15
14.383282532976038 -3.0549262107225217 2.8277577662837756 26 42 20
12.86602411806556 -2.661692292815925 2.311359675041496 32 42 18
13.271300279885686 -2.759561534795449 2.3883144986361495 28 44 22
14.04402380003458 -2.830815512751098 2.553002582229604 33 42 16
14.413499344736943 -2.786170386179364 2.646202425300244 28 43 21
13.75340426398072 -2.6566870741491524 2.585452757029154 32 41 14
12.24272239751207 1.2147134095145673 2.1480110039447053 21 29 8
12.313990920725464 1.614818520963965 2.2443176055602745 29 38 19
10.90408359070221 0.39897159005875454 2.118789210192087 22 28 10
11.116404669375282 1.029698660163502 2.215525108001291 25 32 11
11.82394925797168 1.0825208926375376 2.17125257033909 24 32 10
10.461866838885822 0.9115829034902847 2.549459641952577 29 40 16
11.566287766991968 0.7067585532039322 2.297037602295159 32 40 17
11.4853517280987 1.0751989749854893 2.427688186404061 33 43 23
10.558092509550027 0.8870121572522729 2.385432026523045 33 41 19
10.458311802949254 1.297120871701652 2.5499651836151656 29 40 18
12.331676918126306 1.3898262733006952 2.351725379506275 34 43 22
10.655005086907911 1.1406546039052798 2.5230278903509875 30 41 17
10.558092509550027 0.8870121572522729 2.385432026523045 33 41 19
11.887008204568934 3.0825968547084335 2.069054440939141 26 36 13
11.877274130612152 -3.104737324952113 2.069500367868912 27 40 19
11.20646908548141 1.4685088089921245 2.613667706022448 28 38 15
10.92953619396369 1.4838856315579085 2.4885642329268247 33 43 22
10.92254154401971 1.6347353290590987 2.489401804839011 32 42 21
11.281810763135452 1.8190673818220309 2.6023255672712233 28 38 15
11.451043902669884 1.978222402303466 2.578116973440305 29 39 16
12.70063059227454 1.949030473044212 2.323329583906089 32 41 23
12.128633343259889 2.2089837975710025 2.647972148321664 29 39 16
11.281810763135452 1.8190673818220309 2.6023255672712233 28 38 15
11.48006940147281 2.4232008118616273 2.3037279307757186 29 39 16
12.187603357888186 2.257499508203049 2.363510607265786 32 42 21
12.111613972363347 3.0686344619933874 2.369897924906325 27 40 18
11.980734973081338 2.688357647606636 2.3811914038222506 28 38 17
13.861209697455651 -2.8916840501975822 2.7259018713918177 29 43 19
13.99649281052429 -2.7274002020384716 2.7045213349287014 29 42 21
13.085288597406231 -2.4313167799618376 2.296147295465966 25 37 14
14.032989901182946 -2.5426821660148327 2.5541815479698364 31 41 15
13.271300279885686 -2.759561534795449 2.3883144986361495 28 44 22
13.240213492420136 -2.572848177867902 2.2858204377256826 28 41 21
11.267322913871922 1.1265859085029173 1.90358001624171 38 44 18
12.407258668390886 1.4082985237911219 2.238333127470667 13 22 2
13.04996470856644 1.4082985237911219 2.298549667040205 29 39 18
10.06849136582495 0.2666320075422145 1.738513732332002 11 18 0
11.159388533932434 2.6403280729502354 2.104884222284815 29 39 16
11.750046073516353 3.087750792446538 1.8009719510541724 24 38 14
12.214945030917157 2.048342297645518 2.4857489610998504 32 42 20
11.632457903467007 1.1265859085029173 1.9849196306720645 14 20 1
11.181646877884738 0.296021866642052 2.2111450351834816 25 33 13
11.105810453584404 0.5471667939438579 2.216242584035653 29 37 16
11.028425321619682 0.7889040035840691 2.3412359728553773 34 42 21
11.359603345104643 2.89573223915962 1.9007735613037953 27 37 14
11.703570345264186 2.1182796677438276 2.544835987427473 29 39 16
12.034147713578285 2.2380052731892945 2.505529300563323 30 40 18
11.20646908548141 1.4685088089921245 2.613667706022448 28 38 15
12.313070807482251 1.7345480176929302 2.353224132925942 34 44 24
11.630645357842061 2.807705906546899 1.8928027075643623 27 37 16
12.237833155603873 1.619920285713655 2.3593543901601843 34 43 24
11.926815034545 2.6041813635470787 1.974097134555488 28 38 15
10.73854581148244 0.5026830880442809 2.3677795177439194 32 42 20
11.41620259916047 3.0686344619933874 2.3087755599144373 27 37 14
