9.755695110389443 0.624275541005304 1.7202978156897364 41 47 29
8.952183104007462 0.8503908753894541 1.7338315503471762 41 47 29
9.533632453969988 0.7713893392540554 1.6183369336296498 46 51 34
9.618359339179975 0.9191076420656451 1.6179178429487557 45 50 33
9.538554389303565 0.7713893392540554 1.513425349852774 42 50 32
9.835656898606828 0.862765060007483 2.286420718324527 32 40 17
9.363247239476538 1.0072077603944607 1.8358785211598163 41 47 27
8.813424771758719 0.7689462138214156 1.9733790985368966 40 46 25
8.989584228883098 0.18354858345518973 1.621216454427532 32 40 22
8.86201120675111 0.07222781351079212 1.6219429060972923 33 41 21
9.229511290317472 0.2904678083026576 1.5115021089189846 34 42 25
9.731827216234883 0.5349799716490372 1.933519732131782 37 44 24
9.897775147315787 0.3251473178069451 2.154284538618188 33 41 20
9.425501367954373 0.5581795565394249 2.324904359868408 36 42 20
9.500190862169283 0.07222781351079212 1.9427896208520163 33 41 20
9.854819025071503 0.6723100778596958 2.284731545429228 34 40 18
9.679285659965853 0.2063739685842232 2.16926097602906 33 41 19
9.712734265732593 0.43514997434155156 2.0470768882120476 37 42 22
9.500190862169283 0.07222781351079212 1.9427896208520163 33 41 20
9.416083233909202 0.09327746110181234 2.3258442787577165 35 44 20
10.286893892613083 0.10916663062317596 2.5352389760031544 39 48 22
10.136380220127759 0.5581795565394249 2.3968740469905168 36 42 19
10.600705161312774 0.4251897091708426 2.4937802851669773 36 44 21
10.08564606496196 0.5002391940727975 2.5646388566480107 37 43 21
10.600705161312774 0.4251897091708426 2.4937802851669773 36 44 21
10.396998025270651 0.2741276521094801 2.520132680836058 38 47 22
10.740065292993739 0.3272543611758053 2.6470127738836924 37 45 22
9.205013100407719 1.2544956940377678 1.729315094438194 35 41 19
8.783354744562248 1.302191128076669 2.24061096235617 31 37 12
9.405142599005366 1.0478195097436542 2.1892746029915418 32 38 16
9.43681347163923 1.302191128076669 2.3237789969425067 30 38 12
9.215304304679899 1.1063111044398954 1.9548799750186938 35 41 19
8.579769617481032 1.3359866394842408 1.9850051813926564 29 36 13
8.843595868193935 1.5933949530909906 2.09848231432088 27 36 10
9.259808948337454 1.596797598048455 2.3418475474366023 29 38 12
9.1807005122087 2.3198335697510317 1.729738454543571 22 27 12
8.884918591231935 2.207869175174677 2.2315902222498787 41 46 29
9.096824232865265 2.2327049152425675 1.9601494678647036 33 41 19
9.458362566545212 1.723122099528573 2.1852761960153413 30 38 15
9.642808491539286 2.6089401136174986 2.3039414656032666 47 53 31
9.669380347069668 3.0527815994814107 2.3014693358980582 43 51 28
9.786434400531103 2.9169838574416764 2.290801644903496 40 48 25
9.522719908124868 1.2574032275143112 2.4697262008953724 32 40 18
10.547180464355666 1.1060141782283337 2.500516270600359 30 38 15
9.347342280552072 1.6014061596536926 2.4936808079152692 33 41 19
9.204573411097387 1.6182100582550851 2.7346994108990574 41 49 27
10.516386248049773 0.9102235982022109 2.688023712058132 39 47 25
10.828161112930072 0.7601350229729731 2.632131276984351 38 44 21
11.25168596513676 0.40453845899300483 2.7625573114223076 43 51 28
8.857019233392208 1.6361346157608376 2.8384113286647867 44 52 29
9.643731314168933 1.607999419986928 2.639411093348256 37 45 23
11.25168596513676 0.40453845899300483 2.7625573114223076 43 51 28
8.612166261811138 1.6757695478999164 2.9490761803439525 43 51 27
10.53431018662207 0.6035973185910349 2.6845456389326103 42 49 27
9.677615771939031 1.3942945126603874 2.6330716148524296 37 45 23
10.902832737310604 1.0234106564708496 2.6200030634694924 35 43 21
10.37402174363853 0.8809415611371796 2.523232177437033 33 41 18
8.857019233392208 1.6361346157608376 2.8384113286647867 44 52 29
11.150024891382714 0.16535201176117584 2.78614970772694 44 52 29
10.39083966292824 1.938576557404865 2.520960780904485 36 44 19
10.214734600105702 1.8870812042612086 2.3885895381575204 32 40 17
9.594968523710495 1.938576557404865 2.460313790873853 37 45 22
8.557881301588374 2.6428626791256384 2.984920180343433 41 49 25
9.277363758680606 1.882560135911273 2.716861013925257 43 51 31
9.448452374006763 2.989705614921452 2.678444941999121 41 49 26
9.455939135880673 2.1090789072351304 2.6768619646675647 44 52 30
9.284356212090904 2.4244456059221777 2.5026974773966977 45 53 31
9.713231197211451 1.8184069690998503 2.626531944111535 40 46 26
10.150737586583576 2.1706720932771564 2.554859284694496 46 52 32
9.051405726917485 2.942936538887405 2.775952748236879 41 49 26
8.932642180859975 1.9889895678434772 2.8124249559389933 41 49 26
10.044697151934193 2.8347961377636897 2.5709332009062478 43 51 28
10.255404568015653 2.6698792395699584 2.539680738340671 44 52 29
9.789178526468755 2.5777059366098616 2.6129868886159793 45 53 31
8.641594139420297 -0.40561814855101724 1.7397466141280586 35 45 21
9.07743175633184 -0.5083455969113828 1.7315622979662053 36 46 22
8.953434457160464 -0.040907812565450244 1.733808560143443 31 40 20
9.783012364354542 -0.3638315732873763 1.30741918194429 30 38 17
9.154068426666383 -0.2613795800938508 1.5110128575357005 28 37 17
8.486355028498782 -0.33298225058074965 2.1231968501702987 36 47 21
9.009760494025405 -0.38499112525597157 2.3691818732038197 37 48 20
9.485580869827809 -0.040907812565450244 1.9433906252250972 35 44 23
8.056217252000812 -0.6424898241108659 2.013762246727224 36 49 22
9.492515973581662 -0.19680956609087752 2.3182936363592113 37 47 22
9.163314183803662 -0.734722776898258 2.352131758763917 41 51 23
9.19181185239549 -0.40561814855101724 1.9559131326416075 37 47 21
8.864720931882218 -0.40561814855101724 1.8511776220602254 36 46 21
9.094772799295786 -0.6424898241108659 2.2137752989791926 37 48 21
9.321931247338155 -0.5231982649174169 2.3353921743069206 37 49 20
9.262436748974554 -0.15300959769124647 1.8388343447633664 35 45 22
8.843174293149238 -0.19680956609087752 2.235265099743373 37 47 21
9.347622911889587 -0.7500766069247766 1.512252181943931 35 45 22
8.922081665388152 -0.9903735536203239 1.7343865520463755 43 48 24
9.458960099989621 -0.7500766069247766 1.4065165254469205 36 43 21
9.404572225990988 -0.9011871341755193 1.5126070974525672 42 47 25
9.612700012077656 -0.6005509275483352 1.4091672352923283 32 42 19
8.968932184075484 -0.829178309994952 1.8478332959126549 39 50 23
8.638590998064096 -0.7437695307438403 1.9820135442622737 36 49 22
9.020743864645928 -0.6656943399731203 1.8462004829658323 35 48 21
10.62046319792907 -0.07470699992511699 2.6683174101717158 40 50 25
10.113919587281282 -0.05287153216421345 2.3992864198716575 39 48 21
9.494726785978958 -0.6082422625470086 2.4734420363641467 40 52 23
8.42311390605961 -1.0913341378264556 1.7441727398579312 44 49 26
9.341518765939698 -1.3274779750066743 2.1941297182056636 46 52 27
9.05607742315163 -1.2040871784304674 2.08486149568442 44 50 27
8.986718184845333 -1.0913341378264556 1.9651817024947298 44 50 27
9.22140181762487 -0.9508136372217421 2.345902719665689 43 53 25
8.853223035295938 -1.0855000617844475 2.3875018700646486 43 51 24
9.228994258066644 -1.3556314878817415 1.9542805379241122 44 48 26
9.47781770160345 -1.2447202696578923 1.9437107864853744 44 50 27
9.647821668393057 -1.3556314878817415 2.050551042532702 45 49 27
9.509246530388932 -1.4721679594426025 2.0581482796630515 46 50 28
9.063007007880511 -1.597930826809343 2.363170608950096 46 55 30
9.24378076133854 -1.2910686225727317 2.343533819401396 47 53 28
8.55149832207244 -0.9508136372217421 2.2622705925342257 43 51 23
8.263771552609507 -1.1525591018474333 2.1398864646345537 44 50 24
8.65705571445158 -1.0291569583631741 2.1110872576019686 44 50 24
9.033097237741593 -2.92452856493874 2.366534005174052 40 50 24
9.415157958143931 -1.8577930336091297 2.188517828228595 48 52 30
9.235794104796925 -1.7287685619679307 2.202384361731438 46 54 27
8.969470324176942 -2.10514120223826 2.373802989620962 45 55 29
8.969470324176942 -2.10514120223826 2.373802989620962 45 55 29
10.466285289409822 -2.8896340959280935 2.0102747106385666 37 47 21
9.831516313245253 -3.097411910640827 2.158740246312137 41 49 27
10.278280846985751 -2.651391432469818 2.0188918681418064 42 50 26
9.831516313245253 -3.097411910640827 2.158740246312137 41 49 27
10.104649873122996 -2.8603242820986696 2.140828188930549 40 50 24
9.918736362965095 -2.9765392047064596 2.152890055819603 40 49 24
10.361448636654407 -2.790339803824845 1.9105562327336623 41 50 22
9.44551541163235 -0.8505135453231731 2.4800711740404653 44 54 26
12.84234611000753 -0.4487216039664088 2.8947454311103713 45 58 33
12.80600555443513 -0.9121924916480655 2.9062708845208185 47 59 34
13.027524564575648 -1.0728480742960647 2.8435193259032685 50 63 35
13.027524564575648 -1.0728480742960647 2.8435193259032685 50 63 35
13.204964583444461 -0.8714658382625657 2.8025071608078598 50 61 33
9.772562286124469 -2.92452856493874 2.4381996852381063 41 51 27
9.199723246140604 -2.199711409643269 2.515187246348579 45 55 29
9.524625362956334 -2.8262347324331945 2.6626782171051824 39 47 24
9.130891614408295 -2.7362747714706694 2.7538513971827623 40 50 24
8.735288033206107 -2.976802203532026 2.886704483779101 41 49 26
9.332513042823473 -2.5017691816044785 2.703977833538031 42 51 25
9.684025795906566 -3.0831255409973983 2.4490492431342297 43 51 28
8.459727132395106 -2.1446163093509965 2.648779114623247 44 54 28
9.433762255021724 -3.0552183449876185 2.6815730114651393 41 49 26
9.130891614408295 -2.7362747714706694 2.7538513971827623 40 50 24
8.76996521003255 -2.3273294176535755 2.5864772571340726 43 53 27
9.255642201640013 -1.7861303463965394 2.5068856673492084 47 58 32
9.43462872588948 -1.9558176072863471 2.4815547195980177 46 56 30
9.43462872588948 -1.9558176072863471 2.4815547195980177 46 56 30
10.078345126778855 -1.7861303463965394 2.5657528902118107 49 62 35
8.753217872741061 0.43514997434155156 1.7375717733173734 37 42 25
9.53426779816679 0.2904678083026576 1.8310122192648328 34 42 23
9.465127652442037 0.4896652892336668 2.1847719608249565 36 41 20
9.338376344276265 0.9420780952454991 2.0678710737695423 34 40 18
8.905006727546647 0.9420780952454991 1.9690036747984723 37 44 23
9.23099832559966 0.6723100778596958 2.2027644765490786 37 44 23
9.633082357017265 0.7713893392540554 1.7222152983817252 44 49 31
9.77183258487502 0.7689462138214156 2.1628171003429517 35 42 19
9.662366750827744 0.624275541005304 1.5141612865256915 42 48 31
10.740065292993739 0.3272543611758053 2.6470127738836924 37 45 22
10.884616636670351 0.09327746110181234 2.4600574761882434 37 46 20
10.392191228383172 0.6459071520915517 2.5207788729592187 36 42 19
9.205013100407719 1.2544956940377678 1.729315094438194 35 41 19
9.215304304679899 1.1063111044398954 1.9548799750186938 35 41 19
9.282955778637467 1.2162976925174511 2.071112793340147 31 37 14
8.843595868193935 1.5933949530909906 2.09848231432088 27 36 10
9.29509306726463 1.446810606727597 2.3381655203442344 29 38 12
9.391027091035175 2.3198335697510317 1.83507556344989 36 41 26
9.78672476631015 2.016610949237682 2.290775622885303 34 42 19
9.332168472027803 1.7456320770377587 2.3343404380370045 31 39 15
9.633583397200809 1.8479058555737315 2.1724994592976454 30 38 16
9.719910094882175 2.303353082730767 2.444611074725207 46 54 34
10.21356929474554 0.7508976990707356 2.7532547984938613 45 51 29
8.932642180859975 1.9889895678434772 2.8124249559389933 41 49 26
9.713231197211451 1.8184069690998503 2.626531944111535 40 46 26
8.932642180859975 1.9889895678434772 2.8124249559389933 41 49 26
8.751150724486196 2.8556787635232452 2.8798380694948778 41 49 26
10.030578326028275 2.7376225950323945 2.4083892379030245 44 52 29
10.314496474485079 2.4478199756454804 2.7299962653002563 44 52 30
10.902832737310604 1.0234106564708496 2.6200030634694924 35 43 21
9.734479522402781 2.2878801527825665 2.622688611535767 44 52 30
10.847504860983168 0.22216868017040817 2.8710935069942094 46 55 29
9.522719908124868 1.2574032275143112 2.4697262008953724 32 40 18
10.516386248049773 0.9102235982022109 2.688023712058132 39 47 25
9.419029373581749 1.7758391787834569 2.4836914242549275 33 41 19
9.930687735221232 3.0187399311354954 2.589075807791246 43 51 28
8.68992027303343 2.19191798100126 2.907579111687867 41 49 26
9.815045571722361 2.8821022579483793 2.433111333865827 44 52 29
9.568209563104034 2.76737648357276 2.6539782163978076 43 51 28
8.943180567861711 -0.15300959769124647 1.6214782940095687 29 38 18
8.530593258430256 -0.40561814855101724 1.6239318141694643 32 42 18
8.46470329374566 -0.5684614164898428 1.8648133203871164 36 49 22
7.883785319992064 -0.734722776898258 2.171033625436163 36 48 22
8.817076595455271 -0.4574929705843858 2.100236147653443 36 48 21
9.401342536484059 -0.05287153216421345 2.327320842135511 36 45 20
9.546402826615774 -0.046127089419212154 2.17878365802353 36 46 22
9.546402826615774 -0.046127089419212154 2.17878365802353 36 46 22
8.659807979996552 -0.5231982649174169 2.251960752298379 36 48 19
9.094772799295786 -0.6424898241108659 2.2137752989791926 37 48 21
9.107705365169027 -0.17219469913731544 2.0816632743623478 37 47 22
9.500433390812026 -0.9011871341755193 1.7243461277734238 42 48 24
8.700182703991446 -0.9216485189534279 1.9789284544723658 44 49 24
9.043385257845006 -0.8377577969092959 2.2180392393597934 41 50 23
8.478012089642293 -0.8377577969092959 2.123803555815364 44 50 24
8.353864444264367 -0.9216485189534279 1.8688332240493635 40 49 22
10.27340274584224 -0.061923050542148646 2.537135154708652 39 49 22
9.198330255269317 -1.4588747614095783 2.2053671472604015 46 52 27
9.099054313185073 -1.4414631188071783 2.359161430677828 47 56 30
9.474759955076081 -1.5914424699373382 2.060078350365318 47 51 29
9.341518765939698 -1.3274779750066743 2.1941297182056636 46 52 27
8.651877010460927 -1.0913341378264556 1.8582691732546432 44 49 24
8.600823047609685 -2.713347647100997 2.4192885894502805 40 49 23
9.318192382972676 -1.8999162744496754 2.3357771332067356 47 53 29
8.666377055361222 -1.9558176072863471 2.410745488009896 46 56 30
10.081517734430117 -2.8896340959280935 1.920388095473614 40 50 24
9.933014162755065 -2.8235577019008824 2.277931056106198 41 50 24
9.743826370430364 -2.954031899233647 2.294643430891124 41 50 24
9.655026375763851 -3.091262063599397 2.3028023948758465 43 51 28
12.659824652807197 -0.6402708031918034 2.9606137342132346 48 58 34
13.098875790640436 -0.3417255794761721 2.826272548251422 44 56 31
9.182679670672403 -1.602988775979339 2.5177567591676686 46 59 32
8.861996298542564 -2.6266233398727827 2.569951298979512 42 51 25
9.17374879782431 -2.8842536691950067 2.519110684806763 39 49 23
8.649413874649749 -2.8262347324331945 2.6093758430118226 39 49 23
8.833338838936971 -2.5818685759447235 2.8471017780740175 40 50 26
9.17374879782431 -2.8842536691950067 2.519110684806763 39 49 23
9.07937492260257 -3.071856080599355 2.5337439584935715 42 50 27
8.947277105200742 0.5967854649501668 1.9670170414265673 39 46 25
9.619303945569358 0.18354858345518973 1.9379629309336621 33 41 21
8.989584228883098 0.18354858345518973 1.621216454427532 32 40 22
10.01842764994578 0.7654710587672284 2.4097367862365062 33 41 18
10.446220146866349 0.36880454484780145 2.3652343247586733 35 43 19
9.137975687859266 2.083305630371605 2.354885962951949 40 46 25
9.04444657998624 1.1681727741234198 2.217950545453021 32 38 15
8.880533838083018 1.4629068924742985 2.096059852225239 27 35 11
8.948607311156138 1.3623387222788612 1.733897281713088 27 35 12
9.880818211335965 2.3948363860926807 1.7183906844827925 4 9 0
11.150024891382714 0.16535201176117584 2.78614970772694 44 52 29
9.698336846871491 3.0384885009024996 2.4472724783864392 43 51 28
9.983100939546203 0.9651080548813596 2.8142701630053333 44 52 29
9.774690629559093 2.52855655384913 2.437942986768381 47 53 31
9.38229721759 1.4251091492111259 2.488774566768278 33 41 19
8.557881301588374 2.6428626791256384 2.984920180343433 41 49 25
8.68992027303343 2.19191798100126 2.907579111687867 41 49 26
8.932642180859975 1.9889895678434772 2.8124249559389933 41 49 26
10.687238573568536 1.195528570529544 2.6562579313765107 36 44 22
11.25168596513676 0.40453845899300483 2.7625573114223076 43 51 28
11.25168596513676 0.40453845899300483 2.7625573114223076 43 51 28
9.598040701688042 -0.6005509275483352 1.7227724043326922 35 45 21
7.998159854768683 -0.8377577969092959 2.0172087312806637 38 50 22
9.46125533685424 -0.2613795800938508 1.8330674540217502 35 45 22
8.875065470712862 -0.2929921031250641 1.9704233269772593 37 47 22
9.267731158725033 -0.2613795800938508 1.4030949976253555 29 38 17
9.444062153663442 -0.7500766069247766 1.7252699984880366 38 48 23
9.750995440947987 -0.38499112525597157 2.440811592373855 39 50 21
8.387578225333767 -2.4634726263083553 2.4486344181791524 43 53 27
9.084032234972884 -1.4721679594426025 1.9607273132363203 44 48 26
9.655026375763851 -3.091262063599397 2.3028023948758465 43 51 28
10.383957197465863 -2.751393822911859 2.1236796391909847 39 49 23
10.736188605818873 -2.790339803824845 1.9984878846427712 40 49 22
9.036070144353307 -3.0281988921363343 2.7804116048183976 41 49 26
9.041597926465812 -2.3146090251638336 2.7787966069235033 43 52 26
12.986472640005985 -0.6958199567435948 2.8539870925867845 47 59 32
8.90447085317148 -2.0329751914569885 2.5625783981124486 46 56 30
9.560919877690592 0.08141700565666175 2.177727368327507 34 42 19
9.757939712209177 0.36880454484780145 2.2933657318617775 33 41 18
9.465127652442037 0.4896652892336668 2.1847719608249565 36 41 20
10.633514024919853 0.13154283456347568 2.6659262980269403 40 49 25
8.83231017479667 2.41056380700508 2.2362289443043117 44 52 32
9.035399768350198 2.52855655384913 2.3662738803428462 45 53 31
10.09908813643088 0.9744645836931407 2.4008887674393464 31 39 16
9.277363758680606 1.882560135911273 2.716861013925257 43 51 31
10.292700634370444 1.1053911296536663 2.7348745244772816 41 49 27
9.162673524447014 -1.5942461869734466 2.2082348776600265 46 52 27
9.136925229829266 -1.7530913201643916 2.355000637463389 47 54 30
8.575625623475235 -1.2910686225727317 2.2599437877977584 46 52 27
9.509246530388932 -1.4721679594426025 2.0581482796630515 46 50 28
9.831516313245253 -3.097411910640827 2.158740246312137 41 49 27
10.239440091000823 0.2355626779893856 2.3860186676572215 35 44 19
9.90713054831834 1.9644564330568053 2.1536612661114543 31 39 17
9.55087222992855 2.131934023598578 2.1784580304704537 35 43 21
9.789178526468755 2.5777059366098616 2.6129868886159793 45 53 31
8.97705471919865 -0.5083455969113828 1.5098325711116694 32 41 19
10.05021393070661 -0.8230134581043853 1.6158916413758946 40 46 23
10.356902142951695 -0.2294914593158101 2.525559404463416 39 49 23
8.666377055361222 -1.9558176072863471 2.410745488009896 46 56 30
9.786434400531103 2.9169838574416764 2.290801644903496 40 48 25
10.53431018662207 0.6035973185910349 2.6845456389326103 42 49 27
9.88393478939846 2.0088265319296723 2.5967959632438635 44 50 30
8.806663941631708 -0.5684614164898428 1.973706037228484 37 48 22
8.833338838936971 -2.5818685759447235 2.8471017780740175 40 50 26
10.446220146866349 0.36880454484780145 2.3652343247586733 35 43 19
10.239440091000823 0.2355626779893856 2.3860186676572215 35 44 19
9.109888977237182 0.5349799716490372 1.6205500550336083 38 45 27
