15.157548238385791 0.31598466759776483 1.3080711518297647 47 53 28
15.654791971743125 0.43992763062351403 1.3820927003391366 48 53 26
15.103047545713066 0.3794848967375566 1.4422155457617831 47 53 30
10.528968250842606 0.3437710797850716 1.5768164221279775 39 44 13
10.062688211747142 0.47189329742333513 1.6766700468384939 40 45 18
10.089175852702407 0.15497234486615777 1.6763910519211669 38 43 15
9.928114767527989 0.05528834702546475 1.5771807655185164 36 41 14
9.743098442819422 0.7583551742983284 1.784191360556084 39 44 16
10.719640625671165 -0.20695143477079497 2.422200893688995 41 49 27
9.535607736573946 -0.16142650075959472 1.897853349862341 29 35 8
10.63051888072988 -0.06520449066881553 2.431824275493922 44 50 28
9.701226946373046 0.5819819844284952 2.1199112044032136 39 44 17
10.635091358496608 0.07919733306500099 2.4313239794162067 44 50 27
9.983842601647396 0.06922273788145657 2.2234788911919052 41 44 14
10.042014372872728 0.42157986504460404 2.0992748921517093 39 43 12
9.856131987476171 0.4742661214406396 2.233422135455745 40 44 15
10.62091724447567 0.06922273788145657 2.298350034506919 40 45 16
10.070451705652664 0.3789114870282442 1.8798900070471831 41 44 13
9.763030319827338 0.2785195983916984 1.8899614887617802 37 42 11
9.07911396157181 -0.5124340138550002 1.5777777927114556 27 33 8
9.708688556385663 -0.30042482273824234 2.1194410056389508 37 43 14
9.310416229485696 -0.5124340138550002 1.7942729598903477 26 35 9
9.22669298640432 -0.30042482273824234 2.026834378125386 33 42 14
9.541206786111907 -0.4113021536536559 2.010727806603618 33 42 16
9.821541734597867 -0.46307001619535587 2.236173285666795 41 50 24
16.551801765663633 1.827850307870418 1.3306589739621797 43 55 34
10.440908610240461 1.97524498897337 1.6728211696724482 35 40 15
9.093609326725975 1.2424065687191055 1.6880021065454167 29 35 8
10.40443354046642 2.894114662277088 1.5768884798758707 45 53 30
10.205635735610391 2.9892597754821884 1.5770071517660624 43 53 29
10.102364289509318 3.0872589272700615 1.5770706427699603 42 52 26
10.102364289509318 3.0872589272700615 1.5770706427699603 42 52 26
15.195420563400772 3.0393067521799284 1.5091192528719457 23 30 9
8.841353445413404 1.4644285432047899 1.8063473853375218 33 39 12
10.066105944507713 0.9063289929815393 1.8800278712670695 37 39 13
10.124837079411094 0.7536391273330728 2.2128762883823203 38 43 14
8.621243196649264 1.4504653195053152 2.0615858879332 33 39 14
8.65159141985828 1.2025349570966468 1.9327301282093428 33 38 13
9.575324587430707 0.8461067503678409 2.2565160719830457 36 41 14
8.749214193663157 1.0925854670214041 1.8088756978598464 33 38 11
9.155971960156707 1.0322234978709621 2.156774308334608 35 40 14
9.127300953446296 1.2866182305816767 2.297370698056428 34 39 14
9.55957927238885 0.7536391273330728 2.1290031819375876 38 43 14
10.480608019752614 0.7469317526213965 2.448638666837204 38 43 16
9.028381430485503 1.407757414738707 2.4692317764303184 39 43 14
9.183526347993899 1.2388293465340448 2.448285174589962 37 42 15
9.442597159376273 1.0873891856117333 2.4158912860303126 36 41 14
10.918423889605506 -0.24070755439629035 2.550083542511857 41 49 27
11.684743185567623 0.09252085029816112 2.608503796658535 44 49 21
10.830937944754508 -0.07619271870092577 2.5622179852716562 43 49 27
11.1175953494075 0.40697397664252194 2.5239206511117436 42 47 18
11.305086240835186 0.3053653199073979 2.668502122433144 42 47 19
11.774143698914319 0.2561581656067174 2.59577298302068 43 48 19
9.599513766616079 1.959022715019595 2.1264075188392058 37 42 16
9.958357099262969 2.016786477798857 1.8834865484860093 36 41 16
8.27827776867417 1.5841201102274023 2.228937267197163 35 40 15
9.165461416368018 1.879349093364839 2.2936763660653448 37 42 16
9.591369091344774 1.9173617339830369 1.8958817684048825 35 40 15
9.165461416368018 1.879349093364839 2.2936763660653448 37 42 16
8.823229537186657 1.8405644884224386 2.0493914699076545 35 40 15
9.8160436589802 2.1287772982375635 2.2366129125659366 40 45 18
8.861069962865548 1.6973022993284355 1.8058133879817042 34 39 14
9.047690390061435 1.7642956444577775 2.4665555525754694 37 42 15
9.497880370613467 2.078540754334297 2.4093547395159347 39 44 17
9.759060662994216 2.167100102156124 2.5432069114946203 40 45 18
10.119969372188752 2.302821494995716 2.4927432327189134 42 48 21
16.095626183843493 -0.459264861756153 3.0782875090380917 48 58 34
17.06957724548551 -1.761752986861343 3.1146561957541397 49 59 35
16.069962579921132 -1.761752986861343 3.1129801984992884 47 56 31
16.165425322585484 -2.213733313455092 3.029174607234058 53 63 37
11.079248254127323 2.5934203751855907 1.8509439826902172 43 49 22
10.695379200242714 2.189580444537653 1.76493660402424 38 43 16
11.084146351213748 2.629246787563107 2.149611159736314 42 51 24
10.797925022731834 2.324682333809124 1.8584481022437016 41 47 20
10.327354539066201 2.4773654800629155 2.0832172693450213 42 48 19
9.968596926147377 2.1638121187172032 1.9906409206618045 38 43 16
10.852696521837442 2.4773654800629155 2.1636120053342984 43 49 21
11.037606934730396 2.5402607226170195 2.047372304702754 43 49 22
10.890501084296345 2.8033221350856947 1.761415092716845 45 53 30
10.712659044565466 2.7280988790232 2.1724443352272447 42 51 25
10.275065607359826 2.319698731283753 2.0860823074436246 41 46 19
10.890501084296345 2.8033221350856947 1.761415092716845 45 53 30
10.51415425728728 2.2494316985669385 1.967595374579683 38 43 16
11.480084656640363 2.6137979506589235 2.4807701049181494 46 53 28
11.079838005770345 2.499862822029194 2.385836234500138 44 53 25
10.32273034010669 2.312843881882267 2.324378613342005 42 47 20
10.982614836804219 2.532512643552382 2.541438160287802 44 50 23
11.306639145835312 2.6773819955077136 2.3647848116207157 42 51 23
10.310737329454941 3.0872589272700615 1.7722767488848656 44 54 28
9.439299025086514 -2.939597997442425 2.268363994063996 47 60 31
9.698921907432807 -2.98321417411321 1.892146591003326 45 55 29
9.96459194929858 -3.0919615024769596 1.9908203397341415 44 54 28
9.55733143694069 3.073859059720623 2.1291500571457393 45 57 30
9.337965657198252 -3.0779893629589523 2.2774943385925375 47 60 33
9.698921907432807 -2.98321417411321 1.892146591003326 45 55 29
10.517335013946585 2.9727977614351158 2.073084475615821 45 55 31
10.845853924729779 2.894114662277088 1.8571409322167844 45 53 30
11.03371434486686 2.79638617122555 2.390282452485892 44 54 30
10.744819340225153 -3.0779893629589523 2.419529898904482 47 60 33
10.113190771662483 -3.0675762113932197 2.4936275585450605 48 61 34
10.749343197800098 3.0643376109015934 2.4190521833407415 48 58 34
10.846456366671374 2.926466480505383 2.4089536306420545 48 57 31
10.846456366671374 2.926466480505383 2.4089536306420545 48 57 31
11.035877731047348 2.836304480012795 2.265344508234122 44 52 29
11.560595233079855 2.677160725766955 2.6269937642327648 42 51 25
10.206830607687406 -2.907533172666201 2.481603539205025 49 61 36
8.24033098833091 -2.4112471919196277 1.7002036006833006 47 60 33
9.680319299342205 -2.255775546493505 1.6808686633022676 41 51 27
10.906845719480799 -2.0645779002400335 1.3922902531801826 38 43 21
10.125216175197348 -0.9199742543445478 2.2128482911559093 39 51 24
9.648416838288975 -0.8289353271145605 2.0055039759645545 30 39 13
11.499971425753472 -1.1467029603468064 2.47854889276485 41 53 29
10.295046074863494 -0.3930229226919483 2.4706398274955093 42 51 25
10.577841800364926 -0.5283623552814656 2.4376405217816144 41 51 25
10.902787678550622 -0.8373229649740587 2.403229013311951 40 50 24
10.438774626055014 -0.7361690037052021 2.4534792810363024 41 51 25
10.185480309932567 -0.8373229649740587 2.337098656530827 41 51 23
10.753918942134968 -0.9199742543445478 2.2873895620749565 42 52 26
10.036050255206433 -1.3482229467124809 2.099621906418869 45 58 30
10.987449711103654 -1.0872686300158194 2.2690217089679567 41 54 27
10.672327123175576 -1.1981596179470937 2.294068434368702 43 53 29
10.672327123175576 -1.1981596179470937 2.294068434368702 43 53 29
9.81400248493751 -2.214147289702444 2.3742027627310174 49 62 35
9.125971995126898 -2.4112471919196277 2.032255397899172 47 59 32
8.72677459525048 -2.4112471919196277 1.929470302311442 48 61 34
9.17629227339753 -2.4859284821930636 1.7975961205555884 46 56 30
8.868616182128259 -2.6884118781143105 2.046738110556104 44 58 33
9.676473604827208 -2.5101919419890977 2.2479933281828535 45 59 34
8.566247800866794 -2.5101919419890977 2.0650199167314747 45 57 33
9.945144193271895 -2.6884118781143105 2.2264568867207166 46 60 34
9.048555660184293 -2.8085877380911928 2.1646744998680534 47 60 31
9.106733129216162 -2.3271624808352125 1.7993591516768352 47 57 33
9.643813019495166 -2.8085877380911928 2.2507193376119496 48 61 32
8.637395900119502 -2.6258029661988527 2.1971772810288366 44 58 33
10.13954648512238 -2.545485833391224 2.4902016128923146 46 62 38
9.641337277809466 -2.7587547635205127 2.392951826557782 49 62 35
9.255313970185513 -2.1698351844112604 1.795626255157345 42 52 28
15.26352761154964 0.3794848967375566 1.377194926597905 48 53 28
9.722625450303378 0.6115480990090005 1.6803877735137858 39 44 17
10.235327835357149 0.2516547095532432 1.5769891342879274 39 44 14
9.378566028769363 0.6763639924249477 1.9035393506397165 39 44 16
9.43530876208212 -0.050601306818977725 1.9014617455527079 30 36 9
10.289391923456845 0.3115980049580801 2.200969981793273 40 43 10
9.603450513625525 -0.3694593194534675 1.4731120399638433 29 38 12
9.696116178416784 -0.6677503428998178 2.0032209403425494 34 42 15
9.321367867744756 -0.6677503428998178 1.905660769429101 26 35 9
8.824298592928217 1.3506731815930906 1.6915963740939048 32 38 11
8.368067230024067 1.3226298678238968 1.9455898075125901 33 38 13
8.350045752966516 1.2025349570966468 1.8204935907425277 33 38 13
9.71370281486777 0.8363817412716738 2.0023854500445073 37 42 15
8.775325498533553 1.152285702501282 2.185850207150375 35 40 15
8.495931536638606 1.2866182305816767 2.209278877291776 35 40 15
10.480608019752614 0.7469317526213965 2.448638666837204 38 43 16
10.90287475637592 0.6255554670126698 2.552209966877447 41 46 17
10.60996667589728 0.5405404647677792 2.4340819374370515 40 45 16
11.68058161148897 -0.07619271870092577 2.6091078971894213 43 49 24
8.823229537186657 1.8405644884224386 2.0493914699076545 35 40 15
9.443526780020699 2.0113331368340104 2.2679888281839817 38 43 17
8.794546367878263 1.581003181532441 1.807624964038625 34 39 14
9.966201865579931 2.067057507802667 2.1037221958359185 38 43 16
8.861069962865548 1.6973022993284355 1.8058133879817042 34 39 14
9.221454140451348 1.9305976925413573 2.4433498342001014 39 44 17
16.095626183843493 -0.459264861756153 3.0782875090380917 48 58 34
10.847693917905353 2.4609376772714406 1.857090990116937 43 49 22
9.914328000775935 2.2494316985669385 1.7804503584532594 39 44 17
10.567972314312954 2.7692984429582626 1.9654624143759305 43 52 26
11.389477968154065 2.5171498984536385 1.752968164678486 42 48 21
10.272741999341884 2.2312576766745496 2.202152662803563 41 46 19
11.079838005770345 2.499862822029194 2.385836234500138 44 53 25
10.991385503412161 2.571001911095606 2.2687212251172584 43 52 24
11.306639145835312 2.6773819955077136 2.3647848116207157 42 51 23
10.710348842386114 2.868156829781116 2.063212420295362 44 52 29
10.225780691227481 2.9523942896988835 2.2055147687777312 46 56 32
10.39792437061292 -2.9986907087498245 1.7705643877951924 41 51 27
9.969469857822974 3.0812935831201385 1.990601835211344 45 55 29
10.848657094987011 2.9523942896988835 2.279807826024544 46 54 30
10.325506390709828 2.79638617122555 2.324126375033787 45 53 30
11.027142452312837 2.8924740426651656 2.535562971501706 46 56 30
10.110743598001607 -2.939597997442425 2.3442380098648092 49 62 34
13.537081931012393 -1.651449676029409 1.6494308281390095 14 19 1
12.77278469044243 -1.7368846869881494 1.4185888853639874 10 14 1
10.110327269921061 -0.8289353271145605 2.0953343204464145 43 52 26
10.110327269921061 -0.8289353271145605 2.0953343204464145 43 52 26
9.836867750153818 -0.5283623552814656 2.3717960538714262 44 53 27
10.230675960267801 -0.645319761990569 2.3328552255759814 42 51 25
11.288217656618055 -1.2825667660421987 2.502951726165894 43 55 31
11.043009449582925 -1.0256134468956526 2.3893817342736825 44 54 28
10.036050255206433 -1.3482229467124809 2.099621906418869 45 58 30
11.144498701764814 -1.3195252178805434 2.379699569086075 42 55 28
8.768400266653954 -2.238518418870696 1.9276912044801697 48 58 34
9.610535355788752 -2.3216568807617484 2.2535221659781417 48 61 34
9.048555660184293 -2.8085877380911928 2.1646744998680534 47 60 31
9.259124038208606 -2.6258029661988527 2.284787261252589 45 59 34
9.165784923059693 -2.238518418870696 2.030096601618933 48 61 34
9.942743483287884 -2.6258029661988527 2.3608712979223974 46 61 36
15.710833636953115 0.29605183608090324 1.4472157956440372 49 55 32
9.262885343470339 -0.16142650075959472 1.795439325413357 29 35 8
9.812605542685969 0.3789114870282442 1.782656671938664 39 44 14
10.733238315326087 0.22038500853584528 2.420755866109375 43 48 17
9.916970026947968 0.17203574020851434 1.99296597755218 34 39 10
10.206511218044463 0.3532219819802358 2.33511723630244 41 46 14
10.002736489881231 0.7583551742983284 1.8820525035027549 38 43 16
9.304678303774484 -0.2684055936268969 1.68533156478374 29 38 11
10.182666084773363 -0.3407827614747252 2.3373647060572447 41 49 25
9.656017579463166 -0.5721023252716474 2.1227785767245306 38 47 21
10.091484407031313 1.8835078104346843 1.6763668056427186 35 40 15
10.61957821305557 0.47855619615307304 2.593384983258276 42 47 18
8.982548988142105 1.5865210241500334 2.4756670260557763 37 42 13
10.263357226269378 2.078540754334297 2.4745389919162992 40 45 18
8.641461936260889 1.7138464916692842 2.0603359436767796 34 39 14
10.944371857996229 2.6775058888525196 1.9511794332917791 42 51 25
10.85049661280978 2.402452720060684 2.2796624077199454 43 48 20
10.616652897905453 2.6773819955077136 2.29870778361662 43 52 26
11.211382929577185 2.745086519913481 2.5122408015025988 44 54 30
10.931634559094316 3.05170980405598 2.5482869230890985 48 59 35
10.01620550081443 -3.0779893629589523 2.3534954467890734 49 62 34
10.655294966661486 2.9892597754821884 1.862410732619332 44 54 30
9.343170722245674 3.0643376109015934 2.27701878263232 46 59 32
9.552243069851187 -3.085836559148315 2.1294828399665793 45 57 31
10.927186170445275 -3.0675762113932197 2.5488908731054143 48 60 34
10.56353611079527 2.412035733388038 2.439237011825516 43 49 22
10.991385503412161 2.571001911095606 2.2687212251172584 43 52 24
10.306020946369207 -3.0968747687819658 1.7723702222748412 42 52 26
11.256120574917214 2.717967978506417 1.7551510909975094 42 51 25
10.802950673546556 2.319698731283753 2.166717267970835 41 46 19
10.071877881232252 -0.7448224444939504 2.2168140266992333 40 49 21
12.999947729964413 -1.1649545666689043 2.759687859454558 48 61 34
10.871615438522282 -0.6124263998054662 2.5565239991610564 41 51 25
10.125216175197348 -0.9199742543445478 2.2128482911559093 39 51 24
10.261383729543107 -0.9879067292245836 2.086837563153205 38 48 24
10.372910928688269 -1.0872686300158194 2.195109757134001 40 50 26
8.912258211943884 -2.580779849700338 1.9216793250774602 44 56 32
8.72677459525048 -2.4112471919196277 1.929470302311442 48 61 34
9.928114767527989 0.05528834702546475 1.5771807655185164 36 41 14
16.551801765663633 1.827850307870418 1.3306589739621797 43 55 34
13.902111437834524 2.9492594419949065 1.2837019795564395 25 29 10
9.797353012126468 0.9566061774252047 2.3759660954029 37 42 15
9.31771677914534 1.8102739813313875 1.9057971221775611 35 40 15
12.117528972618036 0.11121173608435708 2.7213909850703306 43 48 22
10.159558118685437 2.1076029195626353 1.775317063908581 37 42 17
8.990615546495887 1.7353240608457325 2.310965277950485 36 41 14
10.517335013946585 2.9727977614351158 2.073084475615821 45 55 31
8.87012109543611 -2.3271624808352125 1.5779422889011325 47 56 33
10.596662624295009 -0.46283478003794715 2.5969367228332545 42 51 25
10.053121516403985 -0.6124263998054662 2.5015624873553404 41 51 25
10.600626141174612 -1.1372084376141718 2.068773790197951 39 49 23
10.273645392702234 -1.2388983583025643 2.086160596373479 41 53 25
10.443805881674859 -1.3195252178805434 2.313555483940763 40 53 26
9.376785407908152 -2.8472790821896563 2.018997637266922 44 57 29
9.627343826618779 0.5217194783682997 1.8946225986681422 39 44 17
11.411920882266072 0.07919733306500099 2.4884916377243393 43 48 19
10.46849808062164 -0.46307001619535587 2.3113919493488084 40 50 24
11.382008856660317 2.8460937991640156 2.6554644493365234 47 57 33
9.1395042231845 0.9271702552012151 2.031519263450012 37 41 14
11.560595233079855 2.677160725766955 2.6269937642327648 42 51 25
9.613276723084748 0.6557333273131357 2.2532902976793334 39 44 17
9.759060662994216 2.167100102156124 2.5432069114946203 40 45 18
9.651326910612099 -2.9640177267004817 2.1230779084806923 45 57 29
10.852696521837442 2.4773654800629155 2.1636120053342984 43 49 21
8.705545066652748 -1.8129234051536858 1.5780773837913737 37 47 23
11.6000328417196 -1.9435837639680333 1.3148554508734835 39 43 23
9.776829566603462 -2.422759159079004 2.378152470395877 46 60 35
10.07385924233806 -0.18140686303819317 2.216665747563219 37 43 16
9.978971718792206 -0.05698316021016076 2.223852081722586 37 43 14
8.971183743788718 1.4323091101154664 2.312945515471648 35 40 15
10.607121033723201 2.2056831101715377 2.434395691890598 41 46 19
10.13954648512238 -2.545485833391224 2.4902016128923146 46 62 38
9.810660425545755 0.06147680627867614 1.9978386745443792 34 37 7
10.290696467049921 0.8293405337988039 1.6743157185938737 38 42 15
8.573234472811794 1.5823552168885533 2.064580858068568 34 39 14
9.751442879123765 -2.135518645188325 2.2418271318087917 50 63 36
9.376785407908152 -2.8472790821896563 2.018997637266922 44 57 29
9.967118755571308 -0.045504071835346334 1.4766869883367504 33 39 14
14.929100395486778 0.31598466759776483 1.3728011403229368 47 53 31
10.088327394790683 0.1932690563272769 2.215585259969111 38 43 12
