18.142180293601754 1.0622238824323116 1.0196824213660398 48 58 30
18.415730377390318 1.1187736433128563 1.2100697413894381 55 64 37
17.976055952146286 1.028845153556077 0.947019067243359 49 58 30
17.976055952146286 1.028845153556077 0.947019067243359 49 58 30
18.302509279203594 1.1958452650087117 0.7412890178867628 42 51 23
17.9731465403937 1.0863374779964203 0.7210461963195459 48 56 28
15.694139443462136 2.2058397902524414 1.1437749317690757 33 43 8
15.498460325830404 2.3549543591237616 1.2762084394801338 38 47 12
15.561177706505003 2.450034432998612 1.2774310936901148 41 47 19
15.370552163213436 2.3548236397696853 1.0610680548662577 33 42 10
15.561177706505003 2.450034432998612 1.2774310936901148 41 47 19
14.90818757956627 2.3548236397696853 1.1196517435272808 34 43 9
15.942094273472549 2.400490285082151 1.3494546014412756 42 53 21
15.55950232316765 2.600254493525523 1.209512086489033 38 44 15
15.689166654003698 2.504002209751877 1.1436307050503887 36 43 12
14.973377576539743 2.4598585212651045 1.1217599077542109 34 41 8
15.305374103063233 2.259896634652477 1.3400831462477767 38 49 15
15.102919500522749 2.6612212172806324 1.1980635309068888 38 44 15
8.434534303197543 0.4352967414272651 1.749598673193927 42 45 16
8.315106896539488 0.4352967414272651 1.5106395428225468 35 35 6
7.946146909097396 0.3207082021973073 1.6337730471607599 40 44 11
8.31514382989829 0.3207082021973073 1.8761885415151085 43 46 15
9.650932944576885 0.6310938513655013 1.308775608755161 20 22 0
8.896108964080815 0.5388882930554262 1.4013843721483221 24 27 1
9.22999388607996 0.28522087881301 1.2965243834002131 30 32 2
7.946146909097396 0.3207082021973073 1.6337730471607599 40 44 11
8.993334551752637 1.2819262577588455 1.4032332929930122 21 28 1
8.881455368644069 1.2819262577588455 1.5144797917306425 27 32 2
8.302564857790495 1.1313198882938458 1.6310661891542328 30 35 7
8.299449600800862 1.245922580835155 1.8767847424471418 39 44 15
8.415994357720349 1.370063331815036 1.999712814054436 36 41 12
8.061322284242136 0.9625459388063542 1.7579724117053692 41 46 17
8.187627905750237 0.7830332758323797 1.881102208163983 42 45 16
8.546194113667719 0.7830332758323797 1.992756780732328 43 48 19
8.540118765824223 1.0007013996313479 2.270550784846526 41 46 14
9.109663126975892 0.782509262345092 2.365331592798664 44 49 20
8.3120034510431 0.6036712738150326 1.8763076507946332 42 47 18
8.893260396265266 0.3658317517175945 2.2375728654103453 42 47 15
8.29947557269626 1.2001352184144565 2.1438661205705154 38 43 14
8.305726944457517 0.9625459388063542 1.8765459914568798 40 45 16
9.002089587087962 0.7830332758323797 2.094272834244318 43 48 19
8.546194113667719 0.7830332758323797 1.992756780732328 43 48 19
8.893260396265266 0.3658317517175945 2.2375728654103453 42 47 15
9.224424945825591 0.4922702095168313 2.2096219346561785 45 48 17
8.890341828564715 0.4248458347984597 2.390788940387249 45 50 19
8.97887447921765 1.8540265302464698 1.7386524574510858 40 45 18
8.75627047698206 1.7424962834689048 1.7429618576387982 40 45 16
9.933351667467624 1.7247229238198893 1.3163928076946152 30 35 5
8.647337403565958 1.5089875237772903 1.7451527827735949 42 47 18
9.834813729913925 1.620645389203805 1.3137865245604776 20 25 2
8.638322639210365 1.8894197743847867 1.9879740584962937 40 44 16
8.406705881117523 1.7648516563638315 2.0002181495315265 37 42 13
8.293182457697355 1.500771652397891 2.0064955918218947 37 42 13
9.196151987228166 2.134150722482812 2.355799364175355 50 54 30
9.416664270468207 1.8326373198882941 2.4922312434058376 51 56 31
8.86685113919494 1.9344768603055729 2.239919116754088 44 48 21
8.530961632911463 1.490042247042382 2.2714547907298157 42 47 20
8.530961632911463 1.490042247042382 2.2714547907298157 42 47 20
8.635321665499916 2.0616285463576878 2.118966175868207 45 47 21
8.518745697972902 2.134150722482812 2.2726648703952517 50 52 30
9.089639438657713 2.0734646371081666 2.541220296807003 50 55 30
8.635350384715801 2.2282269208085883 2.4229962421205435 51 56 31
8.641376214310066 1.8326373198882941 2.4221992889382453 48 53 26
9.61850555947052 2.0553009715612753 1.5187992902859557 38 43 14
8.860929990870801 2.1086605955461213 1.7409083832737773 41 43 19
8.858004433881908 2.270716221504809 1.8569255522635815 45 47 21
8.970224169790818 2.453539430793398 2.2308380902775147 50 55 30
8.512607740918824 2.3538242916521854 1.9945287176895925 49 54 29
8.85806042827603 2.713179280784788 2.394702743359601 51 57 32
9.075279435643235 2.81880102332992 2.089624183774618 51 59 33
7.906742458387822 2.2536857829873065 2.0293724110000304 49 52 29
8.152564470476904 2.3538242916521854 1.882481663743814 46 51 26
8.26803063758665 2.81880102332992 1.8779854453240747 51 57 32
8.632337771942229 2.477739223928257 2.423395368713553 51 56 31
8.623239862688543 2.703634592120835 1.8649446445361773 51 56 31
16.315724780223295 2.268234652043482 1.540151859252472 43 54 21
15.754446159343901 2.3095361987983676 1.4114432113098814 42 52 21
16.97501023436922 2.313423657946818 1.600261046632002 50 60 30
17.53580178911064 -0.17043717851952786 0.9982862254758227 48 55 21
17.763911403470672 -0.09631502346851394 1.0718585646496117 44 51 18
17.763911403470672 -0.09631502346851394 1.0718585646496117 44 51 18
17.87614648756734 -0.1596514654998442 1.0752766843170736 51 58 24
17.363876715692097 -0.034409583298577004 0.9918914568407615 43 49 17
17.930533497146296 -0.034409583298577004 0.9451908582301992 43 49 17
17.706055723440684 -0.23644190300810167 1.0044713261042668 51 58 25
10.056911481241036 -0.7123780053282774 1.4210957596832792 43 50 16
10.056938791596775 -0.7123780053282774 1.7205148971558846 44 51 17
9.334975621705954 -0.631099472175676 1.6243937959087367 41 50 13
7.819302954933876 0.1967258694069778 1.7638377064388169 40 45 12
8.071039697988507 0.1967258694069778 1.8857377541723785 42 47 14
7.819315403848986 -0.19673416264292273 1.763837395227604 42 48 12
7.690359451303901 -0.06634278222558723 1.7671162825357285 42 48 12
8.671399248470491 -0.05858055602267781 1.3969500653142581 40 45 10
7.9461822025251845 -0.06634278222558723 1.8908610710082714 41 47 12
8.671395506593145 0.05857297076917986 1.3969499895311894 39 43 9
8.671399248470491 -0.05858055602267781 1.3969500653142581 40 45 10
7.555790749040495 -0.22592904769201808 2.052436062822406 42 49 14
8.187693154748327 -0.4248555830503072 2.3073664032899117 44 51 17
7.552359637281838 -0.4248555830503072 2.2091229428453687 43 50 16
8.187693154748327 -0.4248555830503072 2.3073664032899117 44 51 17
7.942923086593064 0.07646177704645475 2.1731137232235502 41 48 16
8.549285067162788 -0.07647166296076491 2.2696484996081674 43 50 16
10.248776845345796 -0.9943366049745419 1.4239188021163853 45 51 22
8.19085487800312 -0.4922779321812279 2.0123194318405555 42 49 15
9.002129235612886 -0.7830391752766283 2.094270292111681 49 54 28
8.428420129541802 -0.6834189567820024 2.134024783676777 45 52 20
8.665458356435527 -0.6036780133147781 1.9865866382911102 44 51 17
8.999245975503914 -0.8822399321244737 2.2283374260999596 51 56 31
8.54624970913695 -0.5645959078740339 2.2699469950623072 43 52 21
9.221616591672975 -0.8662115881993478 1.9601093400910656 51 56 31
9.645641278281452 -0.8662115881993478 2.0561728858714288 51 56 31
9.109665668971541 -1.0278294280947664 1.8488076053963398 51 56 30
9.645625658968957 -0.9357952417252748 1.8329842661406557 48 54 26
9.949174513247293 -1.0815085821290218 1.8248053264600494 52 56 34
9.544114165854847 -0.7834013689877883 1.8358397097946657 46 51 22
9.63756311696674 -1.1402538096985617 2.4626139859641705 52 59 36
9.946592812920375 -1.0007067605782374 2.424981940769112 51 58 35
9.943956365599348 -1.2819283425192223 2.0404140025093302 55 60 35
9.430497816067538 -1.1313232198497212 2.068244955798838 51 56 31
10.715907188391363 -1.3700650223916084 2.3460574779330887 54 60 37
9.845536571217504 -1.0737562150403008 2.2918905735330553 53 58 35
10.23867010670287 -1.3931550227936447 2.1378961032176313 56 62 39
9.215986505508381 -1.0737562150403008 2.2103021637907303 51 55 33
9.196141650928348 -1.9587795131360248 1.6252037492513978 58 65 42
8.63837898209243 -1.889417200306052 1.9879711678288001 56 66 42
8.869828650895496 -1.7648500191214562 2.1029010551365577 55 65 41
9.938732213528409 -1.5007722563131198 2.2836776759917443 54 62 39
9.309895896978295 -1.7937867587150529 2.343664755230113 54 64 40
8.635384202124913 -2.2282199451771136 2.422991764428597 55 65 39
9.309873365700987 -1.7424949982149813 1.9562232746987573 56 64 41
10.135393137360175 -1.6264980955873336 2.144399299421347 56 62 39
8.635370512988576 -2.061624395992685 2.1189627219627525 56 64 41
9.936117474676095 -1.6435836282271565 2.426193071023511 54 64 40
14.588743244420082 0.3166029584557987 3.0312941195707634 52 61 34
10.434694976626465 -0.9456415278396423 2.7151261566351605 55 63 38
11.525234119218208 -1.2438484644293728 2.7166256641950683 56 65 39
10.80882903376104 -1.3401979285793695 2.4757598569554355 54 61 39
10.434692421867855 -1.1402538096985617 2.522834090204376 53 60 37
14.518241756462487 0.7599893457970878 3.0915841345694917 51 60 34
14.51824399139585 -0.7600541568465023 3.091581058962042 54 63 37
10.522673942125147 -1.675732496797007 2.69708165381798 49 59 33
11.435861828050824 -1.4544268992865483 2.734238573503207 51 60 34
10.135410632106703 -1.656757481715083 2.565601567563048 53 63 39
10.137979800430815 -1.4754427809635378 2.565211479606855 54 63 40
11.080562749953593 -1.4216163465329692 2.8164762880818666 55 65 40
10.989941653139564 -1.4754427809635378 2.614822021717973 55 64 38
10.231053852311598 -1.832634369723207 2.551363029124943 57 66 41
10.231053852311598 -1.832634369723207 2.551363029124943 57 66 41
10.622118277928374 -1.42646989208257 1.5237159647143625 47 51 30
10.799122820869 -1.8021902976559834 1.5244881987079497 60 66 41
10.145624003786125 -1.2153954724046614 1.6201076635007579 51 55 34
10.437147725175624 -1.2153954724046614 1.8126861049952985 54 57 36
10.622158318488433 -1.4115214463383094 2.0082688134170614 57 63 37
9.629409458610821 -1.6206450492492646 1.7272156995513486 57 61 39
10.525120502422354 -1.515480071237317 2.0125851766729737 57 63 38
9.930828516117893 -1.8255536770289877 1.7224307659676281 58 67 41
9.632113593293278 -1.515480071237317 1.7271714246021344 56 61 37
10.127639713109366 -1.9213697392999458 1.620195299995099 56 65 40
10.145624003786125 -1.2153954724046614 1.6201076635007579 51 55 34
9.738054119105456 -1.4115214463383094 1.7254564435163664 52 54 30
8.620219924996272 3.082660490539669 1.7457069266944036 51 60 34
8.503415392913885 -3.0826528589854196 1.6296409505801064 54 62 35
8.512659064018205 3.050509698107732 2.4396348229789475 51 60 34
8.268053483944854 -3.0747889003527793 2.0079109589357627 55 63 36
8.861024940006843 -2.818090299171172 2.5800103395878717 55 64 39
8.6293391478973 -2.8741277916841 2.423793100045329 54 63 37
8.388132885689368 -2.9435229174735587 2.00123231435146 55 62 36
8.277538569923145 -2.632020838844315 2.473926235053806 54 64 39
8.271221618393778 -2.7730673408989857 2.1460720228117918 54 63 37
8.852161415700676 2.943531264044644 2.10407649104295 50 59 33
9.295849467510838 -2.3541846775349264 1.7328772317794594 56 64 41
8.860984918296358 -2.1086567886781413 1.740907318493394 56 64 41
8.268032037963978 -2.70362747100369 1.631318223481893 53 61 37
7.77256751300739 -2.6459697186036504 1.898274047229474 53 61 38
7.903489071091263 -2.453532356494287 2.0295756379124077 55 64 38
7.906802550064555 -2.4777302258164458 2.340072117759213 54 64 38
8.397468264272286 -2.253680007035019 2.136353955454324 56 65 40
8.512663555737754 -2.5727072718157085 2.2732691101871083 53 63 39
8.632343542665701 -2.1736251183958935 1.9882810511722637 55 65 41
8.152608250492666 -2.3538183922085634 1.8824799335811568 56 65 39
8.149416472958457 -2.6459697186036504 2.0147241080959937 53 62 37
17.976055952146286 1.028845153556077 0.947019067243359 49 58 30
17.41088081345004 1.028845153556077 0.9936549749472116 48 57 29
18.465690555851836 1.1638098964514891 0.6677205995218077 48 54 27
15.307063597447511 2.2058397902524414 1.2032729960545654 33 44 9
15.301965017688751 2.504002209751877 1.2031447062229392 38 45 15
15.751134268855608 2.543447617831216 1.2810721603273636 41 47 19
15.562839430997558 2.4049189492411323 1.1399326599811666 35 44 10
15.940449474189577 2.600254493525523 1.1507947089572084 35 43 12
15.564520337268666 2.259896634652477 1.277495967945137 35 45 12
15.370552163213436 2.3548236397696853 1.0610680548662577 33 42 10
14.839216197830325 2.4049189492411323 1.2627008441883028 39 48 15
15.87923387660625 2.450034432998612 1.2171097366156574 39 46 16
15.370552163213436 2.3548236397696853 1.0610680548662577 33 42 10
15.49509581557344 2.6612212172806324 1.1379220944570025 36 42 13
8.422159243524575 1.1313198882938458 1.7498642379907414 37 42 13
8.774080342968746 1.0278256004340447 1.5137898609036196 21 26 2
8.662358420576593 0.866206661362642 1.3967667702895563 21 26 0
8.665399781318394 0.7002829626537629 1.744785633495324 43 48 21
8.893167093235 0.7002829626537629 1.2858516020403352 22 24 0
7.942860640802841 0.6036712738150326 1.6337991375855707 41 44 15
8.546147466081015 0.866206661362642 1.512267735119509 29 34 3
8.181271137716605 1.0737520305355985 2.0128731693161397 37 42 15
8.881524524947878 1.2001352184144565 2.2386132452920124 41 46 17
7.815990933006687 0.3658317517175945 2.035112658089739 40 45 12
7.815990933006687 0.3658317517175945 2.035112658089739 40 45 12
8.635296703709953 2.0045699351869555 1.8645217037705937 42 44 20
8.290041587600001 1.6339069607749788 2.0066719783760734 37 42 13
8.866865123859851 1.9934947658018574 2.393630794831447 48 53 27
8.52792287897618 1.6567584909892785 2.437520887271647 47 52 25
8.866865123859851 1.9934947658018574 2.393630794831447 48 53 27
8.518745697972902 2.134150722482812 2.2726648703952517 50 52 30
16.975004840985196 2.313423657946818 1.5413423890455085 46 57 24
8.632294678048352 2.1736297812029326 1.9882835620173411 46 48 22
9.187578978258836 2.354189669387837 1.51635810660542 43 47 19
16.3768950658702 2.268234652043482 1.4790809371257028 43 54 20
9.083914542144266 2.6320318923916695 2.5421413759864335 50 58 31
16.3157303915412 2.268234652043482 1.6014520117021243 45 56 24
8.849163551158021 2.854712998140095 1.5142740662031007 51 56 31
8.626266266052786 2.534171191996193 1.9885935638812922 50 55 30
8.738411447392052 2.5996404855587603 1.6280567270176025 49 54 29
8.849173897071545 2.854712998140095 1.6273392461576912 51 59 33
9.190493439221799 2.572715686762849 2.3564147628374696 51 56 31
17.87614648756734 -0.1596514654998442 1.0752766843170736 51 58 24
17.707526181139606 -0.03219491766309432 1.0701225673316772 43 49 16
17.42137421365964 -0.10290031272041243 0.9940470955589217 46 53 19
17.98621962467089 -0.10290031272041243 0.9474256552964367 44 51 18
17.307707284785703 -0.09631502346851394 1.1226144762905665 47 54 20
18.262098077058887 -0.23644190300810167 0.9582455835723418 49 57 23
8.78595670016379 0.1741457078397836 1.3992394511921573 38 41 8
7.690355232084435 0.06633419744303223 1.7671163916496968 41 45 12
8.071044435479266 -0.32071596796868235 1.757744279127291 42 48 12
7.422257671940198 -0.07647166296076491 2.061863212993166 43 49 14
7.2827241603834665 -0.26506081375825485 2.236882151206655 43 50 16
8.067835041999947 0.22591960272698694 2.162507149406919 42 47 14
7.422257671940198 -0.07647166296076491 2.061863212993166 43 49 14
9.746070510189261 -1.0815085821290218 1.7253282088232114 50 55 31
8.546235877227325 -0.7830391752766283 1.9927545869314431 47 54 23
10.434675428896318 -1.2819283425192223 2.125977794684178 56 60 38
9.946592812920375 -1.0007067605782374 2.424981940769112 51 58 35
7.939660004399096 -0.5645959078740339 2.1733963211459426 42 50 17
9.221616591672975 -0.8662115881993478 1.9601093400910656 51 56 31
9.109682207232337 -0.9625506206504716 2.0874690986041666 52 57 32
10.241219142136863 -1.2459251981788089 2.2584152718659785 54 60 37
7.939660004399096 -0.5645959078740339 2.1733963211459426 42 50 17
10.24122491346267 -1.2001385892464627 2.3925531053907165 53 59 35
8.635387289204559 -2.517800295771753 2.623024692721308 55 65 41
8.97893591256389 -1.8540244816879086 1.738651298080327 58 66 43
10.137962310117816 -1.5089879944637792 2.1442355819919507 54 60 37
8.976051787157571 -2.0045666353267753 1.9713591213616133 55 65 41
9.938732213528409 -1.5007722563131198 2.2836776759917443 54 62 39
8.866898711194514 -1.934473541203958 2.2399148738753816 55 65 42
8.51878759609902 -2.1341453952206244 2.2726607120237166 58 67 41
8.635370512988576 -2.061624395992685 2.1189627219627525 56 64 41
15.583055302381537 0.3166029584557987 3.0383579423533984 52 62 34
10.238687424981038 -1.3001438610375455 2.5502509877224737 53 61 38
10.238687424981038 -1.3001438610375455 2.5502509877224737 53 61 38
10.80882903376104 -1.3401979285793695 2.4757598569554355 54 61 39
14.518241756462487 0.7599893457970878 3.0915841345694917 51 60 34
10.9875716965529 -1.656757481715083 2.6151930118769693 53 63 37
10.238655392070008 -1.4115214463383094 1.9196818694351419 56 61 34
9.933459813908279 -1.7247218888790194 1.8252160611062918 57 65 40
9.941321900637535 -1.4115214463383094 1.8250104021747313 55 59 35
9.94393200797091 -1.3109113877636445 1.722229409019506 50 52 31
8.738471921270984 -3.0747889003527793 2.1117744074175624 53 62 35
8.509557528011781 -2.437352523484831 1.629598427930887 54 63 37
8.503415392913885 -3.0826528589854196 1.6296409505801064 54 62 35
8.512662875670697 -3.0504979410451742 2.4396342934839783 53 62 36
8.025773617912094 -2.9139078472811284 2.1660333382990333 54 63 36
8.26805025971211 -2.818793214293297 1.8779846924566939 54 63 35
7.903496549484727 -2.5727072718157085 2.176547593236892 55 63 39
8.629327867545683 2.8741388188163692 2.423794597111984 50 59 32
8.277538569923145 -2.632020838844315 2.473926235053806 54 64 39
8.388118793046957 -2.70362747100369 1.7505988438443165 53 62 36
8.397475302751307 -2.3532888427122667 2.2849387973760327 54 64 38
8.632343542665701 -2.1736251183958935 1.9882810511722637 55 65 41
16.070295938162054 2.219346067064666 1.3512494184312855 36 47 12
15.172414252863028 2.4049189492411323 1.1998538642282812 37 46 12
14.976851396920676 2.249818885949888 1.121871671900209 33 42 10
9.010714191591152 0.28522087881301 1.4035595345296175 34 38 4
8.31514382989829 0.3207082021973073 1.8761885415151085 43 46 15
8.428385481725922 0.6834118957359975 2.134027379499374 43 48 19
8.549208750791157 0.7002829626537629 1.6293253912608392 37 39 13
8.549198041871259 0.7002829626537629 1.5122886435075906 33 35 9
8.650398380116897 1.3401957070762498 2.2598660717845696 41 46 19
8.527908338489915 1.6435843523596376 2.2717568016214242 43 48 21
9.837461402954782 1.515479694140397 1.3138572603879577 11 15 2
8.641361864727354 1.7937889119429682 2.2607278207775425 43 48 21
8.650337959765716 1.3931536949102594 1.6286403720582785 40 45 14
8.976052822198122 2.3524648387324003 2.5599599593019082 52 57 32
9.196081668599712 1.9587821868247335 1.6252041044796366 39 44 17
8.190827148110987 0.4922702095168313 2.012321031963645 41 44 13
8.647337403565958 1.5089875237772903 1.7451527827735949 42 47 18
9.002103361661487 0.6834118957359975 2.2280923515922213 43 48 19
9.298582060704444 2.2012854276420826 1.5170086014703015 39 43 17
9.083897319669004 2.3532960531031257 2.3682245981606282 50 55 30
8.855109581083644 2.7730760640390906 2.240968160848828 51 59 32
8.626241278059174 2.4373583454440935 1.7455835751267483 49 54 29
17.821588041300206 -0.09051974619112008 1.19746311908046 49 55 21
17.93346216458008 -0.1501399295741813 1.1999055084750103 52 59 25
7.559196080588893 -0.06634278222558723 1.6370013915129866 40 46 11
9.956990089730255 -0.7123780053282774 1.520568426296856 44 51 15
7.690351765647738 -0.19673416264292273 1.6358706818257944 41 47 10
9.62943461182322 -1.6264980955873336 2.0570608336230753 56 64 41
9.9465809283554 -1.1313232198497212 2.1567125687845414 51 57 32
9.845515265743925 -1.1775737653203908 1.934246466094147 53 57 35
9.224410496066058 -0.7834013689877883 1.6250368499765226 44 51 18
9.544114165854847 -0.7834013689877883 1.8358397097946657 46 51 22
8.159031524862353 -2.352455568332271 2.4925691826498175 54 64 40
8.635387289204559 -2.517800295771753 2.623024692721308 55 65 41
11.082910416128678 -1.3001438610375455 2.6005726717418396 54 62 37
11.080562749953593 -1.4216163465329692 2.8164762880818666 55 65 40
10.238687424981038 -1.3001438610375455 2.5502509877224737 53 61 38
10.434694976626465 -0.9456415278396423 2.7151261566351605 55 63 38
10.53496981833617 -1.1261868255201763 1.523326210106643 50 54 32
10.811173963211472 -1.3347079519919554 1.5245398549325926 47 50 29
8.025751524524038 -2.534164433460252 1.758811883405605 54 63 37
8.509592256790672 -3.064508168069189 2.273574678949136 53 62 35
8.152630000102725 -2.713169471642176 2.311273420071552 54 64 38
15.238190692362654 2.3549543591237616 1.3390473919435937 41 52 18
15.17412847969833 2.304872105904742 1.1998978034281722 35 44 12
8.644325214763107 1.6264985199739197 1.7452141623427326 41 46 17
9.221611189706307 0.564587526609968 2.3530445138369895 46 50 19
8.406705881117523 1.7648516563638315 2.0002181495315265 37 42 13
8.653383545278826 1.245922580835155 1.987202830854963 36 41 12
9.083914542144266 2.6320318923916695 2.5421413759864335 50 58 31
8.973123342193073 2.2536857829873065 2.230587337341253 50 55 30
17.763911403470672 -0.09631502346851394 1.0718585646496117 44 51 18
8.999245975503914 -0.8822399321244737 2.2283374260999596 51 56 31
10.135378272788886 -1.6206450492492646 1.923391070792992 58 64 39
7.946178119141125 0.06633419744303223 1.8908612413396744 42 47 14
10.150753323602817 -0.9943366049745419 1.6200827255809667 49 54 28
8.738468208114659 3.0747975444311137 2.11177466269293 51 60 34
8.735452287128123 2.966398251475674 1.7433762772820331 51 60 34
11.435861828050824 -1.4544268992865483 2.734238573503207 51 60 34
10.713482129007078 -1.4900430497693928 2.487173109204679 54 63 40
9.416664270468207 1.8326373198882941 2.4922312434058376 51 56 31
8.999206314275979 0.8822341429174232 2.2283408292163482 42 47 19
9.645639477722362 0.4248458347984597 2.4615770629203353 46 51 21
9.433249265545117 -1.0278294280947664 1.9509226160564639 51 56 32
8.620206211778628 -2.966390826018254 1.5127711391485181 56 62 36
10.054324824850594 -0.854728215035179 1.4210569560997135 44 51 19
8.509592256790672 -3.064508168069189 2.273574678949136 53 62 35
9.00213580132705 -0.6834189567820024 2.228089570441097 47 53 24
7.559196080588893 -0.06634278222558723 1.6370013915129866 40 46 11
10.43466099066404 -1.3109113877636445 1.9128572737932052 54 58 35
11.17277747957869 -1.1596386976632467 2.7928187050131363 57 65 40
8.629304901041747 -2.2707113023852363 1.745520881802852 54 64 40
8.855109581083644 2.7730760640390906 2.240968160848828 51 59 32
8.626280640746614 2.6459774754071383 2.1196062475563897 51 56 31
7.144088906335242 -0.0902407744649076 2.2522261756988 43 50 16
7.8160116899795335 -0.3658404231271094 2.0351113280201343 42 49 15
9.626695054045971 -1.7247218888790194 1.6227681355184558 61 65 42
9.645641278281452 -0.8662115881993478 2.0561728858714288 51 56 31
14.588745468552919 -0.316641360695234 3.0312927429822416 54 64 37
8.425291163006529 0.8822341429174232 2.134259309864161 42 47 16
9.954386665914905 -0.854728215035179 1.6210557924243987 45 52 22
9.109695183620655 -0.7825164727373488 2.3653280089451103 50 56 29
8.659473508468661 -0.6582531218589822 2.4198168012464034 46 55 26
11.177360382034504 -1.2468161218693565 1.4361986360618235 50 54 34
