16.59058430572366 0.5168703290109516 0.9993398852510182 21 31 3
17.99692870689753 0.531469867787374 1.3481945788505467 31 40 12
17.524206380162788 0.48094039936908856 1.342084358205666 31 38 8
17.254767735358584 0.5095219755358965 1.217306917505785 30 37 7
16.820682981810144 0.45397603763493205 1.20776765846539 24 33 3
16.07175157046749 0.5168703290109516 1.0516987442911212 25 34 2
16.389578617484062 0.4835472968878049 1.1313238816678923 27 34 4
13.003968086230653 0.6620027002548361 1.7272987981391514 21 30 0
12.294324688594777 0.5975996008179657 1.4915594745454583 21 29 5
11.767166515222636 0.5270181428640013 1.6581719256126806 19 26 3
15.061166373381626 0.8732566538289208 1.2342845754245748 31 44 17
15.061166373381626 0.8732566538289208 1.2342845754245748 31 44 17
12.789751010025682 0.7723148993342345 1.651170203969912 25 35 7
13.369430222337385 0.9912399539926169 1.7991777088133944 24 33 10
14.1962423935548 1.030735482442154 1.785661042601553 23 32 4
14.155371469311591 0.8829451524575583 2.010603014424897 21 31 3
13.369325477037087 0.7723148993342345 1.8767483198551227 24 30 3
12.764917894677685 0.4501322893506337 2.0625155575305367 16 22 0
12.324342494444181 0.4501322893506337 1.9909274921572475 17 23 0
13.854206135011362 0.16868959042032636 2.1887646178303863 39 45 19
12.84627543655048 -0.46667025870642564 2.0591265945247392 40 49 17
13.293512768262147 -0.2973029583932899 2.219077881867208 38 48 18
13.920172148987552 -0.2973029583932899 2.2763730708101515 32 42 12
13.724276315280088 -0.009358880396103216 2.19551053324151 43 51 21
15.12184671788016 -0.2047723718375295 2.3879489391669635 36 44 13
13.561926415275025 -0.3848812788343727 2.2041693651524734 30 41 9
13.724276315280088 -0.009358880396103216 2.19551053324151 43 51 21
16.02126170943329 0.2047006675015803 2.5202506555857136 49 55 28
15.127309152590195 0.09778691016535679 2.489874165259431 47 56 26
15.24665803768801 -0.2264734299363146 2.479681657911132 49 57 25
13.81754492034868 -0.509690776952595 2.2827173369875347 39 48 16
15.101120772029631 -0.011408477444577332 2.4921506750460916 47 54 23
15.141077073471708 -0.1203335401202121 2.48868321370837 49 56 24
18.788237212187962 -0.9356713032209149 1.5189777252910057 52 53 28
11.741178859048334 -0.9062955687710526 1.7442933655378854 26 35 5
18.33729146397339 -1.0270158948720909 1.2961527629328868 31 33 9
13.275359089874216 -0.5422441676986857 2.042032566943984 34 43 13
12.363727527601771 -0.8491409415173078 2.0799777291681365 43 52 22
13.04531132476819 -0.6611631439709306 2.051038527726514 31 40 8
13.604381759629483 -0.589244206930634 2.2018797694972254 35 44 12
12.874813158970191 -0.7834660254774041 2.2439491305345283 48 57 25
15.183464662160356 1.4286548659663492 1.7046869776129452 21 28 7
15.252535661749455 1.3635747716680382 1.5069508130130902 23 29 8
15.219689329730926 1.9703844047140633 1.704366390861093 20 26 6
15.671200746066212 1.886677126978393 1.5725100105342367 21 27 10
15.59861140193336 1.9703844047140633 1.3132470534602807 20 26 7
14.638057284940212 1.28178785004319 1.7097074268190111 23 29 6
15.458077356765278 1.761026140840402 1.377254303595799 23 29 8
15.141639418623267 1.6955699782169376 1.440112189680374 23 29 8
15.02650990218085 1.5619558945998708 1.4391051131077235 22 28 7
15.563268728710954 1.4286548659663492 1.3126488525251356 22 28 8
14.802593190850873 1.349130518078415 1.8463057296176537 21 28 6
15.716695588066788 1.4185779025950582 2.034311307609507 21 28 6
15.543214272106203 1.6955699782169376 1.8328605235812834 21 28 6
15.275039497911571 1.8423017476702017 1.9061355569752447 22 29 7
14.127579740549228 1.2607397795073836 1.8598393269157816 23 29 5
15.242307315698818 1.494968391480306 1.7707077291660558 21 28 7
15.543214272106203 1.6955699782169376 1.8328605235812834 21 28 6
16.090287256192546 2.0860192521183767 1.4478573371145076 20 24 12
16.233420569875715 2.3110880507920792 1.4489467359485975 3 5 2
15.684497613704794 2.1732119875612423 1.636312639291125 20 24 9
15.749789708574863 2.2633044434652145 1.7641833389422688 12 16 9
16.249716149193777 2.446578085945459 1.8853061288326112 42 49 41
16.153778275898432 2.536731964625153 1.822735700922929 32 39 30
16.359435824277085 2.5545467630995184 2.08363878091256 29 40 26
15.47655383519343 2.5545467630995184 1.9707964340986155 30 39 28
16.77116633039609 2.1732119875612423 1.9383763445885696 21 26 12
15.451377437013328 2.0601824891384637 1.9021610461561782 23 27 11
15.80502374685165 2.0601824891384637 1.962025826585156 24 28 10
12.16789913949964 -1.9839798461486617 1.6552873483247297 53 65 42
14.956717599877429 -1.5577639587940377 2.3997887845838157 49 59 35
15.107288205340376 -1.362874397178519 2.3889764076454347 51 59 36
16.017092296515088 -1.2702455459914006 2.420184288118318 50 60 36
14.469642605620669 -1.4907300395150584 1.7815394185213245 36 40 20
13.549472375092257 -1.6424100988666175 2.0317514018171603 49 55 33
14.425920398921738 -1.561459730631276 1.7821878123910324 26 28 7
13.996617104116794 -1.559917138031117 2.0967517869404126 51 57 34
13.449862935459251 -1.5607472871493893 1.7977879178941663 48 54 32
14.986483210546844 -1.6488342816011177 2.303739517755042 52 60 37
12.732555037507215 -2.0197875026937724 2.063877407371198 54 66 42
13.47177632818022 -1.9364248547996419 2.2090920093371498 54 66 43
12.14201668267684 -1.906014021642147 1.8227409962592098 53 63 40
14.43182560538118 -1.7374879759199684 2.2465462059947656 55 63 41
12.005263848001686 -2.7805196060157793 1.8256743342550912 49 61 40
13.00500044897174 -2.6193428685853646 2.2359918859858077 52 62 39
15.029485684993722 2.7780478772191626 1.983406825507019 38 45 36
12.505847240995593 -2.8368314935047225 2.1674598215928675 50 62 43
11.47589856835965 -2.3414281720628787 1.748346157115559 53 65 41
11.732391673925367 -2.407185696044359 2.0135835675885625 53 63 39
11.494501263697392 -2.5387527370717433 1.9287185133095233 49 61 38
18.21315340765221 -1.2348185926894413 2.778677367615478 54 64 40
19.982482913015094 -1.5492261247327774 2.8310789731001504 55 65 41
20.6958116876838 -1.563522506963761 2.076573185615426 33 34 11
21.147290584601816 -1.6162164275013995 2.011809989762056 37 37 18
21.65636701362262 -1.6682822458988045 2.052170968917255 21 23 4
21.480636995547613 -1.7705801929343534 2.004497529491089 26 27 12
22.48749921377363 -1.7279239261885246 2.188657642492908 21 22 7
22.199016717682575 -1.6795962194239038 2.254757680773463 23 23 5
17.77762915343433 0.48094039936908856 1.2872712502044443 27 34 4
17.802897343372297 0.531469867787374 1.4030067195158606 31 40 12
17.77762915343433 0.48094039936908856 1.2872712502044443 27 34 4
16.83937576993847 0.4835472968878049 1.0775563047839278 24 33 3
17.254767735358584 0.5095219755358965 1.217306917505785 30 37 7
16.07175157046749 0.5168703290109516 1.0516987442911212 25 34 2
12.967640405416885 0.8829451524575583 1.7277408560919902 26 36 8
13.657466679845536 0.5975996008179657 2.027828119052753 13 21 0
12.900347833918707 0.5975996008179657 1.8882525704449438 19 28 2
14.677569728354076 1.0948659079438492 1.993926651206324 20 29 2
14.761625860366587 1.192071922558895 1.9182825494471785 20 29 2
12.93078521083497 0.36708900158923996 2.1453028848194373 13 21 0
13.753086708254706 0.08030142503931077 2.194000876466321 41 47 19
12.482725111862973 -0.3848812788343727 2.07466347196392 39 49 19
12.71470686970206 -0.2973029583932899 2.156343781474774 38 48 19
13.331120815123892 -0.18682211089937684 2.125982625962231 44 53 23
13.570043976984431 -0.010282541836859723 2.2985641108258204 38 46 18
13.614494478704568 -0.10855470497627287 2.2956591130076225 38 46 15
13.570043976984431 -0.010282541836859723 2.2985641108258204 38 46 18
16.17011009204228 0.3070858581984465 2.507506245238807 42 51 23
14.16932927805575 -0.42239149683059646 2.356955981637363 43 52 20
12.532503635489173 -0.95617801082593 1.7332376779738015 32 39 9
18.33729146397339 -1.0270158948720909 1.2961527629328868 31 33 9
13.041093694555054 -0.9062955687710526 2.0512070058500704 43 52 22
12.365952037015129 -0.718060226464384 2.079877302263944 34 43 13
12.954374754629143 -0.6439272766541593 2.2390612702270385 42 51 19
15.231732228515762 1.494968391480306 1.3743409558129909 22 28 8
14.529679565107113 1.28178785004319 1.503769827048413 20 26 3
15.212629606465983 1.9703844047140633 1.440725501981403 21 26 9
15.522800407042308 1.8248750266064755 1.7017430279220815 21 27 8
15.031833953626283 1.9077772557954247 1.7735455712316126 21 27 5
15.45493085351638 1.6290227146389433 1.8343930705082212 21 28 7
16.048098815396322 1.5613197376321706 2.0945970172205755 20 28 7
15.295777498069787 1.4185779025950582 1.9757986158250593 21 28 6
15.43108115024152 1.5619558945998708 1.834810205084254 21 28 8
15.588526708025702 2.2633044434652145 1.7011877567941087 14 19 9
16.231726094087566 2.3988890021224543 1.4489339523853357 19 24 16
15.50058526766518 2.029850925811541 1.572528873129224 21 26 9
17.106806240066497 2.118641613382665 2.059203616175294 25 30 15
15.907689190980875 2.3549306817851274 1.8267198216589755 40 47 36
16.86973053519816 2.211410111192789 2.0666857059782044 17 22 13
15.406955086832635 2.118641613382665 1.768542909449102 21 24 14
15.020764382831702 2.711969040822574 1.912041185824194 35 44 31
11.859162544411967 -2.096963846750495 1.7425500245250067 54 66 42
14.998892597150292 -1.4592591514779107 2.396725517377428 51 60 36
12.911232496121274 -2.143347001735683 2.14628353278876 53 65 41
13.238999695125067 -1.7239402704010003 1.96026891057894 51 58 36
13.75557711252084 -1.484649182688532 1.867891081703478 47 53 31
12.04657140781235 -2.70252745887384 1.4899263407769308 51 62 39
11.293555386785359 -2.664256518096245 1.7512441016581928 52 62 39
12.59556027065766 -2.808655249508481 1.493458338070036 50 62 43
12.29788124684949 -3.048823448444752 1.8194798635166247 51 60 44
11.58309078368254 -2.2171155654120187 1.74668583640824 53 65 41
12.73688268051275 -2.27383835947231 2.155189673503056 52 64 41
18.484153906676188 -1.4128246949000065 2.7418458943140904 51 63 39
17.43354880371578 -1.0967713837882778 2.7371227375142655 53 63 37
21.21572422924098 -1.6187215059906819 2.1173536715581247 30 28 8
21.129866938718642 -1.5639032394447339 2.0121992518200367 38 40 18
21.147290584601816 -1.6162164275013995 2.011809989762056 37 37 18
22.784060918717213 -1.6215187915348617 2.2909945398638785 22 21 3
17.524206380162788 0.48094039936908856 1.342084358205666 31 38 8
15.061166373381626 0.8732566538289208 1.2342845754245748 31 44 17
13.6055563523082 0.9463274653654029 2.0297052263204733 21 31 5
11.966621463872539 0.33665286716802323 1.7409925583174506 22 27 2
13.599181121078786 0.08818799371470724 2.2966569058816364 39 45 16
13.246406436450384 0.2783953386310574 2.2217744169485343 20 26 1
11.872826257578454 -0.7837040335073276 1.8285817302696534 30 39 9
16.956607689435575 2.1388315580982034 1.3342850430701942 20 23 14
15.256134573937036 1.2607397795073836 2.049458510847759 23 30 5
15.815051829014381 1.9978463668405273 2.0312051678745773 22 28 8
14.142127049387808 -1.561459730631276 1.643469970925602 44 48 27
13.477219119843454 -1.6369617346893446 1.7973191136482285 49 55 34
15.516343399008337 -1.1826336651590974 2.361233206675724 50 56 31
14.956717599877429 -1.5577639587940377 2.3997887845838157 49 59 35
15.516343399008337 -1.1826336651590974 2.361233206675724 50 56 31
11.91681735649877 -2.0197875026937724 1.915495613875066 54 66 43
12.269917304163172 -2.747459061410505 2.0842512300868257 51 61 38
11.476481486647582 -2.9503515138787635 1.8376981238788281 51 63 44
21.765450936067356 -1.7198236540369731 2.0495547970688945 16 17 1
13.917282575684219 1.192071922558895 1.6446461918977031 20 26 2
12.245714595973162 -0.8417610950150636 1.4912442752715136 35 44 14
13.45247859138894 -0.8491409415173078 2.210156691438006 47 56 26
15.242307315698818 1.494968391480306 1.7707077291660558 21 28 7
14.551315700352482 1.349130518078415 1.3650259407570362 22 28 5
15.681149340218637 1.761026140840402 1.3146332054592218 23 29 8
15.02650990218085 1.5619558945998708 1.4391051131077235 22 28 7
14.952803516380216 1.6290227146389433 1.5056692214121639 22 28 7
15.89449800565821 1.8248750266064755 1.3181472591151986 23 28 9
12.125172742842054 -2.3393149217427314 2.1889435331133758 55 65 39
16.017092296515088 -1.2702455459914006 2.420184288118318 50 60 36
13.450159502800302 -1.8235798629327267 2.1205023574031374 53 62 40
14.022906709412574 -1.6424100988666175 2.0956638372311662 51 57 35
12.10675966854785 0.5270181428640013 1.8234907047317739 19 25 0
13.89727363430397 -0.46667025870642564 2.186563433405994 32 41 10
13.701436449895313 0.1849784643336862 2.2900527729113187 33 39 12
18.616480519974175 -0.9799466451001129 1.3557212052930296 50 52 28
15.468497703162367 1.761026140840402 1.7677458049895556 21 28 8
14.275506668421956 -1.6322828078937088 1.7132590664303253 27 29 8
12.092617821836518 -2.966121791918154 1.4902349476777212 52 62 45
13.535738228138719 1.0948659079438492 1.7211026775820084 20 29 1
15.24665803768801 -0.2264734299363146 2.479681657911132 49 57 25
15.107288205340376 -1.362874397178519 2.3889764076454347 51 59 36
15.639765248879659 -1.1447676372560824 2.4480592634012126 50 57 31
11.404532914022683 -2.4661965078906065 1.485362810207772 52 62 38
11.342069344426486 -2.3414281720628787 1.661455572942129 55 65 39
