15.290041453677942 0.7345363367429232 1.3902203189420546 49 55 30
15.634588186410657 0.6413540621459473 1.328843373314459 50 55 32
9.61861578583839 0.5568020330731378 1.5972029830868237 37 43 17
8.329127967990235 0.13171286731666798 1.7219228294422155 20 22 0
8.427886626825263 0.2496656052503299 1.6009348924915754 31 35 13
8.728808922657961 0.36095334347702535 1.5998955785404319 43 48 21
8.329127967990235 0.13171286731666798 1.7219228294422155 20 22 0
8.259027817697675 0.009973622766976076 1.7232155289186961 15 20 0
8.871299640890538 0.6170137994892445 1.7126221845576821 33 36 8
8.768436404867382 1.1977464890355032 1.7142974021274553 29 32 0
9.278980126600564 1.0912076925163496 2.310396797416393 40 45 18
9.040746474936572 0.8669070051131653 2.060690603069682 29 32 3
8.624968227624947 0.6895148316064906 1.957646041293506 31 34 5
8.835397719867279 1.0393520831079273 1.9479626356365913 30 32 6
8.845701812243108 1.150736742689302 2.0724860019923437 34 37 4
9.404497429548549 1.014040669856124 2.4517237626613775 42 47 20
8.546640101876386 0.5179187802556765 1.8376786160807854 39 44 17
9.068798628609361 0.5849447709280765 2.188721569765195 36 41 13
8.948762828939692 0.14984355932897112 2.198288434112291 35 40 16
8.948762828939692 0.14984355932897112 2.198288434112291 35 40 16
9.518804734000739 0.013209972455922226 2.437295596758413 47 53 26
9.736006945710338 0.01576823076539469 2.5825765423134577 45 51 25
9.421804283771191 0.5380938037780317 2.4495005302792867 45 50 21
9.306314196933027 0.775518188057198 2.464611055984082 45 48 22
10.204648506610022 0.2541586444335246 2.706517303014153 43 50 20
9.779891343286998 0.02573551142457114 2.812153092581219 44 49 22
9.736006945710338 0.01576823076539469 2.5825765423134577 45 51 25
9.360920862888927 0.7723540193912851 2.650349722504708 41 47 20
8.904029407449872 0.9115207561641809 2.5229795575598093 44 49 23
9.955676555323913 0.38321964288467003 2.5482410716427464 45 50 23
9.475745428773461 0.4636437743333202 2.628157592142496 44 49 22
8.478553890033238 -0.23084782689141153 1.7192394589774591 16 23 0
13.75402010333839 -0.28934515032926883 1.516528532017849 38 45 13
14.434518921734819 -0.42255640992211163 1.588391583643816 40 47 15
8.67266463818096 -0.34337943651621133 1.6000840122595548 38 45 13
13.759361808031265 -0.21819840861833031 1.3698714531266494 38 45 13
14.451553708018054 -0.42255640992211163 1.519150268069111 41 48 16
13.638684995491138 -0.45287892061481844 1.4424233246373397 39 47 14
8.260415691452001 -0.5005899883413135 1.7231897200864976 38 45 13
8.977195662269947 -1.0867935526463186 1.4875971353884743 39 48 14
8.636350522172357 -0.9297107847188764 1.6002071965289553 38 46 12
8.522766786661508 -1.08001143022467 2.235038338189228 47 54 22
8.501363322082545 -0.8534888094382714 1.9635762665030239 42 49 15
8.38133401166642 -0.1275462245695755 2.1031380081967965 39 45 20
9.778905819838272 -0.17607855447794551 2.575602854321437 45 51 24
8.273986804061696 -1.1420074303561947 1.9749890567257444 48 55 23
9.173084847858473 -1.08001143022467 2.320980462154258 45 53 20
8.501363322082545 -0.8534888094382714 1.9635762665030239 42 49 15
8.987438300791748 -0.3018033573742268 2.3404079197684218 46 53 23
10.326972184648257 -0.43186468941137907 2.681692288701897 47 54 24
8.979647102362593 -0.8684217029338519 2.34124894245768 45 52 20
8.391255177958772 -0.38692082499768754 1.9690188890529983 37 46 18
9.668868284638968 -0.8917127973055504 2.59377681869787 48 55 23
9.236061185527747 -0.7551791208217411 2.474132021631101 46 53 21
8.6083263803538 -0.44228525142164116 2.227280204007606 42 51 17
10.205771800581305 -0.7452503826277933 2.7062805523735607 45 54 22
8.858197245290112 -0.6114629116979918 2.5302858140391793 46 54 21
8.391255177958772 -0.38692082499768754 1.9690188890529983 37 46 18
17.97445832954368 2.0242652684225653 1.4735031735108646 49 59 33
8.260386703998394 1.4278827141872028 1.7231902590460388 21 25 3
8.1797459774915 1.5506451462256383 1.7247045638695053 33 36 9
8.220857620284107 1.674014971732313 1.7239287961357768 34 36 11
8.551238159460484 2.5024518640496103 1.483442465094723 35 41 16
8.433278273777136 2.3357008771775076 1.6009156181748052 34 40 16
9.67316121862216 1.873599468292214 1.3892985607143788 34 39 14
8.522417848592221 2.5024518640496103 1.6006004939542124 35 41 16
8.977160098309916 2.0140886894368135 1.4875968050235326 34 40 15
8.656270070092148 1.9084224187747951 1.7161699864587872 34 39 14
8.66698856732313 2.170071683265495 1.7159889274200322 36 41 16
8.143060430547512 2.8820012823108656 1.479051749714793 37 43 16
8.600251941833541 2.7669778119991872 1.3663538633846106 37 43 18
9.134114080460067 1.5506451462256383 2.0552476460398164 35 40 12
9.00697792052283 1.8246298871377562 2.193608629349346 37 42 17
9.51897136863491 1.4080343598556018 2.2876290428301416 41 45 27
8.903517261288291 1.7943249813979285 1.9449337087985041 35 40 14
9.206399094008686 1.4278827141872028 2.051119960517141 32 37 7
8.857279238236245 1.6884649816222996 2.205800124524492 38 43 16
9.50286415470715 1.7075900840508726 2.4392721556876724 40 46 21
9.537081085396528 1.3818597320821304 2.435043154945679 42 47 20
9.116952761700599 1.1683806912041688 2.4908875063947766 41 47 21
9.045211478227573 1.9177132815094462 2.5013779780415124 38 44 19
8.896156188442564 1.7340727743939783 2.524223961225524 38 44 19
8.932697432230372 1.3458222957874932 2.5184850808674817 40 46 21
9.556173430154773 1.061303713317448 2.8894323038506933 41 47 20
9.07199510350199 0.9587906458122599 2.7136685971637604 43 48 21
9.728627594398972 0.7662086051570545 2.8279298221948395 41 47 20
9.564693547461308 0.46364022841712993 2.8859977560289685 40 48 20
9.458537274421305 1.0834910045393293 2.6313933377309486 42 47 23
9.209366910108809 1.5309117025655667 2.6820550808422174 39 46 20
8.599767173908084 1.0834910045393293 2.5745762139463517 41 47 21
9.209366910108809 1.5309117025655667 2.6820550808422174 39 46 20
8.255210375688154 2.2175723252691646 2.2606734473800945 37 43 18
8.29361460191516 1.9518578751309905 1.973976969470367 37 42 17
8.42435294042439 2.2427230191996785 1.9673666096425282 35 41 16
8.52273869151387 2.0073065038974676 2.2350409190970453 37 43 18
8.764859046417362 2.3315700240450448 2.2135917545687365 36 42 17
7.892747728652053 2.1336697235811517 1.995743765666544 36 42 17
9.156724370081687 2.718166172066067 2.181912846027146 36 42 15
9.027762816839553 2.6034196141785975 2.061457679404242 37 43 17
9.027762816839553 2.6034196141785975 2.061457679404242 37 43 17
8.9613849629781 -1.6643854377409848 1.5991401567071846 44 51 19
8.396146265238775 -2.785099182617186 1.4818246503183818 50 57 26
8.406790576986806 -2.3492655425600275 1.7205161340758974 49 58 23
9.182405787224258 -2.677943007722452 1.267095326300543 49 56 24
9.082699584335083 -2.2716146578671164 1.4885657677786281 49 57 23
9.362421266322075 -1.8787876739967133 1.5979257532485849 45 53 21
8.534461894868715 -2.180951588642367 1.718259895305564 50 58 24
8.878048286797364 -1.2204355161757299 2.352416461335924 49 56 24
7.915827244824467 -1.5432845047336767 2.296589916458056 49 56 24
7.915827244824467 -1.5432845047336767 2.296589916458056 49 56 24
9.027209176846902 -1.1565117241490914 2.504060064313255 48 55 23
9.678465436495292 -1.338635157424924 2.592153682983566 50 57 25
10.519773293932333 -0.40162125805085136 2.916317129730733 45 51 24
8.123395646529966 -1.5472594228890222 2.1219476864405493 47 56 24
8.204590244086969 -1.404273316442622 2.1158758552011436 49 56 24
8.755986763558322 -1.7987653657259841 1.9515578443355113 46 53 21
8.512481967712983 -1.3041613254798383 1.8387758742914833 48 55 23
8.234735014803363 -1.5502308871106811 1.848049181034849 48 56 25
9.993606923457595 -2.428080812206103 2.010497110526742 51 58 24
9.471313303553842 -2.6211625748870913 2.1588276866574607 51 58 24
9.029234719955092 -2.5179692899425 1.9394727908044662 51 58 24
11.542363695179324 -2.3478451125250506 2.500995915364145 50 57 25
11.249684241433197 -2.2559841482352554 2.394557282742704 49 56 24
11.750176996241143 -2.785099182617186 2.349636776968792 51 60 27
11.664611773485772 -2.8680160228393223 2.487067040292266 50 56 29
10.530173387751422 -2.441388354273764 2.3307313049220606 51 58 26
9.13894173448638 -1.9599564747434213 2.1832766969901782 47 54 22
9.49707911849911 -2.0771733276611353 2.1570199788522593 46 54 20
9.083385040325453 -2.0220259269642034 1.8215577390500068 45 52 20
8.708250572538281 -1.914834861655114 1.8326081814871777 46 53 21
9.254304979443727 3.1323799541054558 1.269529258975454 39 45 18
9.316919709121148 3.019826160701819 1.2716168238795165 37 43 16
9.390707732453304 -2.8226071716098424 1.7047290177588286 47 56 25
9.31966500772434 -2.9278054523179557 1.8150688769839423 47 53 26
9.16618721551413 -3.038018638607285 1.8192444791259887 44 51 26
16.70094573569699 3.1203778557542723 2.9097134497304724 40 46 21
16.70094573569699 3.1203778557542723 2.9097134497304724 40 46 21
15.90384908858423 0.6413540621459473 1.2677590454635652 51 56 31
9.79554304061664 0.2064751155109401 2.5729351002443845 43 50 20
9.579690797603439 0.17370432991596815 2.429847837762214 49 54 25
9.839161900291767 0.3294491675610149 2.7949651859771 42 49 19
9.069861312032295 0.8844364873761157 2.331639966672858 36 41 13
9.050816786730529 0.9705329811424357 2.190134435033595 35 40 13
8.883553565716797 0.0113659157285606 2.203622662664768 41 47 21
9.744361633507566 0.6372085754657872 2.581207492267217 43 48 20
10.14751294307157 0.019555183585282885 2.7187941286206456 44 49 22
9.080969507030405 0.5820329107155264 2.7115069965939003 42 47 20
9.078837824807321 0.6689411067513964 2.330699059852991 44 49 22
13.84431786246063 -0.28934515032926883 1.4443403863214537 38 45 13
8.309555239593205 -0.1120605100637569 1.7222815449429723 10 16 0
14.054115721580411 -0.3576050311058179 1.5888678861924375 38 45 13
9.375969441518045 -0.6905649972129454 1.7049408204371543 36 45 11
8.618593943779555 -1.1907866360920738 1.716810031431025 47 54 22
8.949747140834122 -1.0867935526463186 1.5991770235572462 43 51 18
8.82818664416377 -0.14796196170496645 2.35803765971446 46 52 25
8.451776081442993 -0.5663544916756891 2.098235437769455 41 48 16
8.30324891075136 -0.76117146115981 2.108686785957455 43 50 18
10.769929173352859 -0.28265137789408107 2.8308025259584264 45 51 24
9.173084847858473 -1.08001143022467 2.320980462154258 45 53 20
8.6083263803538 -0.44228525142164116 2.227280204007606 42 51 17
9.308589910365072 -0.7452503826277933 2.6609635077127907 47 54 22
9.694100802171159 -0.6114629116979918 2.5895253409610413 46 55 23
8.924738733163858 2.661459914009682 1.7117672789722396 36 42 17
8.789189516216714 1.4278827141872028 1.9500461106700955 20 24 5
8.763360954372923 1.7075900840508726 2.365490276175256 39 45 20
9.079021325782096 1.2743659758852228 2.187921479261471 35 40 10
9.449077821331883 1.5478004445190572 2.2940935142105614 39 44 19
8.858179224449572 1.5387547902795848 2.530288716701912 40 46 21
9.467321236026754 1.5440207872953235 2.4437201572422933 41 46 21
9.82259043434313 1.2099386386920101 2.7996664067339165 42 48 21
9.556173430154773 1.061303713317448 2.8894323038506933 41 47 20
9.28106584010221 1.2932322843844541 2.6666825789105357 42 47 23
9.503711403614636 0.03762482492319168 2.9118334927332667 42 50 24
9.245901505083319 1.7730978095548882 2.674133647152396 39 45 18
8.599767173908084 1.0834910045393293 2.5745762139463517 41 47 21
8.811780174197699 2.5024518640496103 1.8294612112223407 36 42 17
8.92504511322265 2.2175723252691646 2.347203835471129 37 43 18
8.905690908656243 2.1336697235811517 2.201800697632957 37 43 18
8.71757197663273 2.7669778119991872 1.8323216692090445 37 43 17
9.109372986731024 -1.7739436049586546 1.5986795713565172 46 53 21
9.363450625774291 -2.119161196313938 1.7051212557192046 47 54 20
9.282758624459476 -2.5811256366596993 1.490341850695231 50 57 24
9.12953358951097 -2.428080812206103 1.7085845984005736 51 58 25
7.958302377178202 -1.7113048653389633 2.2918637256570995 48 55 24
7.99912902841368 -1.376789490843285 2.287386417400077 50 57 25
10.65376918945022 -0.7256162767900861 2.866769012107767 46 53 23
8.275573485911623 -1.6761219810111752 1.8466450981525333 46 54 22
8.755986763558322 -1.7987653657259841 1.9515578443355113 46 53 21
8.40482274153787 -1.2678041890770348 2.1014925555893447 47 54 22
8.164791031420028 -1.6912079811769982 2.118834187960191 45 54 22
9.047443598729997 -2.677943007722452 1.8225754535695513 50 57 24
11.870144717419825 -2.738136801211818 2.4648233491842797 50 59 26
9.047259457280223 -2.180951588642367 1.938703202398392 48 55 21
8.990924344636138 3.019826160701819 1.7107226860846265 34 40 12
9.788184933840418 -2.9278054523179557 1.1780687337211988 46 55 25
9.299426242457319 -3.038018638607285 1.271036559719981 42 51 25
16.810589639848725 -2.6779408844027572 2.883538978389315 43 49 22
15.500884998250896 0.7345363367429232 1.326714140959087 48 54 29
9.094134884821015 1.0951286487561875 1.5987263045699804 31 34 1
15.152777685597991 0.6829412342314227 1.2522228366575825 50 55 30
9.023601058621272 0.32570658968341126 2.3365321877163914 47 52 25
8.421244820272236 0.6689411067513964 2.244512128706175 37 39 13
9.305278516992605 0.4636450187766176 2.307821334976842 43 48 21
8.904029407449872 0.9115207561641809 2.5229795575598093 44 49 23
8.636148373260797 -0.7651808200791862 1.7165111131073472 38 45 11
14.451553708018054 -0.42255640992211163 1.519150268069111 41 48 16
9.317523800122755 -0.999325741096887 2.463115501838922 47 54 22
9.108031340164764 -0.35579683712563487 2.4921751960295273 44 51 21
8.393769476042063 -0.9578214916781912 2.1022655229954035 46 53 21
9.965972619829623 -0.5452550007341934 2.7613004991784056 46 53 23
9.369813374863472 -0.5145157212081711 2.456222296957333 43 52 19
10.188679341119334 -0.21718078628192383 2.7099018731401623 45 51 24
8.393769476042063 -0.9578214916781912 2.1022655229954035 46 53 21
9.315501830136478 2.414626114715295 1.3822479769724034 34 40 15
7.915461634553331 3.004472267466441 1.602886629111498 35 42 13
9.268854085438026 1.7703979372770082 1.598199687474538 36 38 14
9.543478395618964 1.873599468292214 1.4925443599545267 35 38 14
8.395304997906797 2.4252978869266966 1.968815955981258 35 41 16
9.28106584010221 1.2932322843844541 2.6666825789105357 42 47 23
8.976391067421186 1.3092898394348007 1.9417481685220728 25 29 0
9.116952761700599 1.1683806912041688 2.4908875063947766 41 47 21
8.914636895203461 1.8641683759192007 2.3483512173663352 38 44 19
8.54296052410197 2.080015552262545 2.392138361133211 37 43 18
8.73452775433741 1.9518578751309905 2.079480827963067 37 42 17
9.21002648114752 -2.428080812206103 1.3800622629970105 49 57 23
8.688728165813483 -1.376789490843285 2.3742805563870397 49 56 24
8.973683737019245 -2.785099182617186 1.9418655187109635 52 59 27
11.542508031474254 -2.9015074446181455 2.3675533750835274 49 55 28
11.621671465075138 -2.550375048100562 2.4918972095767176 52 59 27
10.490513591174315 -2.5179692899425 2.2094990664753604 51 58 24
9.389423286996504 -1.0664553222674786 2.644705320245425 48 56 23
9.678465436495292 -1.338635157424924 2.592153682983566 50 57 25
9.450740512004904 -2.9278054523179557 1.2759813196822194 45 51 24
16.72599044161638 -2.906621116345108 2.9034550303565765 42 48 21
8.748545324156046 0.7787456890617221 1.7146259385250333 31 34 4
10.14751294307157 0.019555183585282885 2.7187941286206456 44 49 22
10.730992806478351 0.02573551142457114 2.84230517726979 45 51 26
9.306314196933027 0.775518188057198 2.464611055984082 45 48 22
8.449269598227923 0.4062607720144781 1.9661320280475727 34 39 14
14.159883645821152 -0.3576050311058179 1.447173183409537 38 45 13
8.478553890033238 -0.23084782689141153 1.7192394589774591 16 23 0
8.618901945931409 -0.5145157212081711 2.382717560806618 44 53 19
8.200842814297712 -0.6735809004933997 1.849225491774782 39 46 14
8.548913825829759 -0.2617079573690835 2.091629597068748 40 46 19
9.338877503766794 1.3369874762585612 1.5979941646949054 8 12 0
8.608183720955862 2.170071683265495 1.4840217951978791 35 40 15
8.987420539094805 1.229094587751915 2.3404098346215796 42 47 20
9.15691502671612 2.8820012823108656 2.053937642444401 37 43 16
9.07199510350199 0.9587906458122599 2.7136685971637604 43 48 21
9.458537274421305 1.0834910045393293 2.6313933377309486 42 47 23
8.831142504459375 2.4252978869266966 2.073390498842283 36 42 17
9.17094846739168 1.674014971732313 2.053135049749619 34 39 12
11.24244117184068 -2.441388354273764 2.395253235127398 52 59 27
8.314842452345903 -1.4249850074217243 1.8453085030375356 49 56 24
9.49707911849911 -2.0771733276611353 2.1570199788522593 46 54 20
8.204590244086969 -1.404273316442622 2.1158758552011436 49 56 24
11.870144717419825 -2.738136801211818 2.4648233491842797 50 59 26
8.92692509533347 -2.3492655425600275 1.9439043759005525 50 59 25
9.876379076585915 -2.785099182617186 2.1317251210279897 49 58 26
10.84229291782654 -2.550375048100562 2.436073386871214 52 59 26
16.72599044161638 -2.906621116345108 2.9034550303565765 42 48 21
9.579690797603439 0.17370432991596815 2.429847837762214 49 54 25
8.58692357343861 0.28279604303486705 2.089092114298004 29 33 10
14.486658290582778 -0.42255640992211163 1.657464843532471 42 49 17
8.343542809486685 -0.6492318397563127 2.251969014312741 43 50 18
8.383118152030423 -1.0291319882361334 1.8430155910764303 43 52 18
8.523674000817179 1.9937502158278477 2.588754208471201 38 44 18
8.588637126801224 1.7943249813979285 1.8363419567898625 34 39 14
9.245901505083319 1.7730978095548882 2.674133647152396 39 45 18
8.220857620284107 1.674014971732313 1.7239287961357768 34 36 11
8.879527029613795 -1.830342116019017 2.2039552967559755 46 54 22
9.484689105620754 1.6884649816222996 2.290783333432275 39 44 17
8.852916652672194 0.9408233111831523 1.7129186813360762 30 33 5
15.500884998250896 0.7345363367429232 1.326714140959087 48 54 29
8.363633600033246 2.067367643651344 1.8436659764060412 36 41 16
8.949711467800393 2.0140886894368135 1.5991771367114491 34 39 14
9.120406804715884 3.1323799541054558 1.8205180946174357 39 45 18
9.341688862525569 2.260172702558414 1.3827828504490585 36 40 15
8.090846095350406 2.2427230191996785 1.8531139116168407 34 40 17
8.400730004614177 0.7774469718248365 2.1017784872906264 29 34 5
9.30904634046542 -2.119161196313938 1.4905695346152652 49 56 23
8.20437745697475 -1.2204355161757299 2.265796659932031 48 55 23
8.896156188442564 1.7340727743939783 2.524223961225524 38 44 19
