9.6020791560254 0.06409438163253889 1.4978899941668153 55 55 32
9.99592333926043 -0.24472150382286254 1.399953926689014 40 42 20
8.663810444843504 -0.04515100896909708 1.7214808841454952 50 52 28
8.663810444843504 -0.04515100896909708 1.7214808841454952 50 52 28
9.661652156797537 -0.14408498419085325 1.601910687394018 54 54 30
18.302955211933437 -0.3544137581431208 1.0122688155989 54 50 27
18.783761139536406 -0.49888834587451686 0.9647641320565429 42 35 10
17.64505704944665 -0.4695741589067941 1.1813485840507387 54 46 20
18.056535943215216 -0.4944305631204952 1.3644546962351245 46 37 11
17.75640044418755 -0.3895529971096578 1.2440332811069048 65 57 32
17.74041727371052 -0.5226802390055434 1.2437279235294705 43 35 9
17.774008832202263 -0.3333322636882519 1.1843243233536374 60 56 33
18.102171733812426 -0.3895529971096578 1.191690450817549 63 58 33
10.647084920360557 -0.774002977072575 1.693254623329936 57 62 37
14.272638828768391 -1.0839420408994422 1.3805168077450944 53 49 24
14.032479810934332 -1.0839420408994422 1.5209318467392208 52 47 22
14.567998313685244 -1.022993255569991 1.6601910015478678 47 41 16
8.989911248644718 1.2822293532948728 1.6042364402506901 31 41 4
8.408659256218328 1.1337383902767482 1.6065489552215455 27 38 1
16.625433008549095 1.5372872661788843 1.5888760966421582 59 69 46
9.711074289328128 1.6168549531437084 1.705126184543384 32 43 5
10.003865973810418 1.8196624869189664 1.7011718646754912 33 44 9
9.634191367955461 1.5129305831867645 1.6019994028726252 31 42 6
8.005047045361266 0.7904541105871228 1.7339881606320184 31 40 6
7.923827295161267 -2.831301647337975 1.73567613204556 47 53 27
8.776045416646227 -1.0180327381647407 1.719539377487583 56 62 37
9.570263014173547 -1.0730693609812971 1.4976471860628138 53 59 34
9.114672495428481 -1.1696737205760657 1.6037785462080358 55 61 36
7.637806285994262 -1.7637320511760661 1.7419104008479198 58 63 38
7.785902256572576 -2.1786225390144565 1.6094100059689407 55 61 36
8.88197698515664 0.07156053369080587 1.83279886242549 51 53 27
7.7920830309618605 0.37927270532977486 2.008189652109329 49 52 25
8.320410892674802 0.3329525925876973 1.8509432812653346 41 48 17
7.865377056554683 0.09327633683198731 2.1493003074510795 53 56 27
8.453714656627763 0.09327633683198731 2.2485059902833617 57 57 35
8.005680778581134 0.24126579870323656 2.137897780765459 52 55 28
7.865377056554683 0.09327633683198731 2.1493003074510795 53 56 27
8.181890151314082 0.5036724445659836 1.9860249771898222 42 48 15
8.544691599007528 -0.20840356522522813 2.2399655276856043 57 57 31
8.362015231377022 -0.18147119199435507 1.976548086156422 59 59 35
8.255305398139303 -0.05111601308354535 1.9821077222233532 55 57 33
8.98500494200998 -0.589620962053131 2.069899510006024 60 60 36
7.71898409945057 -0.3490788661858052 2.012622442103501 59 59 37
8.914581412284488 -0.4213130472280496 1.950067679838018 56 60 36
9.176557617350442 -0.27199860671883486 1.824200127827732 61 61 37
8.440291642408836 -0.05889493708785353 2.2497866917689944 54 56 32
8.084302507996847 -0.4767570708049045 1.9913530131597819 58 60 36
8.914581412284488 -0.4213130472280496 1.950067679838018 56 60 36
8.869202144391886 -0.04515100896909708 1.833185139273886 54 56 32
9.485907506284562 -0.37685941847658005 1.8157638106833158 58 60 36
8.968610716901422 -0.16064991113823462 1.8302093571472011 58 58 34
9.035588415569581 -0.525941128206663 1.828242601469872 56 60 36
9.265957268030602 1.3395886136357773 2.3185172609109186 40 49 15
9.191542757880791 1.077341048867995 2.1854538664926566 41 48 14
9.110276490397453 0.9674618416850027 2.062418724150501 37 44 10
9.265957268030602 1.3395886136357773 2.3185172609109186 40 49 15
8.202572021149118 1.077341048867995 1.984913665410308 33 42 8
9.191542757880791 1.077341048867995 2.1854538664926566 41 48 14
8.683037575264832 1.246788120049228 1.9607187952595502 35 45 7
9.972918296410304 1.3395886136357773 2.3921068226384614 44 49 18
8.761771930179378 1.497777911371176 2.0838420241439213 36 46 6
8.93270089812893 1.5062301527933946 1.8312763995552417 33 44 6
9.336308218908142 1.7367953187792107 1.932127290635472 36 46 9
9.336308218908142 1.7367953187792107 1.932127290635472 36 46 9
11.920247324509171 2.0508074009710917 2.4658342034587593 40 47 15
9.590236689077827 0.8889056408041527 2.28759866075195 45 51 19
8.554494755443594 0.2825696502850715 2.398709332714362 54 57 28
7.404695249146073 0.5765516094287653 2.0327968971492436 42 47 18
8.79807643793111 0.4396022634734255 2.3690382663381424 52 54 28
7.940798462339479 0.6928904791720721 1.9994501755641452 38 45 9
9.764579177807617 0.7915567649000721 2.4153249978724487 47 54 18
9.860732870753138 0.5765516094287653 2.404413454833595 50 55 22
10.974309195208717 0.9139917433624787 2.5820264796843593 50 55 25
9.333822262766066 0.6704252728023473 2.468925637365973 49 55 24
10.135155316363617 0.6704252728023473 2.5304409631238087 50 55 23
10.087376113328123 0.42583690594280726 2.7440126295464218 56 58 32
10.294752320406227 0.6336596989813995 2.698495234945635 53 55 29
10.087376113328123 0.42583690594280726 2.7440126295464218 56 58 32
10.007741130842556 0.10993724557578384 2.5488554627619395 55 57 31
9.488997198150807 0.13380115024186473 2.635730628916612 56 58 34
9.83465873036235 1.0647061086363472 2.57551619883649 48 54 19
10.300236847268708 0.9549737437224666 2.6973745609186084 52 56 26
10.098567442681563 1.1639622797654743 2.7413819176517196 52 54 27
9.83465873036235 1.0647061086363472 2.57551619883649 48 54 19
10.140683710382405 1.3002408258559615 2.529663286033509 46 51 18
9.557517751778061 1.1433764237890982 2.4400632686070542 47 52 21
9.993403355367251 0.7963210752783887 2.767038123793973 54 56 30
10.740364573026733 1.033512291499805 2.8544320863437203 53 55 29
10.63088467172128 0.23544383043466577 2.891657835573121 56 61 35
10.541758044783665 0.8032106928199957 2.9272690347396475 56 63 32
10.541758044783665 0.8032106928199957 2.9272690347396475 56 63 32
8.39311639578367 -0.5473336335669611 2.2543309098846915 58 60 36
8.252503840105867 -0.7663596901242926 2.268289203522619 58 60 36
8.733401775588108 -0.4056644655694638 2.376666342035878 57 59 35
8.041838802160814 -0.4056644655694638 2.290449431464264 59 61 37
9.96501981323718 -0.10826931038207811 2.774351781779834 58 60 36
9.996405056578652 -0.06946197391124986 2.5505412693227703 57 59 35
9.76528352718005 -0.48245548303756075 2.5867965170046268 58 63 36
10.703371988766214 -0.49691376777166124 2.8663769158174754 60 65 37
10.053598927321646 -0.371714991130427 2.752090800706122 60 62 36
10.62021376511188 -0.15006767978390234 2.8956247498664833 58 62 36
9.76528352718005 -0.48245548303756075 2.5867965170046268 58 63 36
8.892607081609231 -1.0430539276034363 2.533904921964837 59 64 39
9.229966165882225 -0.8894717103530749 2.4831786506692373 61 63 39
9.248397624753231 -0.6391238880066532 2.4806066295941274 58 63 38
9.322358309384997 -0.9241005467892816 2.6690053282465938 60 65 38
7.938589651070473 -2.364463598490278 2.4876035936760243 51 56 31
7.581447878740588 -2.3625906374871577 2.1739577163315214 56 58 34
7.6937183407901255 -2.2362672461025452 2.3308322034466276 56 58 34
8.420652642915469 -2.490316268080901 2.416183365015816 49 54 29
9.422842824792928 -3.0547962645603794 2.6485534304518885 49 56 29
8.059958070871092 -2.367887600203867 2.704018663738224 53 58 33
8.994652945844857 -3.0297736861092033 2.746169277631827 49 55 28
9.09269009311485 -2.7587402797455667 2.7210893459489283 49 55 28
8.654796560545961 -1.3415523342643874 2.8545006607418824 61 67 42
8.538421549696224 -2.376150393917939 2.9050035579600535 54 60 33
8.528599918014372 -1.6714650109088884 2.5982979337836483 60 62 38
9.319139499783963 -2.424158009204481 3.0784493801033888 64 70 41
8.535269842072875 -1.4445158528345945 2.5970053403993787 62 64 40
8.873291084671578 -2.648667092033706 2.537042015101866 49 55 28
8.756590322354374 -2.1146357326614793 2.8174443736624726 54 60 33
8.410478917245642 -2.195738467372469 2.622021795600384 53 58 33
8.97579636033637 -1.7008937507489825 2.751233031146871 58 63 36
8.97574840100291 -2.367887600203867 2.751246016850397 51 57 32
8.756590322354374 -2.1146357326614793 2.8174443736624726 54 60 33
8.648218821757128 -1.7543635685158219 2.8570880979838575 59 64 37
8.982134212851175 -1.4078113894377922 2.7495217679201165 60 65 38
15.910141955873609 2.165317166703705 2.8638850547420427 48 53 24
15.787540396511854 1.9507631526823068 2.8925734741251317 50 53 26
16.045971465083074 1.8739596249764652 2.8355911623463315 46 53 21
12.688769324452995 2.5306379165934074 2.0017494140264187 41 46 29
12.973856488817647 2.477124535122973 2.168461311613907 28 33 16
12.509608310392476 2.1914771584771624 2.296330763959882 38 45 15
12.869751365198926 2.4630593458790777 1.9115111336717285 54 61 51
12.997945430924693 2.4078229438450216 2.076857246454432 43 50 38
12.36023260744272 2.273129665864107 2.202660077367784 24 32 11
12.6437599964006 2.259430176674371 2.397327025601604 36 45 15
13.10537493287148 2.343152538111539 2.3598342837156077 34 43 15
12.688769324452995 2.5306379165934074 2.0017494140264187 41 46 29
13.200611100812718 2.4021129257036242 1.8235090394373996 57 64 56
12.557309957693981 2.283437194034989 2.0065680418765157 52 60 43
12.664092298160138 2.605268894793859 2.0915272893088233 24 32 10
12.630284384936452 2.424904635610755 2.398486273998578 38 44 17
12.493765793613594 2.554849281676702 2.194858952817396 33 39 14
11.722249352110154 2.43851292403857 2.4871897537542864 43 49 21
12.065751745674728 2.5867263200437973 2.3294493818013216 39 45 17
8.44080050651172 -2.8921505093647997 2.413495427000858 49 55 26
8.457668899961638 -2.9296161085497543 2.2481297387584744 46 52 25
8.604881273951122 -3.0896964012805994 2.0941437789017816 45 52 22
12.587196482148123 2.725608708981827 2.005462764301983 25 30 12
9.086353881786707 -0.8547560506896166 1.9425441809060728 58 64 39
9.086353881786707 -0.8547560506896166 1.9425441809060728 58 64 39
8.978870107588344 -1.0180327381647407 1.8299061271995214 58 63 38
8.674707889445834 -1.1276108426789015 2.3837414284702243 59 64 39
8.262924173093278 -0.8686474057549978 2.1181924381774824 60 62 38
8.413595863352775 -0.7698384705688402 1.9739159161616864 59 61 37
9.525435587120805 -0.9258286182445342 1.81472655927368 57 63 38
8.921588955218015 -1.237551795560187 2.0737785475870902 58 64 39
9.76565312711349 -1.2748689453504136 2.026814706559234 56 64 38
8.511639803799053 -0.9510613887465692 1.9690085446373349 58 64 39
8.684621651317975 -1.1899847884677044 2.227285431510225 58 64 39
9.029754589244655 -1.0626470235516532 2.198158483645088 59 65 40
8.113046158665357 -1.1899847884677044 2.1294918335695314 58 64 39
7.855425084436279 -1.3316835209392464 2.150127852372637 58 64 39
9.205317892700723 -1.2894315228656734 2.4866478217559695 62 64 40
8.218172264572335 -1.7637320511760661 1.984079465450699 58 64 39
7.7197078015781635 -1.4838172024805372 2.161673190963827 58 63 38
8.98866836909446 -1.4838172024805372 2.347518802092381 58 63 38
8.311510637676466 -1.6400636485131606 2.2623545406120673 57 63 36
8.077898513562477 -1.9361550453365437 2.1322141652864697 56 62 37
7.704894429305148 -2.1395375376689705 2.162963475457512 56 61 36
9.186753145662736 -1.8325529833974503 2.489283494648229 57 62 37
9.089777928543256 -1.4677751042625982 2.5033808451153585 62 64 40
21.11469754459886 1.4954105042476946 1.7759080033607757 40 48 25
8.101117340776842 0.3329525925876973 1.732035833651414 44 50 19
8.676887685739974 0.07156053369080587 1.7212520515498593 48 50 23
9.56944569375453 -0.04043201906818257 1.6022105882284214 46 48 24
9.805368523984093 -0.14408498419085325 1.3966001632267628 41 41 17
10.143667257230852 -0.340556508724146 1.6004317258837444 57 59 37
18.28762846885065 -0.4944305631204952 1.3109072994481825 50 42 16
11.515752025430697 -0.5891133213119847 1.5100219093277887 55 55 30
8.03695195430852 0.9674618416850027 1.608203261217593 23 32 0
9.144191257333604 1.2822293532948728 1.3838611971061958 31 42 5
8.503333801579968 1.1337383902767482 1.7243469818113752 28 38 0
8.643287073290317 0.8719889472679917 1.605578029143643 31 40 5
9.807708658876743 1.7197966530949589 1.7037947465718013 33 44 9
10.003865973810418 1.8196624869189664 1.7011718646754912 33 44 9
8.72880347364558 1.5062301527933946 1.720350442461905 33 42 4
9.648973693872177 1.6168549531437084 1.4982449474514121 34 43 9
10.293858348865983 1.9147186412903838 1.6974789366328866 33 44 11
9.654869655281798 1.5129305831867645 1.4982893303975104 31 42 7
9.248332423554798 -0.9258286182445342 1.603301707187547 56 62 37
7.663760677384477 -2.361409438887566 1.6100257268682574 55 60 35
8.633913463897853 0.5036724445659836 2.092204605075852 46 51 18
8.584407957596708 0.24126579870323656 2.236311632562533 52 55 26
8.541491807331456 -0.4767570708049045 2.0984313320846986 58 60 36
8.269028703742329 0.08099113167973401 1.9813839321198423 54 56 32
8.453714656627763 0.09327633683198731 2.2485059902833617 57 57 35
8.196575552111808 -0.3490788661858052 2.1231338331733065 57 58 35
8.827164237127135 0.37927270532977486 2.214902110695383 50 52 26
9.485907506284562 -0.37685941847658005 1.8157638106833158 58 60 36
8.541491807331456 -0.4767570708049045 2.0984313320846986 58 60 36
9.105076060487958 -0.687724500676293 1.9417426306622771 60 61 37
8.442826944691985 1.369081358978445 1.9724398209392973 37 44 7
8.852719556978345 1.2018720188304985 2.2127361021739693 40 49 15
8.61724021012893 1.3395886136357773 2.233324303813408 37 46 12
9.802325924180295 1.077341048867995 2.2688952643391334 43 50 14
9.48534547649231 1.2018720188304985 2.2972760560656575 44 51 15
11.920247324509171 2.0508074009710917 2.4658342034587593 40 47 15
12.246570195855822 2.1623673978894775 2.4332522961800644 38 46 11
9.234742328505744 1.6221933613461141 1.9362870609375198 34 45 7
8.965015588309269 0.8889056408041527 2.203404516832964 42 49 17
8.405796540090611 0.6928904791720721 2.10786467927117 41 48 12
9.041342337604954 0.7915567649000721 2.3418091100021554 45 52 16
10.497991849927999 1.2453218429982145 2.6593083876453747 48 53 24
10.087376113328123 0.42583690594280726 2.7440126295464218 56 58 32
9.872181131391214 1.0060026790122258 2.403137107459071 47 52 21
10.481840084984446 0.34028045386933375 2.6622601255479323 55 57 31
10.914647205424572 0.17076916330540176 2.8045537780752925 55 60 35
11.016183191362108 0.42583690594280726 2.7791670940054276 56 58 33
10.73510490820677 0.5628954948158755 2.856095803814808 54 59 32
11.206384813686153 0.6336596989813995 2.736763104581108 53 55 29
10.592860511933308 0.793274512214936 2.64247117278552 50 55 24
10.435607034954627 0.37530257213537654 2.9805444664358354 58 65 35
9.823166739908627 0.5207059081918677 2.57735991988463 53 55 29
8.481257181080817 -0.6391238880066532 2.4081606681518757 57 62 37
8.84407340236421 -0.6682432584377271 2.2134671357721567 59 61 37
10.424736241326583 -0.24339959820285165 2.987095531546345 59 66 36
10.364141768311233 -0.08463900568220441 2.684590663489598 57 59 35
9.51660555273512 -1.2297432129741355 2.6305179590951497 62 64 40
8.658212632665167 -1.2297432129741355 2.573996429278976 60 65 40
10.985262247454505 -0.371714991130427 2.7866646944086946 62 64 38
10.90425399246165 -0.10826931038207811 2.807284484660877 60 62 38
9.644696945161288 -0.7608778344728562 2.6073124760798736 59 64 37
9.570137452146685 -0.2953867910173498 2.6206300551032404 59 61 35
9.099041143610439 -1.1398856966030804 2.7195311743323307 61 66 39
7.05018584328291 -2.490316268080901 2.2268487307202554 51 56 31
9.419795448999396 -2.8798318977328177 2.9823196348121095 54 60 33
8.756590322354374 -2.1146357326614793 2.8174443736624726 54 60 33
8.654796560545961 -1.3415523342643874 2.8545006607418824 61 67 42
8.661269902943767 -2.984645633084181 2.8519800268641826 50 56 29
9.319139499783963 -2.424158009204481 3.0784493801033888 64 70 41
8.417191300472865 -2.535471733982906 2.6206293080881466 49 55 30
8.658063476325333 -2.839087304980633 2.57402344980644 49 55 28
8.638472193976826 -1.888620443400936 2.5775906961899406 58 60 36
8.417191300472865 -2.535471733982906 2.6206293080881466 49 55 30
13.174680969881452 2.346210837391949 1.984856679377243 57 64 52
12.79409167334371 2.577062519555858 1.8317229538064117 54 59 44
12.973856488817647 2.477124535122973 2.168461311613907 28 33 16
12.962866278789809 2.4151528481775184 2.265729717479948 33 42 15
12.79409167334371 2.577062519555858 1.8317229538064117 54 59 44
12.9759965075518 2.273129665864107 2.2648864408958693 34 40 16
11.722249352110154 2.43851292403857 2.4871897537542864 43 49 21
7.730679269553868 -2.463261438628555 2.0119069764505877 55 57 33
12.9870814183545 2.6483805075762565 1.9912137441445898 26 33 19
12.482352890181376 2.495425764367566 2.29826900818349 39 45 18
8.661428560229652 -2.7283709691726155 2.385362858013455 48 54 27
8.98866836909446 -1.4838172024805372 2.347518802092381 58 63 38
8.424214762502501 -1.7930202926038046 2.2513277261752402 58 63 38
7.611593734045347 -2.065240778224683 1.877843457792853 56 62 37
7.712332580114968 -1.6400636485131606 2.162314833197407 58 64 39
8.113162478394955 -1.8902163578402513 1.858300692250358 57 63 38
8.444456081423894 -1.3316835209392464 2.2493887818085057 58 64 39
8.947018911543813 -0.9510613887465692 2.072215448969546 59 64 39
8.837840740101951 -1.1220302691326305 1.95353092031915 58 64 39
8.853797524550309 -0.7698384705688402 2.07799605940744 59 61 37
9.020220157105799 -0.9871982203673277 2.3440868603679963 59 64 39
8.434260029888208 -1.2894315228656734 2.4143656985002884 59 64 39
7.3518237834894435 -2.260500774870788 1.8890672086702192 55 60 35
9.56944569375453 -0.04043201906818257 1.6022105882284214 46 48 24
18.621799080735318 -0.41344604344142954 1.0229330724718417 55 50 25
10.571626272596989 -0.774002977072575 1.5992316997487988 55 58 34
8.84905784798422 1.3919727313929222 1.7183031003654936 31 41 3
16.625433008549095 1.5372872661788843 1.5888760966421582 59 69 46
8.551560007041845 -0.589620962053131 1.9670455100772652 59 60 36
7.8509482073829915 -0.05889493708785353 2.1505009526242027 55 57 33
8.869202144391886 -0.04515100896909708 1.833185139273886 54 56 32
7.832125585960949 0.5036724445659836 1.8689279595240016 40 47 15
8.084302507996847 -0.4767570708049045 1.9913530131597819 58 60 36
8.354332242835213 0.9674618416850027 1.8497752656041784 29 38 4
8.939165617613313 0.8719889472679917 1.8310836484576842 25 35 0
8.354280715869843 1.246788120049228 1.8497770323463034 32 42 4
9.41379798644878 -1.8800907411112022 2.986335979212047 57 63 36
8.427244939822316 -1.8800907411112022 2.9679856913929004 61 67 40
8.763037592346212 -2.6253633426002874 2.8152617719791397 50 56 29
9.080259114517805 -1.9736122268941088 2.7241613603630253 54 59 34
8.51463886847893 -0.2445363737167547 2.4038203906093867 56 58 32
9.322358309384997 -0.9241005467892816 2.6690053282465938 60 65 38
10.140726160297218 0.9139917433624787 2.529657321233179 49 55 21
9.605614832652853 0.34028045386933375 2.6142294261415375 54 56 30
8.927763151252856 -0.7663596901242926 2.3542457353866277 60 62 38
8.638472193976826 -1.888620443400936 2.5775906961899406 58 60 36
12.999830052089308 2.2914721723660194 1.7487023677465372 59 66 55
12.21872804990777 2.5201956232432745 2.435916400070353 41 47 20
12.150633660834876 2.340793731052943 2.442519418332796 40 46 18
8.127019871967812 -2.5438523667917656 1.8577965365327231 50 55 29
9.019981538897468 -3.08165982839008 2.344112682126986 45 54 22
7.622540536251623 -2.7868480842299115 2.018615734725896 48 54 27
12.550708936272859 2.758366086592775 1.7551404480186839 26 31 19
8.921588955218015 -1.237551795560187 2.0737785475870902 58 64 39
9.395718450801564 -1.1696737205760657 1.8181641572811065 56 62 37
7.942313777236941 -1.9965974429542495 2.30148586967343 56 61 36
8.481469960335806 -1.0626470235516532 2.102560289939496 58 64 39
8.565460878141943 -1.495544580132519 2.096801388255754 57 63 38
9.086353881786707 -0.8547560506896166 1.9425441809060728 58 64 39
8.804268759965964 0.1863597672348136 1.7190590297769202 45 51 22
18.121052294422118 -0.41344604344142954 1.0700581206686106 54 47 22
8.25278470769022 -2.006979303768017 1.7290473917085762 58 64 39
7.963078504463183 -0.20840356522522813 2.1413088209042535 58 58 33
8.402595086643242 0.21034003406688187 1.9744743292032134 49 54 25
10.69213017113983 1.0647061086363472 2.6256979512847654 49 54 23
12.346447542021133 2.4151528481775184 2.203477585300807 27 33 12
10.73510490820677 0.5628954948158755 2.856095803814808 54 59 32
12.21872804990777 2.5201956232432745 2.435916400070353 41 47 20
8.755274561145145 1.6289299201622578 2.084260151104402 37 47 7
9.932470573674708 1.8471763773755014 2.0185931725547293 36 45 11
9.976391550303957 0.17076916330540176 2.7714000463040205 56 59 35
8.259302512810741 -2.9574084077436638 1.9818966358675312 45 51 26
9.145103470953467 0.5765516094287653 2.330843053139647 48 53 20
12.371758166919529 2.3448847833000643 2.105132885540547 29 37 21
8.604881273951122 -3.0896964012805994 2.0941437789017816 45 52 22
10.140726160297218 0.9139917433624787 2.529657321233179 49 55 21
8.020860143037803 -1.0626470235516532 1.9948933479636342 58 64 39
8.113046158665357 -1.1899847884677044 2.1294918335695314 58 64 39
8.76554863869985 -0.16064991113823462 1.7197188256100646 58 58 34
17.291832033535844 -0.554000515523813 1.172950464925281 42 34 9
7.80039623939369 -2.5438523667917656 1.6093382219809862 53 58 32
10.141387372535942 -0.844833012105292 1.799637847709735 58 63 38
9.339824990871552 1.3002408258559615 2.4681192429254075 46 51 21
9.726641690294226 0.793274512214936 2.5932406368408283 50 55 24
9.080259114517805 -1.9736122268941088 2.7241613603630253 54 59 34
7.633820831413738 -2.657660055732713 1.8769203787219046 49 54 27
8.756590322354374 -2.1146357326614793 2.8174443736624726 54 60 33
12.544036365108472 2.2403436542767765 2.5342239526880093 41 48 16
9.114549738270199 -3.070683048613229 2.4997258508228257 48 57 25
10.641504425882824 1.3608386929843017 2.8877779354285753 53 55 28
8.352438950914369 -0.9871982203673277 2.2583041862876283 58 63 38
9.083515182724591 -1.6528696211828164 2.504310914045516 60 62 38
8.97819995604053 -0.27199860671883486 1.7161661823086254 59 60 36
17.851165886335924 -0.44329543035079877 1.3044002792420841 65 57 31
8.560551892621156 0.7904541105871228 1.9666060910239358 35 43 9
7.719540511544893 -2.5850194858642013 2.1616877285015073 50 55 28
8.48715395409668 0.5765516094287653 2.2453388019330647 46 51 22
8.102602673562979 -1.630710412000215 1.9903431244261136 59 64 39
8.648218821757128 -1.7543635685158219 2.8570880979838575 59 64 37
9.539773805577616 0.4396022634734255 2.442267569624654 53 55 29
8.255305398139303 -0.05111601308354535 1.9821077222233532 55 57 33
