18.68363906742479 1.467246478650444 1.3131825723714075 38 43 22
18.28778655740447 1.5197219332209788 1.1921627772989423 38 41 23
19.266379986850186 1.4207746679196107 1.479312672737897 38 44 21
20.071841469597285 1.4775535470189407 1.5329182322925554 34 40 19
13.126096294810234 1.4277962504225903 1.5128562697550878 40 40 20
14.46176291037765 0.7156253114686149 2.4610239144534924 38 43 18
14.226657905351136 0.6491459911379855 2.3742649616565474 39 44 19
14.241104058155575 0.9362056654333343 2.3732137957681703 40 42 18
14.468870422242272 0.8710912011335511 2.4604173897101527 39 41 17
14.1634536740003 0.7928278401504475 2.3789028812731314 47 49 23
13.836804699533443 0.5634403823345567 2.4039379486194896 38 40 14
12.188392853506302 1.4918832315515094 2.015188211750635 26 27 11
12.300078308474305 1.4021803151622587 2.0108691056373424 21 23 3
12.43132963474544 1.4984516116816928 1.8344644628295455 20 21 5
13.068691121209678 1.3856354924394378 2.253002309706904 40 42 21
12.462378996736675 1.3856354924394378 2.1906798261175364 32 34 14
12.462378996736675 1.3856354924394378 2.1906798261175364 32 34 14
13.500396279664454 1.2007627659411446 2.2272923119964836 43 43 17
13.068691121209678 1.3856354924394378 2.253002309706904 40 42 21
12.344603001277424 1.3406409232605883 2.4165890463776547 42 44 20
13.10988255563065 1.3406409232605883 2.46719371467796 43 45 21
13.012680512561843 1.3655411919249774 2.360392267010278 42 43 19
14.093019735047584 0.9611995071084259 2.4940205252793337 38 42 17
13.540274469478897 1.1190275914687775 2.4283662944798827 40 43 19
12.417462853432381 1.446976229680485 2.540356410387733 42 44 20
12.893834746546789 2.4750703288826137 1.5894030896031948 15 16 9
13.634795470178851 2.3123641966821644 1.4413461475335094 14 14 12
12.935249341825287 1.5840846906808526 2.2614110933378444 35 36 20
12.996186132828504 1.9637228604500268 2.161660288173319 36 37 21
12.996186132828504 1.9637228604500268 2.161660288173319 36 37 21
12.504833708831042 1.7815061289686267 2.1882587457910088 37 39 20
12.935249341825287 1.5840846906808526 2.2614110933378444 35 36 20
12.387461365685919 1.8322278020307714 2.412692440800792 40 42 19
13.3489321822551 1.9452714099176118 2.445096872070505 39 41 19
12.777063807604106 1.9931556233883974 2.50047559556136 39 41 18
12.569342289347654 1.8676935403859658 2.522960726973021 41 43 19
12.203245927733917 1.5874186018282757 2.4297619520122473 42 44 20
12.438784974022981 1.7318631725499145 2.5378619910042004 42 44 20
12.181134785902843 1.5855658569213085 2.313724717384649 40 42 18
13.253483463075804 1.9067645165091973 2.3422352787689293 38 43 18
12.365679624911005 1.804192135691048 2.300102254450903 39 41 15
13.616603028987347 2.08052935343917 1.9658057421222952 8 6 8
12.824634388011544 2.122227086916129 1.99169487821837 2 2 0
13.838441887466614 2.2087180362466916 1.7333721645941742 14 13 12
13.763387733865915 2.122227086916129 2.1247172891285038 7 8 0
13.347878031954266 2.046196157562134 2.1440884033579883 10 11 4
13.763387733865915 2.122227086916129 2.1247172891285038 7 8 0
12.627127007676805 2.4896696874651463 1.9987078788515713 28 29 18
12.984597442252031 2.3662657783253582 2.0720912991690152 24 25 12
13.193202955951064 2.3072464450861903 1.9792236852361142 14 15 2
13.637082107736713 2.170460153038316 2.2195922248261297 26 28 8
13.81044149506118 2.6091339952391075 2.122611314005913 36 38 18
14.736921828019808 2.5930024122452817 2.4382790102894267 39 43 21
14.374898207108968 2.508325518357473 2.3636313347260676 38 42 21
13.65683619706903 2.2266090047743394 2.3139002519635232 40 42 19
13.001129856681443 2.2266090047743394 2.2572308428469836 40 42 20
13.345700077221045 2.3695940071771573 2.4453865057561592 38 43 16
13.833752365426424 2.4446600898334476 2.404180767639779 40 44 23
13.345700077221045 2.3695940071771573 2.4453865057561592 38 43 16
13.098417616289218 2.2923395409661675 2.353813249942163 39 41 19
13.408331270415179 2.205495228535755 2.4398164586500775 41 43 21
13.02605480328492 2.508325518357473 2.255664029369056 37 39 20
13.909790228303502 2.6431786359853824 2.2973171932266245 38 42 20
13.863073678648277 2.090497120593919 2.3003158873125447 40 42 21
14.828599994472144 0.794083025839629 2.5417511587021 41 43 19
15.664200431536253 0.794083025839629 2.577797295537689 42 47 22
14.454990381636376 0.7028034516497083 2.5806600926746963 41 46 21
15.029875683881999 0.9959771763115068 2.6485681215819112 45 49 27
14.956321013313561 0.79584851553449 2.657801043158834 43 49 24
15.352567327003417 1.0475159895177322 2.758533434684237 43 49 22
14.564569146213735 2.460489205110195 2.568796248288007 40 46 21
14.553429538115642 2.280877210761432 2.5699841988513126 40 45 19
13.75722809108929 0.5241840212050135 2.5270161049183892 39 45 18
14.527419407923267 0.2923922808991112 2.3530319709465592 37 44 14
13.50261803826936 0.40822079139745077 2.554263478686591 39 45 18
13.860558035942654 0.2453901035751183 2.51653066917028 39 44 15
13.54581175204836 -0.0033475554070867045 2.4278939274478457 38 43 12
13.509868001952187 0.46735866266979437 2.4309717054859457 37 43 16
14.764367426902 0.38254155040633825 2.3372082620268033 36 41 12
13.719832628061324 -0.0037730430642424063 2.530888785737731 38 45 15
11.357037815402522 -0.4766418072304312 2.521085210044392 40 45 18
11.458485316896779 -0.5306390716357801 2.373315434464126 39 44 15
11.663690542775203 -0.6017983669868429 2.4851911345045146 39 44 16
10.137913484089967 -0.8128927403108172 2.7175186630908827 47 52 25
10.605451421746949 -1.1268876322765033 2.460601900789864 43 46 21
10.903945528347746 -1.0526403428450934 2.5818473835308455 43 47 22
16.64207350772529 -1.1746818810407014 1.1524986706268778 23 25 2
16.08686433913999 -1.0597178570630865 1.5857095857911694 38 40 14
11.217152354810114 -1.118969888025049 1.6815586231778386 33 38 13
11.463588617957717 -1.3164465240321541 1.679168062479053 40 44 22
16.81555146564505 -1.257596503688177 1.2211707241169933 22 24 2
17.183799746577478 -1.257596503688177 1.1664698004411722 23 25 4
14.420047708550433 -1.438463413194618 1.3782006462839498 20 24 3
14.324900344284215 -1.5090415558956152 1.376905188036638 18 22 1
11.3443427550429 -1.263304639224479 2.1532144124778534 43 47 25
11.185461133544507 -1.227799056652869 2.2747803840147474 42 45 22
11.204238885179803 -1.1834866631893404 2.3970928080100133 43 46 22
11.50086844718136 -1.0678246313052726 2.36950931017224 43 46 21
11.874551826598271 -0.9651748978923391 2.337704686448294 43 45 20
11.204238885179803 -1.1834866631893404 2.3970928080100133 43 46 22
17.43874125342423 -1.3937816172363282 1.9367266548533073 22 24 1
12.755781976001643 -1.5927669053825464 2.6491086148025635 46 49 24
12.932129048725704 -1.9107337066991996 2.624267721860507 48 53 29
14.53977864091867 2.9495343958028992 2.3521876556018193 40 46 19
14.430392721693595 2.687426509011216 2.463713526715269 40 44 23
14.28360706179744 2.73149620331084 2.370139978756109 38 42 21
14.615743783105687 2.929101916562647 2.4481135933153593 41 47 20
14.53977864091867 2.9495343958028992 2.3521876556018193 40 46 19
14.783795087738865 2.827137547236122 2.4345481753536458 39 45 22
15.13286815393822 -3.1386630219591454 2.407960640733255 39 48 20
15.946803574703669 -2.680836073128928 2.3529897965740263 46 51 26
13.384464748382694 -1.942751845137726 2.4419285146849505 48 53 28
13.293737938388833 -1.9047166143938614 2.3392947814015064 48 53 28
13.353016144243147 -1.873519553281001 2.2358246986869825 49 54 29
13.564234675475133 -1.9999994159946461 2.3201910017572454 47 53 28
13.977077663344968 -1.8303808213382629 2.505068344445876 47 52 27
13.81804153203472 -1.8027121900112084 2.405433322797657 46 51 26
13.427558634019663 -1.8653291676226704 2.562714395017763 47 52 27
13.886299679311362 -2.1022443438136293 2.513966211924473 48 54 30
12.870487610893747 -2.303965021495042 1.906493996037579 46 51 26
13.24140753564791 -2.420364553414908 1.9776487734422357 44 50 25
13.328175897524543 -2.4714609977958637 1.8163427857981065 45 51 26
13.399272306538734 -2.535056006306244 1.972577672530834 45 50 24
13.66447946561176 -2.078233860519096 1.9643454073543156 48 53 28
13.439289987836597 -2.201450848307601 2.437095744333006 48 54 30
13.852057945806047 -2.2881357187446 2.4027270954909463 48 54 29
13.610110180102692 -2.485574681412031 2.131698133283111 46 51 26
13.392282505187222 -2.043784353216567 2.1419492021610136 47 52 27
13.691569709417106 -2.2230257792781947 2.3115718853561 48 53 28
13.098047775084893 -2.167390511096921 2.156452585771365 47 52 27
13.691569709417106 -2.2230257792781947 2.3115718853561 48 53 28
14.615219865192033 0.3239701217032436 2.7042917459081095 41 47 20
13.71586141460399 0.3239701217032436 2.673410475363262 40 46 19
14.068376932857605 0.1403617653004001 2.6260578667222956 38 44 17
15.016188379000251 0.5948904595131902 2.65026732550633 43 49 24
13.608241013509549 0.16388786225792545 2.689300028070142 40 49 21
14.615219865192033 0.3239701217032436 2.7042917459081095 41 47 20
14.172503673939165 0.27939941842237814 2.613236669300901 38 45 15
14.783277125548414 0.46862045087913357 2.6805737863260317 42 48 21
14.886720155386541 0.47118228547612145 2.8457281452182404 45 51 24
15.280566046796508 0.7985148889429386 2.7704017072639346 42 51 25
15.051746338802388 0.6549338224502365 2.811656074442836 43 49 24
15.30225907615652 3.035741127695489 2.497883698048289 39 48 20
15.42530432305573 2.616961820987094 2.7469964668560687 40 49 21
15.329390203436255 2.7469877089971657 2.6133492584061946 40 46 22
14.826826017049989 2.903895978953716 2.5419261273450626 41 47 20
15.167385178281332 2.872069500761728 2.6319502015374105 42 48 22
15.271493115309827 -3.1383422321443755 2.5005734940017232 40 49 21
14.254334202339368 2.5670316440283374 2.603483085402278 40 46 22
15.038893291084616 -3.1374308015383767 2.647453249764137 44 53 25
15.79750683616026 -2.6827262685880444 2.693792192580837 48 56 32
15.074073124334069 -2.9982179863843106 2.6431383766137535 46 55 27
15.636555026647951 -2.8219688350790975 2.7157235705940614 50 59 33
15.79750683616026 -2.6827262685880444 2.693792192580837 48 56 32
15.175211685341049 -2.864352548115561 2.6310281624682856 48 57 31
17.062739660851875 -2.9436004445022386 2.8297686730884655 47 56 30
16.208536531959545 -2.7650083237400187 2.7941279219554893 51 60 34
16.01938174136789 -2.560240032584037 2.6657714859452746 48 58 33
16.01938174136789 -2.560240032584037 2.6657714859452746 48 58 33
15.572176293459245 -3.0156492187145436 2.5872143897992466 44 53 25
15.405753478659753 -2.9228985817558604 2.488983041403958 45 54 28
15.670100307646882 -2.8970121048663646 2.577202074373629 49 58 31
16.366930278633777 -2.821269876909971 2.513146688215204 48 55 29
16.581187408711113 -2.7260417339648737 2.495577716097662 48 54 29
16.078412473147328 -2.6381770138238543 2.4360547872105074 47 52 27
23.28769958960054 2.4331681252566018 3.0775094682642057 48 57 31
13.662216076174339 2.582185999985319 1.291978844395121 18 19 13
12.693088830762338 2.6493314632184015 1.668635320767554 23 24 16
12.655232488542481 2.6493314632184015 1.5106979390618653 25 26 14
13.69572415095933 2.7216789389250513 2.0438528393721955 34 38 21
13.398495352331278 2.752778290375512 1.3633099511301325 25 26 14
12.195725187346259 -3.139145959443524 1.6726389490178308 40 44 20
12.173600385459098 3.0617859540361656 1.5905040717510028 37 41 19
12.88638212249136 2.8253303453877776 1.433781884877163 30 34 21
12.23422836586481 3.0617859540361656 1.6723173256637094 38 42 20
13.383093149695927 -2.794289849492852 2.055846056798317 43 49 24
13.292356977876333 -2.717241181145563 1.975997747895485 44 50 25
13.620852046754582 -2.875880038502157 2.131202785329722 43 49 24
12.704078778879468 -2.8968808405636204 1.7480361877083608 42 47 24
12.470310606230912 -2.961252765624698 2.0044509178057464 40 46 21
12.380423229667636 -3.0569255847933765 1.7527208045141869 38 44 21
13.70204813757558 -2.6451989281522317 1.9632072419430526 44 49 24
13.42500520647476 2.9664189702180024 2.140383696378894 39 43 21
12.277296264523791 2.8808519282189042 1.9234023401551033 35 39 24
13.607769679735675 2.8808519282189042 2.131806186809624 36 40 23
12.25531872561737 2.799013027018438 1.8383435707471867 33 37 24
14.570013372157916 -2.578364121901631 2.013373705168811 44 49 23
13.832053171467278 -2.578364121901631 1.8823386366120238 43 48 22
18.36241114920315 1.4611920669202907 1.1937790306693348 44 47 27
20.003595025331038 1.5273839940336 1.5327889411019915 33 40 20
13.001507422630485 1.5040120673839112 1.5892489791411315 24 24 7
14.46176291037765 0.7156253114686149 2.4610239144534924 38 43 18
14.07842163074808 0.6264845582060663 2.4953926589350175 39 44 17
13.706509910708707 0.8710912011335511 2.4144590694932884 42 44 20
14.428865871447671 0.5108757380809801 2.3598423054679456 36 38 12
14.014548884383617 0.794083025839629 2.5014598573569513 39 44 19
14.241104058155575 0.9362056654333343 2.3732137957681703 40 42 18
12.320436890289871 1.4160327228759972 1.75361654414386 22 24 3
13.248611008886225 1.2907504077707763 2.2420195919443815 34 35 12
13.248611008886225 1.2907504077707763 2.2420195919443815 34 35 12
13.193364247423904 1.261396572150751 2.3466761847684556 42 42 18
12.233324046061684 1.462381353521756 2.4269166858423894 43 45 21
18.87136877261762 1.5781692957349072 1.26061674663126 33 38 20
12.861042288267088 2.365153164927322 1.6673536206520745 14 15 5
12.504833708831042 1.7815061289686267 2.1882587457910088 37 39 20
13.308480657295247 1.875213120898769 2.238451632540899 36 38 18
13.144638033615434 1.5828735124723883 2.1541034538685553 26 27 15
12.862348949532741 2.0025009519650134 2.2661038572648358 37 41 20
12.232948893424501 1.6963813141455582 2.3098413282694987 40 42 17
12.25496654950791 1.7119408685044735 2.424883759784783 41 43 19
13.856339735430543 2.1059573294448377 2.5169526884792015 40 42 20
12.569342289347654 1.8676935403859658 2.522960726973021 41 43 19
12.883291000360432 2.049123130874054 2.3705725762515164 38 40 17
13.150247010974452 1.8322278020307714 2.463363337066957 39 41 19
13.547008442327547 2.255019970023159 1.889121958291137 12 12 8
13.263939108942946 2.08052935343917 1.8961628205888008 7 4 7
12.546926819117806 2.42404284420116 1.8319781660764072 18 19 9
13.008825199130133 2.5390223007528263 1.9027860992218673 20 21 15
13.110793536039683 2.4446600898334476 2.35287422451434 38 41 20
13.637082107736713 2.170460153038316 2.2195922248261297 26 28 8
13.723065035101147 2.280877210761432 2.530552357096635 40 45 18
12.928222508827734 2.432994471265248 2.165190910059119 33 34 20
14.127544298795138 2.3695940071771573 2.490796507940937 39 43 22
13.094399578892661 2.5625899231236895 2.1566373925707922 35 36 23
13.50164328913696 2.300776957411515 2.227221150190859 34 36 17
14.66139598435593 0.9095398148993756 2.6976024666719898 44 50 25
15.317707697829462 0.8868050668995928 2.6146576692272836 43 47 25
15.044649474857131 2.372246220248092 2.6467434989096468 40 46 21
14.564569146213735 2.460489205110195 2.568796248288007 40 46 21
16.250714237751836 0.14113682812354503 2.1025531987209556 16 18 0
13.867620870593088 0.3232195801721577 2.4014960553436806 37 44 14
14.349545088541026 0.10899013017960857 2.470741829011297 37 44 14
13.68832633113522 0.2186430687635666 2.415953297618181 38 43 12
14.115648744332235 0.4209710059505879 2.3824535602127646 35 41 14
11.663690542775203 -0.6017983669868429 2.4851911345045146 39 44 16
11.146188434635324 -0.4154803730319208 2.402762812504821 40 45 15
12.045789563775575 -0.7086652030179328 2.44504953029812 38 43 16
10.399578682095257 -0.9152862303653428 2.4854150798827224 41 46 20
10.79683587868365 -0.8059318978079547 2.597885673445952 40 46 19
10.918360953102392 -1.000483134709405 2.4259667668678206 42 46 19
10.464812270370155 -0.6645179179989651 2.652904101970154 44 49 22
11.690554849179959 -1.2335470712148935 1.591318494033773 31 33 10
11.673054003236842 -0.8752666812032366 2.2398235128089796 41 44 19
11.203802199221794 -0.9651748978923391 2.2733911569512983 43 45 21
14.276085853249546 2.7681406785594436 2.274740231414075 37 41 19
14.384732228911275 -2.6047958650117615 2.1807415092115856 44 49 24
13.2077843789317 2.9495343958028992 2.2444770930790847 39 44 20
14.384732228911275 -2.6047958650117615 2.1807415092115856 44 49 24
13.977077663344968 -1.8303808213382629 2.505068344445876 47 52 27
13.653164122557907 -2.046097080455511 2.418861239411516 47 53 28
13.699389688020156 -1.6955641776569335 2.415043399119095 45 50 25
13.309336095097526 -2.119581282834163 2.0587690724418493 47 52 27
13.988348169612658 -2.139534931767516 2.3920941028682687 47 53 28
13.852057945806047 -2.2881357187446 2.4027270954909463 48 54 29
12.95239284217665 -2.29709068373404 2.1639300835369246 48 53 28
13.544367926227224 -2.4288010489340643 2.224793277450363 47 53 28
13.71586141460399 0.3239701217032436 2.673410475363262 40 46 19
14.415626123327645 0.5479104764852839 2.7349167385981055 42 48 21
13.89480065375109 0.46862045087913357 2.648551961642717 40 46 19
14.654381849481936 0.6842278946742265 2.698609783858653 42 48 23
15.0585753863808 0.945302515616105 2.8103343624047263 45 51 24
14.243231573793471 0.3846286577514654 2.764006340687337 41 50 22
14.826826017049989 2.903895978953716 2.5419261273450626 41 47 20
15.167385178281332 2.872069500761728 2.6319502015374105 42 48 22
14.723606188347501 2.8307191638507816 2.688801041928582 42 49 24
15.070134116307296 3.00638123032095 2.643618801413798 42 51 23
14.992511484162003 2.7914057872021836 2.5259471029735883 40 46 23
14.723606188347501 2.8307191638507816 2.688801041928582 42 49 24
14.890440223593258 2.690537895085877 2.666290034868206 41 47 21
17.031668021566965 -3.135809067605629 2.835478978427459 46 55 27
16.05511902971114 -2.864352548115561 2.66146987440686 50 59 33
15.670100307646882 -2.8970121048663646 2.577202074373629 49 58 31
16.363863408284974 -2.6083401403899784 2.768801029606698 51 59 35
15.636555026647951 -2.8219688350790975 2.7157235705940614 50 59 33
16.175957571012027 -2.8510473848261912 2.4290044802420763 47 53 28
16.33187530760437 -2.587704708862136 2.516106212930579 48 54 29
16.392710955675454 -2.763071414085086 2.4138338938539134 46 52 27
15.636555026647951 -2.8219688350790975 2.7157235705940614 50 59 33
15.306138347346018 -3.029317305399621 2.4975459930528388 42 51 23
12.395711781339775 2.7216789389250513 1.752493919656172 29 32 19
12.930402724296666 2.6493314632184015 1.3556828777147945 18 18 13
12.513912685778458 2.9014922774519967 1.510018414841937 34 38 23
12.50336948517618 -2.9758344121163836 1.750912231964995 39 45 21
13.365336851584082 2.799013027018438 2.0565463846552894 35 39 23
12.342225861020884 3.0546517436588223 2.0092617379125626 39 44 20
12.704078778879468 -2.8968808405636204 1.7480361877083608 42 47 24
12.978943976961935 -2.820916704466131 1.744244115147789 42 48 24
12.07440982839454 2.9664189702180024 1.9295926788845172 38 42 20
12.304060644421154 -3.138926180984879 2.010716709361081 41 46 20
19.189674003172303 1.5250986641163389 1.4264630895451909 34 40 19
18.610302597180016 1.522559550481859 1.312144197895877 35 40 20
12.352161115169558 1.4840063174109903 2.1970630247484744 36 38 19
14.014548884383617 0.794083025839629 2.5014598573569513 39 44 19
12.211267367293573 1.4743879373724267 2.311460639131296 41 43 19
14.226657905351136 0.6491459911379855 2.3742649616565474 39 44 19
14.613481314023014 1.0225434366315813 2.4482998754084724 37 39 15
12.352161115169558 1.4840063174109903 2.1970630247484744 36 38 19
13.555633699929892 2.2425559182486388 2.1342247357536497 19 20 4
13.595349867050833 2.3676939268574224 2.3180635804871685 37 39 21
13.264653955133902 2.122227086916129 2.060557884554532 4 4 0
12.387831839074039 1.5898027870725664 2.54385236443832 42 44 20
14.209569698212654 2.532980618396705 2.483252923903989 41 45 23
13.672713618553763 2.5625899231236895 2.2176175328896486 38 40 19
14.46210122191318 0.8868050668995928 2.579877947764543 41 46 21
15.31099422952283 0.7028034516497083 2.6154117990097014 44 49 24
16.250714237751836 0.14113682812354503 2.1025531987209556 16 18 0
13.860558035942654 0.2453901035751183 2.51653066917028 39 44 15
10.480298609678732 -0.952330859222904 2.650132221112587 44 49 23
11.463588617957717 -1.3164465240321541 1.679168062479053 40 44 22
11.50086844718136 -1.0678246313052726 2.36950931017224 43 46 21
10.980405196125812 -1.2027601268173793 1.776228771455782 41 44 22
14.615743783105687 2.929101916562647 2.4481135933153593 41 47 20
13.134114195091293 -2.0499318667132966 2.597851007962946 48 54 30
13.021124257589706 -2.3625556997085955 2.070554739354523 46 51 26
13.81804153203472 -1.8027121900112084 2.405433322797657 46 51 26
13.041788096037303 -1.961627289552714 2.15931657994675 47 53 28
14.243231573793471 0.3846286577514654 2.764006340687337 41 50 22
14.172503673939165 0.27939941842237814 2.613236669300901 38 45 15
13.608241013509549 0.16388786225792545 2.689300028070142 40 49 21
15.538124255438083 -3.1379425524194393 2.5907641537028887 42 51 23
14.71227506230037 2.633657040866106 2.5534118932541228 41 46 23
15.6486627007467 2.483180293100095 2.714021148937327 41 47 22
15.341004492276648 -2.739915192065669 2.6120533579604364 50 57 32
16.078278256337168 -2.5089717980630772 2.8172373401209017 52 61 37
15.569386242533556 -2.6273248411111814 2.5875038903947276 48 57 31
13.732142040897994 -2.6803589239495316 1.7346419950459337 44 48 25
13.907748536297179 -2.51672492456698 1.7325548390942043 44 50 23
13.323376294853242 -2.7485953293381233 1.7397164574852744 43 48 24
12.293786121765299 2.980598344767911 1.5903113815554457 37 41 20
19.26080461432553 1.4726690637090791 1.4269998271781519 36 42 20
13.822023781414826 2.2923395409661675 2.4051154025114254 40 42 20
13.75489275285524 2.147286368456137 1.8841456395000673 7 7 5
13.755582085330047 2.1917655690679423 2.0416269142017582 7 8 1
12.322745504096297 1.3655411919249774 2.3032202657140597 41 43 19
18.267679960136892 1.578603741263798 1.1917248624963883 31 34 19
13.68832633113522 0.2186430687635666 2.415953297618181 38 43 12
11.357037815402522 -0.4766418072304312 2.521085210044392 40 45 18
13.840741211742396 0.2923922808991112 2.3017594011478733 37 42 13
14.030894355902358 2.8564344182722596 2.2896727409133595 38 42 20
13.676207547477757 -2.167390511096921 2.2174246120744794 46 52 27
13.427558634019663 -1.8653291676226704 2.562714395017763 47 52 27
16.052127021862134 -2.6815483302818346 2.5406562120712346 49 56 30
15.568363312830687 3.022840688323424 2.5876100913270195 41 50 22
15.786228410094834 2.690537895085877 2.695281865117173 41 48 20
14.58266901387248 0.12271238904044292 2.5668745481766937 38 45 15
15.405753478659753 -2.9228985817558604 2.488983041403958 45 54 28
13.324935127626977 2.6493314632184015 1.8946189467883727 31 32 17
13.832053171467278 -2.578364121901631 1.8823386366120238 43 48 22
13.116699779910235 -2.875880038502157 2.0665806639650404 42 48 22
12.803479013221978 -3.0493614845666337 2.079859727711586 39 45 22
13.973813394665386 2.685547979653523 2.2014429787822087 37 41 19
14.127544298795138 2.3695940071771573 2.490796507940937 39 43 22
12.365679624911005 1.804192135691048 2.300102254450903 39 41 15
12.875119399910247 2.6091339952391075 1.9899402698813733 29 30 19
14.037652935252163 0.3609976982572915 2.4992531720907802 39 46 16
12.643743699895504 -2.239344850564575 1.9981085494798543 46 51 26
12.932129048725704 -1.9107337066991996 2.624267721860507 48 53 29
12.809548292721262 -1.989993443728504 2.497085164730483 49 54 29
13.257965866786812 -2.0876584171142576 2.241459293551352 47 53 28
15.12170099278726 2.5670316440283374 2.6373821690138137 41 47 22
15.66383086664522 -2.4759839108243873 2.7119010235362033 49 59 35
13.907748536297179 -2.51672492456698 1.7325548390942043 44 50 23
13.779629864740347 1.0642345565141027 2.524716328919092 41 46 21
13.915661871402616 2.046196157562134 2.2044973942474253 31 32 18
17.630788483419472 -1.3340496210370696 1.9325560094358842 21 23 1
16.67606698691682 -2.784979990500897 2.5942535097586066 50 56 31
12.07440982839454 2.9664189702180024 1.9295926788845172 38 42 20
13.237982510819823 2.142907803322622 2.3433746124457535 39 41 17
