9.603004260524166 0.47786337434908 1.8896949071148805 27 35 29
10.079924740064474 0.5703025708628421 1.8741128496555424 26 33 23
9.961886126765616 0.47786337434908 1.9851612899086628 28 34 23
10.100751158216442 0.3376075398115494 1.8734676038715428 40 46 44
10.043578428026871 0.3756701344022564 2.0931255013654018 32 36 22
11.357128308382379 0.19515289622546525 1.6599105090623856 67 70 76
9.298644596241333 0.2645536252849459 2.0167577401640417 33 38 24
11.591874539986144 0.2802087737430323 1.6581012169964864 59 62 68
11.489361817545287 -0.24769666765468368 1.4845875150720726 3 6 3
11.126603400180338 -0.07253894250560307 1.5717617776861017 3 5 5
10.528709733589556 -0.2710928524153742 1.6669430668972536 1 4 0
11.41801832794054 -0.16136288290755713 1.395681780162392 4 4 6
10.307323638651404 -0.17702632932189935 1.669014752360721 0 3 0
10.116629095902075 -0.09926149534123685 2.206998302324056 41 45 24
11.34101652632346 0.10714506482632993 1.7490368354456696 23 26 31
9.92725118114855 -0.3336279798009657 2.0998842533746176 40 44 32
10.538418914492778 0.019170623074945145 1.8605247940954428 0 0 1
11.279692545128313 0.017443493301634985 1.750016351175492 0 0 5
10.013604468909966 0.1304576118042739 1.9828907810383631 46 52 45
10.452865873381425 -0.17702632932189935 1.7643656403854147 0 3 0
9.80518432773687 -0.43942717967696915 1.9922014119065652 39 43 30
10.154829793723259 0.14635204769364035 2.2042224458299744 39 43 21
10.244949600966024 -0.21949208805943474 2.197777711526451 42 46 31
9.974862935616535 -0.08841068721449742 1.9845891637290416 32 35 27
9.751369866414562 -0.19601444189902548 1.8846755972763083 32 35 27
9.944097873716604 0.021277297021248455 1.9859482062834777 31 36 29
9.524279071235314 0.02390404164686129 2.1248067393883767 37 41 25
10.998117089426763 -0.6989957347131989 1.8480868647652118 29 34 25
10.234962030373056 -0.5356842986325524 1.9734561659590635 39 43 33
10.767408933338652 -0.6989957347131989 1.7586424740386408 41 48 36
10.234962030373056 -0.5356842986325524 1.9734561659590635 39 43 33
10.408927488000845 -0.6220944763155435 1.8642355569234086 37 42 32
10.978112868145585 -0.5680729318088616 1.7549953681654105 4 6 3
8.809118364493957 1.0530439009970478 1.9196020090781898 23 32 16
9.262455572206497 1.2093812170585905 1.9018587568198495 24 33 17
9.1990244447259 1.0530439009970478 2.021941559632151 27 35 16
8.968251438671318 0.8821867093171984 2.034446206741622 26 34 18
9.555788036939918 0.2997597953508244 2.2510829332481492 38 42 21
8.958590467922178 0.9863484304611992 2.1643647330616957 28 36 16
9.13813995703494 0.4824814422036539 2.2886430451866007 34 40 18
9.237554393835767 0.5596933009346305 2.43247881021258 37 43 17
9.639093317539132 0.9028474032340417 2.385210715409712 33 41 18
8.835373580359327 0.7947516031556783 2.173804713726464 32 39 18
8.94120904807375 0.40638624713464844 2.47203021257513 37 43 16
8.937074993367634 0.60247402010719 2.1659900120331765 31 38 18
8.927380284371953 0.6884318764316076 2.309449820053266 35 41 17
9.295709101250951 0.6317293736375914 1.9006294543383575 26 33 21
10.646898512281961 1.8482075173660828 1.6658725180544665 47 53 44
9.604791864806177 1.5589171766758063 2.1196292449977117 27 33 16
9.73606311731028 1.4519994442718103 1.885185982039969 23 31 15
10.08529268332081 1.6956252831904564 2.339418107324062 30 38 15
10.429155404269322 1.6591178685391192 1.7648113157577674 29 36 28
9.360549798586357 1.3202041720584727 2.0135983544320046 29 36 15
10.045287630452817 1.5572660151605375 2.3432763536326084 28 36 13
10.44192075808437 1.8766179920205672 1.96502922207455 22 26 8
9.606022555881102 1.2871040228294757 2.246858780228255 30 38 15
9.586968331092887 1.2442863519310006 2.3909905654199775 34 40 16
9.777465819464046 0.6162213747882657 2.742934183031533 41 47 20
10.410245997392419 0.9346393219076077 2.6170733451301533 39 44 19
10.138713573282946 0.4915424547213478 2.6653988242367337 41 46 17
10.564949787998907 1.2398293747711595 2.816254847532935 42 48 21
10.165993357538934 1.7155186654323014 2.478340392676395 34 40 17
10.715075319064361 0.9897029514822306 2.7769943900765663 41 47 20
10.67867682871272 2.1081029157202424 2.7860322593972935 42 48 23
10.67867682871272 2.1081029157202424 2.7860322593972935 42 48 23
9.9908948231278 2.3085073817345765 2.694933923275017 42 49 20
10.185124991186601 1.3954430812021914 2.4759399830213638 32 39 16
9.774674123399684 1.1869913217134798 2.531405150310886 37 43 19
9.999193546764495 1.314864810315722 2.693204181789511 38 43 18
10.854062874812024 1.5475894987397854 2.7447959406300697 40 46 21
11.01913475504336 1.996728443748227 2.710445979265791 40 46 21
10.67867682871272 2.1081029157202424 2.7860322593972935 42 48 23
10.572938962867566 1.9219600157457946 2.591059521778403 38 44 19
10.400787876554892 1.5520566825651518 2.618647211119508 36 42 17
10.458062130403285 1.3625721390462697 2.609224069885222 36 42 17
11.516928774544809 1.2398293747711595 2.844011373721666 41 47 22
10.049374775607319 -0.4922753206670555 2.2119507606222872 45 49 32
9.110941748950163 -0.5032751409401209 2.4488322935175897 45 51 25
9.466893239867263 -0.6414137342070946 2.4046901744262152 47 53 30
9.32621673019045 -0.13149199083076074 2.42146891672838 42 47 25
9.474403266488595 -0.24922687024227283 2.2580530886065078 45 49 30
9.714789000196104 -0.3765488087171079 2.237909718703207 44 48 29
9.705871141893814 -0.4313591931382595 2.377947138574076 45 51 27
9.977985042406454 0.027270504515885526 2.3498706417986512 41 45 24
9.110941748950163 -0.5032751409401209 2.4488322935175897 45 51 25
9.46525892729648 -0.28802310697080036 2.4048804737222835 44 49 25
9.789085726696204 -0.8503363781304458 2.2319462539027017 45 54 26
10.449596409918207 -0.6856865925868048 2.070898702745095 44 50 31
9.928809448664733 -0.5952679125694438 2.0997924918333153 45 50 31
10.460858031137311 -0.6675531073474092 2.305258474921876 46 52 30
9.911350850278982 -0.7560304887957022 2.356531113852724 45 54 28
9.789085726696204 -0.8503363781304458 2.2319462539027017 45 54 26
10.345089387477104 -0.7609625189791133 2.1907822543577637 45 52 29
9.979514704993067 -0.8402934117793955 1.9843844720735468 42 50 28
10.250421535786742 -1.1437406136965635 2.3239552716406067 46 54 30
9.962144967656549 -1.0289202276371767 2.2185018685537576 44 54 27
9.392701846732106 -1.0289202276371767 2.13349634917304 43 53 25
10.14079168723459 -1.087452220589129 2.0876157408028364 43 51 27
9.341501941805456 -1.224169018772623 2.4196057468617216 43 53 28
9.677204113277309 -1.5597437369762235 1.9981375309791378 43 52 22
9.738734749458748 -1.4468285342383838 1.9952620876136673 44 51 21
9.913279740228957 -1.4311424766612164 2.2222365909704904 44 53 25
9.913279740228957 -1.4311424766612164 2.2222365909704904 44 53 25
10.191390429932284 -1.4468285342383838 2.08479624136769 43 52 22
9.993821420809788 -1.2718868371251726 2.348307147222253 45 53 29
9.77175094087382 -1.5564964263117969 2.370931049024749 47 56 30
9.832689943283702 -1.410950444101284 2.364568850034518 46 55 29
9.832689943283702 -1.410950444101284 2.364568850034518 46 55 29
8.846965513798205 -2.034369594325284 2.3177584876782946 46 55 29
9.554594872485946 -2.034369594325284 2.3946303350608162 48 57 31
9.24399514154446 -1.9267857430657704 2.019586033356556 43 52 24
9.499339184093971 -1.7835800955977381 1.8933001361463309 43 52 22
9.74898814565794 -1.8891904700316655 1.8847549019918004 42 51 21
9.861994185227607 -1.7835800955977381 1.989620713608753 41 51 23
10.172270580098978 -1.6729402892704797 2.085857825889944 42 52 24
8.936449098473966 -1.9739033800273886 2.1660374360980397 45 54 26
9.893622444153898 -1.6859160930985113 2.2237524116637815 43 52 24
9.81287120980319 -1.702646510623641 2.3666247810533676 48 57 31
9.954786100660337 -1.8433784595191334 2.35217440535732 47 56 30
9.394370753247731 -0.8877468499259865 2.5919615291095526 46 52 28
9.394370753247731 -0.8877468499259865 2.5919615291095526 46 52 28
10.546711823505428 0.3678240117449937 2.8214208231936597 43 49 22
10.48074130729075 0.06242278914452353 2.840982260954403 46 52 27
9.496963711677473 0.037961575577711876 2.5745731635146596 41 47 23
9.665295436016512 -0.34057314785122783 2.5477828654751886 45 51 24
9.177323182453451 -0.4152377416190181 2.6318792759503165 46 52 27
10.509935604590165 -0.25469955873690187 2.8321475986411873 46 52 25
9.529172461614921 -0.15690070236905465 2.569287029698941 43 49 24
10.354409887382223 0.037961575577711876 2.6264700408918715 41 47 22
9.569718474366805 0.23001640737519233 2.562743476462594 39 45 18
10.069110924565427 0.031740239258444956 2.4907539061034822 41 47 24
9.931361291782517 -0.19432803093183879 2.7076183902530837 44 50 25
9.569718474366805 0.23001640737519233 2.562743476462594 39 45 18
9.842103937256391 -0.9983545712048464 2.521674115945082 44 52 28
15.145965669734537 -2.034204957067403 3.007866541713666 47 56 28
15.145965669734537 -2.034204957067403 3.007866541713666 47 56 28
15.297486203002721 -1.8819896719528562 2.9476680670173074 54 63 37
9.89423027643823 -1.5540340729045687 2.514330958208303 50 59 33
9.954419512632118 -1.3840118247439055 2.5060375091773106 46 55 29
9.78258449951 -2.1140899855887803 2.5302496110007695 49 58 32
10.92537168279693 2.1415558672809976 1.5717795600928306 21 26 10
10.468042121263418 2.0607037969240274 1.667502024493414 22 26 9
10.915140332838043 1.9364351509053304 1.5717804817307484 54 59 50
10.873958853207775 2.4031296796144024 1.7567802076698387 33 39 15
10.154192184629562 2.067877827344494 2.2042685600190937 35 41 18
10.044474076680569 2.1690195106457626 2.0930741716168493 35 41 18
9.922290164579477 2.0153100550109144 1.9869171600692486 32 39 17
10.366934285752496 2.0153100550109144 2.075260991065566 31 39 16
10.170430483098531 2.3355583613781676 1.7698122026147232 32 38 16
9.694061375948966 2.7082594757692733 2.2395947945224037 40 46 19
9.804303854843546 2.6537220025163997 1.9922416680410093 39 45 20
9.705204037316765 2.6456519859579197 2.378018935460053 40 46 19
9.91511938753666 2.3321475978655566 2.1005998124108762 37 43 18
10.067870574177247 2.595652508331107 2.2105803518319513 39 45 19
9.887298241450061 2.757542650184858 2.102248535513457 40 46 19
9.986376993740157 2.4965542857471346 2.096425985075889 37 43 17
10.136168475300392 2.133063628075534 2.334575837942814 39 44 17
10.080134840266124 2.833895859666406 2.3399130230099168 41 49 20
10.007999018368798 2.3273864897368974 2.34691364831854 39 45 19
10.080134840266124 2.833895859666406 2.3399130230099168 41 49 20
10.007762743609524 2.900007209776774 1.9831459527892827 41 48 19
10.73756986335989 2.6134866773817356 1.8550001033188517 37 43 18
10.31388403061402 2.2152167633119184 2.460197981848828 40 46 19
10.189468967675943 2.7857813327780354 2.475397227516231 42 48 21
10.061615792644798 2.629524744570764 2.6804759452535367 43 49 20
10.285637403143875 2.433988620334821 2.46359142567054 40 46 20
9.912844314153006 -2.6376445663420727 2.222270083647823 45 55 26
9.910697576872598 2.9703676379919606 2.356597076408842 43 50 22
9.930688550006277 3.117099989751636 2.220900620439848 43 51 23
10.003017077215889 -2.8856359813450245 2.3474026497669955 47 53 27
9.769110240399074 -2.8003627046164996 2.1093756492825175 46 54 24
10.23099011383327 -2.7554367690744432 2.325737355104505 47 56 29
10.003017077215889 -2.8856359813450245 2.3474026497669955 47 53 27
9.530094796317014 -2.9168717225036116 2.124429261360785 46 54 26
9.871552187209025 -3.02529475253454 2.360573668688237 46 52 25
10.434058614407672 -1.9879491296703946 1.9653427105327728 41 51 23
9.309427878195958 -2.0914130024096336 2.1391482958153984 43 53 24
9.102635018870446 -2.272003651750945 2.1537253651720625 43 53 25
9.812651271419215 -2.3661084484600323 2.3666476675876407 46 55 28
9.904322698047084 -2.1625721960518955 2.357241448798322 46 55 29
9.689140759725115 -2.272003651750945 2.2399962110986404 45 54 27
9.766316155897355 3.1198502296507837 1.9939861160985495 42 50 22
9.83707899707328 3.0083156253111034 1.9907484988703814 43 49 20
10.773689170511368 3.10880633100526 2.5614154480527596 42 51 23
10.77478635150802 -2.937831062781941 2.762740065799286 47 53 28
10.338729039617887 -2.6977795482301374 2.4572401314237164 48 57 31
10.77478635150802 -2.937831062781941 2.762740065799286 47 53 28
10.327354228010027 2.902779893559259 2.6311169150423535 42 50 21
10.605141534170643 -3.02529475253454 2.4270057430746643 46 52 27
10.25997336317585 3.102125233632815 2.642970407895522 42 51 23
9.891861322374098 2.8447853788807334 2.7163165124896755 42 51 22
9.802244295309228 -2.621696096650686 2.5273939810315893 49 58 30
10.338729039617887 -2.6977795482301374 2.4572401314237164 48 57 31
9.583944034943375 0.3756701344022564 2.0025735300194363 32 36 29
9.771707921454066 0.2645536252849459 2.1092168192085574 35 39 18
11.312067849781506 0.19515289622546525 1.5717459488496057 63 65 69
11.099031271359822 0.017443493301634985 1.5717641760525891 5 5 9
11.126603400180338 -0.07253894250560307 1.5717617776861017 3 5 5
11.172411897164581 -0.07253894250560307 1.6613878677634224 3 5 5
11.170488747136567 -0.07253894250560307 1.4821202158103197 4 4 6
10.604030608926859 0.11766295808557599 1.8586807213401948 56 60 61
10.064459549383702 -0.3962744305720359 1.7719362525299158 16 19 12
10.56745386929229 -0.07969389123323156 1.8597057925679552 1 3 0
9.596826754948198 0.14635204769364035 2.120136852944067 36 41 25
9.556395758289442 -0.09926149534123685 2.1227289877937263 40 44 31
9.556395758289442 -0.09926149534123685 2.1227289877937263 40 44 31
10.467654961289815 -0.3336279798009657 2.1824480523760217 42 46 30
9.944097873716604 0.021277297021248455 1.9859482062834777 31 36 29
9.69213639768518 -0.21949208805943474 2.114127691323761 40 43 32
10.998117089426763 -0.6989957347131989 1.8480868647652118 29 34 25
10.767408933338652 -0.6989957347131989 1.7586424740386408 41 48 36
10.483613598538541 -0.4860545688756851 1.7637907484961004 9 11 8
10.666580151959584 -0.5356842986325524 2.059816229466889 38 43 29
9.19797393791232 0.7932296650288776 1.9042693249334484 24 32 20
9.666783427621155 1.437662285400092 2.1157124684537667 29 36 13
9.794722376359504 2.009055361028602 2.3685185947168352 39 45 20
9.374770354708875 1.5572660151605375 2.266807228396702 29 35 12
10.223426697441528 1.8293691343841774 2.3264336492319044 30 38 15
8.98730208973189 1.2093812170585905 1.796437631858164 20 29 15
9.546721652569534 0.34534568700883417 2.3955214322744327 38 43 19
9.216549763733891 1.1070960389456344 1.6806833482875578 21 29 18
9.794722376359504 2.009055361028602 2.3685185947168352 39 45 20
8.503583174407979 0.5596933009346305 2.3558288226373754 36 42 18
9.418879270438381 1.3954430812021914 2.410325387028325 31 38 15
9.48380890489331 1.346504452726557 1.6775746726936624 13 21 13
10.030839163747244 1.5602091856295666 1.9821398512429313 25 33 15
9.6466238496151 1.6805206825322379 2.1169796541235693 23 29 10
9.790948709174142 1.7989658534274116 2.108043469860844 18 24 6
10.429155404269322 1.6591178685391192 1.7648113157577674 29 36 28
10.891097548919879 1.7828093624033239 2.73675774563043 40 46 21
10.303045466037778 1.8688439591173707 2.461496203592472 34 40 17
10.049180553085227 0.8006981061721431 2.682972837161004 39 45 20
9.927054569282319 0.7970077256981497 2.509783998841333 36 43 18
10.157684118732025 1.1070457945848253 2.6617905220898175 39 45 20
11.500012967704428 1.846258523451929 2.8488456967589517 43 49 24
10.564949787998907 1.2398293747711595 2.816254847532935 42 48 21
10.353993012578307 2.1762448643045302 2.6265411670306342 40 46 21
10.138333276779264 -0.24922687024227283 2.334371369908947 44 48 26
9.36764123853606 0.1933123586579544 2.4164426562269936 40 44 22
9.110941748950163 -0.5032751409401209 2.4488322935175897 45 51 25
10.047257210015353 0.1666160534432184 2.3430853402506746 40 44 22
10.008645940823781 -0.11313545811701677 2.346850202693996 43 47 26
10.620046554392166 -0.7644763811459816 1.9580616660347148 40 48 29
9.982635356924707 -0.9562828929737708 2.3494107606922223 46 55 29
9.61552565380797 -1.0807600660439909 2.387811835058804 45 55 30
10.469132793259147 -0.5952679125694438 2.182349048357766 44 49 31
9.797927845207447 -0.7609625189791133 2.107619206404329 45 51 28
9.469298053297386 -1.809866083640634 2.1284027004796124 43 52 24
9.277730430169882 -1.8433784595191334 2.275578262287385 45 54 26
9.852839191712702 -1.558328039126348 2.226922277910329 43 52 24
9.832689943283702 -1.410950444101284 2.364568850034518 46 55 29
9.81287120980319 -1.702646510623641 2.3666247810533676 48 57 31
8.936449098473966 -1.9739033800273886 2.1660374360980397 45 54 26
9.677204113277309 -1.5597437369762235 1.9981375309791378 43 52 22
9.718724421432434 -1.6729402892704797 1.996192802768838 43 52 22
10.383959369055725 -0.15690070236905465 2.6214653485500055 42 48 23
9.900461052175029 0.04721409768568783 2.7144027171216543 44 50 25
9.425288794380732 -0.6005425366586061 2.5866299220063356 46 52 26
9.562283306702016 -0.25469955873690187 2.8002952065098827 45 53 24
15.145965669734537 -2.034204957067403 3.007866541713666 47 56 28
15.297486203002721 -1.8819896719528562 2.9476680670173074 54 63 37
15.27114138502236 -1.5361261473273495 2.95665807152194 54 63 37
9.934843616932422 -1.725021617437533 2.5087135621565375 49 58 32
10.075040576723193 -1.8874533906415898 2.489981446163404 48 57 31
10.189640259682603 -1.7624376842638751 1.7694319940660364 40 49 19
9.59615206983466 2.067877827344494 2.120179895869893 36 40 18
10.011777198121548 2.1100038939352865 1.8762438930046552 33 39 17
10.168232833322755 2.870832369291224 2.203254788250872 42 49 20
9.896660290541792 2.4200091288297334 2.2235176478804823 38 44 17
10.078599969423738 2.523882079011167 2.3400604436234547 39 45 20
10.254065459762778 2.6537220025163997 2.0813485009329202 39 45 20
10.27188230149755 2.5601755492699403 1.9719257347511507 36 42 17
9.92601389855915 2.2403756180578105 2.221258764615452 38 44 19
9.694061375948966 2.7082594757692733 2.2395947945224037 40 46 19
10.325856104774934 2.4557850996406287 2.6313760623913085 41 47 20
10.490063740917646 2.720878386273099 2.6040681292057886 42 48 21
9.797639476895602 -3.0512590731256815 1.992546628561425 44 51 24
9.340396031305929 -2.6376445663420727 2.1370322887474864 43 53 23
10.23099011383327 -2.7554367690744432 2.325737355104505 47 56 29
9.766316155897355 3.1198502296507837 1.9939861160985495 42 50 22
9.573488096527521 -2.7554367690744432 2.249587856994822 46 55 26
9.840464141620041 3.113553439403343 2.363765810346909 42 51 23
9.96149502532161 -3.039902561734377 2.2185512335550515 44 52 26
10.02188035777281 2.9420699736696556 2.4969678304979457 42 50 21
10.25997336317585 3.102125233632815 2.642970407895522 42 51 23
10.289794044360626 -2.9785694932185653 2.6376738218422666 46 52 27
10.641588736425986 2.9703676379919606 2.4230667380781843 41 49 20
10.415981448602952 -2.7885735373187854 2.6161224150876734 46 55 29
10.641588736425986 2.9703676379919606 2.4230667380781843 41 49 20
10.133943027627682 -2.4814114601704382 2.4823987517785193 47 57 29
10.922362128557943 -2.844611075631767 2.540965062050831 46 55 29
10.181329304049262 0.23660848536172802 1.9757009457641466 50 55 50
10.244949600966024 -0.21949208805943474 2.197777711526451 42 46 31
10.604030608926859 0.11766295808557599 1.8586807213401948 56 60 61
9.985090001291896 -0.2992240958434754 1.877086749576758 35 38 29
11.538274143390124 -0.6423323333830488 1.7459578110690475 3 6 1
11.243403011863718 -0.16136288290755713 1.5717517483094474 1 3 3
9.555788036939918 0.2997597953508244 2.2510829332481492 38 42 21
10.562793540352661 1.755325651691065 1.7623260152579823 50 57 48
9.297787911077592 1.1642183797105532 2.139948025486989 29 37 16
9.256283950357327 0.42282979782747854 2.1428193219687097 30 36 19
9.042884332719774 0.9543259640546149 1.7950269245433113 22 31 19
8.938156163842045 0.9028474032340417 2.3083525165423695 32 40 17
9.81337322191896 1.9543218570253955 2.2300223162581925 31 39 16
11.464945413199928 1.5403267834560974 2.859170725242228 42 48 23
9.978520875722964 2.0804412401465084 2.5027704226961127 41 47 22
9.789085726696204 -0.8503363781304458 2.2319462539027017 45 54 26
9.554594872485946 -2.034369594325284 2.3946303350608162 48 57 31
9.594251262413374 -1.1437406136965635 2.2478433599595666 44 54 28
9.110941748950163 -0.5032751409401209 2.4488322935175897 45 51 25
9.436111519425882 -0.8648673610832561 2.408292248293506 45 54 28
9.30760572297319 -0.9562828929737708 2.272851522438934 46 55 28
9.870031562861833 -0.9279975607435718 2.1032772682385157 42 51 24
9.77175094087382 -1.5564964263117969 2.370931049024749 47 56 30
10.191390429932284 -1.4468285342383838 2.08479624136769 43 52 22
8.968132054377902 -0.7486051826874606 2.4682465555762105 45 51 29
8.854177064554426 -0.34057314785122783 2.484547654723998 45 50 24
9.78258449951 -2.1140899855887803 2.5302496110007695 49 58 32
15.119356836157458 -1.5169636909220596 3.0216557384895673 47 56 30
10.568977050583111 -1.410950444101284 2.4309589868706905 47 56 30
9.529172461614921 -0.15690070236905465 2.569287029698941 43 49 24
15.145965669734537 -2.034204957067403 3.007866541713666 47 56 28
9.931361291782517 -0.19432803093183879 2.7076183902530837 44 50 25
9.9257756722131 2.7971674062856433 1.8789771115729694 40 46 19
10.104129503515939 2.410284355339194 1.9789778347927642 35 41 16
10.431565063442264 1.9722416402085923 1.8635798987109318 24 28 9
9.920037542833883 2.564233644986914 2.510751122378553 41 47 20
9.113203671278344 -2.4582064700393778 2.1529608896297683 43 52 24
10.434058614407672 -1.9879491296703946 1.9653427105327728 41 51 23
9.699070343553606 -2.4582064700393778 2.2391867192589707 45 54 26
9.223563505069537 -2.1625721960518955 2.280583617568889 45 54 28
10.773689170511368 3.10880633100526 2.5614154480527596 42 51 23
10.802091760630223 -3.005816210843715 2.5574159330194974 46 52 27
10.124439955857767 -2.2527943773068935 2.483611122702833 47 56 30
10.666580151959584 -0.5356842986325524 2.059816229466889 38 43 29
9.629101885263912 0.6884318764316076 2.3863110193590895 35 42 17
10.244045740901594 1.5612477261689375 1.6696234284339198 12 19 11
9.167578749722372 0.5336783962515962 2.0236040037310628 27 35 20
9.553943036618238 0.9863484304611992 2.251239198537382 31 39 17
10.439430702045353 1.7428803086752098 2.6122614538762656 37 43 18
9.978520875722964 2.0804412401465084 2.5027704226961127 41 47 22
10.908957601927726 1.314864810315722 2.7329539060519368 39 45 20
10.073122171318978 -1.3083256172196533 2.2101924167432827 44 53 25
9.911350850278982 -0.7560304887957022 2.356531113852724 45 54 28
9.466893239867263 -0.6414137342070946 2.4046901744262152 47 53 30
9.319602041720266 -1.2718868371251726 2.2717632878123726 44 54 28
10.102685496400403 -1.8891904700316655 1.9790396499804415 41 51 23
10.069110924565427 0.031740239258444956 2.4907539061034822 41 47 24
9.970271861055407 0.2834655022731328 2.699272378203739 41 47 20
9.574567083762778 -1.1593405038434599 2.561969052596679 42 50 27
9.954419512632118 -1.3840118247439055 2.5060375091773106 46 55 29
9.769794108360749 -0.7486051826874606 2.5321199060436674 45 51 26
9.496963711677473 0.037961575577711876 2.5745731635146596 41 47 23
10.254065459762778 2.6537220025163997 2.0813485009329202 39 45 20
10.148794945437732 2.195082437898295 1.6705540377828025 30 37 15
9.84829994766794 2.3202756298623415 2.520793239523382 41 47 21
10.000288346590029 2.991688489363307 2.2156192004708655 43 50 21
9.32946227132479 -2.8856359813450245 2.270871667269504 47 56 28
10.091788305438666 -2.9168717225036116 2.2088177193899607 46 52 25
9.930082949376835 -2.9414043876370295 1.9865703770268617 46 52 25
10.635105904499602 -2.621696096650686 2.5816093558913575 49 58 32
9.789085726696204 -0.8503363781304458 2.2319462539027017 45 54 26
9.54773378785722 0.6620730473992782 2.566276399950274 38 44 17
9.63202550130544 0.7175058231477827 1.7810989893706957 24 31 22
8.846965513798205 -2.034369594325284 2.3177584876782946 46 55 29
9.705871141893814 -0.4313591931382595 2.377947138574076 45 51 27
10.353993012578307 2.1762448643045302 2.6265411670306342 40 46 21
10.762558111005779 0.21392096543230482 1.8543219536158937 64 67 71
9.63202550130544 0.7175058231477827 1.7810989893706957 24 31 22
15.119356836157458 -1.5169636909220596 3.0216557384895673 47 56 30
8.957511763865883 0.7055270902614647 2.0350457787414706 27 35 18
10.346937419623229 -1.3369913917049965 2.076328340953082 43 52 20
10.132608934772488 -1.5597437369762235 2.0880747778978614 43 52 23
9.780276870151678 2.2579392085686507 1.8837163148142892 34 40 17
10.576210044127803 3.113553439403343 2.430164712275011 43 52 24
11.227545652988256 1.5264519143441961 2.9447555204687883 44 50 23
10.036878463394057 1.0330455737624504 2.494982707815571 35 42 18
9.77962069681652 -1.1930785695235346 2.1087336207991116 44 53 26
10.126307126282995 1.5550817850164007 2.4833725854551076 33 39 16
10.086296456171166 0.02390404164686129 2.209221501611793 40 44 23
10.77889643938083 -0.43942717967696915 2.1623361317686367 40 44 30
9.730392487402518 -0.2992240958434754 1.778941574959925 25 28 17
11.207014387219363 0.10714506482632993 1.661107395523051 32 34 39
10.746311593210113 3.0920271565973243 2.7694529271160175 43 52 24
10.740915036693083 -0.6220944763155435 1.953476232684705 39 45 29
9.854168501282187 1.107079028790951 2.362354883225539 32 42 17
9.60986884137215 1.3625721390462697 2.5563813246542755 37 42 17
9.745086126677172 0.40638624713464844 2.5357611316763937 39 44 15
9.923741322803595 -2.5688377113520287 2.3552824840407767 46 56 28
9.697941539312014 -0.5279838218170047 2.762875400644364 47 53 30
