19.430029070235975 1.190255353241065 1.2496299827497372 41 46 33
19.089794541075882 1.1409299045218584 1.4059024476868192 39 44 31
8.87672131607326 0.5413856888198753 2.021470431045093 32 36 13
10.05168008485661 0.8047223924322493 1.7575661639228828 33 35 13
9.3144386115592 0.48320566677142734 1.8836165288965936 32 34 13
9.963272002791642 0.7291464774732115 1.9693337612262394 34 37 15
9.797656377302486 0.5778622034535106 1.8677048323599772 33 35 13
9.175243316823682 1.1281661550327722 1.7756490366935782 30 32 11
9.067662576300584 1.2334007145987003 1.8924316122855191 33 37 15
8.804942311913045 1.3469886195314384 1.9023904179338962 33 37 15
9.780128334302043 1.1281661550327722 1.9772319812950165 36 39 17
9.157952118516034 1.4780841457508547 1.5562134098311513 26 30 9
9.552961738020484 1.2680631919207226 1.556816445416224 26 30 8
8.787747517851024 2.197363216648018 1.5555990236990371 37 41 19
9.203216737592172 2.6738783280125795 1.447314422473227 35 40 15
8.67719465707553 2.3590144183208284 1.5554053854047207 41 45 24
9.25981565074226 1.6965059089476122 1.4480730068545236 28 31 11
8.82773320213758 2.619221932330534 1.207918655004069 34 40 16
8.2982235516478 2.619221932330534 1.6754015176578174 37 42 19
9.527982045781734 1.9411939716771278 1.9886502933699883 37 42 18
9.16785316791718 1.9411939716771278 1.8887923876285475 38 43 19
8.729078109179428 2.7763254641154544 1.555496872461875 36 41 14
9.118953106481772 2.043608710941105 1.5561510386439223 31 35 14
9.648114068507393 1.9036627172480325 1.556954327666624 31 36 14
8.873839484124929 1.8299657336987767 1.899718418162209 32 37 15
8.86735572985619 2.5205196539002093 1.4426121005878914 39 44 22
8.217312431086512 2.4477399484953315 1.7999330808132592 42 47 24
8.685650388516688 1.7117984204492434 1.9071231302249556 32 37 15
8.850491642559337 0.4898046232157652 2.295400957837434 36 42 15
9.250216546341164 0.6135012393026952 2.257765194589677 36 41 16
9.359696620560323 0.7041426331052116 2.394429175930668 40 46 20
9.891613216963245 0.9728760212576814 2.0851564842946577 39 42 20
9.883740431139525 1.2334007145987003 2.0856066635298744 38 42 20
9.502490933807362 1.46674088496302 2.1084523693771295 40 44 20
9.465824764148426 1.5895498298518769 2.110763548889928 39 45 20
9.324475321546373 0.9657335609512047 2.5748143688539025 43 49 23
9.949032852335538 1.1489922038243616 2.670752847107962 44 50 24
9.324475321546373 0.9657335609512047 2.5748143688539025 43 49 23
9.441849212547108 1.0752046071941794 2.1122862542191267 41 45 23
9.807198573564142 1.063010066036878 2.501617019715922 42 47 24
9.3884891855183 0.9261071326792286 2.391124308570656 41 46 21
9.406935512996537 1.3168022789537448 2.2441751576933178 44 48 25
9.89102395805785 1.5921838637940997 2.3381191072923833 44 49 24
10.272441922664616 1.4066353467065753 2.6122322317180675 44 49 24
9.968903301054999 1.0093556806015882 2.3306114242104283 42 46 24
9.295484477124452 0.6809620130606522 2.5797338572838626 43 49 22
10.00127275587756 1.4330992069040502 2.4759910208940834 45 50 25
9.627228964985706 1.1351302076370964 2.3648958981936694 44 49 26
10.195046360506762 1.9090828728814457 2.452142368320274 47 52 25
9.994211817490383 2.3595635779779505 2.3282082118023384 44 50 24
10.262196426235464 2.2524251323975557 2.444243034895602 45 51 24
9.569981854751468 2.098901031568472 2.1042526625521534 42 47 23
10.195046360506762 1.9090828728814457 2.452142368320274 47 52 25
9.438334546800677 2.1671060924695436 2.241523977071048 44 49 24
10.461193842479975 1.968895696987415 2.582160702506376 46 52 24
10.30204213209529 1.792255941279599 2.607341625038923 45 51 25
9.362358323603921 2.270741354050599 2.117400797601724 44 48 25
10.121332124568552 1.8644373207903866 2.3163982643500707 44 49 23
10.115209481593663 2.098901031568472 2.189480549666799 44 49 24
9.732325862452228 2.672559884773273 2.3539681094379095 42 48 20
9.580822237058895 2.619221932330534 2.103584584688435 40 45 20
10.097201123685103 2.551774859083633 2.3186073611816846 42 47 22
9.445663575201994 2.551774859083633 2.2409084862274993 42 48 23
17.415581929500306 -1.346708668127628 1.6781741116579734 55 59 45
9.398381633268377 3.1287383925579864 1.3417879022471517 33 38 14
8.306219766026125 3.005344722712318 1.4338997267396854 36 41 14
9.829733760737508 -2.836492601299191 1.352004794972504 40 45 29
9.264296176268068 -3.0454819311677617 1.4481326595431467 38 42 19
9.065717285708322 -3.033778685235868 2.0114070182502064 41 47 20
9.10953961897956 -2.8017457506759067 1.8909002399106614 42 48 25
9.528410689678209 -2.938750705852207 1.7679542907517867 40 46 20
9.216936913378515 -2.9146704630569094 2.00368479659395 42 48 21
9.02344356349514 3.1271618253003854 2.0136172166789494 40 46 19
8.627127048413294 2.8874467831249655 1.7888678618635803 37 43 16
9.02344356349514 3.1271618253003854 2.0136172166789494 40 46 19
9.341371309907148 3.1287383925579864 1.7719554909962942 37 42 14
9.220384920073405 -2.6971411273808785 1.7746319475233 38 46 24
9.009817637907139 -2.644282675058536 2.0143345385303917 42 50 29
9.030486020243709 -2.6971411273808785 1.5560075557824964 41 47 27
9.925376788383193 -2.601985601296971 1.8637701777004276 41 47 27
8.28403831458058 0.020116471198876933 2.3576902935158826 35 41 14
8.40611119794186 0.02426463481761142 2.526709500899559 35 44 16
8.358265049436412 0.18884771152107957 2.3488223686490572 35 41 14
8.667947458917016 0.41184972233256373 2.4851465781036737 40 47 18
8.479269385469172 0.22659141239419234 2.5145959636025097 39 46 17
8.663629943683938 0.29991940560118074 2.1672486061700598 33 38 12
7.661233025872685 -0.18004107317352724 2.4429757875968683 34 43 12
7.839591037645467 -0.37037385694272945 2.416309112873809 34 41 9
7.658790818529897 -0.14975714348095595 2.2593327909855754 33 40 9
8.75786047770162 0.03056730382344579 2.68649141579991 39 48 20
8.75786047770162 0.03056730382344579 2.68649141579991 39 48 20
9.009479886501243 0.5031206521778451 2.632384668206326 43 49 22
11.029336381267623 -1.6515048490857727 2.9695200027503597 59 68 40
11.029336381267623 -1.6515048490857727 2.9695200027503597 59 68 40
9.8539750346407 -1.1265848852696296 2.69007195379571 42 52 24
9.222982668778995 -0.9379315117214969 2.592347398686485 34 43 12
10.157264625016198 -1.3988751607499599 2.631947338562875 42 52 24
10.603902261739362 -1.6099927812517634 2.7664493197018447 49 59 33
9.262326424537305 -0.903357608355849 2.4058485764196096 33 41 9
10.603902261739362 -1.6099927812517634 2.7664493197018447 49 59 33
10.486491635812861 -1.4482365794616303 2.419087142788252 42 51 24
9.994863988503786 -1.2664386567779442 2.4768081444540795 39 48 18
9.262326424537305 -0.903357608355849 2.4058485764196096 33 41 9
9.8539750346407 -1.1265848852696296 2.69007195379571 42 52 24
16.835606683537424 -1.3177921837896407 1.9908978401598152 46 49 28
10.751351569506777 -2.4008908089271848 2.7330339780780752 54 64 37
10.868825554253851 -2.715971439273119 2.708746616939606 52 61 33
14.517882802646367 2.8786567902819784 2.840892309194944 48 57 28
14.191378223189506 2.364297618715877 2.9271924655122405 50 57 31
11.446395336913335 -2.212182744591382 2.82190697202889 54 64 40
11.301126567313405 -1.9510972232750639 2.8633417153192897 56 66 42
10.34811761713351 -1.985992662598378 2.5998630710134725 47 57 32
10.187199502294753 -1.802559255128565 2.6267141383803816 48 58 31
10.601322688066023 -2.144102297859721 2.5613938138527788 46 56 32
10.819045808825756 -2.0769874376382838 2.7188140846900857 51 61 37
10.17955532308237 -2.2527783525678906 2.628042951665968 49 59 32
10.17955532308237 -2.2527783525678906 2.628042951665968 49 59 32
11.061476245598714 -2.2527783525678906 2.6724704572146463 51 61 34
10.671458212606023 -1.873882187728529 2.399637824177643 44 55 33
10.702510446636493 -1.764230161092002 2.5471241503833038 46 57 32
10.855792664694631 -1.9215503169549786 2.526549847795227 44 56 33
9.705407819247943 -2.3897745949527365 2.5158406210400117 46 56 30
10.173467720320028 -2.4958397063429145 2.454719225311799 45 55 30
10.595477413368517 -2.383085358684067 2.4074944284484685 46 56 33
10.63248182928649 3.1251445047791204 2.403645572422299 48 54 27
10.325252935220705 -2.758503900254436 2.2983111369427247 48 56 33
9.727592280632155 2.8874467831249655 2.0947107567376424 40 45 18
10.668381602235467 -3.018846384453169 2.3999524761625857 50 56 29
10.63248182928649 3.1251445047791204 2.403645572422299 48 54 27
9.977578039436654 2.9865805566979406 2.3297857093322154 43 49 22
10.105625062076719 3.005344722712318 2.190155918502123 41 47 20
10.162409047723404 -2.844676238037856 2.456047215821445 50 59 31
10.827870134458193 -2.999145306856822 2.530209642029615 52 61 33
10.954792002110333 -2.844676238037856 2.5138710663339183 52 61 33
11.170146103355556 -2.7034586919713264 2.4877683606652603 49 58 32
9.933499896078994 -2.5426191967429768 2.082775234040019 47 55 35
10.714660516081137 -2.5786581709689247 2.3952497533879775 47 55 31
10.003551360322897 -2.5786581709689247 2.3273258045798353 48 56 33
10.257398722047762 -2.6971411273808785 2.0651168761787075 44 52 30
19.1378927739306 1.190255353241065 1.299230901625616 39 44 31
10.1772334593429 0.9465268144470801 1.7552353828081195 30 32 11
8.87672131607326 0.5413856888198753 2.021470431045093 32 36 13
10.124053741986819 0.662141709382 1.756215432937065 32 34 12
9.3144386115592 0.48320566677142734 1.8836165288965936 32 34 13
9.99032518786438 0.8830323706654246 1.9681938022024725 34 38 16
10.630092090550226 0.7366512240621701 1.6523965029339565 29 31 10
9.157952118516034 1.4780841457508547 1.5562134098311513 26 30 9
8.610227532014797 1.5895498298518769 1.9101872434439024 33 38 16
8.650521003650075 1.46674088496302 1.9085432316055289 33 37 15
8.46128975212244 2.619221932330534 1.7932131329384458 39 44 18
8.442701396917611 1.8299657336987767 1.6736050456614673 30 36 13
9.916162588785104 2.2835713694936084 1.2492818586483843 35 39 18
9.242469199637444 2.197363216648018 1.8861361254351228 40 44 21
7.938628968981213 2.551774859083633 1.940218708163913 40 45 21
9.307047118754346 2.043608710941105 1.7727075907106964 36 41 18
9.676845328083571 0.8192697785477248 2.5199368197818055 43 49 23
9.676845328083571 0.8192697785477248 2.5199368197818055 43 49 23
9.359696620560323 0.7041426331052116 2.394429175930668 40 46 20
8.960680088045113 0.4272372201109771 2.1449089836340063 33 38 12
9.820562424789435 0.8306122724270782 2.6971395743478137 44 50 25
9.949032852335538 1.1489922038243616 2.670752847107962 44 50 24
9.250216546341164 0.6135012393026952 2.257765194589677 36 41 16
9.564813034230884 1.2243081513094465 2.5364780134247256 44 49 24
9.502490933807362 1.46674088496302 2.1084523693771295 40 44 20
10.711726337449788 2.122866187265924 2.545852718867926 46 52 23
9.706227253805393 1.8299657336987767 2.0959829955902904 39 44 20
9.956749442330509 1.7312905254893027 2.331771817745639 44 49 23
9.747459070857792 1.9877119297889208 2.2166051170261643 44 49 23
16.4480332496724 -1.3331101727687587 1.6845171646659438 49 51 33
9.503387497236229 -2.601985601296971 1.5567435148415216 40 47 29
9.483749787354757 -2.5426191967429768 1.9907220706962285 44 50 30
9.382212644699818 -3.0454819311677617 1.7710679077595162 40 45 18
9.193927767461869 3.1287383925579864 1.6651784923092126 37 42 15
9.503387497236229 -2.601985601296971 1.5567435148415216 40 47 29
8.68882503474804 2.8874467831249655 1.3227088371981788 36 41 14
9.473563649998193 -2.6971411273808785 1.8781885291796363 40 48 26
9.4123259507108 -2.938750705852207 1.4500713224698845 40 46 23
9.086038197044726 0.16178797169466738 2.272678354946547 33 39 12
9.473857676924563 0.26356456106419784 2.1102554058265097 31 36 10
8.40611119794186 0.02426463481761142 2.526709500899559 35 44 16
8.549613937238421 0.34744098527585326 2.3270017963248844 37 43 16
8.82810421246143 0.2826900999046847 2.6704926581940933 42 50 22
7.92034760294312 -0.22541815284115024 2.6198231734102175 36 45 15
9.222982668778995 -0.9379315117214969 2.592347398686485 34 43 12
10.12297037341708 -1.6019704529789276 2.6380421712026627 45 55 27
9.479445736643324 -1.1199352452807636 2.380890288748441 37 44 11
10.641392077256095 -1.5966734547085055 2.555673966057089 45 55 29
9.441006831259099 -1.2090002946818335 2.5557058238689887 38 48 18
10.527433894844794 -2.6032759030797443 2.7853495727973465 53 63 35
10.65211995106302 -2.631534870617938 2.554158186747468 50 60 33
11.085849768493633 -2.5347935587712107 2.668151147638254 51 61 33
11.088316622897636 -2.120091304461703 2.9412146659386136 63 73 45
14.264095363986481 2.8008642622563156 2.9049177720355215 49 58 27
10.819045808825756 -2.0769874376382838 2.7188140846900857 51 61 37
10.14690283282184 -2.2755586333750526 2.457917823790819 46 56 32
10.315998678802854 -2.062736839705746 2.4380405799110223 46 56 32
10.532229160731791 -2.3897745949527365 2.5714802468479068 49 58 32
10.665235473021477 -1.8593079796194791 2.752106480763467 49 59 33
10.173467720320028 -2.4958397063429145 2.454719225311799 45 55 30
9.875790168941036 -2.383085358684067 2.3396079357896458 46 54 32
10.659327568488168 3.1271618253003854 2.270738399502495 43 49 22
10.044319491935822 3.1271618253003854 2.194514153310819 45 51 24
10.091885453941448 -2.8842458682339065 2.319096019805704 51 57 30
10.394193273845705 -2.7034586919713264 2.4292189324315028 50 58 34
9.922173773032716 -2.8017457506759067 2.0834168245394937 45 53 30
10.714660516081137 -2.5786581709689247 2.3952497533879775 47 55 31
9.303955206607448 1.3708481380874402 1.556442269307603 24 28 7
8.707694341367352 2.730527695107412 2.0308848458399646 39 44 17
9.880297807577982 1.9036627172480325 1.3531425683719251 29 34 13
9.534481788961584 1.7117984204492434 2.106452981182513 38 44 19
10.238533467884547 1.6005379674206444 2.617920629459387 44 50 25
10.031673129364199 1.7569641015045319 2.4721406107851895 46 51 24
8.964854543702154 0.5715188380165215 2.4432836302858156 40 46 19
9.949032852335538 1.1489922038243616 2.670752847107962 44 50 24
9.761647455997425 2.730527695107412 2.2155102065572976 41 46 19
9.520975055826646 2.467343033152493 2.37631843510597 44 50 24
9.966441755006308 1.5956785592030254 2.4804550568855053 46 51 25
9.170949488023012 0.8124756736813038 2.264875663314017 37 42 17
9.653286032600553 1.1902067483214143 2.2239775579015775 43 47 25
9.168909413727734 0.7189145117615564 2.1302888319834086 34 39 16
9.262555817059884 1.452249815399503 2.2566729697941947 44 49 24
9.335489258555999 2.3595635779779505 2.2502956108774455 44 49 24
9.380194137795561 1.2774731961708998 2.3920731475227974 45 50 25
10.451960333418638 2.0465864368134374 2.422843050543067 47 52 25
9.762387191478131 0.8079513937825042 2.0926526979335454 36 40 16
10.1680067844092 -2.740403265007554 1.3593960398431884 40 44 29
17.55200326954482 -1.4036874563385693 1.792903667940822 58 61 51
10.636646024854201 -1.355811286618743 2.758708031000484 46 56 28
9.222982668778995 -0.9379315117214969 2.592347398686485 34 43 12
10.453277540869541 -1.59291485783804 2.4226990287028762 44 54 29
11.24326274583861 -1.6235695821619391 2.8819660924316244 54 64 39
11.288749862020861 -2.791313651719002 2.634186379784236 52 61 33
10.751351569506777 -2.4008908089271848 2.7330339780780752 54 64 37
14.377055344961702 2.550051427227537 2.8742831960569952 51 58 28
14.191378223189506 2.364297618715877 2.9271924655122405 50 57 31
9.91558581513065 -2.0769874376382838 2.6774233751647882 48 58 33
10.34811761713351 -1.985992662598378 2.5998630710134725 47 57 32
9.987250138633401 3.1224715942025756 2.4777813911433393 49 56 29
11.392215763685192 3.1251445047791204 2.4627352311414015 46 52 25
10.082313733309963 -3.033778685235868 2.191805284479109 46 52 25
10.032080251913985 -2.644282675058536 2.1953922728709174 45 53 31
10.432436723001338 -2.470774261760468 2.2891993922477063 46 54 33
10.032080251913985 -2.644282675058536 2.1953922728709174 45 53 31
9.879954228673995 1.0324485438859508 1.8651573080331523 34 37 15
19.38681668707542 1.0937372045654785 1.4605216352902823 43 46 36
9.137419634969717 2.3590144183208284 1.8898889248774955 43 47 25
10.090345344614382 2.1671060924695436 2.3192377365495696 45 50 25
9.222932694149208 3.1287383925579864 1.4475797365029301 34 39 13
10.674020836751925 -1.4276646003123985 2.551083797653658 42 52 26
9.68649087489409 -1.0427659890068215 2.5185482198219793 37 46 14
9.716240451007616 -1.355811286618743 2.720247693239659 43 53 25
8.09299711554722 -0.45497660722881944 2.5838348968633604 37 44 13
8.28403831458058 0.020116471198876933 2.3576902935158826 35 41 14
10.855792664694631 -1.9215503169549786 2.526549847795227 44 56 33
10.025460662355705 -2.999145306856822 2.472924039103776 51 59 31
9.287430913097749 0.37814820355286527 2.0001800047302436 30 35 10
8.887634325431538 2.4477399484953315 2.02087635823289 43 48 24
9.764303270129453 0.9006946560384137 2.2153057122599638 39 44 20
9.643278977019001 1.3469886195314384 2.0997697523892027 40 44 22
8.713491115880196 3.005344722712318 1.9060063009282913 38 44 17
9.63443803632224 -2.836492601299191 1.6608511201252971 40 46 26
10.048903879071792 2.9618869637131544 2.4699768117295005 45 51 23
10.218500201971885 -2.9146704630569094 2.1823025480187903 47 53 26
10.665235473021477 -1.8593079796194791 2.752106480763467 49 59 33
9.067662576300584 1.2334007145987003 1.8924316122855191 33 37 15
9.807198573564142 1.063010066036878 2.501617019715922 42 47 24
10.461193842479975 1.968895696987415 2.582160702506376 46 52 24
10.003551360322897 -2.5786581709689247 2.3273258045798353 48 56 33
10.138410495350827 2.8537343779018935 2.3148438669777063 42 47 20
9.189106668618926 1.5874934009317883 1.4471238415042407 27 30 10
9.956749442330509 1.7312905254893027 2.331771817745639 44 49 23
14.264095363986481 2.8008642622563156 2.9049177720355215 49 58 27
