12.508011178642437 0.21424776905717352 1.9268757355666146 23 26 24
12.508011178642437 0.21424776905717352 1.9268757355666146 23 26 24
12.745015591038154 0.2959302446587083 1.9199681364608905 20 25 16
12.529134726982528 0.3737451853302591 1.7603153951381374 20 23 23
13.14096411483894 0.44709194454623735 1.8293819264302509 18 22 16
12.921466471637073 0.44709194454623735 1.7544943868093372 19 21 23
13.448114185929219 1.1276035852682278 1.9009970333086246 36 41 21
13.60300871028041 1.059014982545957 1.8204080971972731 33 37 22
15.089281768236367 0.975788831825355 1.5946778675422932 9 10 5
13.31142375226937 1.454821057615622 1.9045187390848808 32 33 19
13.45751519473409 1.3767242851299346 1.9007576090587404 34 35 22
13.582033482856781 1.2787333748606526 2.058150005565723 35 39 18
13.215529036758506 1.4448319203938187 2.072906487012662 35 39 18
13.671673065222299 1.454821057615622 1.973682422990486 33 35 18
13.813955165206764 1.3767242851299346 1.969296704702545 33 35 18
11.599121981470253 0.23402998090686525 1.9561837793513783 35 41 18
12.604233272477515 1.0913343541641694 1.9240378494964094 36 41 19
12.769368316451807 1.0192513238556278 1.8370871750325297 35 39 21
12.964755414834698 0.7250986824885843 2.083557867789551 37 42 25
11.921188087810826 0.5760889700143063 2.133566029550095 36 45 17
11.90523346249937 0.7049872675292554 2.349334100815145 39 48 18
12.630502434709483 0.8719899230585864 2.4054865703116257 42 49 19
11.90835629561689 0.8719899230585864 2.349075468657348 39 48 16
12.413694220324754 0.6548345638774185 2.1087308007732544 37 42 22
12.335889512413278 0.7878856611084784 2.112498068707176 33 41 16
11.835260298965803 0.9414558117967425 2.241960014971678 38 44 17
11.930541606532113 0.999803289148877 2.1330715493462886 36 41 17
12.507541994468202 0.850342425542757 2.0137025839367513 36 40 21
12.146790233738324 0.7887945046628367 2.4505789670940565 42 51 19
12.335889512413278 0.7878856611084784 2.112498068707176 33 41 16
12.48174781166964 0.9414558117967425 2.3047407384460126 39 47 17
12.66186802158178 1.0491880039905677 2.0970771361578735 38 43 21
12.669371437057535 0.9735887175191212 2.007652404140202 35 40 17
11.300662883989888 0.19758489704990143 2.4035813047554475 45 52 19
10.93637041707142 0.26705630803471847 2.598064070974879 46 55 21
11.220961351907386 0.05818600478029329 2.2862287703018422 44 51 19
10.573986473549484 0.07615178597776148 2.482666013501599 47 54 24
11.117071407081829 0.42857516319074435 2.571733987435335 43 53 16
10.852619383555767 0.36848351036039656 2.450187035911628 44 53 21
11.66491328800588 0.2577477645364964 2.1474864134677523 39 46 15
12.010839805395381 0.23402998090686525 2.0334119023908768 32 38 17
12.57896777849411 0.4058345683839041 2.0110109296915217 30 36 16
11.309069476829679 0.1747201025217763 2.2794780580386735 43 50 16
12.076849288785757 0.4883921754801492 2.2261719135042712 37 46 16
11.478218721816258 0.6079957873058754 2.3867275472913545 41 50 20
11.72857340905872 0.688912689318058 2.494895673834853 44 53 23
11.48390748841709 0.2866685029281722 2.266498768324235 38 47 13
11.475628975718417 0.3226460871440193 2.3869674710480173 41 50 18
12.257461058540288 0.3223891828993457 2.0234026129484333 32 38 17
11.3830731984345 0.569457686814593 2.5362404963288503 42 51 17
11.73350498185046 0.43809911633985416 2.3638751795911284 40 49 19
12.238567392138279 1.2541181292549457 2.4415607416010174 42 51 19
12.078216570756716 1.0343280310416056 2.335303983481942 37 46 16
12.74702140732027 1.2526661190257171 2.093200716676818 37 42 20
11.746173956913987 1.1386899216028914 2.362780529163268 40 49 19
12.238567392138279 1.2541181292549457 2.4415607416010174 42 51 19
12.885342341730372 1.3176822280404616 2.2768344552215303 40 46 22
12.899060858856721 1.4329717659056842 2.1780436471249156 37 43 18
12.732687633000811 1.418665112237495 2.287102330082888 40 46 21
12.407968463727084 1.1843819093768353 2.3101174833704547 39 45 18
12.646983228210447 1.5172292122570596 2.4040493244924894 42 49 20
12.875077109775763 1.2893515391474724 2.3847548275754775 40 47 19
12.855102428610788 1.1504109663732511 2.6545499363938125 46 53 23
13.533398491579385 1.488080945980103 2.722159221722513 45 51 24
12.79381679147074 1.5100963372063931 2.51459258226395 41 52 18
12.224717962564574 1.0092541380236606 2.5820342082884924 45 52 22
12.79381679147074 1.5100963372063931 2.51459258226395 41 52 18
12.47068944088468 1.2092395647070533 2.551292627658531 45 52 22
12.312894957197308 1.350283191319471 2.570702717206808 44 51 21
12.139578386315781 0.7895536341386306 2.5933338868317213 44 53 23
12.302758502681248 1.2575147485420846 2.747632608346162 47 54 24
13.159323537367783 1.46978293898066 2.7913293784586273 48 55 25
11.806112172376807 0.6648444607088216 2.641501299493043 45 54 22
12.948047513606129 1.6143662406854613 1.8333249662334925 37 38 23
13.18447983830103 1.7717403687804267 1.8285090127291028 45 47 35
13.242831136295804 1.6143662406854613 1.906315012693113 34 37 17
13.474091831971835 1.7717403687804267 1.9003362979931897 34 38 19
13.413418494274627 1.8472705245678311 1.8240130139946615 35 39 22
13.711640412384321 1.919701790249393 1.8183889222103424 20 22 11
12.792785428577739 1.869968980700598 1.9186089145549179 31 35 18
12.933936524333665 1.7886978088012009 1.9981220448733676 34 39 17
12.692838131148129 1.6181519492406828 2.0067892827493368 36 40 17
12.002099528826491 1.6433601456382199 2.465286867507185 41 52 17
12.187151883776842 2.3609152396688198 2.4465841875004135 47 53 26
12.521029769548692 2.207880834134256 2.3019143676588465 43 49 25
12.660960016978818 1.6281094490257857 2.2920448937871956 41 47 20
12.74320193858351 1.7321043639678089 2.2863842683992464 41 46 20
12.523862333547077 1.9281754782200509 2.1990141372816736 38 43 19
12.842757291392743 2.0173076172694366 2.181093064232576 35 39 20
12.502729877422924 2.012684913191856 2.41683812938725 42 49 19
12.521029769548692 2.207880834134256 2.3019143676588465 43 49 25
12.281844451979117 1.6226574781466636 2.115148105861784 38 43 18
12.531585022288374 2.1491963311837923 2.198566567248543 37 43 21
12.754292538777044 2.0621542310931105 2.28562861656614 37 43 17
12.433128772305125 1.9661978568205247 2.3082737754524087 39 45 19
12.650512711768584 1.6348406214325986 2.4037423095867285 41 48 19
12.822150423536064 2.116022361354385 2.3891355355128585 40 46 19
12.530853017036579 1.8087220551727596 2.103161799160052 38 42 20
12.304101850225118 1.8965840416588828 2.0215601345880074 35 39 20
13.021885291027475 2.0569336961671194 1.9950485355752106 34 35 23
12.66932317880505 2.2776093464941534 2.4021106906917447 43 49 21
13.55634389489769 2.0705297605274415 2.564418125432969 45 54 20
13.267965046594282 2.012684913191856 2.466825286449533 45 51 23
13.175579137357317 1.8043647105319394 2.610443480889394 43 52 22
12.797305778549672 1.6433601456382199 2.514216388405438 42 52 18
13.267965046594282 2.012684913191856 2.466825286449533 45 51 23
13.536696858091544 1.6696338297680007 2.7216130998849932 46 53 23
13.106844815819269 2.1438999803030967 2.6194392802114423 48 54 26
13.096052783521573 1.6544879776777706 2.6208731705299586 44 51 21
12.576089457065217 2.2620353168311205 2.5388978456678872 47 53 26
11.770369249411166 2.4606337624510877 2.4902070218677013 48 54 27
13.09789245655681 2.528732450992773 2.8044018624029667 50 57 25
12.486930439850552 2.639935228317635 2.713542642190619 48 55 24
12.01216370250609 2.719121280948713 2.6109575595438677 49 55 27
13.253640825401472 2.8242730704025933 2.7723422792657635 48 57 28
12.258758321566107 2.579481578397108 2.577616330489148 48 54 26
13.32440863882106 2.3635984771286624 2.758853110780454 48 55 25
12.936819214255287 1.9872029765692005 2.8419343450791734 49 56 24
12.650792914443175 3.0529936426465722 2.685982695237569 51 57 30
13.09789245655681 2.528732450992773 2.8044018624029667 50 57 25
13.403136718675597 2.639935228317635 2.744517773791806 49 56 26
12.720232004771256 2.238797981447034 2.674965457926474 48 55 25
13.620754176808667 2.238797981447034 2.7080002267105927 48 55 25
13.162715641428404 1.6914404666479286 2.7906246474315357 48 55 25
12.445095211172367 2.360191050297796 2.3074005884488082 41 47 22
11.533835737866298 2.822509614080617 2.3816155033832027 47 53 26
12.032449932428667 3.0764018402300874 2.4621501127460133 47 53 26
12.114657657035302 2.9462867257608 2.453792274234381 47 53 26
11.549805705474887 2.8577606132168527 2.261744218010441 42 48 24
11.79043873648658 2.708049497837503 2.3589837484178044 45 51 24
12.211414902625494 2.8577606132168527 2.324894537661943 44 50 24
11.288394672968224 3.084013312359935 2.281049158299147 42 48 24
11.549805705474887 2.8577606132168527 2.261744218010441 42 48 24
12.505253452520947 2.777701519430566 2.547179866861362 47 53 26
12.3448890291094 2.9173722258090415 2.566679825680719 49 55 28
11.469946577518497 -0.22940980289716015 2.525380767358019 48 55 23
10.488764559576119 -0.0679617521817611 2.3486245850387024 45 52 20
11.387660165529512 -0.5713952935551477 2.5356586770332825 52 57 26
11.12042637745285 -0.43083560599241805 2.571263328630338 50 57 25
11.734296965512089 -0.690540346890582 2.4942499109415737 53 58 31
11.469946577518497 -0.22940980289716015 2.525380767358019 48 55 23
12.692133223646765 -0.26959920919137725 2.679379774860796 51 58 28
11.974327743393065 -0.43083560599241805 2.6163675213400177 52 59 29
12.153544606577324 -0.7901509354239179 2.4499072624393192 53 58 33
11.810534841039741 -0.6669154575524885 2.640816418183356 55 61 34
14.789470915983358 -1.4416933123419395 2.9001027525415815 62 71 45
15.058000239206937 -1.4701150688219662 2.835994657598296 64 73 47
12.145108252323327 -0.7912114668797219 2.5925887913126173 56 62 35
14.066187063913276 -1.1325689184570287 2.298890638956921 55 59 33
13.320387126541688 -1.2099984276122613 2.5922198241429086 62 68 41
13.25283762989459 -1.1394460234498844 2.4682532932950503 57 63 36
13.843866023390598 -1.1849943159190153 2.4163960957692323 56 62 36
14.126688903547299 -1.0883690406780415 2.3940863120747147 55 60 35
14.04430996477803 -1.3507726364648578 2.6468576855806742 62 71 43
13.624470948339262 -1.5102166844194993 2.5567834122214186 57 66 38
14.04430996477803 -1.3507726364648578 2.6468576855806742 62 71 43
13.609839130479278 -1.3124498189839715 2.7097357436601737 63 72 46
13.976119972393832 -1.5009356780440075 2.655978782566338 61 70 44
14.45813440051485 -1.488304028107136 2.7493902820452223 62 71 45
14.200039783443534 -1.5173229844313418 2.4981254912639077 57 64 37
11.682862059565979 -2.9081338829486447 1.9532777159412673 12 16 8
11.609631563587238 -2.8204755886583674 1.8644407059950803 10 11 3
11.430702607512467 -2.577557247373006 2.5302452477073976 54 61 36
11.233348065916637 -2.525921296720866 2.7447412896696366 57 66 40
12.015268742812102 -2.7168848383032587 2.6105173062268294 54 61 36
11.847014886998284 -2.8761322565915193 2.6352188488836337 53 60 34
12.328143279773338 -2.821312352996944 2.7427083434689514 54 63 35
11.497957644698104 -2.361467042604272 2.6929980375037474 56 65 38
12.246150231700652 -3.0303920277422156 2.7589058135281617 51 60 34
14.471908575166115 -1.6432164278211079 2.594596215555228 57 66 37
14.053843021562118 -1.803848354976632 2.645601794232745 56 65 37
13.85258351030909 -1.8975921130969555 2.532359034374751 56 65 36
13.979313880828629 -1.654296969353348 2.6555460534068422 58 67 40
14.461221851535687 -1.6693677852290456 2.7488744473817324 60 69 43
14.419049592096071 -1.8614339265191049 2.4781371975507116 55 64 37
14.628679989503771 -1.9655742551000257 2.460013332452146 56 64 35
11.69338821591655 -2.7757119225529308 2.498891636106586 53 59 34
11.432649977571208 -3.064209174930455 2.530002276992195 49 58 32
11.965091625716022 -3.082273004839382 2.34441147331459 46 52 27
11.48091549172253 -3.088475607468391 2.1579465305700403 52 56 38
11.553035011650099 -2.856152045675422 2.2615130962304453 47 52 27
11.740581884495823 -2.8846891146740887 2.143299933755144 54 58 40
11.740581884495823 -2.8846891146740887 2.143299933755144 54 58 40
11.537069514147626 -2.820727559273157 2.3813206290095073 50 56 29
12.129872853115634 -2.603058729000737 2.331227652392332 51 57 34
12.278646929796993 -2.5384738505526134 2.4376945016812 52 58 35
11.794867282149175 -2.7064220196267947 2.3586062558651175 50 56 32
11.495022493494577 -2.7894315651529795 2.055918803213546 59 61 43
11.520434312077713 -2.9152060992731808 2.5192194250560984 51 57 32
11.361736299749083 -2.9443842043155377 2.3976897895664697 49 55 30
11.568333577370293 -2.9849486987676097 2.152926412945823 51 55 38
12.438439625851865 0.2959302446587083 1.8443515419859193 19 22 20
12.508011178642437 0.21424776905717352 1.9268757355666146 23 26 24
12.919743510200751 0.19750889243816255 1.7545191639481321 21 23 25
12.508011178642437 0.21424776905717352 1.9268757355666146 23 26 24
13.60300871028041 1.059014982545957 1.8204080971972731 33 37 22
13.31142375226937 1.454821057615622 1.9045187390848808 32 33 19
13.675358427497125 1.3009491623566625 1.8953070682375168 36 37 24
13.143039786038443 1.531195123486703 2.075937224661986 35 40 17
14.026263586941477 1.3009491623566625 1.9629323222264508 34 36 19
13.601615032719723 1.534362185344512 1.975878683890651 34 37 17
13.215529036758506 1.4448319203938187 2.072906487012662 35 39 18
11.758548258966757 0.8596228012403727 2.1423154777588964 36 42 19
12.328183128437615 0.8596228012403727 2.2105926972472956 36 45 17
11.394027860796065 0.7887945046628367 2.3946153114765822 40 49 19
11.835260298965803 0.9414558117967425 2.241960014971678 38 44 17
11.938504673507811 0.920849263533051 2.036435863661253 35 40 19
12.325166667495827 0.7164779380580161 2.2107748517780683 35 44 17
11.82897521388851 0.6349501295296125 2.2423820411455213 38 47 19
11.124946123693896 0.4959301270028504 2.4211187674341064 42 51 19
11.918694592423183 0.353827004662996 2.133698006995497 38 45 14
11.3830731984345 0.569457686814593 2.5362404963288503 42 51 17
11.475628975718417 0.3226460871440193 2.3869674710480173 41 50 18
11.66491328800588 0.2577477645364964 2.1474864134677523 39 46 15
11.72857340905872 0.688912689318058 2.494895673834853 44 53 23
12.732687633000811 1.418665112237495 2.287102330082888 40 46 21
12.23187961227482 0.9693738531976044 2.4422100743219457 43 49 22
12.824782966447101 1.5274254243232792 2.1820735758715357 37 43 18
13.049769497753868 1.340923004569855 2.1700413917217043 38 43 20
12.646983228210447 1.5172292122570596 2.4040493244924894 42 49 20
11.998379307384596 1.5100963372063931 2.4656732950702978 41 51 19
12.07774063754859 1.378944592913671 2.457520861649283 41 50 18
12.4988846733524 1.221697484583494 2.2004665125478726 39 45 21
12.07774063754859 1.378944592913671 2.457520861649283 41 50 18
12.078216570756716 1.0343280310416056 2.335303983481942 37 46 16
13.092643408143402 1.5007756471674836 2.621327397357699 45 52 22
12.705463707988404 1.0817185290198676 2.5242550307268115 45 51 24
12.702084299281642 1.3117789187286846 2.677809770454075 46 53 23
12.79381679147074 1.5100963372063931 2.51459258226395 41 52 18
13.533398491579385 1.488080945980103 2.722159221722513 45 51 24
12.377165015162793 0.7907497949228524 2.733413638308879 48 55 23
12.46068134891963 1.0706127448331182 2.718183230099408 47 54 24
11.809261217090912 0.9151626647295328 2.6410135073082 47 54 24
12.454711877270631 0.5100678548953079 2.719248007368286 46 55 21
13.321481284017475 1.6938172229397446 1.9042570053660564 34 38 17
13.028477328935416 1.6938172229397446 1.8316663552833707 40 42 27
12.774874829895992 1.704399700549823 2.003799514949703 35 40 16
12.433128772305125 1.9661978568205247 2.3082737754524087 39 45 19
12.902654096870952 1.832706314567096 2.2756909768180655 41 46 21
12.523862333547077 1.9281754782200509 2.1990141372816736 38 43 19
12.70059289371012 2.099446634007991 2.0953067493994326 34 39 23
12.732822113208085 1.7507120007657662 2.3966595597756273 41 47 21
12.185786965671905 1.8619162273377612 2.326871777039327 41 47 22
13.106844815819269 2.1438999803030967 2.6194392802114423 48 54 26
12.87867703941997 1.774105534248668 2.5055543782030023 42 51 20
12.872454852513027 2.004647836804699 2.652010630412455 47 54 22
13.03647227518493 1.898197439699917 2.4893394052759303 43 50 20
13.03647227518493 1.898197439699917 2.4893394052759303 43 50 20
13.569384052845944 2.116022361354385 2.439522776516689 45 51 25
12.402387813822205 2.3635984771286624 2.7287363575552854 48 55 25
12.724327509948326 2.486358950818517 2.674326900987971 48 55 25
13.093913795283175 2.2004563114108557 2.8052696613905184 49 56 24
13.09789245655681 2.528732450992773 2.8044018624029667 50 57 25
12.884592306536073 2.719121280948713 2.6502456804564885 49 56 26
11.95388288567292 2.4433774450314734 2.345327707902261 45 51 24
12.99482487707729 2.2887693536036933 2.2696725004360543 40 46 25
11.528670230066538 2.5400218924474727 2.38208705746064 47 53 26
12.278029520974673 2.822509614080617 2.4377537348392018 48 55 25
11.375980531956742 2.9686619186004863 2.274446792072292 43 49 25
11.964468077709979 3.084013312359935 2.344462377295827 47 53 26
12.505253452520947 2.777701519430566 2.547179866861362 47 53 26
11.89913933650688 -0.4977164575701812 2.476141786950281 51 56 27
12.222906615671716 -0.5713952935551477 2.5822708562654557 54 59 30
12.692133223646765 -0.26959920919137725 2.679379774860796 51 58 28
12.153544606577324 -0.7901509354239179 2.4499072624393192 53 58 33
13.116126261283727 -1.0006012493683267 2.2619256852914664 54 57 32
14.789470915983358 -1.4416933123419395 2.9001027525415815 62 71 45
12.700928456080609 -0.9167643742828585 2.6779917512699245 61 67 40
12.457706614462344 -0.512614938447508 2.718713392326623 55 61 32
14.107541568753657 -1.4701150688219662 2.814666609218593 62 71 45
14.45813440051485 -1.488304028107136 2.7493902820452223 62 71 45
13.08925150173671 -1.010476200918067 2.6217798895518203 60 66 39
13.836460328789876 -1.2547064029456214 2.5340310057811166 58 64 37
14.200039783443534 -1.5173229844313418 2.4981254912639077 57 64 37
13.540436702889433 -1.0826699719071222 2.5662248470877445 59 65 38
13.976119972393832 -1.5009356780440075 2.655978782566338 61 70 44
13.320387126541688 -1.2099984276122613 2.5922198241429086 62 68 41
13.540436702889433 -1.0826699719071222 2.5662248470877445 59 65 38
11.50974998310596 -2.9995949516436817 1.9593358093108462 13 16 9
11.682862059565979 -2.9081338829486447 1.9532777159412673 12 16 8
11.776072491736405 -2.459011328034534 2.4895720395947487 53 61 36
11.761668270424925 -3.050324244488867 2.6484610543703986 51 60 34
13.619676297382096 -1.8442350959751015 2.7081711986673866 59 68 40
14.543913672184278 -1.7737124646129838 2.5865199019127347 55 64 36
14.20318333851117 -1.6347286002857122 2.4978304251012213 55 64 35
14.276543840977185 -1.750403195088988 2.4910136815088295 55 64 36
11.947813573929523 -2.6496170921681013 2.4709683101399857 52 58 33
11.839766278698786 -3.093504788493186 2.040630860899518 9 11 6
12.0330699576476 -3.074432764169482 2.462086323967264 46 54 28
11.377947826878732 -2.9669678583254786 2.2743000837038787 42 47 22
12.048997420574802 -2.9669678583254786 2.3376323518540416 47 53 28
10.943124594491705 -2.856152045675422 2.191018757026473 45 51 26
12.214469291387847 -2.856152045675422 2.324659684046946 49 54 29
13.239459558775932 1.534362185344512 1.9064038151552793 37 38 23
13.362668918499214 1.3603129236015488 2.066870765019582 35 39 18
12.650116138952262 0.5262508786257434 2.0976169030606298 36 42 16
11.117071407081829 0.42857516319074435 2.571733987435335 43 53 16
10.852619383555767 0.36848351036039656 2.450187035911628 44 53 21
12.249096275163284 0.44355576907845057 2.1167673424403812 37 43 17
12.068977501423683 0.5423233244383592 2.33603843008167 40 49 19
12.899060858856721 1.4329717659056842 2.1780436471249156 37 43 18
13.092643408143402 1.5007756471674836 2.621327397357699 45 52 22
12.089158457519689 1.0876472244085156 2.22538943733199 38 44 17
12.964755414834698 0.7250986824885843 2.083557867789551 37 42 25
12.454711877270631 0.5100678548953079 2.719248007368286 46 55 21
12.722299229253101 1.4010760991477955 2.397556919413687 41 47 20
13.159323537367783 1.46978293898066 2.7913293784586273 48 55 25
11.741601678360732 0.3917110070586281 2.2483107272249927 38 47 15
13.105138157135665 1.9473680401506759 1.9099811121413812 32 36 21
13.395359541612478 2.086155129585419 2.745904562678044 47 54 22
12.87867703941997 1.774105534248668 2.5055543782030023 42 51 20
13.09789245655681 2.528732450992773 2.8044018624029667 50 57 25
12.211414902625494 2.8577606132168527 2.324894537661943 44 50 24
13.329860190592685 1.944329522775757 2.5910601651272067 44 53 21
12.04713970838317 2.9686619186004863 2.337780945077614 46 52 25
13.043891474666154 2.1815084370713747 2.488595053800191 47 54 24
13.613649360985015 1.8449413121118645 2.709128850803782 47 54 24
12.063048594309798 3.09003463803292 2.227051664599243 50 55 38
12.36660787114205 1.7169599927742614 2.111004019062008 38 43 19
12.771513787744855 1.8965840416588828 2.0920969142334407 37 42 20
14.468823404547596 -1.5102166844194993 2.5949464571413428 57 66 37
13.69441205478199 -1.3793166410176672 2.549113592271509 59 66 37
11.478879149748936 -0.3244451952337962 2.386666389892175 49 54 25
12.546488248297607 -0.690540346890582 2.5423351858692436 53 59 32
12.861484827643306 -1.1514208400508767 2.6536137443523042 63 69 42
12.381383703659282 -0.7928812251471563 2.732626484962302 60 66 39
12.231289309751606 -0.609551332066508 2.4422674464108103 52 57 28
11.643650446503745 -0.3704934971197188 2.5046186260581504 49 56 26
11.844505776741123 -2.4842980424173398 2.635600939744839 54 63 37
11.847014886998284 -2.8761322565915193 2.6352188488836337 53 60 34
12.161774165798212 -2.525921296720866 2.776527887732064 57 66 40
11.497957644698104 -2.361467042604272 2.6929980375037474 56 65 38
11.587812384829817 -2.637414703234176 2.6771480619660135 55 64 38
14.053843021562118 -1.803848354976632 2.645601794232745 56 65 37
11.289055563772193 -3.082273004839382 2.280998814593298 44 49 24
11.214584126030166 -2.752079026298694 2.1738344007757777 46 51 26
12.214469291387847 -2.856152045675422 2.324659684046946 49 54 29
12.919743510200751 0.19750889243816255 1.7545191639481321 21 23 25
13.671673065222299 1.454821057615622 1.973682422990486 33 35 18
13.44104550783222 1.200960934159056 1.9810068429928924 34 38 17
13.068183090661341 1.0192513238556278 1.9109790153211796 37 41 20
11.73174326681346 0.8892843572428465 2.4945378871368042 43 52 22
12.596691056497942 1.1692464258029889 2.010348285911149 37 42 20
11.835260298965803 0.9414558117967425 2.241960014971678 38 44 17
12.477709914721055 1.1386899216028914 2.419105447798879 40 49 19
12.49233625528218 0.999803289148877 2.2008484991538566 37 43 18
12.944871881666746 2.743056335322488 2.83992742935569 49 58 28
12.729007822092305 2.8786398394988 2.67359865312909 49 57 29
12.730036044995558 2.0705297605274415 2.5215411392499845 45 53 20
12.62854740010487 1.9795337546387834 2.0091624217613466 33 37 22
10.574692013105913 -0.07844944994967801 2.482579860238012 47 54 22
11.810484291918412 -2.752079026298694 2.243627085367111 48 54 30
11.949831223556238 -2.737636419189033 1.85584314995413 1 3 0
13.976119972393832 -1.5009356780440075 2.655978782566338 61 70 44
11.747298433151872 0.7882698910993942 2.247920624425542 37 46 15
11.48390748841709 0.2866685029281722 2.266498768324235 38 47 13
12.657433446617604 1.5228631406109232 2.292289901953681 40 46 20
12.669371437057535 0.9735887175191212 2.007652404140202 35 40 17
13.413418494274627 1.8472705245678311 1.8240130139946615 35 39 22
13.413418494274627 1.8472705245678311 1.8240130139946615 35 39 22
11.943441739829636 2.6513899669051852 2.4714298816950953 47 53 26
13.241841645069096 1.9019587185309264 2.7746516276246447 48 55 23
12.17263107390286 2.361959957779803 2.5889037724538424 48 54 26
12.264224654264295 3.0664758587301804 2.576912039878792 49 55 28
11.537069514147626 -2.820727559273157 2.3813206290095073 50 56 29
13.976119972393832 -1.5009356780440075 2.655978782566338 61 70 44
12.328143279773338 -2.821312352996944 2.7427083434689514 54 63 35
11.520434312077713 -2.9152060992731808 2.5192194250560984 51 57 32
13.16723209757748 1.869968980700598 1.990068208639744 33 38 17
13.054520335369165 0.3737451853302591 1.9113494729087317 20 25 18
10.66743965127382 0.2272167643456572 2.4714342725503404 45 53 21
11.492829209813166 0.15655940123299728 2.1572568831248855 40 47 16
11.212488699964215 0.06596930395701883 2.412269825392114 45 52 22
12.375169958269788 2.2887693536036933 2.207769928886798 40 46 25
13.979313880828629 -1.654296969353348 2.6555460534068422 58 67 40
13.178539993413047 3.033636014941144 2.7873595452493287 51 57 29
13.775101095519421 -1.0006012493683267 2.317891083830748 54 59 33
12.502729877422924 2.012684913191856 2.41683812938725 42 49 19
12.264264710610968 1.1319651101095756 2.116016064967321 36 42 19
