19.602584738890496 0.20810630678308228 1.318693855757473 44 52 29
19.01845670305464 1.0768560687697346 1.2559374635187324 27 27 27
18.946422461923472 1.179263480841146 1.14129165747809 51 51 50
19.068286196602344 1.2340842836439374 1.0858031717957837 57 58 55
18.93046657250616 1.4832309483225534 1.2544232442207206 42 50 36
14.812725308646355 0.8581873317270473 1.0870273731181996 23 18 8
9.61163726751961 1.189849006678181 1.5822744407000955 33 35 16
9.12544292333271 0.32847773736574953 1.6927716724332877 31 37 13
9.654936143257002 0.6636392094127058 1.4785178438196998 32 35 16
8.955982696717935 0.892913505016385 1.6950914698252988 34 38 18
10.432697967207618 0.7404931713785867 1.3886605651893946 28 29 13
9.925749263215254 0.5211616593339533 1.4810424390231693 36 38 19
9.10027686807421 0.5763127353848262 1.6931106749694993 35 40 18
8.28663354658015 0.6427207485411266 1.7051899215680406 38 42 21
9.428526050852836 0.4290445499532248 1.58249736699877 31 36 14
9.970957413698201 1.6137679860466854 1.4814504704125149 31 32 16
10.063461045062184 1.7136016543348558 1.482273902199527 31 32 17
8.73979544703577 2.397035331546919 1.5834195026447362 42 44 30
8.91028865308396 2.5563045596401284 1.5831779530312857 44 45 30
9.360721414312582 2.7059802236532713 1.6896911457477979 41 44 23
9.312558821850264 1.8363545459078365 1.6903089814211283 35 36 19
9.387628116191387 1.047236155219944 1.7975321635701154 36 40 21
9.61364146862652 1.1470543205604373 2.012578152918981 41 44 25
8.80784112327443 1.0942471113120906 2.056313831293612 43 47 27
8.781206051277637 0.6427207485411266 1.9328569706931054 41 46 24
8.860257710885136 0.9869364654458463 1.9294798329143585 41 45 25
8.828638300541249 0.24853911676361393 2.055071293822674 36 44 18
8.44140846151188 0.8220991503443699 2.221048639904027 47 53 31
9.153181163386632 0.6132092881342217 2.301726596461779 45 51 29
9.095766853850343 0.7333178178124968 1.8049412630837753 39 43 22
9.229047209657146 1.027877382697599 2.29438040032551 47 52 31
9.060983050891094 0.9131967921722705 2.170008285751579 45 50 29
9.438401978916962 0.4182903800913783 2.2749504431353826 42 50 26
9.022423197477684 0.7234167676061681 2.17293011398651 44 51 29
9.203631177977048 0.5379544472274937 2.1594604893379477 42 49 26
9.624175935851712 0.7234167676061681 2.2586662262026125 47 53 30
10.026661234955569 0.33208611588259696 2.5130335102444077 46 53 29
10.11454764215718 0.4182903800913783 2.3503747309089795 45 53 29
9.87218501503168 0.2844648563402835 2.374941404135562 44 53 26
10.103230475900483 0.708876498446101 2.5026811476648234 46 53 30
9.35691816002859 0.9428347960474652 2.4339554162085157 48 54 32
9.444708240927405 1.4985453322756075 2.1425144052017493 40 43 23
9.557680539573454 1.374740130555062 2.1349278822970694 41 44 25
9.534622524024948 1.7489705600578194 2.1364587602523333 39 42 23
9.178119686562333 1.6185773879169354 1.8028016324619884 37 38 21
9.52250553172642 1.2899883421861533 1.794265697480283 36 38 19
9.57872695880329 1.3962439239906066 1.9015028167577332 36 38 20
9.58501986916212 1.2148638738739976 2.2620278787631545 46 50 30
9.386291461878114 1.3111137629384195 2.430304933989177 49 54 33
10.058646328252657 1.4742768462694316 2.508672091699583 49 54 33
10.143119780238845 1.8071943463532156 2.497405879336605 49 53 31
10.025281732743478 1.7740503613304979 2.3592145036247203 44 48 28
10.047213765108081 1.3472942100448226 2.3570208009140545 46 50 29
14.252160199707548 1.280883818871163 3.000393024607423 52 61 36
14.327275173543187 0.884814063140727 2.967345088522032 54 64 38
14.252160199707548 1.280883818871163 3.000393024607423 52 61 36
10.846867190002678 2.6304144057170435 2.770953303391841 47 53 30
9.261290545091134 2.030462520306437 2.1553097127899212 43 47 29
9.174652877104302 1.979040125494475 1.9166632550676788 36 39 22
8.956066832955006 2.65571687180437 1.9254722669167534 42 45 24
9.638532965486592 2.2888838790873938 2.5707531650991062 48 54 31
8.785412616411813 2.139754459000899 1.9326756232128737 41 44 28
9.566373045524081 1.9596912483052467 2.4087294184787083 48 52 30
9.156119705473726 2.5563045596401284 1.8033693462769496 42 46 26
8.671903694755096 2.488006305450032 1.9376352429151036 45 49 29
9.792451087522577 2.028840218613718 2.5467233655942456 49 55 30
8.678854154324451 2.6476530086757983 2.3518765845759915 44 49 26
9.690744922451595 2.5581498001259644 2.5624169464610036 45 51 28
8.3654809545694 2.488006305450032 1.825816942508744 47 48 32
8.981729021278607 2.028840218613718 2.4842894246111498 51 55 32
10.155160204385913 -1.513964080556059 1.680350995597921 44 50 30
10.319178337334069 -2.380226824100748 1.67860284643307 54 57 49
11.497003298767185 -1.7864399973570275 1.4056843973440176 42 45 42
11.168331782576873 -1.9846642678569828 1.40077867046033 52 56 53
9.182671686234693 0.12114858605482133 2.160985117794114 35 45 18
8.238942597050231 0.12114858605482133 1.957907133528917 32 41 15
9.199640494512472 -0.14138863191823092 2.1597501233098475 35 44 16
9.136597958908173 -0.010296434579628568 2.164366745697941 35 45 17
8.975038763831032 -0.011862682886483797 2.319668044620013 36 47 20
10.648363672313641 -0.5923898044503294 2.597429175047253 47 57 29
9.883820035093184 0.1639479222836202 2.5331959333259295 45 54 28
9.381911493278222 -0.7110558012800624 2.6148786825811765 46 56 30
9.727075610714905 0.13935651309818733 2.390556797688534 42 52 25
10.250645002474306 -0.23148304375885004 2.6654201564695623 48 58 33
9.544270965268138 -0.5045809678655746 2.4113059078132073 37 46 18
10.403445868187143 -0.4264781852430006 2.6376846296695984 49 61 35
10.880185176392873 -0.3568765027552908 2.5631798782014883 42 53 27
9.221086114670296 -0.6316794833156558 2.295143372727928 35 42 14
9.329891102508354 -1.0393059347420115 2.2848714864332234 40 49 20
9.433037096310471 -1.1032703030777917 2.1433106580600327 40 49 19
9.755830371283354 -0.8512531836914801 2.55229399676249 43 53 27
9.439891265738162 -0.9575919553836761 2.4237411082963702 42 51 25
10.577077729042045 -1.7085252917754026 2.843406421122505 56 66 39
10.684945501348865 -1.0982527072128263 2.812144788850099 60 70 46
9.954605055814655 -0.8744520646758942 2.726766969236592 53 63 39
9.744096585982286 -1.0982527072128263 2.7789369792445475 56 66 42
10.577077729042045 -1.7085252917754026 2.843406421122505 56 66 39
9.199131625076156 -1.3784318525710533 2.033999684527307 45 51 29
9.0305107333933 -1.2623945505121763 1.9224210801248445 40 47 18
10.144878673245172 -1.4999355839295818 2.2171830313784433 50 58 41
9.101397987126505 -1.2220801886566368 2.166978627056845 43 50 26
10.082814618032163 -1.9073258009087048 2.6987784335690765 51 60 38
11.014718486295692 -1.2025724777740434 2.7335314350359528 53 63 40
10.133595380641642 -1.7696901162919014 2.348518522254666 50 59 45
10.049041865728283 -1.4899650218637597 2.356838598746507 51 60 43
9.990490186267246 -1.6750346409959551 2.718684628998681 53 63 40
9.674630302875041 -1.8446801495974903 2.564968839950671 51 61 40
10.438671233804179 -1.6546148018322135 2.631598159686407 52 62 41
9.90885692996444 -1.101746912425864 2.529577768447311 47 57 33
10.307770116897222 -1.0078650168197991 2.654784323656397 49 59 35
10.155293494501223 -1.3520618153398298 2.3464166173457026 50 58 39
10.779790559607525 -1.4899650218637597 2.4224389707109215 51 60 41
10.151252215537493 -1.4767387955404494 2.496339991495361 50 62 42
10.858655415308352 -1.7696901162919014 2.4141828141771446 53 60 48
11.04423272811201 -1.8013436130553784 2.5408109430549786 50 59 40
10.256445050979112 -1.3174924505895609 2.4828354804444115 48 58 36
10.858655415308352 -1.7696901162919014 2.4141828141771446 53 60 48
14.197983653657456 -0.04952276623436391 3.0304111441307646 51 61 37
14.152032833613571 1.0144540035340932 3.0647961020773824 51 61 35
14.37266573758239 0.34404271821276805 2.950235237761907 49 59 35
10.426271655307595 -1.6177577091208426 2.0830453962824547 49 54 44
9.724162870457343 -1.399183767435752 1.896372654287428 43 49 29
10.514770424977025 -1.7266740187310272 2.078318869431895 49 55 48
10.31251282988715 -1.513964080556059 1.7768891080577478 49 54 40
10.643076429107925 -1.7114208977954697 1.867363439274548 51 55 48
11.07536668751 2.9362396349096955 2.721045217962788 48 55 30
11.037196665293 -3.123978023826642 2.728846069670304 48 57 31
11.372503655695029 -3.1094679735634934 2.9264498611685785 50 60 35
11.07536668751 2.9362396349096955 2.721045217962788 48 55 30
11.40955198214409 2.778481729451428 2.912063577288812 50 59 33
10.586168194165309 -2.534005655095323 2.607217863696231 51 59 37
10.208511183098947 -2.4097431971467014 2.6734857882503373 52 62 36
11.089439715057907 -2.9027201368799944 2.7182165823677353 52 62 38
11.423213311688857 -2.723547264418099 2.906999898612645 53 63 39
11.230834170240975 -2.7027007009692525 2.691091168179499 52 62 38
11.56052617011415 -2.4334382651944995 2.861597192039236 50 63 36
10.388887139752775 2.9990965500582205 2.4665379172778517 43 49 26
10.604354039648623 -3.1272234887277888 2.6043271233708327 44 53 27
10.388887139752775 2.9990965500582205 2.4665379172778517 43 49 26
10.554471322580143 -2.8288635319839712 2.447172869693504 46 56 33
10.795963498674647 -2.694933004194652 2.4207296940961367 48 56 34
10.40388878898741 -2.975403032857355 2.464738688385783 42 50 27
10.066388914346176 -2.694933004194652 2.3551146002263517 49 57 36
10.658718851895888 -2.9454987362062317 2.595825751450919 45 53 30
9.788168395464849 -2.1296891833642477 2.120097876881498 50 57 46
9.957687165888236 -2.1623307369711755 1.7843445327570344 60 63 58
10.218780241111224 -2.4728885357446204 2.211737561372214 49 54 39
10.536070906813233 -2.2428323669236407 1.7724552162123157 60 64 57
10.086801346992111 -2.0720926767249237 1.990505618236039 53 57 50
10.34547643309967 -2.1296891833642477 2.2026323513149855 56 61 50
10.184604858411195 -2.2996381493925897 2.2142432040856885 54 59 46
9.961942847277072 -2.0841555806577556 2.365631868701538 51 59 42
10.576177682441 -2.4971475023612446 2.4447120486282605 50 58 38
11.031725828890567 -1.8626203476987593 2.2712098071725477 54 59 50
10.321967438345395 -1.9010799927539632 2.3307022780533684 51 58 47
10.09961771112462 -2.397166579977093 2.5031628431132718 50 58 38
9.79477405490127 -2.2877712234220895 2.383182063093029 49 57 40
10.163905962606595 -2.164409438629811 2.4946878883803167 50 59 40
10.449603090176916 3.032608942783341 2.1953582180539915 37 40 26
10.449603090176916 3.032608942783341 2.1953582180539915 37 40 26
10.85440263692248 -2.7913809231637314 2.1687287297338367 46 49 42
11.025915372322943 -3.132338743881518 2.2716541336493887 43 48 34
10.732448100716466 -2.7486900054930157 2.2949569172895075 43 51 29
10.489493756565366 -2.8687680584347595 2.3156329261887723 42 47 28
11.078211622964062 -3.014358111859479 2.2676777262177925 51 54 42
10.662490251148627 -2.599255283720673 1.9665389634314148 42 45 35
10.66552284138638 -2.6908754876009477 2.0704755186501154 48 53 42
10.602045894151786 -2.516725318432002 1.7711831953987438 48 51 41
10.189486043451154 -1.9317271061195804 1.8809952581444944 62 66 61
10.009985514348077 0.2962421258631448 1.581817649276998 31 37 13
19.293318865487933 1.2910906643304707 1.0325907812916306 60 62 57
19.59016429060222 1.5388146463056886 1.1562914969479787 43 51 38
19.009753562822226 1.3626866927479415 1.1428170269024458 40 49 30
9.886411913634891 0.5211616593339533 1.581955414191265 34 37 17
9.925749263215254 0.5211616593339533 1.4810424390231693 36 38 19
9.74954681502491 0.9577056613710426 1.684928323102478 33 37 18
9.72688947807442 0.9577056613710426 1.479202383840989 30 33 14
9.230463704356989 1.1470543205604373 1.9144852869713207 40 43 24
9.55281755584676 0.5763127353848262 1.9024341122141235 38 43 21
9.467466837052376 0.47784082659411364 2.0198932078999037 37 44 21
8.409768852467952 0.24853911676361393 1.9496398032170728 33 40 15
8.785877539039513 0.47784082659411364 1.8133627241551529 34 40 18
8.4960860556223 0.7234167676061681 2.0757763415285595 44 50 28
8.706714260221663 0.8157181346862178 1.9360994904870399 42 47 25
9.134017087445962 0.892913505016385 1.803942540034071 38 42 22
9.081740962168439 0.8220991503443699 2.3088020266818408 48 54 32
9.09884010609238 0.3682297128546924 2.0395124074457325 37 44 20
9.848927225826152 0.6132092881342217 2.3773962311825327 46 53 30
9.78256924298376 0.8220991503443699 2.384499812751306 49 55 32
9.302223823444649 1.3962439239906066 1.7996507801968065 37 38 21
9.466005842540236 1.5066197748037824 1.9055938865269624 37 38 21
9.436936484683097 1.624597830773704 2.1430443614254577 40 43 23
9.93980688451633 1.4881519680233795 2.3679039381311453 46 50 29
10.143119780238845 1.8071943463532156 2.497405879336605 49 53 31
9.604645279635529 1.1608705079863775 2.404313152523236 48 53 31
9.932422532352273 1.6323519622619487 2.3686653123448953 45 49 28
10.051349283383379 1.6427131005495519 2.509662371996558 50 55 33
10.309565568316339 2.731959860636251 2.6544553960949266 46 52 29
9.248872420219724 1.868036020308952 2.031315447000959 38 41 22
9.54666895784793 1.907975788791158 2.265356337146552 44 48 29
8.987809632265474 2.2126867818548885 2.1755793360764053 48 51 31
8.561779638692855 2.1789563073250195 2.3655258640536605 50 53 33
8.362815611466795 2.3032534181084916 2.228216301535432 49 51 33
8.61351811200612 2.3125702587037646 1.9402410086876358 45 49 32
11.204841385847743 -1.6988719323776584 1.4913113589515463 43 46 40
10.200655872403432 -1.4159267506315332 1.581611630933647 41 47 23
10.576871582824312 -2.109581263272461 1.5812269200493905 56 60 57
9.021937588274538 0.13935651309818733 2.3148470446428706 40 50 22
8.238942597050231 0.12114858605482133 1.957907133528917 32 41 15
9.021937588274538 0.13935651309818733 2.3148470446428706 40 50 22
10.25869900901424 -0.7110558012800624 2.6639001815467815 51 61 35
9.727075610714905 0.13935651309818733 2.390556797688534 42 52 25
10.160701343842337 -0.4379265720449256 2.3458948266546935 39 46 16
9.221086114670296 -0.6316794833156558 2.295143372727928 35 42 14
10.584012321728292 -1.3866255136544834 2.8412820062414763 56 66 42
9.421823931478201 -1.2623945505121763 2.0222292342411294 43 49 22
9.69825177080458 -1.2220801886566368 2.2524056271144346 42 51 24
10.228639998272818 -1.7456008331625095 2.211018650059164 47 54 43
9.48546377326434 -1.3174924505895609 2.418256641293872 45 55 30
10.772981990549528 -1.630998898627261 2.4231610873936167 50 59 42
10.916834696561315 -1.4311101465844625 2.7547955665093773 54 64 41
10.155293494501223 -1.3520618153398298 2.3464166173457026 50 58 39
10.960010040734431 -1.6408738077408354 2.5521181147289704 48 60 41
10.878907484177931 -1.3520618153398298 2.412094207799424 49 59 37
10.772981990549528 -1.630998898627261 2.4231610873936167 50 59 42
14.343273105181515 -0.03029396181942436 2.961119050582174 52 62 38
14.227676439390082 0.5300724972038063 3.013064429102975 49 59 35
9.981645259210822 -1.5077194032482202 1.995211521030469 48 53 36
10.426271655307595 -1.6177577091208426 2.0830453962824547 49 54 44
10.348185298305653 -3.12945912834556 2.4714664911183997 41 50 24
11.037196665293 -3.123978023826642 2.728846069670304 48 57 31
10.23228085057356 -2.6256403235984203 2.4858921833503986 52 60 38
10.644076363530251 2.973293531376737 2.5980951936612477 44 50 27
11.07536668751 2.9362396349096955 2.721045217962788 48 55 30
10.875586407166804 -2.596464739391315 2.76421620010095 51 61 37
10.805750808218253 -2.775893833076701 2.573817166337622 49 59 35
10.208511183098947 -2.4097431971467014 2.6734857882503373 52 62 36
11.089439715057907 -2.9027201368799944 2.7182165823677353 52 62 38
11.40955198214409 2.778481729451428 2.912063577288812 50 59 33
10.23228085057356 -2.6256403235984203 2.4858921833503986 52 60 38
10.675507190230071 -3.118839083775067 2.814740453378231 52 62 36
10.69259506077306 -1.9719837672507514 2.1790723023341565 54 59 50
9.871764176529389 -2.016585838847693 2.5349514632868977 49 59 38
10.415764433800346 -2.5761593127918228 2.3221792092060616 48 56 36
9.703041865887275 -2.269617699517848 2.560481969548817 51 59 38
11.034656944740345 -1.9010799927539632 2.396442718691409 50 58 43
10.272117945258612 -2.1075727619950126 2.6613828446642223 51 59 37
10.348601922584313 -2.2002678659775694 2.328259368494845 51 57 43
10.421501375644377 -1.950655151003433 2.462638029744762 50 58 40
11.155746096711185 -2.8259866931993427 2.046640142774873 36 39 33
10.097762135479758 -2.7486900054930157 2.2207083390274667 44 52 32
10.322867352261085 3.0180743217289585 2.3306194396585584 39 42 22
11.049622545287185 -2.9974484804683716 2.3949758247373785 41 47 26
11.219747578654555 -2.899819342608911 2.257165472323359 52 55 45
10.489493756565366 -2.8687680584347595 2.3156329261887723 42 47 28
10.322867352261085 3.0180743217289585 2.3306194396585584 39 42 22
10.997190342436117 -3.1310927854676285 2.400142979604335 40 44 24
10.346790999434672 -2.5418539451516615 2.087370189496773 44 49 35
19.427230667568942 0.15604399555819592 1.3163681642513347 43 51 28
14.114014609770607 0.8669757249504538 0.9776217642763121 20 18 5
10.20240316410714 1.0971244773572328 1.3845016087932396 30 32 13
9.142550393373376 2.0803518343693224 1.6925422976357516 34 35 21
10.387774669068502 1.8106579237881184 1.3878640095572934 32 33 18
10.26537737031679 0.48288397655813825 2.4817122503213933 46 53 30
9.366208536645633 1.3472942100448226 2.281515968254864 47 51 30
8.693000010720779 0.3682297128546924 1.9367029516922272 35 41 17
9.278530995829241 1.7293538069465137 1.8002456243035792 36 37 20
9.316582385332506 1.0942471113120906 2.151388114147928 45 49 29
10.164797563019626 1.3111137629384195 2.494571770165021 49 54 33
8.545101098953046 0.2844648563402835 2.2118509625115177 41 50 23
14.327275173543187 0.884814063140727 2.967345088522032 54 64 38
8.422939176833841 2.5157701691983316 2.222717500809366 45 49 27
9.301866085435723 2.1789563073250195 2.4409023050969942 48 52 30
9.008736151161077 2.3032534181084916 2.316196854019032 46 51 30
8.56545947873816 2.766744192820974 1.9424145437635316 38 42 20
10.702350424815432 -1.898545019944734 1.6747288711337787 53 57 53
9.039208138870261 -0.16254533857690726 2.3130896474364024 38 47 19
11.289478642618706 -0.4264781852430006 2.680467722720918 56 68 41
9.806477798272175 -0.5923898044503294 2.5446127244188217 43 53 27
9.683592458489432 -0.011862682886483797 2.3953793802099703 41 53 26
9.883820035093184 0.1639479222836202 2.5331959333259295 45 54 28
10.734172837580479 -0.19105723159171278 2.5843589626297265 43 53 29
9.38628401891345 -0.7281990302498013 2.4303058541442293 38 48 22
9.575903153490064 -1.4999355839295818 2.1337242958395715 47 55 35
10.137643698343597 -1.6235610218093854 2.2177216212621316 48 56 41
10.916834696561315 -1.4311101465844625 2.7547955665093773 54 64 41
9.90885692996444 -1.101746912425864 2.529577768447311 47 57 33
10.44569771091189 -1.4583592245509907 2.6303968654803462 52 62 41
9.674630302875041 -1.8446801495974903 2.564968839950671 51 61 40
10.858655415308352 -1.7696901162919014 2.4141828141771446 53 60 48
10.305395544387805 -1.6131037726595583 1.7770334955285787 50 55 46
10.21561503247994 -2.3840687264966776 2.0946792371253533 51 55 43
11.423213311688857 -2.723547264418099 2.906999898612645 53 63 39
10.60171062885436 -2.0216635222041277 2.3059171355131687 51 57 45
11.40955198214409 2.778481729451428 2.912063577288812 50 59 33
8.916968799416022 0.7333178178124968 1.6956381278286936 35 38 18
9.032961695134262 0.5763127353848262 1.583009794695683 34 38 17
8.865407329650528 2.2356837816704567 1.696368040694657 39 40 26
9.652094532925384 1.189849006678181 1.4784905993020123 30 33 14
9.978313248544675 1.5130727094001875 1.481516510210599 30 31 15
9.183148795747499 0.6427207485411266 2.0348691331097264 42 48 26
9.436936484683097 1.624597830773704 2.1430443614254577 40 43 23
9.288452979210069 1.2567110587354136 2.0292025584970412 42 45 26
11.497003298767185 -1.7864399973570275 1.4056843973440176 42 45 42
9.182671686234693 0.12114858605482133 2.160985117794114 35 45 18
9.451915226097697 -1.399183767435752 1.7959633235345867 42 47 22
9.212124985222847 -0.30618039267618985 2.2960043820497154 37 45 15
10.732448100716466 -2.7486900054930157 2.2949569172895075 43 51 29
10.76228689043793 3.0440927837341882 2.06557397875234 31 32 21
14.122181003273724 -0.13517570232679926 3.1006066011404445 53 63 39
9.701585774202547 -1.1702880344960174 2.393375513505247 43 53 26
10.696431813912172 -1.83199852498823 2.0688987756086514 56 62 57
10.586168194165309 -2.534005655095323 2.607217863696231 51 59 37
10.584012321728292 -1.3866255136544834 2.8412820062414763 56 66 42
10.446088411950065 -2.639438623090271 2.1956007649729403 43 51 32
9.167205057127006 -0.8376344303651697 2.3003558379680022 39 48 20
9.482053779093171 -1.3520618153398298 2.2710465214386675 45 53 31
19.316150435476974 1.1268145216504044 1.1500411714498588 39 39 38
9.587235546523441 0.8112269246185554 1.4778643403729783 31 33 15
9.248455660088819 2.4165631443390505 2.447777175978091 45 51 29
8.537023588973614 0.9131967921722705 2.0731275043753987 45 50 29
10.160701343842337 -0.4379265720449256 2.3458948266546935 39 46 16
10.25869900901424 -0.7110558012800624 2.6639001815467815 51 61 35
10.584012321728292 -1.3866255136544834 2.8412820062414763 56 66 42
10.578643119308348 -1.8070835585685412 1.771632555579512 55 59 52
10.279177836659791 -2.2248946904264795 2.0911104354979546 56 59 50
10.234961380623607 -1.8013436130553784 2.4855517928730926 50 61 40
10.644076363530251 2.973293531376737 2.5980951936612477 44 50 27
9.820430484853203 -2.2248946904264795 2.002642225242255 54 59 50
11.40955198214409 2.778481729451428 2.912063577288812 50 59 33
9.036056308058036 0.22053826371592428 1.8065177065605076 31 38 12
9.022481582866973 1.0890531152996104 2.4784590917532903 48 54 31
10.601738929208663 -0.8512531836914801 2.6047413354206816 47 57 32
10.547954503506782 -1.2703348408893913 2.613371557385896 50 60 37
10.644460104817648 -0.30618039267618985 2.437082397537517 39 47 17
9.55805242611058 1.937489948098162 1.5823387927380799 34 35 18
10.85440263692248 -2.7913809231637314 2.1687287297338367 46 49 42
9.593687603931096 1.8529118490511363 2.5780743219353814 51 57 31
8.715223680542683 2.7148589210590868 2.1973631251487458 41 45 23
10.285468158828163 -2.389372192340905 2.3340798664414155 52 58 43
