10.257450595843808 1.2601153979652635 1.740932415432026 27 29 8
10.222905854593265 1.356931329654199 1.8418099140152588 27 29 8
10.007287614478948 1.5613944032063538 1.8478015199566162 28 30 8
10.913467858428984 1.0843260987564416 1.6383565332624528 23 25 6
10.96160386132374 1.0843260987564416 1.4552970207577045 24 26 5
10.75562669926405 1.4685227441234336 1.4530749582365972 22 24 3
10.73878517249266 1.656185222511475 1.4528894773838867 26 28 8
10.187433763511311 1.7666356127301592 1.8427775016762273 29 32 10
11.325272868081743 -0.033766346602315714 1.3696015134513302 51 55 33
11.576087501840655 0.5085769561945331 1.634483964569199 31 36 11
11.179716462682636 0.0563284269713494 1.4575601529022253 50 52 30
11.619554090340648 0.2324437839484866 1.3747642407360916 43 45 21
11.243068638611954 0.0563284269713494 1.7258907901983973 47 49 23
11.23191205918469 -0.033766346602315714 1.7260460935503905 48 50 26
11.264851050497589 0.15970757258822676 2.0047814642020225 40 42 16
12.115744732514209 0.31594026753270626 1.2980895491535531 41 43 20
11.354507750768922 0.3449230637923485 1.906145426992139 38 40 14
11.440284225259754 0.0563284269713494 1.8123597263738613 44 47 18
11.992342217711096 0.14551939671665826 1.2073503160427679 50 52 30
11.279929259231123 0.14551939671665826 1.4585704263282067 48 50 28
11.772224497677104 0.5085769561945331 1.3773389399091855 37 39 17
11.231412977361886 -0.13539644436256054 2.006161695333223 45 47 23
11.103222379147539 0.4298081087401597 1.547085255521191 37 42 15
12.160257717114655 0.3449230637923485 2.062085126338748 37 39 15
12.087872451166835 -0.32274277706163496 2.065291867379554 44 47 25
11.019091741998716 -0.23112755509663288 1.9167738714940603 46 48 24
12.36288457622843 -0.23112755509663288 2.1470873573368614 46 48 26
12.413485996349005 0.25453904349699435 2.144440506741348 38 40 14
10.656738731992286 1.1279679540525838 2.031395052786989 28 30 8
10.060023940775242 1.3330151052622425 2.0610495655759316 29 31 9
11.299935674367456 0.8827532490577269 1.7251040050727942 28 30 6
11.381961919776984 0.6298099828847984 1.7239831441429332 29 34 9
11.474101889668898 0.6298099828847984 1.3722462661524861 29 34 7
11.320373048174002 0.8968393549382188 2.10222304580238 30 32 10
11.062767457645311 0.8217287960258205 1.9153510767173532 29 31 8
12.570937958171779 0.8173851188973759 1.2247991081248415 28 30 6
10.416169789066986 1.445034276787017 2.154064591926481 30 32 10
10.39877850334828 1.675852879369365 2.1551685501669713 30 32 10
11.079128113639236 1.0376306269469222 2.012564593371008 28 30 8
12.607883906405927 0.6979726858786559 1.225855307807639 29 34 7
11.44955511957715 0.7558107500504532 1.8121602378738093 29 34 9
9.794825096592062 -0.5863717087664012 1.441465470483546 41 45 23
9.618048419979061 -0.7322833087080985 1.4390746938827548 42 46 24
9.471844162459778 -0.4956841417186078 1.329517655557078 41 45 24
9.70023693453239 -0.3554576868306715 1.5436550359887364 44 48 27
10.391758251365182 -0.3554576868306715 1.9386230413832284 41 45 24
9.82861136697887 -0.8804775798392778 1.3384401210999302 40 46 22
9.803921645123104 -1.0246263198432424 1.5439421473373887 45 51 26
9.349298958179382 -1.1164397632553802 1.6496813907562227 46 50 25
9.223918209918049 -1.0643732464423337 1.9879018563692337 51 56 31
9.708844756187244 -0.9666290633566107 1.9658758266876408 51 56 31
9.441511440997417 -1.4549922053510016 1.542911093636368 44 51 21
9.898365912899266 -1.2523496542558297 1.6452972459776367 43 49 24
9.760643376916649 -1.3513906328014962 1.7496834008799413 44 50 25
10.092332827584926 -1.561142944642189 1.9500818343343993 45 51 26
9.577429773268328 -1.6675108647770094 1.753143526879198 45 51 24
9.010670295403765 -1.2945710608901027 2.1243140202798028 48 52 30
10.542660636122605 -1.6675108647770094 2.0367713826927356 45 51 26
10.191758824556134 -1.6789742361566056 2.1686645763774433 46 50 27
9.343644428256342 -1.5585251810343705 2.231881877397883 47 51 29
9.235092049704557 -1.441310196723215 1.9873657924065888 47 51 29
9.05507668552926 -1.3261725297402946 1.877832099399385 46 51 26
9.387368739172816 -1.6935050001152399 2.228263924686728 47 52 28
10.731255892413994 2.1428271709626703 2.134811499957795 33 36 14
9.808813972346254 2.1428271709626703 1.9616295510794377 33 36 15
9.79118693738248 2.0445493444971157 2.0757620502003284 34 37 13
9.857538438457926 1.9963545214402523 1.8521233081486501 32 35 13
10.421798277163353 2.7118111180222937 2.1537082696027388 42 46 23
10.462890044484775 2.444313798320993 1.7375601433964685 36 40 17
10.435698891149867 2.306982249791987 1.7379987510709536 36 38 16
10.397456118728288 2.8826078017422394 1.7386195648870055 44 49 25
10.190993564594136 2.9790186674060286 1.7420528375759994 46 50 27
10.371963596828856 -3.0037540925337955 1.837819078135835 48 54 32
10.40816317011732 2.9790186674060286 1.836867776312611 45 50 26
10.41481823989485 -2.318348448663079 2.154150224187729 48 56 33
10.329131066136737 -1.7949740337836146 2.1596351006450583 46 52 27
10.55982713991779 -1.9051694785457303 2.145114216344186 46 52 27
9.723485059658387 -1.7717356234496873 1.7503744480310763 46 52 23
10.570912180156345 -2.2463468622836342 2.035427764877524 49 57 34
10.877911098572996 -2.007554926817644 2.126306188410334 50 56 32
10.898885015242412 -1.8717295016598656 2.0204006011621463 47 54 25
11.172528681193858 -2.725864933424819 1.8182685533430165 47 54 32
10.82402045326495 -2.4632367639344057 1.9232780801465394 51 57 30
10.82402045326495 -2.4632367639344057 1.9232780801465394 51 57 30
10.233799447812862 -2.7795231773575346 1.9445780228313432 50 56 34
10.366045812532546 -2.881120068042793 2.045358566599492 50 56 36
10.60565449327733 -2.685165199829146 1.9308624750526888 47 55 33
10.055317791407578 -2.849929645617213 2.177934648830594 49 55 33
11.055729886510996 -2.598789179544205 1.9155795262007826 47 55 33
11.160787829006114 -2.3236434361566913 2.0091070528109034 50 57 35
16.25132704092258 -1.3724269453389768 1.3053581827567782 44 49 22
15.947518831310628 -1.7705035629002204 1.1671861303143272 37 42 11
15.56785331624745 -3.0496544426306946 1.2934033389474144 11 17 1
14.783167179661072 2.955040639794571 1.2782565089820612 42 46 29
15.275243220091346 3.0996726979376406 1.3555074607630537 8 12 1
15.275243220091346 3.0996726979376406 1.3555074607630537 8 12 1
16.35440709019353 3.102304797492134 1.8013187326306301 35 40 24
16.346739349622332 -3.1180495617075 1.801428821839596 37 42 27
16.50208680036002 -2.8732547577442995 1.5548434477357562 22 28 15
16.31245235799051 -2.932576594624685 1.4932782050176177 8 13 3
16.514066717496597 -2.993427974723958 1.7990502851776706 35 40 26
16.514066717496597 -2.993427974723958 1.7990502851776706 35 40 26
12.41080669752796 0.7514995121755841 2.24386531298851 34 36 12
12.475491568452714 0.3794791240083998 2.239738324421745 38 40 16
12.223547890838752 0.47067378558611705 2.1545133540091985 37 39 16
12.439276968445721 0.6861641274525402 2.1431014487749 33 35 11
11.37731766874447 0.9821658667454786 2.2044853628955514 31 33 9
16.563203870314236 0.35461399243476205 2.6675465062469907 45 47 26
14.321215519305337 -0.16829922947011794 2.531397591638844 50 53 29
10.90095738633961 1.6895084252052142 2.359913656524907 32 37 12
10.863326898113618 1.5589286526611663 2.36340967597139 33 35 11
10.633971911875243 1.1857365116798717 2.2568809817331132 32 34 10
10.965155636386797 1.5571376143602693 2.4927346602748046 37 38 12
10.917548747395891 1.4287500877414419 2.358383792108345 33 35 11
12.872216678025676 2.080952997957478 2.996388996603144 45 49 27
19.483865704682113 0.30906345305357596 2.8637701500029156 46 51 26
19.426020665355185 0.12223830160276228 2.8744096447720837 50 55 30
14.267233742299522 -0.2555112637557998 2.422716647780625 50 54 32
14.13759072424863 -0.4956841417186078 2.433259484826507 44 48 26
13.741532083721282 -0.3554576868306715 2.3582574826641975 53 57 35
13.916374193252496 -0.32316238976988587 2.5743344905664136 51 55 33
14.515758270412316 -0.5059707515089581 2.641302330638709 53 58 33
14.769528815395958 -0.32316238976988587 2.6107229409171606 50 56 34
14.1214279298994 -0.4442122103052171 2.551934676780741 50 56 33
14.39319224050251 -0.552804334312993 2.5242817361528194 50 58 35
14.769528815395958 -0.32316238976988587 2.6107229409171606 50 56 34
10.853292955552371 -1.7125149176280499 2.5064492051281304 48 53 28
11.0153059897809 -1.2539070118359164 2.4867550800389306 51 57 34
11.0153059897809 -1.2539070118359164 2.4867550800389306 51 57 34
10.743915117058005 -1.4239883748596252 2.374751083621423 48 52 30
10.59330587298117 1.9845868267598916 2.389621465376908 38 39 15
10.648127528508304 2.2085222235725626 2.2557929871194253 36 41 16
10.751994545119649 2.2883462241826824 2.3739715448152916 38 42 19
11.987719986167908 2.3938850843456883 2.6806782154447895 42 44 22
11.153313869403165 2.59131886680769 2.4708056280993365 40 45 21
11.615266113853405 2.0481171902810704 2.5649030863154128 37 42 18
11.845597202632893 1.9623153678217984 2.70545981418058 41 43 20
11.466589014692346 2.272514278732202 2.585153850540244 41 43 21
10.778387793845363 2.477489234550024 2.3714375022184475 42 44 22
11.405937324574335 1.8980366119844871 2.5937626600359174 36 41 16
11.405937324574335 1.8980366119844871 2.5937626600359174 36 41 16
12.43144963075226 2.05557872807724 2.8057046851385907 44 46 24
11.541401243012354 2.747583464867975 2.765976559119375 42 46 25
11.47241044746929 -2.9130437368096307 2.5843385820870513 51 57 34
10.869483261045108 2.7235199044837417 2.504430970523885 42 46 25
11.541401243012354 2.747583464867975 2.765976559119375 42 46 25
11.395917926278852 -3.078283172611507 2.595205401570119 51 55 34
11.508766698928408 -2.803482289970855 2.7732342534473573 49 57 34
10.672156410719372 2.873185639400474 2.5298517809356245 46 50 29
10.990777990283 -2.8685900028896816 2.6592318632900325 50 58 35
11.822529314340445 3.0148950044985168 2.709665300525491 47 54 30
11.216067780680271 2.650530396730879 2.6221737140251684 40 44 23
12.200756236843738 2.632137977307832 2.8649194580940787 47 51 29
12.108167030711137 2.9298725441751827 2.8932679044366347 49 57 29
12.894270779779461 2.8250962416754373 2.9851262035081607 50 57 27
12.097808269943732 -3.013536969155622 2.8966676437294634 51 57 34
12.981254286453048 2.4364007366038036 2.9472003095352277 47 51 29
11.970264006508984 -2.5176427873284464 2.943748536540103 52 58 35
12.169889934959878 -2.7002172160765134 2.8739966330052855 52 58 35
13.143960847356356 2.1996272164702666 2.8920261374256055 43 46 24
12.884544036751677 -2.9478616222701923 2.9899864293015197 53 57 35
12.373730102849446 2.40748369241282 2.8193324569867575 42 46 24
10.988261926744682 2.6583857244508926 2.3519410155753064 39 44 20
10.499543435606348 2.910555857915976 2.3992188987432432 45 49 28
10.463660001851204 -2.9452092853302037 2.402964448265637 50 56 33
10.379736246245468 -3.0874264225395285 2.4118876513157996 49 55 32
10.391807756540878 3.051329593735017 2.410589783570688 48 53 31
10.379736246245468 -3.0874264225395285 2.4118876513157996 49 55 32
12.235173852811405 -2.300106527829432 2.6414869939859353 50 56 33
11.120530758992697 -2.4035594450824043 2.340215550261255 49 55 32
11.95326225617955 -2.1577032620014647 2.686517602691422 50 56 33
11.418864173426854 -2.504347637939483 2.442017750110595 48 54 31
11.414714758465358 -2.5393956898720553 2.5925036273048887 51 57 34
11.877288013393281 -2.2270771355637837 2.397326216282365 50 56 33
10.673188289774703 -2.504347637939483 2.3816530594198313 47 55 30
11.788775362990474 -2.1996753502014603 2.54265398450717 49 55 32
11.284379613963042 -1.9121675745877822 2.611682561810702 50 56 33
10.982393574378765 -1.8618374176281558 2.490667868833627 49 54 31
10.811657912907426 -2.759507714918182 2.51169288087544 50 56 31
11.749253980991544 -2.4137423469595203 2.547599896930681 49 55 32
11.914286513081725 -2.4294927646889177 2.693249316270723 51 57 34
11.500042169904528 -2.1209311526798205 2.433671152259044 50 56 33
11.95326225617955 -2.1577032620014647 2.686517602691422 50 56 33
12.32296543538756 -2.4570733151503217 2.8319071562351774 51 57 34
12.125859824286412 -2.2480481072669485 2.8875772502808355 51 57 34
10.85765692831963 -1.8241603364199728 2.36393961836463 44 49 24
11.077351426067537 -1.9465769399169883 2.343997848282023 50 56 33
11.38098041735042 -2.05825520173364 2.3182820163863607 50 56 33
10.726285681349637 -2.05825520173364 2.249854503192671 48 56 33
10.403566882296332 -1.9465769399169883 2.275151847499005 46 52 29
10.908102163977853 -2.6872647520492183 2.359253988068638 50 56 31
10.066121634243771 1.4579830711608297 1.8461401618546862 27 29 8
10.048124503727896 1.665006499530114 1.8466462175348557 27 31 9
10.601711752479561 1.1689506183007428 1.7353564290874732 24 26 5
10.082449397099323 1.8643381127924394 1.6439345687508822 31 33 11
11.342721733332828 0.14551939671665826 1.7245173011279025 43 45 19
11.432501013661238 0.4298081087401597 1.812527460751279 36 38 14
10.261752921159621 -0.13539644436256054 1.4473810426083138 49 52 28
11.279929259231123 0.14551939671665826 1.4585704263282067 48 50 28
10.74729333533374 0.3449230637923485 1.6394027778515445 40 43 14
10.210318041045685 -0.13539644436256054 1.6430170179610388 49 51 28
11.624097213323832 0.061897142469758554 2.0869317242634384 42 44 17
11.61330668317692 -0.03710976378093969 2.087459042835401 44 46 22
10.867649590563353 -0.23112755509663288 1.2658191293377998 48 52 30
12.78925993537607 -0.13539644436256054 2.2204888504961264 44 46 22
12.413485996349005 0.25453904349699435 2.144440506741348 38 40 14
10.689881618439177 1.0376306269469222 1.9278977975820568 27 29 8
10.314314375927166 1.2267435482699485 2.0479368327029266 28 30 8
10.5677619405037 1.3330151052622425 2.1446284348583444 30 32 10
10.359323999093041 1.5603044479536161 2.1576897969606246 31 33 11
11.245803730959095 0.47067378558611705 2.005566570280063 36 38 14
11.893233932567144 0.8173851188973759 1.464380188288969 28 30 6
11.299935674367456 0.8827532490577269 1.7251040050727942 28 30 6
12.132285695808608 0.5541420425184931 2.0633191254174172 33 36 11
10.39877850334828 1.675852879369365 2.1551685501669713 30 32 10
12.205309884219076 0.6298099828847984 1.9693542814951204 30 35 10
11.479921167557256 0.6861641274525402 1.9961162095959253 29 34 9
11.8681413694883 0.6979726858786559 1.5486137279380932 28 33 6
9.522007537714808 -1.4549922053510016 1.4377382667664387 45 52 22
9.403969889157763 -1.561142944642189 1.6492218391279638 44 51 21
9.33677744927565 -1.2172687506733715 1.868280305061131 47 52 27
9.682997258530223 -1.441310196723215 2.0819488318058137 46 50 28
9.621820854298685 -1.5599903357487666 2.085518492625609 46 50 28
10.481509617813984 2.171472494533953 1.6411452981449377 33 36 15
9.97606394032454 1.9353015999899603 2.1834640156568983 35 37 13
10.023975471988349 1.7886642521452887 2.062969904463008 32 34 12
9.562640378609023 2.612434385577513 1.8610470173189324 39 43 21
10.101763340806048 2.5516848937065957 2.1747442585102834 40 44 20
10.314606754257706 2.612434385577513 2.0479221783702255 41 45 21
10.404955149068014 2.662742245149827 1.8369518038168913 40 44 22
10.090731180580853 2.458282821345486 2.0594261175254163 38 42 20
10.276190389625933 2.3771837272565635 1.942960563720666 38 41 17
10.287291808888488 -3.103805710492344 1.8400713315656378 46 51 30
10.603296862027085 -3.0995692538414827 2.1424637006312044 48 54 32
10.61511414218211 3.0715160031883073 2.14174768536363 46 52 29
10.42634285470843 2.8550319316706876 2.042389916685238 43 47 23
10.554557992604522 -2.1581491729811817 2.145437290259061 49 57 34
10.877911098572996 -2.007554926817644 2.126306188410334 50 56 32
10.801594316108307 -2.101033037372127 2.0247516977085427 51 59 36
9.968207579545737 -1.8717295016598656 1.7459195269328156 48 55 25
10.336990577749129 -2.9063961686666344 1.7396106403164815 48 54 32
10.526819504074924 -2.396436762634533 2.037528327747478 50 57 33
10.551155621383934 -2.9063961686666344 1.8331761719564748 48 54 32
10.671629370539753 -2.5447473765342474 2.0307028072730255 47 55 32
16.25132704092258 -1.3724269453389768 1.3053581827567782 44 49 22
15.167640227880385 3.0330056078540886 1.421021643209866 5 9 0
11.813323501082046 0.7514995121755841 2.1776278792264274 32 34 10
14.07321734614983 -0.04118763470909956 2.4386159629767157 47 49 25
14.135229130250815 -0.1500788745066673 2.433454539451213 49 51 27
11.018876416707462 1.4076645020653362 2.4863332104824103 37 38 12
11.002437855934401 1.7072190111488657 2.4882797393598466 36 38 12
12.1552423402741 1.7310875233816752 2.6536568717101017 37 39 15
10.633971911875243 1.1857365116798717 2.2568809817331132 32 34 10
10.387509772128489 1.3032200430573917 2.2764661509464257 32 34 10
14.020661899520299 -0.44851978534439535 2.338462147145297 51 55 33
14.451521374689614 -0.285490430558804 2.51861837419388 50 54 32
10.869957069465189 -1.4013676186686572 2.5043720803308513 50 56 33
10.688812501211759 -1.5585251810343705 2.3801161779130418 48 53 29
10.78635520832247 -1.6789742361566056 2.2453678213144967 47 52 26
12.884544036751677 -2.9478616222701923 2.9899864293015197 53 57 35
10.636855302814595 -2.9130437368096307 2.534598709287668 51 57 34
12.200756236843738 2.632137977307832 2.8649194580940787 47 51 29
12.169889934959878 -2.7002172160765134 2.8739966330052855 52 58 35
10.716186176284513 2.8211088747854887 2.2506153955349757 43 47 25
12.169889934959878 -2.7002172160765134 2.8739966330052855 52 58 35
11.845597202632893 1.9623153678217984 2.70545981418058 41 43 20
11.885735634527496 -2.8685900028896816 2.6982693910408986 50 56 33
12.894270779779461 2.8250962416754373 2.9851262035081607 50 57 27
12.623784716377406 2.247083177715292 2.7644847444443306 43 45 23
12.376427819844958 -3.04605930519298 2.81868028647995 52 58 35
10.59330587298117 1.9845868267598916 2.389621465376908 38 39 15
11.491341103983263 2.5055310181890778 2.581700441990975 41 44 22
12.200756236843738 2.632137977307832 2.8649194580940787 47 51 29
11.811920059040272 -3.0654334859740526 2.7116179585933553 52 57 35
11.724107068748918 2.5502262371981894 2.7282529817943213 41 45 23
10.700054030866646 2.7784757643417097 2.379014702678459 40 45 23
11.724107068748918 2.5502262371981894 2.7282529817943213 41 45 23
10.910413830925508 2.1038898716417234 2.3590408333563277 35 40 15
11.074348871082787 -2.6227309639852727 2.4798428676482165 50 56 33
10.223168886289164 -2.6872647520492183 2.2902440819535865 50 56 34
10.657529105209392 -2.849929645617213 2.2550725157403204 51 57 34
10.982393574378765 -1.8618374176281558 2.490667868833627 49 54 31
11.160038392604571 -2.6910859240764813 2.631022680120913 51 57 34
10.169326586893538 -1.8241603364199728 2.294892096595361 45 51 28
11.199641479354115 -1.9989753218566448 2.4656098377672446 50 56 33
11.749253980991544 -2.4137423469595203 2.547599896930681 49 55 32
11.418864173426854 -2.504347637939483 2.442017750110595 48 54 31
10.869245954732161 1.748609694701471 1.4543111586920525 25 28 9
10.700584392332736 1.5622792141414308 1.4524665812256994 25 27 7
10.700584392332736 1.5622792141414308 1.4524665812256994 25 27 7
10.257450595843808 1.2601153979652635 1.740932415432026 27 29 8
12.454516920947516 1.0503132631248906 1.3880602335841068 25 27 6
11.235148805653521 0.4298081087401597 1.7260010047970278 36 38 14
11.45196983480038 0.25453904349699435 1.9972220674595715 39 41 14
11.61330668317692 -0.03710976378093969 2.087459042835401 44 46 22
13.3618923903527 0.061897142469758554 2.2834661521068154 42 44 18
12.720688409119088 -0.03710976378093969 2.224590559009022 43 45 19
12.78925993537607 -0.13539644436256054 2.2204888504961264 44 46 22
10.236741384012792 -0.44851978534439535 1.7412799757591946 41 45 24
10.602986393098062 -0.44851978534439535 1.2579515674916224 42 46 25
9.826630679792927 -1.4549922053510016 1.8530323945926424 45 51 26
8.930558824101649 -1.2172687506733715 1.5413152192281876 42 48 23
9.010670295403765 -1.2945710608901027 2.1243140202798028 48 52 30
9.592816772443262 -0.8804775798392778 1.6476748527957839 47 53 28
9.534577096986178 -1.561142944642189 1.7539723465567651 45 51 24
9.826630679792927 -1.4549922053510016 1.8530323945926424 45 51 26
10.091216063566357 -0.5863717087664012 1.84543767251197 45 49 28
9.691614294616983 -0.7322833087080985 1.7509714520022683 47 51 29
9.575667588398861 -0.8081880763834224 1.9716825442587829 51 56 31
10.220463855258643 2.961145694781667 2.0526899312395006 45 49 27
10.075542365897793 2.0882554521812335 1.7440349437277636 33 35 14
10.33724682780268 -2.7383210218611653 2.159110844326873 50 56 32
10.675518438556619 -1.7717356234496873 2.030522366862718 47 54 24
10.675518438556619 -1.7717356234496873 2.030522366862718 47 54 24
16.20159352394148 -3.055403740648638 1.7405290315577866 27 31 12
16.840267637931046 -2.815804998995443 1.4957124635782357 8 15 3
15.687807780850566 -2.9836497786917864 1.2955798408776156 9 16 3
10.863326898113618 1.5589286526611663 2.36340967597139 33 35 11
10.96641956059672 1.0784290221023225 2.2323045574841625 32 34 10
12.784491319515265 2.5392377551989176 3.0551493658853377 47 52 29
12.784491319515265 2.5392377551989176 3.0551493658853377 47 52 29
19.483865704682113 0.30906345305357596 2.8637701500029156 46 51 26
13.916374193252496 -0.32316238976988587 2.5743344905664136 51 55 33
14.962895358904651 -0.4442122103052171 2.5891069525438297 52 58 34
10.727055203063607 -1.6935050001152399 2.3763836274567742 47 52 27
13.927777407597196 -0.6228832853213916 2.573050695062432 52 58 35
10.029765829140105 -1.6935050001152399 2.307265402419239 47 52 28
13.59008727454957 -0.552804334312993 2.481675708076632 51 55 33
11.102247375957578 2.178142733273669 2.476623389296436 37 41 19
11.508766698928408 -2.803482289970855 2.7732342534473573 49 57 34
12.981254286453048 2.4364007366038036 2.9472003095352277 47 51 29
11.406914100218556 3.036160216094596 2.5936223273041157 49 55 33
11.91733792823382 2.821883475852178 2.6927173002322693 48 52 31
11.037579151842534 2.3859845393208143 2.4841315750789996 41 44 22
12.047289061466795 2.132288775194088 2.670818779188943 41 43 21
11.216067780680271 2.650530396730879 2.6221737140251684 40 44 23
10.908102163977853 -2.6872647520492183 2.359253988068638 50 56 31
12.360652594865778 -2.085719553345642 2.822516242378623 51 57 34
12.235173852811405 -2.300106527829432 2.6414869939859353 50 56 33
10.997361034004202 -2.318348448663079 2.2301160134886153 50 56 34
12.32296543538756 -2.4570733151503217 2.8319071562351774 51 57 34
11.495922055909126 -2.066966363199267 2.5810650184370414 49 55 32
11.670516998962912 -2.5957501936718375 2.7388505183632232 51 57 34
10.007287614478948 1.5613944032063538 1.8478015199566162 28 30 8
12.021595481697137 0.9358961679872679 1.4655206946063315 25 27 5
10.510630872322047 -0.23112755509663288 1.7367956260371518 47 49 27
12.504499301803438 0.5809974841444938 1.306773959381968 33 37 13
12.81863492796558 0.15970757258822676 2.218749037921074 40 42 16
10.657480834338783 -0.6673286292983562 1.8304977077975986 46 50 28
10.747341202818296 2.230093044928533 2.0272163415153384 35 37 15
11.20735005337965 -1.9658969185315471 2.0071605946395064 47 53 26
11.324545673904414 0.5541420425184931 1.9070676573886987 32 37 10
9.406630138268035 -1.4239883748596252 2.226683996150257 48 52 30
10.32939240212854 -1.0246263198432424 1.2493719052732188 41 47 24
10.61511414218211 3.0715160031883073 2.14174768536363 46 52 29
12.222403444791599 0.28115377745699394 2.2562158879671843 39 41 15
19.483865704682113 0.30906345305357596 2.8637701500029156 46 51 26
10.815496629167312 -1.5566004241903209 2.5112061485782378 50 55 32
13.860815827130887 -0.39516878282024814 2.456897816671946 51 56 33
11.970264006508984 -2.5176427873284464 2.943748536540103 52 58 35
11.129808597510184 1.8514020808313696 2.4734715141990895 37 38 13
10.580684127201247 2.380821631100221 2.261011596404785 39 43 20
10.790778292294013 2.0481171902810704 2.5143521285598767 35 40 15
10.352601694265932 1.8161646519923393 2.279342642136104 33 36 12
12.386553575838334 2.982974327587539 2.816246162735657 48 57 29
11.749956507217096 -1.9823623502731642 2.723265534189073 50 56 33
11.762045566296154 -2.1581491729811817 2.2886545312886097 49 56 33
11.371926594046275 -2.310997566373741 2.446936711244189 49 55 32
11.077351426067537 -1.9465769399169883 2.343997848282023 50 56 33
12.670240276477825 -1.9823623502731642 2.755332962804143 51 57 34
10.726285681349637 -2.05825520173364 2.249854503192671 48 56 33
12.554072375706433 -2.282312944169697 2.7787630016747213 51 57 34
11.52857667828523 0.2324437839484866 1.7220199029509367 41 44 15
11.013057686835191 -2.396436762634533 2.1187069787837123 48 54 29
11.320373048174002 0.8968393549382188 2.10222304580238 30 32 10
9.591082252949954 -1.1164397632553802 1.3325757265157439 44 50 23
10.31919853908351 2.7551429188071683 1.9413341651909373 41 46 23
14.451521374689614 -0.285490430558804 2.51861837419388 50 54 32
13.036284214197064 1.9042847346517737 2.9268133220105668 45 47 25
19.426020665355185 0.12223830160276228 2.8744096447720837 50 55 30
12.168279080214141 0.2324437839484866 1.2128438387201381 47 49 26
9.094058631607497 -1.2172687506733715 1.762953622071252 49 51 27
10.907843858001591 0.9559784891027856 1.82440406426789 24 28 7
10.68546491440556 -2.9885118267975557 2.137524561043744 49 55 33
10.705509239248517 -2.636383806905011 2.1363335273009803 47 55 32
9.369533379926507 -0.9666290633566107 1.8672086702118982 48 54 29
9.293717153483772 -1.1739574953734029 2.1056008378864854 50 55 30
14.135229130250815 -0.1500788745066673 2.433454539451213 49 51 27
10.299471669386998 3.0785679099715777 1.839744982846556 46 50 29
12.95224811095402 -2.5176427873284464 2.958924551181106 52 58 35
11.04589037891597 -2.4804978839642793 2.2267155120401965 48 55 32
12.894270779779461 2.8250962416754373 2.9851262035081607 50 57 27
