19.984229355517645 0.6082466992176213 0.9259123691021558 46 47 40
19.15452816822102 0.5905287811710992 1.2514969197660166 56 57 47
19.382830778130355 0.5434469539293537 1.1446243234631879 69 69 66
11.949298324965238 0.6640050040796497 1.315927897230445 39 41 22
11.859392433281899 0.5449406575411477 1.6541488227720547 42 44 24
11.478213804797226 0.7866138428437279 1.5696956085028475 37 41 18
12.472745616844813 0.5449406575411477 1.8961947072271665 42 44 23
13.01079119151606 0.5921885535648362 2.1377251431374953 41 45 17
13.56529617039856 0.6471499906615266 2.2949828252592632 43 50 18
13.783243190082178 0.5127066761295205 2.281081679567781 43 48 18
14.18556133256125 0.5921885535648362 2.256938714001099 42 47 18
12.85768854743787 0.7211336946191568 2.145324424639805 35 40 10
13.755062803268682 0.35570928532653356 2.103640203459217 45 48 31
14.57445171699755 0.3284778036930501 2.0707964329984585 72 73 65
12.924493365131081 0.6471499906615266 2.2369953623112715 41 46 17
11.889940785903434 0.7211336946191568 2.0036477372408115 34 39 14
14.131530943225828 0.4254333129811809 2.3556806731971474 44 50 20
14.795710761182653 0.3876170260807417 2.3117849341699364 42 49 20
13.84700813002694 0.5638732680478912 2.3764235632548414 41 50 16
15.34903366645574 0.00962693108768126 2.118094930845402 72 72 69
14.504480148035803 0.01042206628448171 2.1539781816365853 53 56 47
14.895316731496159 0.0857150315983777 2.0590656639648817 71 71 72
14.658944686797376 0.17385077430065835 2.1470423198278357 66 69 61
15.389775566164113 0.0857150315983777 2.1164824506610165 71 73 72
15.22692978823694 0.17385077430065835 2.2021380234332817 61 64 55
13.881137129225166 0.29998996957927687 2.275032225582722 40 46 18
13.690639521857383 0.20735467868160315 2.2869135579170594 42 49 19
14.837015091098856 0.2527041111146306 2.1392629614190968 70 72 64
14.138950734947501 0.17385077430065835 2.0877022487808876 71 72 72
15.193747425972859 -0.15356030021962674 2.20373579875899 50 53 45
15.193747425972859 -0.15356030021962674 2.20373579875899 50 53 45
15.46247456030798 -0.14200711508467478 2.113630149430341 71 74 67
14.929111106902782 0.012484329082910165 2.397893451052555 47 53 28
15.703526113731604 -0.08624729172016314 2.4392873436073 49 55 32
14.366918318232196 0.20735467868160315 2.3394444717442093 44 51 22
15.456608814362845 0.2565048479068096 2.5685345234388253 47 57 24
15.679703118604017 0.012484329082910165 2.4410846754378617 49 55 28
14.954129896431215 -0.08624729172016314 2.3960765218150613 48 54 31
15.862374702535744 0.01385509565421626 2.5300319216187583 50 57 26
14.548563483920535 0.29998996957927687 2.3274398373074625 43 50 19
15.334591080022602 -0.10737878583158812 2.5809858719704173 51 60 34
14.97894771367711 0.10105328016917214 2.300649437826837 39 45 25
15.71958801529069 0.11097392710685818 2.438080768216463 45 52 22
15.09611066603725 0.12304358548871022 2.4882720179226743 47 54 24
15.203450750541922 0.2293716419192753 2.479103237675213 44 52 22
15.170217031819721 -0.20293617247815796 2.481916565927902 50 58 35
15.42392058163548 -0.22716226478964466 2.571827213803343 53 61 37
15.045718443345526 -0.18332676107731274 2.389506501187335 48 55 35
15.202673646221495 -0.27704279140954413 2.37853462327406 52 57 39
15.21050441890183 -0.2531992653731376 2.287111283327713 44 48 35
10.842590584085432 0.8522424876718875 1.4772658933926293 36 43 13
23.32005021090905 2.1949371984884047 0.9261903374767498 25 29 7
24.40545124575835 2.245257852534752 1.0084347609317001 31 31 7
23.092285533075263 2.1373209406420335 1.0736756865111818 26 26 1
23.130401908682057 2.1777987729989166 1.123113738840893 29 29 4
23.25461962220083 2.2161230884915146 1.1728096316952432 30 28 5
22.21612517225714 2.088534609340959 1.4347714940756195 38 37 15
23.153944995534903 2.1639489358645854 1.4837624567382501 38 35 14
15.887646645145894 2.166291180291543 1.507015882609579 29 28 12
17.210021638546475 1.6953324458393038 2.053427387519785 66 68 46
17.676608012761825 1.687682270290869 1.9771785968819655 51 56 31
17.597595317714937 1.626149931598596 1.9791116018915627 53 58 33
10.97165794412413 1.1855338699120508 1.660910630986339 43 48 19
11.317622641242838 1.2731367952769563 1.9308396502892056 26 31 2
11.10639498163894 1.1855338699120508 1.7507041305148134 36 41 14
11.50805925430785 0.8522424876718875 1.9246173239972348 35 40 13
11.379813869700644 0.9811020022560892 1.8364234646171107 35 40 13
13.568205293921373 0.9263656576786367 2.2947931973512428 39 46 16
13.492839862101414 0.786784672621962 2.2997426236533447 39 44 13
11.181406277441223 1.1479729607700537 2.0331333717162146 32 37 8
12.927546691181721 0.9263656576786367 2.236809712097994 37 44 15
10.6154637461491 1.4619622759298314 1.8560661836491958 27 30 1
11.482613969199608 1.3657015055157915 2.0201024438179918 27 32 3
12.352610911344042 1.4619622759298314 2.1720285172413956 31 36 9
11.797732181368131 1.6588104201364202 2.103078862451952 35 40 13
12.178233463415712 1.4501465704016914 2.2861338991188376 36 41 13
12.160739699171431 1.6683964164569118 2.287384461682725 39 44 17
12.80902851919472 1.5591331497936676 2.348497143159938 43 48 17
12.98063911616057 1.343955468258134 2.335560649766479 40 45 14
12.98063911616057 1.343955468258134 2.335560649766479 40 45 14
12.309437859572846 1.343955468258134 2.2769097670860043 34 39 10
13.21235071353649 0.7870113626616456 2.4278413802964645 47 52 21
13.704691490887283 0.8623082508161505 2.3872987463805537 45 50 19
13.245084218517723 1.2056617958291993 2.424992524655906 45 52 18
13.233108575249677 0.9802749576722812 2.550430655016972 47 54 20
14.001800836177322 0.7873266670492505 2.5985304701087033 49 56 22
14.053521817292546 0.6249064495634858 2.46838052438472 45 52 18
12.957710925742997 1.1015030650005462 2.582883969122717 47 54 18
12.957710925742997 1.1015030650005462 2.582883969122717 47 54 18
14.07444116154027 0.9802749576722812 2.5900394712312726 49 56 20
14.448315920965591 0.7114537168048078 2.434817446855451 45 52 18
13.720390591605161 0.5260512437835952 2.499435428359612 44 51 17
14.071636695931744 0.5942364536612811 2.5903634915980183 49 56 22
12.938036504893011 1.0480247722733227 2.452680928997983 47 52 21
12.448574550666033 1.283387989618408 2.501917826627679 48 53 20
13.046814393805109 1.3171616684911793 2.442617867385966 45 52 18
12.87608580151383 1.55769804523904 2.4585442788081466 44 51 19
16.120178000243477 1.8227322229638634 1.8207431780212413 54 56 32
15.472391254986947 1.9042760140374297 1.8314461023230109 30 32 11
14.859090115821182 2.054381343016151 1.637293923054242 30 29 13
15.654607245166643 1.9276445618103464 2.0334737695465446 23 22 2
14.996382495177386 2.017614871270415 2.4970098110080468 45 49 16
14.515642127275084 2.1128292036821716 2.429403056295905 44 49 18
16.130494428657972 2.602235586607974 2.6202235070340154 49 56 22
16.130494428657972 2.602235586607974 2.6202235070340154 49 56 22
16.859190901898256 2.5656300593349295 2.549291458592953 47 52 19
16.130494428657972 2.602235586607974 2.6202235070340154 49 56 22
16.75403132021622 2.4150658522630466 2.558685046932709 45 52 18
16.75403132021622 2.4150658522630466 2.558685046932709 45 52 18
16.900675417580672 2.425718801182328 2.6611510934673395 47 54 20
24.39103614471997 2.348445615649212 1.0558340620660172 33 32 14
24.31379861101409 2.313744640754779 1.0060572258604252 26 30 11
23.96586370800113 2.2819592856894992 1.093349131754763 32 31 9
24.127255637278168 2.316478622299303 1.1428615784806206 34 32 11
22.926838448510917 2.224768476801374 1.4828981085408324 35 31 6
22.491694637046706 2.9149584668881015 2.1863729529367846 56 50 31
22.95519687466274 2.8766519326788282 2.1202331845578426 48 42 25
22.698429231824033 2.828041956708585 2.076083122854041 58 48 29
23.19899612132896 2.828041956708585 2.113810759782542 54 45 27
14.281858840802544 0.41442940585278426 2.5668682016801054 46 54 22
13.453503651588209 0.41442940585278426 2.5264511048153575 45 52 19
14.281858840802544 0.41442940585278426 2.5668682016801054 46 54 22
14.507962495877395 0.33505787938464043 2.6796509937694846 48 57 25
14.687863468343352 0.47315979117453116 2.655626902000513 48 57 24
14.830266129179263 -0.12234764808922292 2.637750013856818 55 63 38
14.377896345886438 -0.14213327643317292 2.6981662653054195 57 66 39
15.262732136196233 0.020660267408981896 2.729885951207575 56 65 36
15.303703791703086 0.1823753587889492 2.723797216387282 53 61 30
15.729470425714098 0.15716589667685532 2.6664900959047255 54 61 31
14.805038025793511 0.017753670527487962 2.640849633681754 55 62 35
14.847272760615061 0.15716589667685532 2.635676218377398 51 59 27
14.621134343331 0.2676656788004084 2.8460833256554183 60 69 37
14.932865083933502 0.21706594218294303 2.783831956652331 54 63 32
14.080435210635974 -0.3516964665537336 2.744966594124942 58 67 40
12.05234172197057 -2.3673595477008913 3.0377080782940444 58 64 40
12.97110292348002 -1.7521202773558513 2.7496253514488846 55 59 42
12.376591060376294 -1.2032802477951432 2.890137924224083 56 62 41
12.359378059487145 -1.8722495037755353 2.895617770404824 53 59 37
12.359378059487145 -1.8722495037755353 2.895617770404824 53 59 37
12.60196540203401 -1.88264936851406 2.6298187456551223 55 56 44
12.165795637780638 -2.015763131585852 2.97011370735494 56 63 40
12.97110292348002 -1.7521202773558513 2.7496253514488846 55 59 42
12.940726454907352 -1.5489596324849364 2.7553437007636203 54 59 42
12.629404916084608 -1.7974962008324376 2.821362986986604 53 59 38
12.646250384713891 -1.2925828285773107 2.817370498855389 55 59 42
12.18328214229222 -1.0374097612899804 2.9620151333524483 57 66 41
11.740306663318028 -1.88264936851406 2.588093534335946 54 57 46
12.168068436566765 -1.9413632069916238 2.6974214583011116 54 58 43
12.279808360516679 -2.3614324848471067 2.922914585660069 54 60 38
12.097741695771855 -1.806802127231809 2.4081828038961675 47 52 39
12.088352460504874 -1.7810299026931313 2.292612390391449 59 62 55
11.737237207034322 -2.7683919322232855 2.0096678483626893 51 55 34
13.076850728727047 -2.971247743744632 2.1345123268295847 51 56 32
13.036076444737448 -2.8588979851164424 2.2302844625391938 51 55 34
12.57328291632281 -2.685366348218093 2.3671324803564358 53 57 39
12.315548416174279 -2.640273004407363 2.1740942766048983 51 55 37
12.376246399154349 -2.6470778150553813 1.5697754777320463 51 55 37
12.241746377280995 -2.58844595777603 2.2816348767346457 52 56 40
13.855742499331823 -3.015505936068804 2.6162558041793513 56 62 38
15.904103025007593 2.715837765999963 2.645568166084302 53 60 30
15.738110926891624 2.842420023864407 2.665423907169097 55 62 32
13.050460996536394 -2.792437064850116 2.44228549897584 52 56 36
13.488592693609924 -2.8337557147543255 2.6653068922139984 54 59 40
12.999355369857437 -2.3578714705163826 2.44697266364404 52 56 43
13.056135969075008 -2.5601041978386294 2.5709389700620644 52 56 39
12.636280171482479 -2.471984242488935 2.6250047052033647 53 57 40
13.28541131454564 -2.746615313922752 2.544590974476926 53 57 38
12.004222458395855 -2.2123432631869906 2.727027960409673 52 58 37
13.386946214879032 -2.450618723998034 2.533522806857815 52 56 40
12.63471840677576 -2.2448485343629057 2.6252223530158045 53 57 38
13.26283022210659 -2.610588580248585 2.699437621831207 54 58 41
12.742366856771985 -2.693047245723786 2.79562794162946 53 59 37
13.08262293973705 -2.7758999153690813 2.7294921674276993 55 60 41
13.385472035247055 -2.265404363686556 2.533681050337486 53 56 45
12.999355369857437 -2.3578714705163826 2.44697266364404 52 56 43
12.662086943268005 -2.3596160807334656 2.8136694337139705 53 59 37
13.65802405732031 -2.9085205496730984 2.505566060160186 53 57 36
14.136245823659603 3.127405944536682 2.4610760570939805 56 60 30
14.085221578998459 -3.053498973917316 2.358970506214024 53 58 30
14.162665303678661 -3.0436536891474297 2.458774947403568 54 60 34
13.678510229293634 -2.8290482641124926 2.389337937015788 52 56 35
13.503851286792251 -2.933935585563537 2.403263080554792 53 58 35
11.872440458214571 -2.030029193535331 2.3087363844861164 49 52 42
12.644352498091303 -2.4693851261202515 1.569797123439247 61 66 51
13.249273979142844 -2.3576278543315294 2.316282242320035 54 57 46
12.209892320144471 -2.534380199989894 1.7342905818422785 56 60 45
11.678819353483465 -1.9692340491599476 2.4489231505113556 51 54 44
12.236909426183686 -2.1268725399460138 2.281975254034289 54 56 46
11.840792040049175 -2.3574460406275826 1.914257607757176 64 65 55
12.60217894602426 -2.357305158898391 1.649225516769522 67 69 59
11.06409134188684 -2.0309249903376383 1.660155764860808 68 71 66
11.58307958027904 -1.9229671746205494 2.331694035886634 47 51 38
11.762334392311265 -2.1570551102345887 2.0086665233351684 62 65 55
11.762334392311265 -2.1570551102345887 2.0086665233351684 62 65 55
11.434107890925267 -1.855867790162792 2.0221490549774455 60 63 57
11.642036028452424 -1.8308722691211152 1.830300807919461 75 75 77
24.289074814159232 -2.9808629151671444 1.4878395001680198 50 55 34
24.051275855838597 -3.063329127300773 1.4870173773499988 46 49 28
22.000930294336623 -3.1017015665387193 1.661250611327179 65 66 46
21.585529660635014 3.0401793356452043 1.8039544581273201 13 11 3
21.66389929533067 2.985722064130152 1.9484007719872178 30 26 6
22.43342579306248 -2.9664663347948097 1.704358903796711 47 52 32
22.532482567823862 -3.0562129218666025 1.7939858499346748 49 52 31
23.368113276172938 3.0787378837200676 2.267065456075194 38 40 21
22.211970031501824 3.023323471550253 2.195308025171098 5 3 0
22.798822846434362 2.958611031385786 2.2881257151682135 54 52 36
23.286398168514374 3.075027922868098 2.3275349534074525 64 66 47
22.078532948169208 2.977615624759055 2.0916828292157024 37 35 16
22.260209413213598 3.135250044143752 2.036066755257338 46 48 30
11.205928802637914 0.7211336946191568 1.2986048361792557 40 42 21
12.23146968177596 0.6640050040796497 1.9028575726448502 41 43 20
11.56330077421471 0.6640050040796497 1.5697037079912972 37 41 20
12.342828822340627 0.7211336946191568 2.0772608263936574 40 42 18
14.12231961845434 0.3284778036930501 2.008614842009006 60 61 51
13.864196749933308 0.46940594235933564 2.184763425244066 37 41 19
14.289033703059777 0.35570928532653356 2.163958379204599 66 70 50
14.139954932151081 0.3876170260807417 2.2595827315769514 45 49 24
14.463425699542062 0.46940594235933564 2.2413063679454246 43 48 21
14.448700478224653 0.2180887999627428 1.5699219035917267 70 70 71
15.782374683830584 0.07966537773046142 2.0294398409063166 71 71 73
14.85321860906515 0.00962693108768126 2.06057174131366 72 72 74
14.444601089911428 0.1891480097773434 2.2423403623187923 52 56 35
14.03296571235988 0.2743752880056177 2.1763116615747284 62 66 45
14.970995822762031 0.11097392710685818 2.394857108891384 45 51 24
15.351039005791401 0.13804034514352936 2.579281491715277 48 57 25
15.252390989316348 0.29998996957927687 2.3751320324817935 42 49 18
15.351039005791401 0.13804034514352936 2.579281491715277 48 57 25
14.954129896431215 -0.08624729172016314 2.3960765218150613 48 54 31
15.862374702535744 0.01385509565421626 2.5300319216187583 50 57 26
15.310194024715 0.015563980496720229 2.583529302437339 54 60 31
15.310194024715 0.015563980496720229 2.583529302437339 54 60 31
14.9370852955375 0.01136036891640515 2.3031595982197315 40 44 26
14.626415302285338 0.2565048479068096 2.5314558262613076 44 54 23
14.962090751069933 -0.078515215044624 2.301657849122485 42 47 29
14.496432476585579 -0.27704279140954413 2.330840344878889 51 55 40
15.577065469005657 -0.3406875669775304 2.5566598509399885 56 60 41
15.045718443345526 -0.18332676107731274 2.389506501187335 48 55 35
15.0536308630291 -0.16714075656455174 2.2962197032936373 44 49 35
14.980583423133618 -0.44578682600800157 2.498414141022062 55 59 42
15.0536308630291 -0.16714075656455174 2.2962197032936373 44 49 35
23.887251452488215 2.245257852534752 1.043858479649455 32 32 8
22.632463025185515 2.1373209406420335 1.112521677710505 31 31 5
23.08852312950242 2.1639489358645854 1.5269234813041461 34 31 8
17.210021638546475 1.6953324458393038 2.053427387519785 66 68 46
17.22500013122642 1.626149931598596 1.9258038579893209 50 55 27
11.0051738198113 1.2731367952769563 1.8456966725116337 30 35 8
11.51368314734263 1.1037293509030857 1.7442741755267757 37 42 15
11.025003438475933 0.9811020022560892 1.6604734291395866 37 42 15
11.192050974915928 1.0606596739077592 1.9350667152701775 33 38 11
11.322423288181112 0.9263656576786367 2.026935959046736 35 40 13
13.148509602565946 1.0097598307735263 2.323380557388852 41 48 17
12.80421964342769 1.1479729607700537 2.2444009175440836 38 43 14
12.993992358589635 0.8623082508161505 2.3345750253362176 43 48 17
11.906318452930774 1.2427097387372326 2.197974113144989 31 36 7
11.815763406642137 1.4619622759298314 2.102180287111466 29 34 6
12.303418476091466 1.5602848449332551 2.1747737102333096 33 38 11
12.178233463415712 1.4501465704016914 2.2861338991188376 36 41 13
12.12833377509999 1.5591331497936676 2.2897142011581693 38 43 16
14.552415628285852 0.6796202654959583 2.673552776379365 49 57 23
13.703251493959938 0.7114537168048078 2.387410586607648 42 47 16
12.957710925742997 1.1015030650005462 2.582883969122717 47 54 18
13.667409014625479 0.6796202654959583 2.6405384870178654 50 57 23
13.668852787514718 0.895401258823167 2.6403456591553103 49 56 20
13.289306931934835 0.9490322755933399 2.4211806241686356 45 50 19
13.703251493959938 0.7114537168048078 2.387410586607648 42 47 16
13.046814393805109 1.3171616684911793 2.442617867385966 45 52 18
12.448574550666033 1.283387989618408 2.501917826627679 48 53 20
12.906614406525009 1.6803163706377897 2.455642602848418 44 51 19
16.911452428005656 1.7598073815989521 1.9967326224203057 61 63 41
16.523392260047142 1.7598073815989521 1.9415917709511934 53 56 32
15.595104025714512 1.9660486216157584 1.7635455453623927 32 31 15
15.989565857041187 2.054381343016151 1.95460478591654 35 34 18
15.99543178133047 1.9928120439177435 2.0228736123383784 32 31 13
15.306308347766926 1.9660486216157584 1.5699708972731996 20 22 1
15.759746907634941 1.9042760140374297 1.8927941098226333 23 23 6
16.582519723604698 2.6599287473920135 2.5745638757610623 49 56 22
16.62469464644405 2.5307880856807397 2.694047682706467 49 56 22
16.62469464644405 2.5307880856807397 2.694047682706467 49 56 22
16.367970418106616 2.336843415104058 2.5954938283838733 46 53 19
16.414786261047567 2.5021878792979333 2.5908189872510867 47 54 20
24.31379861101409 2.313744640754779 1.0060572258604252 26 30 11
23.38195301740599 2.224768476801374 1.3547388091850416 30 28 6
22.29532697959281 2.8428602391015443 1.9371922463277698 38 28 9
23.283114408823792 2.8625835025911908 2.2152371320315223 62 53 38
13.811538720192718 0.47315979117453116 2.6218036188837406 49 56 22
14.830266129179263 -0.12234764808922292 2.637750013856818 55 63 38
13.982525279928069 -0.16947971016236077 2.76203423987399 59 68 41
14.301064405682121 0.549343689506839 2.7096155973913545 49 58 24
14.116234825638102 0.394539682220371 2.7389544855949186 50 59 26
14.932865083933502 0.21706594218294303 2.783831956652331 54 63 32
12.167417591827999 -2.709240246363365 2.9693456721211975 57 64 40
12.97110292348002 -1.7521202773558513 2.7496253514488846 55 59 42
12.133403217130363 -1.5140508997615076 2.986285152963484 56 64 39
12.50571454995729 -0.9382792100822215 2.8526687850478076 56 62 42
12.739269147215431 -2.025450338235946 2.7963031586933713 52 59 37
12.243413587769204 -1.7602711490099907 2.1781593160753374 74 74 76
12.22479627081409 -2.5579005461518056 2.0826248108429946 54 58 45
12.302358584898613 -2.720899566887713 1.816077094463075 50 54 35
13.496902533591223 -2.9544116262887545 2.299473849496579 52 57 34
12.565819580089292 -2.730798045242297 2.259636498555347 51 55 35
12.47320340737648 -2.5669173908836207 2.8615711155820303 52 60 37
12.36321153049422 -2.1065656287197085 2.6653299498193053 53 58 39
12.977797158581694 -2.3582148536553293 2.580413071027937 53 57 41
13.65802405732031 -2.9085205496730984 2.505566060160186 53 57 36
13.077565040385938 -2.5261765997757113 2.439825002046204 51 55 39
11.94244156023058 -2.0285215804507333 2.561280936885068 54 57 43
13.51481809043369 -2.471984242488935 2.661559116697349 53 57 40
12.283666663558904 -2.3587350693907174 2.6780397583759514 53 57 38
13.26283022210659 -2.610588580248585 2.699437621831207 54 58 41
13.663446687099007 -2.687897181985817 2.641068247596407 54 58 41
11.946872122259766 -1.9842711404057627 2.1955159625263745 50 53 42
12.064589952836506 -2.2133367216679143 2.1884980793418825 57 58 48
11.92660150627055 -2.4835964248271387 1.9116856692568895 57 62 47
24.149772520890014 -3.021891652580263 1.487359872885102 57 61 40
22.251672096804075 2.9930703832282917 1.8902156519677962 27 25 6
16.170071047457796 -2.825332791298875 1.8199555696766225 47 53 32
23.35612761451478 3.016393548381996 2.3247196055573394 16 13 7
21.47637139311878 3.0295295188037237 2.054475803273632 20 18 9
23.259492302706857 3.1341237463258635 2.3286278119963395 38 42 23
23.508056896106922 3.13491435159551 2.208065779319786 54 55 39
22.403830780089493 3.082056593031982 2.1353736158606536 99 101 80
11.19916197765105 0.7211336946191568 1.8408145933895743 38 42 20
14.12231961845434 0.3284778036930501 2.008614842009006 60 61 51
13.50878516633239 0.47082148289415615 2.4028618257006915 43 51 17
15.079226552050617 0.20735467868160315 2.3871341618214643 43 50 19
14.87836501655236 -0.06657258880929742 2.059670948376029 74 74 75
13.872555976331071 0.3306873033944565 2.3745078052308113 45 52 21
15.679703118604017 0.012484329082910165 2.4410846754378617 49 55 28
15.389775566164113 0.0857150315983777 2.1164824506610165 71 73 72
15.325897275840099 -0.30568931262027765 2.468927786448361 53 58 37
23.892235990763083 2.206269326047337 0.994838176539172 30 31 6
24.31869572121139 2.276682072345463 0.9567145507036937 29 30 9
23.934285249282183 2.1949371984884047 0.8927869898387982 24 27 5
17.57521695727509 1.5641956608577663 1.9796625309422042 52 57 32
16.985670665187484 1.687682270290869 1.8688099313328417 49 54 27
17.202137066364088 1.5641956608577663 1.9262966122227225 51 56 31
12.793373856787811 1.1028895840239326 2.3497028188700195 43 50 16
10.765730847231552 1.3657015055157915 1.851975208982005 30 33 4
12.83971656526407 1.6683964164569118 2.3461462888592575 43 48 17
13.179904475876329 1.2427097387372326 2.321152267672264 40 45 14
12.27479938336171 1.775379556625914 2.279318756359404 40 45 17
14.053521817292546 0.6249064495634858 2.46838052438472 45 52 18
13.576746763992235 0.8759332028210692 2.513718716090518 48 55 21
14.396642552526023 0.6983491276893332 2.554672226290737 48 55 21
13.576746763992235 0.8759332028210692 2.513718716090518 48 55 21
12.656219754441572 1.1597126734729102 2.4801828603601312 48 53 20
13.21235071353649 0.7870113626616456 2.4278413802964645 47 52 21
16.130494428657972 2.602235586607974 2.6202235070340154 49 56 22
16.414786261047567 2.5021878792979333 2.5908189872510867 47 54 20
16.578471573086667 2.3329820943697075 2.6998915366930407 48 55 21
21.830641084520146 2.937079628900132 1.945373078707492 27 21 6
22.041534602745994 2.8893985648545852 1.941614302242814 33 25 8
22.24216659020212 2.9265777679318834 2.087466964544538 44 38 18
15.689610651335625 0.017753670527487962 2.671452841305883 55 63 35
14.621134343331 0.2676656788004084 2.8460833256554183 60 69 37
15.130969017016797 0.41442940585278426 2.6028024858157366 48 56 24
14.621134343331 0.2676656788004084 2.8460833256554183 60 69 37
12.327494317441777 -1.5337736950010301 2.9061404235215336 55 61 39
12.598204580957127 -1.5433251866912676 2.8289166289806094 55 59 42
11.740306663318028 -1.88264936851406 2.588093534335946 54 57 46
12.471621221321033 -2.153401286553386 2.862012597599735 53 58 37
12.168068436566765 -1.9413632069916238 2.6974214583011116 54 58 43
12.940726454907352 -1.5489596324849364 2.7553437007636203 54 59 42
12.2712038148602 -1.839602603637971 2.5216063003421674 53 56 46
14.149411484402602 -3.061549517691115 2.2590326170301758 52 57 29
12.540256069489592 -2.6058170616559164 1.979814239849421 52 56 39
13.08262293973705 -2.7758999153690813 2.7294921674276993 55 60 41
13.954542010574189 -2.876183212999537 2.6041675382733716 54 59 38
13.482223477698858 -2.435895561243567 2.405027558532299 53 57 44
13.385472035247055 -2.265404363686556 2.533681050337486 53 56 45
12.977797158581694 -2.3582148536553293 2.580413071027937 53 57 41
13.855742499331823 -3.015505936068804 2.6162558041793513 56 62 38
12.634091601514978 -2.9208230796885895 2.820246332554952 57 62 41
14.353433998924201 3.125608981211953 2.559213845677416 57 62 34
14.379454443008713 -3.0313409566612806 2.5564718591162965 55 60 35
15.904103025007593 2.715837765999963 2.645568166084302 53 60 30
11.678819353483465 -1.9692340491599476 2.4489231505113556 51 54 44
11.026172057494268 -1.9464062005650282 1.8451595943364765 64 67 62
24.289074814159232 -2.9808629151671444 1.4878395001680198 50 55 34
22.270841849981423 -3.1017015665387193 1.7508066597943481 44 46 27
21.510061209751214 3.0877439899390877 1.8047877335334306 29 28 14
22.276996333375223 -3.0976960282817783 2.035688484309981 35 39 19
21.400518001493808 3.082056593031982 2.056338611234212 4 3 1
19.15452816822102 0.5905287811710992 1.2514969197660166 56 57 47
14.970417097825262 -0.14200711508467478 2.056402898841086 72 75 72
15.079384678275943 -0.09566345963159885 2.4897224552611528 51 58 33
23.315180739404457 2.2277033535817856 0.8712122115514066 24 25 4
10.457680394995181 1.0606596739077592 1.5695881926829314 37 42 17
10.9766099006039 0.8522424876718875 1.7528549953611847 36 41 16
10.532152165142719 1.3657015055157915 1.7606295538058663 36 39 10
13.983595489815938 0.7870113626616456 2.4746757868081857 47 54 20
14.53354221900222 0.5260512437835952 2.5406569002223254 46 53 19
23.24222151347523 1.8311134854248152 1.7432062071146617 28 30 7
16.386273032762716 2.481596450496269 2.48581822205297 45 50 19
16.582519723604698 2.6599287473920135 2.5745638757610623 49 56 22
14.996382495177386 2.017614871270415 2.4970098110080468 45 49 16
23.70460810505081 2.347892538989059 0.9896893282925467 28 30 11
23.890715016875408 2.224768476801374 1.272879229198155 33 32 9
24.26795652643065 2.347892538989059 0.9552397516945856 29 32 12
14.353433998924201 3.125608981211953 2.559213845677416 57 62 34
11.29448540154776 -2.074759548800806 2.028149986021615 55 58 48
11.66944551115008 -2.1089236666744346 1.7419355793253974 69 72 67
14.395437412558012 0.1823753587889492 2.6956077121107045 51 59 28
12.577604309289924 -2.265404363686556 2.4882549956497586 52 56 44
13.166458878523567 -2.4251381856705105 2.2226297484340956 56 60 46
12.772648077908642 -1.0727533314782833 2.789109755671358 54 60 40
22.43848661877765 -3.011075501327402 1.7494471979967416 37 41 19
14.80449135066225 3.060711844807777 1.9143996154214853 47 49 23
12.502238039004032 0.5921885535648362 2.0702015788679233 42 44 19
13.153062814099012 0.5127066761295205 2.2234071787642793 38 42 16
14.323487193005153 0.2527041111146306 2.0803936104609706 71 71 71
15.087121398463754 0.1891480097773434 2.2942530913233763 43 48 28
23.315180739404457 2.2277033535817856 0.8712122115514066 24 25 4
23.410506845592682 2.164903085686186 0.9814161240942486 26 28 2
12.856286467513499 1.4501465704016914 2.3448838580621416 42 47 16
12.041699870124514 -2.297798246037589 1.7365951952230958 68 69 61
14.956398828294601 0.2907136959608442 2.622658831233112 48 57 25
11.59275539767106 -2.289911198032439 2.0155261548179224 60 61 51
12.31443274730605 -0.7270202890680549 2.910603220440853 59 67 42
12.165795637780638 -2.015763131585852 2.97011370735494 56 63 40
15.310194024715 0.015563980496720229 2.583529302437339 54 60 31
12.923098533137209 1.4354704017019462 2.454085772054698 45 52 20
21.43752458259811 3.135250044143752 1.952592660084186 80 82 61
11.94244156023058 -2.0285215804507333 2.561280936885068 54 57 43
12.927318191707474 -2.505753082633266 2.7579021890825373 53 59 38
15.103056588888457 -0.07205323556174063 2.208148235509183 49 52 43
12.320803732219499 -2.883659807110702 1.9875479373836082 50 54 33
14.547587492353323 0.09275614045257433 2.152024543470138 58 61 52
22.7231892026663 2.127125029646425 1.4378250917858253 55 52 30
11.66184281263105 1.1479729607700537 2.109956005796744 31 36 7
13.536978847355384 -2.629622411697795 2.5177772875244138 52 56 39
12.629404916084608 -1.7974962008324376 2.821362986986604 53 59 38
