15.396231363182594 0.27245077168345877 1.5326089324237773 49 51 27
10.943156137455803 -0.07933456467895701 1.7002060035857094 43 45 21
10.91020850683045 0.012940479121874286 1.7005990129359705 40 42 17
11.238197573028623 -0.17027900049315323 1.787122666915471 49 51 26
11.084090017587563 0.012940479121874286 1.790179202007981 45 47 21
10.104321661809108 0.9502833039010888 1.71101745065723 35 36 21
9.520595290578976 0.8871081383593631 1.8269551681390281 36 38 14
9.120644337363695 0.8123597502645683 1.9542422918866995 40 42 16
10.040290319942136 0.6657837026267653 1.7119176670536185 35 37 16
9.972581058934255 0.8084978591509985 1.7128822942793795 34 36 19
9.486663871915358 0.7331572767725612 1.8278920794202544 38 40 19
9.983866632262574 0.11560038532788022 1.7127205952387738 42 42 18
9.925510483180393 0.12857390003840224 2.03144737430566 45 47 22
10.303518158397804 0.5277730169422391 1.7082891890170702 36 38 16
10.4037281663048 0.3095537420829275 1.7069565542011578 37 39 15
9.661876016096128 0.5816270952777298 1.8231272602800184 38 40 18
9.96249583808259 0.34210607623926903 1.9203778030764762 40 42 18
9.69388157086902 0.2380941755435254 1.930498324417751 43 45 19
10.662698594477574 0.3990673138807518 1.6094641802160727 36 38 14
10.035282999603105 0.4389667032792534 1.8135453837639004 37 39 16
10.14680128634561 0.21461969941381076 1.7104265610319882 41 42 18
9.48136417358301 0.4870295718053853 1.9389409791426644 39 42 17
10.747908781346386 0.3990673138807518 1.7025704476476924 37 39 16
9.510030758824772 0.38193731830968414 2.053247912665579 42 44 18
9.194629403102331 0.6460170667057279 1.950998317444084 42 44 20
8.682255324443059 1.3511169478716143 1.8523319527551423 35 37 16
8.491847692218872 1.5932102768822727 1.8588230463733182 35 37 18
9.761489535684863 1.03640321916768 1.8204970970400765 34 36 15
9.308686148420552 1.1322685217717428 1.832922222518046 34 36 15
8.400060482282141 1.194944157184369 1.9891005487422933 37 39 17
8.432991027535248 1.4567940429128063 2.121406263343492 37 39 15
8.395254464577091 1.5963482068794124 2.124168282524174 37 39 15
8.945199699520868 1.2375706059269178 1.8438407164268806 35 37 18
9.26450734777489 0.9772366489223421 1.947985772045533 37 39 15
9.250246417590894 1.5907586739535844 1.7240619701255184 33 35 9
8.713034710543509 -0.6193116940220778 1.851310422463244 52 54 33
10.429114526851533 -0.08737629875137079 1.9041144357387774 50 52 28
8.258978196263993 -0.5858170832096746 2.1343939379667067 56 58 39
9.362499627870333 -0.4586462019080041 1.9438427918255798 54 56 35
9.167375194945317 -0.23358507554675498 2.072926450782319 53 55 33
9.421294207863365 -0.3507211762374578 2.0581871969554744 53 55 32
10.394537663021122 0.014258409338401189 1.9052664025999224 48 50 26
9.421294207863365 -0.3507211762374578 2.0581871969554744 53 55 32
8.602438625638005 -0.7890366073853182 1.8550164696607614 52 54 32
8.602438625638005 -0.7890366073853182 1.8550164696607614 52 54 32
8.142216976174039 -0.7897885351708773 2.14348279464898 56 58 37
10.351448901521904 -1.292461520518525 1.70764853616225 52 57 31
9.472894513269894 -0.9585541541621341 2.0553021824268263 52 54 32
8.77585972274613 -0.8827235500673025 2.0975915693503406 54 56 34
9.195141467606396 -1.3435539696829573 2.071269190301677 57 59 36
9.184321379046002 -1.5913893246388406 1.8365570383001617 59 61 40
9.005592168983139 -1.062984710471856 2.0828173919860626 52 54 32
8.607623633055614 -1.4671588970110117 1.978406181138373 60 62 40
10.844903704587525 -1.2013971650808333 1.7950995983082163 50 52 26
11.110190737212614 -1.2013971650808333 1.8829653214412867 53 55 30
8.871468620395609 -1.5913893246388406 1.6172767241776858 56 60 39
8.570656011230943 -1.594008408237533 1.980269372750287 61 63 43
17.055684989053397 -1.004194744451023 1.2984526856605614 48 53 25
16.17219670640888 -1.4566963920340872 1.4100901638285939 51 53 31
10.887758515076555 0.16568215598850217 2.4537686195905266 50 52 28
8.95963113147322 0.6184967385099956 2.2193886157120706 42 47 20
9.638984913233992 0.5457389773687483 2.166982582988666 42 46 19
9.209745297984844 0.4949377211058225 2.340943451659568 44 48 22
9.931959036827664 0.4949377211058225 2.4132790910546 44 49 22
10.013245572203951 0.38193731830968414 2.1418325593811813 45 47 20
9.746030139266095 0.26719724970663356 2.1595484032288503 45 48 21
9.931959036827664 0.4949377211058225 2.4132790910546 44 49 22
9.600753365515825 0.30415608651599446 2.3021599932388437 47 51 23
10.174945794311286 0.14480456918686407 2.252600781909477 46 51 24
9.795080396229821 1.2830009269183742 2.4290880450493915 40 44 22
8.961288935218546 1.5963482068794124 2.2192483987756315 39 41 19
10.028890273310111 1.1405822852908252 2.402507109467772 40 45 21
9.497363670731657 0.9055080967487775 2.1771360646505977 41 43 18
9.738832576978824 1.0798010221396899 2.16004199041818 39 41 18
9.141924287120693 1.3215352887206473 2.204359161306074 40 42 20
9.859915725771634 1.6062834112529205 2.592832055053192 43 45 21
10.024371222690009 1.230914700785456 2.5665606933213514 44 46 22
10.571570304418943 0.931977564197707 2.4910215882966145 44 46 22
9.525982108728913 0.81777160959715 2.3092261336473605 44 46 22
9.39864431416184 -0.1254839847075489 2.32162851926049 54 56 32
10.147391541160472 -0.10956977498789743 2.25480671551336 52 54 31
8.833749073968129 -0.5858170832096746 2.2302348035950565 56 58 39
10.34698877903198 0.015875205862819267 2.1212455449290526 49 51 25
9.847025430379936 -0.45692103500154047 2.4230031252805473 62 64 43
10.862012642925075 -0.1254839847075489 2.456658348981934 54 55 32
9.929007322315183 -0.3507211762374578 2.147292586940556 53 55 31
9.542249814920368 -0.26634551755513447 2.3076754864212727 55 57 33
9.509213250733485 0.017905517922146286 2.1762721614160716 51 53 29
10.241041616252545 -0.26634551755513447 2.3800525255918448 58 60 38
10.34698877903198 0.015875205862819267 2.1212455449290526 49 51 25
10.071688051829959 0.020531224631992993 2.3978566248006654 51 53 29
8.905585935386048 -0.9049616874696438 2.3746276181923887 56 58 37
9.300474319222976 -1.0454103625665017 2.4930587517136926 57 59 38
9.749520199836402 -1.4041427872598709 2.6116425603176334 56 58 40
8.900813693804242 -0.6754989225567432 2.3751840764122325 58 60 41
9.646185062877544 -0.6754989225567432 2.4471453103546796 60 62 43
12.443297194012537 -1.7798792726248471 3.070880857455653 60 62 40
11.766532045402913 -1.6345139421053638 2.895560813909943 62 64 46
14.909882386028078 0.03665442576964837 2.882491636336618 58 62 41
9.13205548019056 -1.1226224667095288 2.349228597504407 56 58 37
9.48413195067268 -1.432182619278052 2.4679222057126258 57 59 38
9.859961417203781 -1.1226224667095288 2.421504285485609 57 59 38
9.803797931388607 -1.1810856765919746 2.283726026325048 57 59 38
9.450593564019243 -1.6019261425437072 2.4723804339768596 57 59 38
8.924965651392858 -1.3118026452146316 2.2223360057072075 58 60 39
8.73984734349322 -1.5973905957048977 2.238590844806708 62 64 45
9.391982402189342 -1.5973905957048977 2.322290626400732 60 62 43
9.425729339871939 -1.4521838467071013 2.318950430815489 59 61 40
8.57183977232161 1.7150551731549095 1.856059440159659 35 37 16
9.066772126362157 1.943492718968267 1.8400877647867437 33 34 18
9.323734157550007 1.6994559693354645 1.7228445276974311 34 34 11
9.377640265175879 2.100695948732756 2.060656215644831 32 33 17
9.86433458463162 2.198653824388665 2.0345274008544654 33 35 14
8.976367700163376 1.990090310251987 2.0846480942906926 35 37 18
11.140915265242588 2.4978466362667513 1.9779919020115961 14 12 4
10.424493112476553 2.2844459290044563 2.007829422180594 31 31 15
10.251099245102075 3.0180760826231023 2.015746015438169 44 43 30
9.532904342037478 -3.0482075479549837 1.8266169968452175 42 40 31
9.5784355933795 -2.457246305225817 1.8253739097442931 60 60 56
9.547200183051636 -1.915640007529408 1.4037095153703443 48 49 34
8.948067687337614 -1.7034748861260673 1.616878550127573 57 59 39
9.433097917096589 -2.1537149593537066 1.5084435205831632 56 57 49
8.853330930333943 -2.3829659169185007 1.8467477921530961 59 60 52
9.404723334295607 -2.457246305225817 1.401153858110773 58 59 53
9.378031673529398 -2.9417362317888207 1.6147643770705242 41 40 31
9.315349717956721 -2.805338119325088 1.9458245026672407 50 51 43
8.782194296239343 -2.805338119325088 1.7323002526002238 49 51 42
8.506565835659154 -1.8416421041149449 1.858310484584994 54 55 40
8.241692155535073 -1.7414918825687684 2.135719986836717 59 61 44
8.443367186207167 -1.8788160167628114 2.1206519536300004 59 60 46
8.729030146280534 -2.1183105346441713 1.9724083852976877 59 60 51
10.058272097177793 -2.379154450165546 1.4122732001126939 57 58 51
9.221421749898088 1.8674466330032955 2.198040950013327 37 39 18
9.221421749898088 1.8674466330032955 2.198040950013327 37 39 18
10.27978195754745 2.2718278464516377 2.2443508677793194 38 40 18
9.43101253236867 2.0489922177056368 2.3184306100298677 40 42 20
9.697343942139028 1.7610535303633508 2.4408347630518996 41 43 21
9.697343942139028 1.7610535303633508 2.4408347630518996 41 43 21
10.804962081943174 2.9250706698414906 2.628233770624692 48 48 23
10.000864256813339 2.7976238410021708 2.7967798763123786 52 54 30
10.350232674462935 1.84901227448393 2.7125656923593873 44 46 20
10.163526420341785 2.549611363986097 2.754674368945442 47 49 24
9.90115317875017 2.2261687804832575 2.586057455648545 41 43 19
10.266342782295268 2.361299686474116 2.53115299034789 41 43 20
11.194068626723153 2.5968564945492756 2.569593285946072 41 43 19
9.52642907155119 2.362914580568245 2.653093529313853 43 45 19
10.95569208247515 2.749991261776951 2.6043345031614757 43 45 19
9.942503491671317 2.253843319340496 2.4120907793305024 41 43 21
9.896075456587521 2.3660237859332316 2.8275883860902047 48 50 26
10.42004091694291 2.362914580568245 2.698147084700145 45 47 21
10.95569208247515 2.749991261776951 2.6043345031614757 43 45 19
10.163526420341785 2.549611363986097 2.754674368945442 47 49 24
9.928892081890625 1.7969167910351151 2.581573003998008 43 45 21
10.359190010944557 2.125185439192633 2.518456079354972 43 45 23
10.695407960589025 2.075605051104814 2.9109543993567284 49 51 27
10.695407960589025 2.075605051104814 2.9109543993567284 49 51 27
10.8515764429848 2.3660237859332316 2.856055337487451 50 52 28
10.6993797896964 2.660234935553646 2.909378790095895 53 55 31
10.889418485312817 2.4342857237257065 2.0909513773338118 26 25 11
11.230659545752838 2.5515393428745874 2.4174065611319886 39 41 18
11.7912353757426 2.673189961342278 2.2505732339200875 28 29 19
11.530318956795215 2.52045418789684 2.269002159422416 37 39 22
11.498377723546135 2.7294560781974915 2.3914607291459413 39 41 19
10.540792427711226 2.852021257072568 2.3506733693803032 40 42 21
11.478381779344371 2.7751766289274262 2.272805553330346 40 42 25
10.859504888203517 2.7751766289274262 2.202436158179628 17 18 8
10.719581968920295 3.0180760826231023 2.100049899748208 46 44 33
10.384041678956967 2.984187252694761 2.365715401048035 44 43 22
9.881438170781726 3.1145867270297907 2.5892799458213407 51 53 29
10.267351235767615 -2.388294191202065 2.3773685628441283 60 61 52
10.335486389626777 -2.9387975809168942 2.71569539319065 57 59 37
10.999196728344467 -2.3962690268781714 2.5977314682667183 58 59 45
10.779018450892082 -2.977145908380634 2.6325192498991674 58 60 39
11.416973702489429 -2.5014157910945762 2.539945048691479 57 59 45
11.623089935287613 -2.1370808684407634 2.9508095024429695 62 64 45
11.623089935287613 -2.1370808684407634 2.9508095024429695 62 64 45
11.992753618448408 -2.6126835992427964 2.829168868969905 61 63 42
11.551699903900758 -2.260283843960071 2.6936881608166914 62 63 49
11.82439157969683 -1.9628463276332282 2.8767765395278135 62 64 46
11.923161797778382 -2.150559588017694 2.632680702582151 62 63 48
11.317102580398801 -2.085392156842243 2.738982014123893 62 63 48
11.965834533559155 -2.2226305327645317 2.8362105369625326 62 63 48
10.673179519553015 -2.766225263060351 2.919997903506749 59 61 39
11.167446035721758 -1.8680606189767177 2.7717129222297063 62 63 47
11.505485781033459 -2.5127837055464393 3.0141655080809397 60 62 40
10.88860433319608 3.0976327475666534 2.844690990896546 55 57 33
11.623089935287613 -2.1370808684407634 2.9508095024429695 62 64 45
11.76695285527633 -2.4357965117252838 2.895418443828706 62 64 43
11.37394818661709 -2.7231430711514553 2.727403566962555 61 63 44
10.639395869615194 3.0775369961610264 2.934563399360315 56 58 34
11.57958176870267 -2.541817470168592 2.688702597937472 60 61 46
10.333129154826638 -2.1906795755154684 2.370750182297301 61 62 52
9.687351083016031 -2.1183105346441713 2.1635986427303435 60 61 51
9.97038606453214 -2.0683146666663457 2.408968180880817 61 62 50
9.546447378066505 -2.475388891712285 2.1735748570071083 59 59 55
10.04410205442632 -2.7626455983288407 2.2632200496562445 54 55 44
10.487534092863712 -2.8881946453911187 2.3557084107173187 55 56 41
10.396580984899764 3.124485608826996 2.235416939931983 41 41 25
9.848071430809775 -3.036873503123677 2.152645335056232 48 47 33
9.70767957914972 -2.583463573048792 2.2923190450584623 57 58 50
9.81144710631977 3.124485608826996 2.155102823639375 44 44 29
10.475103663626188 -3.003375499951224 2.5032193079870315 55 57 37
11.141680076710298 0.10499628786349312 1.7890268357003785 42 44 18
11.116522302600098 -0.07933456467895701 1.7895287330905842 47 49 25
10.162518134423328 0.8084978591509985 1.8104462009735975 35 37 18
10.104321661809108 0.9502833039010888 1.71101745065723 35 36 21
9.788830025808643 0.7331572767725612 1.926853129725661 39 41 19
8.929197700262563 0.7236444637835934 2.087632290980397 42 44 19
9.48136417358301 0.4870295718053853 1.9389409791426644 39 42 17
10.333536577573705 0.21461969941381076 1.8064043030687276 41 43 17
10.214601538237531 0.5277730169422391 1.611161375121537 34 36 15
10.035282999603105 0.4389667032792534 1.8135453837639004 37 39 16
10.455926388500616 0.11560038532788022 1.903226726740927 44 46 20
10.585932250578246 0.3095537420829275 1.800684397299093 39 41 16
9.510030758824772 0.38193731830968414 2.053247912665579 42 44 18
8.587804015927379 1.3215352887206473 2.110375761288661 37 39 15
8.432991027535248 1.4567940429128063 2.121406263343492 37 39 15
9.100946981184316 1.1322685217717428 1.7265966390123788 34 36 17
8.529156896981753 1.4706994315899702 1.8575273385578344 35 37 16
8.945199699520868 1.2375706059269178 1.8438407164268806 35 37 18
9.220653887168483 1.0798010221396899 2.0697565640846416 38 40 16
8.96523925161313 0.9055080967487775 2.085348849159872 41 43 17
8.786128627073843 1.0798010221396899 1.9696500305377183 36 38 17
10.033733508041118 -0.20789672999059577 2.0261018207406276 52 54 30
8.609630909953768 -0.39721020217900366 2.1088582420819613 53 55 33
9.897261819521905 -0.09722650952591254 2.0328642928541756 51 53 29
8.991427083163854 -0.5151877489844006 2.083703010632253 54 56 35
9.307899357715312 -0.7100130217765921 1.8329449017424169 51 53 31
10.351448901521904 -1.292461520518525 1.70764853616225 52 57 31
9.788805182465914 -1.118662871788421 2.038389893958622 52 54 31
10.667124003512262 -1.2013971650808333 1.7035742894492318 49 54 27
10.981719937984538 -1.1163167874171063 1.6083403346976946 47 52 25
11.235967982655728 -1.1163167874171063 1.7871662758629396 50 51 24
8.197290398514939 -1.4521838467071013 2.139156964079306 59 61 40
9.472894513269894 -0.9585541541621341 2.0553021824268263 52 54 32
8.318131522033601 -0.8827235500673025 1.9934833047299725 51 53 29
16.17219670640888 -1.4566963920340872 1.4100901638285939 51 53 31
9.662495893683152 0.35249005589744414 2.445120903847414 47 52 27
9.596842807274319 0.6184967385099956 2.3025257196024853 42 47 20
10.408657944576362 0.12857390003840224 2.117613399448422 46 49 22
8.996651572999742 1.4567940429128063 2.2162732442348894 39 41 19
9.663812829526131 1.0145398268371522 2.296319597808191 42 44 20
10.028890273310111 1.1405822852908252 2.402507109467772 40 45 21
9.859915725771634 1.6062834112529205 2.592832055053192 43 45 21
9.892066430468772 1.4130666553477136 2.587539037086066 44 46 22
8.883689170629204 0.81777160959715 2.2258842698303565 43 45 21
10.252953650328475 1.0693695414241526 2.533022169434347 44 46 22
10.107369430252138 -0.1254839847075489 2.3940272240911296 54 55 32
9.479426383347334 -0.5858170832096746 2.313705560312845 60 62 43
10.111851388514074 0.017905517922146286 2.257675667955396 50 52 26
9.688403884044442 -0.23358507554675498 2.163525444673435 53 55 32
9.187700807154826 -0.7909322082876303 2.509431747345831 61 63 44
9.187700807154826 -0.7909322082876303 2.509431747345831 61 63 44
10.107090161689937 -0.5357507297869054 2.5540528215387446 66 68 47
9.883733316541196 -1.2129248652950197 2.588903267884768 58 60 41
8.724683326205339 -0.7897885351708773 2.239962343353105 55 57 36
11.564223267875478 -1.6685904225720964 2.979266914811218 62 64 43
9.450593564019243 -1.6019261425437072 2.4723804339768596 57 59 38
9.564487112961736 -1.3118026452146316 2.3055678475305323 59 61 40
8.843363363749004 -0.9934003323527273 2.229392293981186 56 58 37
9.535464968711237 -1.062984710471856 2.174367730429549 54 56 34
9.382470817798822 1.943492718968267 1.9430098669403604 33 35 16
9.049437396470804 -1.7034748861260673 1.727490766344956 60 62 41
9.143766911739295 -1.8123172712599653 1.5064678422374653 52 54 36
9.014831122653266 -2.05980976148035 1.728097288406198 56 57 47
8.75530749292288 -2.0051638257435616 2.098957408750863 60 61 51
8.712756362842269 -2.2177843635670276 1.733598834944153 58 59 52
8.649919324326712 -1.7201190874541505 1.9762957963343806 57 59 42
9.319378395889231 -2.5467119199251513 1.9456543333036596 55 55 51
8.443367186207167 -1.8788160167628114 2.1206519536300004 59 60 46
9.648510986827697 -2.6056313596295007 1.4054801995198725 57 57 55
9.271202670366698 -2.6484590743838243 2.066787748053982 54 55 48
10.712737930991207 2.4675571387323267 2.4738996490244958 39 41 15
9.90115317875017 2.2261687804832575 2.586057455648545 41 43 19
11.434569857661364 2.7180256990504392 2.0638512575463244 6 7 1
11.59693119943694 2.5807167463169236 2.15666358545258 19 20 10
10.257410740228789 2.3596425039715365 2.1266140659928467 38 37 19
10.159345099771581 2.178198573182323 2.7556857278924207 45 47 22
10.901730615770619 2.6716565888730366 2.45221032435865 41 43 18
11.498377723546135 2.7294560781974915 2.3914607291459413 39 41 19
10.519611644518873 2.66866364180071 2.6786202215397834 48 50 26
11.246033294393447 2.8857888366347906 2.290410689841809 44 45 29
10.6993797896964 2.660234935553646 2.909378790095895 53 55 31
10.362540505962723 2.875492969890451 2.7099765812565106 50 52 28
10.5017981122888 2.959250103100565 2.4998015259649216 46 46 21
10.639395869615194 3.0775369961610264 2.934563399360315 56 58 34
10.300595241244034 3.10813416327811 2.723224456775441 53 55 31
10.322225446895477 3.1221044008857275 2.371838332864816 43 45 25
10.322225446895477 3.1221044008857275 2.371838332864816 43 45 25
11.25374074544234 -2.9387975809168942 2.7524148199766914 60 62 40
9.666641242297597 -3.0224230441868705 2.2960601286085267 53 54 36
11.045439669716123 -2.6126835992427964 2.801337865270906 62 64 45
10.904460342029449 -2.7970084329492204 2.612274301485674 58 59 42
11.82439157969683 -1.9628463276332282 2.8767765395278135 62 64 46
11.257075734113176 -2.4095112701934824 2.7516930426819544 61 62 48
12.105215934308085 -1.8680606189767177 2.8015807953902216 61 62 46
11.866201183373404 -2.3962690268781714 2.641351835451357 60 61 46
10.395356880209032 -2.583463573048792 2.3646066146324616 54 57 46
9.437138561251619 -2.7626455983288407 2.181568510381654 52 54 45
11.696017587259789 -1.9928759106615372 2.6686565339759194 63 64 49
13.228362489202864 -0.2195364422713137 1.4504763232456352 34 36 14
9.885376494983495 0.4870295718053853 2.03346316693518 42 45 19
10.747908781346386 0.3990673138807518 1.7025704476476924 37 39 16
8.713034710543509 -0.6193116940220778 1.851310422463244 52 54 33
16.80994077000234 -0.7029119295525512 1.535821847619674 46 48 23
9.871901974758579 0.4316147166313174 2.2777763664866946 46 49 23
9.761595851986149 0.7099039046587882 2.4330678909536756 42 47 20
10.135032492654046 0.16568215598850217 2.3910876782239048 49 52 26
9.659635594737377 1.438428102098022 2.4454750590453678 41 44 22
9.794574868048315 0.931977564197707 2.429147791872208 44 46 22
9.141924287120693 1.3215352887206473 2.204359161306074 40 42 20
10.8288181289023 0.020531224631992993 2.460419686204867 52 54 30
9.318804415201905 -0.8827235500673025 2.190486237743519 55 57 35
9.300474319222976 -1.0454103625665017 2.4930587517136926 57 59 38
8.924965651392858 -1.3118026452146316 2.2223360057072075 58 60 39
9.162431241821142 -0.39721020217900366 2.2027160341817518 53 55 34
11.564223267875478 -1.6685904225720964 2.979266914811218 62 64 43
8.816270309542189 -1.9555156001368768 1.847938369757004 52 53 40
8.476158173342045 1.7349202509782524 2.118282572609288 36 38 16
9.323734157550007 1.6994559693354645 1.7228445276974311 34 34 11
9.796971494481582 3.1263483117988877 1.9265440852000029 42 40 29
10.901730615770619 2.6716565888730366 2.45221032435865 41 43 18
11.478381779344371 2.7751766289274262 2.272805553330346 40 42 25
9.985215445475013 -2.918074941979317 2.1436370161085962 47 47 35
10.604141330156622 -2.8493548595425775 2.4869965947613606 55 56 40
11.118780146091302 -2.6373218135134673 2.58019864241356 56 57 42
11.12062371594562 2.618705799149496 2.300337215028905 40 42 25
10.607680550802161 -2.5014157910945762 2.486561988432915 57 58 47
10.27978195754745 2.2718278464516377 2.2443508677793194 38 40 18
9.813712714370974 2.168783926747978 2.2828528154036576 39 41 19
10.475103663626188 -3.003375499951224 2.5032193079870315 55 57 37
9.52253530142018 -1.7699106188619897 2.4628858802100053 61 63 44
11.505485781033459 -2.5127837055464393 3.0141655080809397 60 62 40
9.464369672489862 -1.7414918825687684 2.31516767134175 60 61 45
10.8515764429848 2.3660237859332316 2.856055337487451 50 52 28
9.464369672489862 -1.7414918825687684 2.31516767134175 60 61 45
9.037126713451677 1.7349202509782524 2.2129045918962325 39 41 19
10.45795771598634 3.0031626710684023 2.2308266858771604 44 43 26
9.194629403102331 0.6460170667057279 1.950998317444084 42 44 20
10.75258424746086 0.6082653457477613 1.6091407791803118 34 36 16
9.860820196005246 0.015875205862819267 2.0347056455950154 50 52 28
10.394537663021122 0.014258409338401189 1.9052664025999224 48 50 26
9.443816323647084 -1.2266023053421902 2.056923548956508 55 57 33
9.860820196005246 0.015875205862819267 2.0347056455950154 50 52 28
14.685692105573436 0.04964531710118392 2.948299821197529 59 63 42
9.180961388875938 -1.1810856765919746 2.2012393000338424 55 57 35
9.118086859154197 -0.45692103500154047 2.350740497848794 57 59 39
10.107369430252138 -0.1254839847075489 2.3940272240911296 54 55 32
8.20975532865288 -0.6754989225567432 2.2906042059894682 58 60 41
9.626708662758467 1.6005074791757063 2.4495780981430455 42 44 22
9.622047547339328 -1.2700478202127528 2.4501628388253653 58 60 39
9.392008295190948 1.194944157184369 2.1849364422848283 39 41 19
10.381724008065076 -0.09722650952591254 2.11919343640939 52 54 30
8.67238244279072 1.8674466330032955 2.1045454727843955 35 37 17
8.98138699858956 -2.294914817034056 2.0843326894067102 60 61 53
8.57183977232161 1.7150551731549095 1.856059440159659 35 37 16
11.696017587259789 -1.9928759106615372 2.6686565339759194 63 64 49
11.111678739774604 2.812103085515807 2.0795317456521416 37 37 26
10.779018450892082 -2.977145908380634 2.6325192498991674 58 60 39
9.905443488799845 2.497612497178391 2.5853600969602937 43 45 19
10.440679105187252 3.1189532288869426 2.5076762048708403 46 48 27
9.992363734459493 1.9309575769094982 2.7991563203982 47 49 25
10.333129154826638 -2.1906795755154684 2.370750182297301 61 62 52
10.519611644518873 2.66866364180071 2.6786202215397834 48 50 26
9.507869316729437 1.990090310251987 2.176370007788813 36 38 17
9.512608174097277 -2.294914817034056 2.1760251434583413 61 62 54
9.62641544992543 2.0559430300625623 2.6338955026282953 43 45 21
10.096923186215784 1.9723346243519453 2.5555664646468332 42 44 21
11.623089935287613 -2.1370808684407634 2.9508095024429695 62 64 45
10.540956694230946 2.374486847626005 2.985133351189255 53 55 31
11.76695285527633 -2.4357965117252838 2.895418443828706 62 64 43
9.142157159619568 1.9123209793001783 2.3481395141126313 41 43 21
9.228255610894962 0.26719724970663356 2.0693077168428995 44 47 20
8.3130220483959 -0.695961976233183 1.9937597842569235 55 57 36
9.0507229801716 -1.4671588970110117 2.0800171417430606 59 61 39
11.065833171470796 0.024059168339184245 2.587853472753989 52 54 32
9.253650455024417 0.4316147166313174 2.195518554029734 43 48 22
8.765922480655767 1.832753394458685 1.8495725856256757 36 38 18
10.577237039963505 -2.281407030994596 2.490318005879867 60 61 49
9.942503491671317 2.253843319340496 2.4120907793305024 41 43 21
10.163526420341785 2.549611363986097 2.754674368945442 47 49 24
9.803797931388607 -1.1810856765919746 2.283726026325048 57 59 38
10.066947306939088 -2.708311031765405 2.3983686589228177 56 57 43
11.123517752608764 0.19350636664906817 2.579521770755354 51 53 29
9.604368445677629 -0.3094537321247876 2.452389637391998 62 64 42
10.656816926505376 2.8083624352790255 2.48058293620591 42 44 21
10.92161713809441 -2.8776644848674238 2.834965514141082 59 61 39
10.871495803346473 2.912627916465978 2.0918958943605603 47 47 35
9.887595197949635 2.100695948732756 2.1500181154528146 35 37 16
