20.263667705413237 0.2545655721932982 2.2951087275088 4 4 5
17.846611099936975 -0.0749610594735427 2.062578304006053 9 8 6
18.7316974479568 -0.07048433987586131 2.037433750564061 7 6 7
17.492958446812573 -0.1379648094881723 2.0092919833346663 9 9 6
17.587982538832115 -0.1472272332364616 2.1364858258777386 6 6 1
20.09600889208391 0.1156155997497271 2.237485722586843 7 7 5
20.09906824685662 0.1898127616686737 2.3023775507855246 4 4 2
17.645393470770323 -0.19988659957092067 2.0052446990596553 5 7 8
18.11151511793004 -0.22815163024099516 2.253549491473204 2 4 0
19.083563634801727 0.8843039836805286 2.2127908268497776 0 2 0
18.816911607071408 1.030699441730181 2.2234281579230717 0 2 0
20.241584930510133 0.8316480146592311 2.1119600436313744 1 4 1
21.270126064483033 0.6465732194771813 2.382259672756342 6 10 0
17.368132263937035 -0.24544502992282788 2.2888713760554222 28 32 19
18.13291231222463 -0.4908811912016875 2.490846360086965 45 51 24
19.155456884398667 -0.5148677419943432 2.2767385049841566 5 9 6
17.34786041204945 -0.4908811912016875 2.4559196593229866 48 54 27
18.53909878971327 -0.41706068209809294 2.3807566290343396 31 35 23
17.076063520599817 -0.40719009311694654 2.4756141387225923 48 53 26
10.321784857198114 -1.0986085022787526 1.5152661534265959 40 45 19
11.343869574908705 -0.963132155518274 2.0696498700430728 49 55 28
10.996126948191291 -1.2859463980072114 2.086961650996736 48 55 23
10.836767107549257 -1.1887676160258507 1.9916372139306542 49 54 21
11.066930392313267 -1.016034931365331 1.791906813538733 45 50 21
13.957174236879606 1.66547222218201 1.673225555027629 26 30 8
13.47191756059102 1.7492358127241405 1.8280134507646133 28 33 8
11.547056814798845 2.262918827858169 1.6947051692197965 30 36 11
12.13967928366325 2.0271431943174143 1.6886274286088645 28 36 8
12.591116355444134 1.920588052900393 1.604725485447701 27 33 8
13.423204268732022 1.8439935420814306 1.9870196689612536 29 35 8
12.012113584512111 2.066617061426636 1.948250400861026 31 39 10
11.712760952528122 2.262918827858169 1.7795292438560573 30 36 12
13.304811718847263 1.9500101362531175 2.0749512087947553 31 37 8
11.930508721942997 2.249813660809868 2.1397054588795013 34 40 12
11.917397835305211 2.386597044690049 1.8624883465507112 32 38 11
11.887741263644362 2.390895741078436 2.1420075772702454 33 39 11
10.580527669307916 2.6159565533041245 2.002503389558418 34 39 12
10.711535940177894 2.5306181563827095 1.8964698961303257 34 39 13
10.637580990256106 2.710644230504087 2.1061950848515267 35 40 14
12.045297122739647 2.4543740045374003 2.038188375151248 35 40 14
10.923619161882911 -2.366951016450487 2.1998371806685943 40 47 15
9.664912357381892 -2.2921166505791715 1.7189985650253057 39 46 12
9.472233003642478 -2.1117917814203677 2.057120179980371 39 46 10
9.978849939856234 -2.1117917814203677 2.145829554922995 42 49 13
10.55612117063099 -2.1117917814203677 2.225409982930236 41 48 14
10.534385364913238 -2.2921166505791715 2.0045222206952236 39 46 14
20.028333750531594 2.8541852337692064 1.0146750584199682 21 20 4
20.953882844797644 2.6944796644923668 1.0419027914166714 20 21 7
19.693247647440682 2.924321378317097 1.1204019903183233 25 22 9
19.13573054473712 2.86995905792057 1.2201689635180237 21 20 6
11.558059221358587 2.509356457481222 1.5212109432152838 33 37 15
11.856225662133255 2.6276539416550975 1.5224589265478627 32 37 10
10.990873328707774 2.5828761504045965 1.6096678152713513 33 38 13
18.612987099767864 2.7662338850112382 1.593745975706872 24 23 7
19.091606909143675 2.8841280789783466 1.6982717126507547 25 24 8
20.92456690141004 2.7379185268664403 1.8830003387634326 25 24 8
18.983963811150936 3.0367458905452853 1.160469438147961 25 19 8
19.123311217002755 2.9703015221143048 1.04651991222317 21 18 5
18.398307646393274 3.096744037189138 1.4852015943102697 25 16 4
11.661635020790523 2.8473711971516824 2.1545190368676623 36 41 16
12.696847341928548 2.112832389759731 2.195624754715058 32 41 11
12.939827742304411 2.025480705934967 2.2800330353575764 31 40 8
11.484131287607836 2.558640845315631 2.27408469925811 38 44 16
11.793889731309212 2.6599946017186813 2.3667527570959708 41 46 19
12.154814662424442 2.558640845315631 2.33687636557515 40 45 18
13.989800469410605 2.134530301005246 2.526670272906864 36 43 13
14.384890709949412 2.208349949598609 2.6137609301949016 38 46 13
11.308851105288696 -1.8824578987434075 2.4116002992661607 44 53 23
12.790070706215594 -2.9818502495921657 2.5239596372023856 43 48 19
12.382131711292073 -2.809331166433175 2.5719811791193106 45 50 20
11.498823458702232 2.8143302386735365 2.2730017928683846 39 44 18
12.245851142300893 -2.9570772834664263 2.5896016860181836 46 52 22
12.73693813887787 -3.117234082346441 2.5298567229965228 40 45 18
12.78852592334463 -2.752491414563084 2.675976389550394 48 55 25
11.90345106450993 -2.752491414563084 2.638249509596177 45 51 22
12.245851142300893 -2.9570772834664263 2.5896016860181836 46 52 22
11.588002730275972 -2.2652368085911303 2.5209837149875955 42 52 15
10.802605342426332 -2.4751539183911824 2.4656236763285633 42 49 15
12.032445296254862 -2.3720177588667144 2.61911206186321 44 53 20
11.025183226147686 -2.2810025309269393 2.3099339832996524 42 49 15
12.425971924882493 -2.4751539183911824 2.5664955910915612 44 51 17
12.620525834443193 -2.506488974816511 2.703210568774423 48 55 23
12.99625756933319 -2.6024687955822134 2.645108375639131 46 53 21
11.782158256673624 -2.675173695785017 2.498289245178391 42 49 17
11.747897017027086 -2.0629565605538134 2.502189498746415 44 52 19
11.227314803665685 -2.369001493129158 2.4197527144490025 42 49 15
11.588002730275972 -2.2652368085911303 2.5209837149875955 42 52 15
10.655417999507671 -1.8463697111988666 2.2182770941467433 47 54 20
17.00791643989943 -2.5713805742925313 1.5959122152568002 15 16 0
17.69465141565201 -2.6510517798764006 1.765709499784593 15 14 0
11.810944897267758 -1.6048334992499078 2.2508490578735842 48 55 21
11.810944897267758 -1.6048334992499078 2.2508490578735842 48 55 21
12.47908766467197 -1.4960319388896515 2.3121672879681303 47 56 24
11.051791884120087 -1.6089916335597159 2.307741591957152 48 55 23
11.816149557591924 -1.7299301198251684 2.364830588658279 45 54 20
18.01455824338843 -0.12979267794503635 1.9356085593228909 7 7 6
20.21121614040884 0.1779753558078501 2.2330082518399856 9 7 9
16.602929158848138 1.3100820709603604 2.1031567380338427 24 28 7
17.925490855353175 -0.45117645350821817 2.417426263343217 50 56 34
17.563815655246454 -0.3433317995623877 2.3568091059609686 53 57 37
11.454435403592017 -0.8853407567199627 1.9676285392479183 44 50 25
10.860765848953024 -1.0986085022787526 1.8918334462675106 49 54 23
11.925075058215464 2.1420241367523922 1.7757595283070997 31 36 10
13.106642081998375 1.7492358127241405 1.6798981989115758 26 32 7
12.797184765907346 1.7813200089597077 2.0969714548078002 31 36 9
12.74652567354554 1.8439935420814306 1.8430131677998114 28 34 7
13.275635043874786 1.5951654746300956 1.831904601030378 26 30 8
11.18089340666179 2.710644230504087 2.183193914600637 38 43 16
10.449999262811984 -2.2079280898909377 2.116877172827417 41 48 15
9.565249003503306 -2.2079280898909377 1.9372309632659344 39 46 11
10.377881148059718 -2.2810025309269393 2.2386597179908394 41 48 14
19.501844411078412 2.86995905792057 1.1719929668786353 22 20 7
20.019333214851464 2.6944796644923668 1.1282633116332743 18 22 5
11.3921310787181 2.7042225599731426 1.60829801573485 32 37 12
18.990397740078734 2.8841280789783466 1.6460170117901367 25 22 9
10.583471079516757 2.6638219194830195 1.7060529646499032 33 38 11
19.105877798905123 2.980019187385972 1.1632436156319828 26 21 8
18.470013771920705 3.0424327781620297 1.4855347078677297 24 17 5
13.329229219155309 1.929997082365949 2.3563998816736245 34 42 11
12.665721297561609 2.167419084969352 2.2987574389661893 36 43 13
11.938549154508705 2.4692053547097705 2.2422347118909873 36 42 14
12.545989397990922 2.3174360059352215 2.3072956432937066 36 43 13
13.729674198998806 2.0746701713411455 2.4332773714919185 34 41 11
14.384890709949412 2.208349949598609 2.6137609301949016 38 46 13
11.506000428127564 -1.9289580958770982 2.5310245054908984 46 53 21
12.920612376601465 -2.8520939381895185 2.5098755456594346 42 47 16
11.50878579654142 2.7733072439094997 2.392392703297363 43 48 21
11.295098780037005 2.9258356151206657 2.2883623158932402 41 44 15
12.790070706215594 -2.9818502495921657 2.5239596372023856 43 48 19
12.069080912560874 2.8974234114209922 2.4672172278586952 39 42 13
12.126354058890712 -2.6024687955822134 2.6058171074381464 44 51 19
11.554875671862142 -2.003149358780208 2.3881139951408015 43 52 20
10.497540171570463 -2.369001493129158 2.3567661543468206 41 48 14
11.193120307399488 -2.1117917814203677 2.296341840546125 41 50 16
11.225824372794103 -1.4960319388896515 2.180384976275122 48 55 21
16.68382935568401 -2.622468906746483 1.4159646870502434 17 16 0
20.21121614040884 0.1779753558078501 2.2330082518399856 9 7 9
17.34405997175231 -0.1578117759259649 2.215789274024776 7 8 2
17.21324207757556 -0.17002029868637783 2.296760183108874 41 42 27
17.662584943573737 -0.37267123082505 2.43441957442075 47 51 27
11.36412837590085 -0.9411129066136135 1.6083904683205752 41 46 20
11.42197999579374 2.386597044690049 1.6081999672528944 31 37 13
11.023903058103107 2.4543740045374003 1.7927842601022714 35 40 15
12.751609308892778 1.8960771399363059 2.1925308966003603 32 38 11
11.959056383776018 3.0296739105771673 2.478810296661007 31 36 7
11.599591813123983 -2.4751539183911824 2.51958740911522 42 49 15
11.30415298668596 -2.1801967184190136 2.4120648384652488 41 50 16
11.254188944845435 -2.1399037498867006 2.563771417860827 44 52 21
11.33111178915008 -1.388968674262274 2.173910977182496 47 54 22
12.46405501484851 -1.6048334992499078 2.3132721420900535 47 54 22
11.286814466053167 -1.8463697111988666 2.289003092734362 43 52 18
11.53330912018356 -1.9556439808269155 2.2704746775530613 41 50 16
18.411834693528387 3.0424327781620297 1.5396767528147453 26 19 7
18.711955370722354 2.935844856612625 1.593624572961769 27 22 9
12.462323971885239 1.9500101362531175 1.9339678192896212 29 37 9
12.464330041689342 2.5571680361338562 1.4442688220559188 33 38 13
10.690427272301982 2.8473711971516824 1.9977725600923741 35 38 15
13.07410937306634 1.681368419375928 1.998854191348429 28 33 8
11.560971492687818 2.6159565533041245 2.160281148708757 37 42 15
12.258454611983103 2.2107784620818722 1.5240461673833656 29 35 12
11.125068193970986 -1.7299301198251684 2.3017803239449384 48 55 21
18.290644968112282 -0.21310006002363135 2.177399094485337 6 9 4
17.353135303312992 -0.2655083174823055 2.3690399981434997 44 48 29
20.241584930510133 0.8316480146592311 2.1119600436313744 1 4 1
10.25579452307818 -2.3654664949984454 1.6124554680719163 37 43 12
11.99611794488057 -2.369001493129158 2.4748623273439776 43 50 16
11.586784745614729 2.322553767426424 1.9628465776317328 32 38 12
12.78852592334463 -2.752491414563084 2.675976389550394 48 55 25
10.6336574940662 2.752154472687359 1.8989441540957033 33 38 13
11.716323090211164 2.191886224354138 1.9582796358355645 30 38 10
11.037363277718905 -2.454595814953011 2.3089285666103447 40 47 15
13.047167448808311 1.9845274460074458 2.1763919003948544 30 39 9
12.012482938108496 2.5306181563827095 2.1353479864136555 37 42 15
