17.633408484798682 0.5460899805555096 0.9617259684054358 38 46 14
10.938375713515942 0.32678813090668474 1.56273605896611 29 34 1
10.829271989138652 0.23781982168841825 1.7482697374612515 29 34 1
11.175786342779226 0.14485258957812916 1.9283969940148828 33 36 5
11.5638172682313 0.14485258957812916 2.0094919166786918 35 40 10
11.937378214737036 -0.04715656195498386 2.088904262733321 38 43 12
11.938310975349832 0.04930138161960174 2.0888597241464097 37 42 9
12.42715525509514 -0.32485857819847774 2.0665776748956466 43 50 20
16.29589505672671 1.6181912288688998 0.9791881517190828 40 52 28
16.232913556587462 1.683392537525358 1.1189204266428492 42 52 26
15.832294299929096 1.69164796588629 1.0346056075747319 37 47 23
14.074064298190425 2.8486482885624986 1.0429972499478397 35 41 13
13.889752539396516 2.7718852035682042 1.1170669095963484 19 31 1
10.860145457701638 1.1410435280976257 1.8422385717739924 32 41 9
10.470855332485213 1.008849667074993 1.8526008871651745 32 41 9
10.596142198447614 0.6617557580025409 1.562475723043407 33 40 6
10.861596637747084 0.5321800808024026 1.5626790808366695 31 38 4
10.564059356413441 0.449145882118713 1.7527744497898 30 35 2
10.427222424405437 0.5828802621638889 1.8538125563202426 30 36 1
10.02552711789444 0.8682612941610525 1.7626681262216692 32 40 7
10.687820934386634 0.7956177777390904 1.750644043233928 31 38 4
10.86396878592938 0.2621338643388597 2.0399388036861335 26 31 0
10.248459174755348 0.7243344556707038 1.8588891300807002 31 38 3
10.974124174346345 1.6316885691643095 1.2855391349347158 32 41 15
11.591433244641784 1.453266885026054 1.5631901808197488 37 46 16
10.991363093961011 1.4422030705150979 1.8389175486335967 29 38 7
10.68962445064456 1.5366400269491973 1.7506133685962042 28 37 6
11.159228691857003 1.3500111608378835 1.8347870852613795 33 42 11
10.385061655727842 1.1948859411185413 2.0634562585097473 32 41 9
11.242397313773377 1.0974589690726801 2.1245125536572393 33 42 8
11.031334808370342 0.7993779188201477 2.370593306255726 36 43 10
11.135272588624252 0.9808393957649135 2.3610333429558144 36 43 7
11.866674557623984 0.9808393957649135 2.4203667285264157 36 43 9
11.550267095969666 0.7140783183530612 2.3253883506635447 37 42 9
12.14987095353997 0.9015837110489113 2.524903188198188 37 44 12
10.958446486255951 0.9510702831698653 2.140612701683227 33 40 6
11.730178766122636 0.8025293968415577 2.5773349771033285 38 45 8
11.335420009222288 0.6996916608148053 2.475421548546211 38 43 9
11.107943089778578 0.6170012431515687 2.363520752172554 38 44 11
10.823744046486183 0.3976572233569271 2.1486069458131185 27 33 0
12.597917299373886 0.3288368154295609 2.476376843673444 45 49 16
11.361445846244932 0.4451691370208094 2.341131316584951 38 45 10
13.080312053836172 1.6459486898358096 2.430681208678183 40 47 16
11.280904248400903 1.4288552164832151 2.1224036222683527 27 36 4
13.049642305236492 1.6380723884028559 2.322545997380117 38 47 15
12.446129499919927 1.4288552164832151 2.2596936452965606 34 44 12
13.069540380579888 1.528622375192593 2.4316388512974814 38 46 15
12.091525537433286 1.2231821049982414 2.531742778144219 37 45 11
13.262577523122937 1.6559087145842575 2.53703516201022 40 49 15
11.89132417736929 1.2664649399573304 2.418012263380792 36 46 9
11.89132417736929 1.2664649399573304 2.418012263380792 36 46 9
11.536881845745148 1.0945017072693208 2.453509536255075 36 44 7
14.053425234407214 1.6865571852040508 2.735744325676884 42 51 15
14.474841315936882 1.6689023433274393 2.6725890188540578 40 50 13
10.638801030232576 1.7256513429690734 1.5625090872709253 11 20 0
10.617823339032178 1.8416315922921491 1.9481068723344532 25 36 6
10.362070799692141 1.936385582535671 1.756362637502217 17 27 1
10.934392308436138 2.1560893463699395 1.9366591117248944 28 38 8
10.829596678841119 1.741632410338825 2.0415482737309674 26 35 6
11.181187029439997 2.2333799076587746 1.8342562921214922 31 42 9
10.644429852039387 2.7039373149359003 1.5625134697002587 42 52 22
10.969920566973972 2.5738410782530146 1.9354186248987046 41 54 23
10.77403127348695 2.435852156248772 1.9423676238987717 41 54 23
10.814399000507368 2.7039373149359003 1.7485164164757607 49 54 25
11.577318452016954 2.82287404891146 1.8250385020969278 48 56 26
11.03516629579131 2.7039373149359003 1.8378271673739763 42 53 21
12.51295070009623 2.069998287606558 2.2553040259871753 40 50 21
13.136774412341166 1.741632410338825 2.3163631275600123 39 48 16
13.32883786224362 1.8716578369792096 2.4092921997250896 40 50 15
12.84974423833054 1.9750138818287246 2.3371901396295023 42 52 18
13.90259258501751 2.2846988683374474 2.4732950395393627 44 55 21
13.90259258501751 2.2846988683374474 2.4732950395393627 44 55 21
13.46327635765173 2.3678245239554356 2.515782442885106 45 55 23
14.036476524446588 2.124245630959996 2.4613041842031924 43 53 22
13.132342180715142 2.2846988683374474 2.426092424950295 45 56 25
13.556530962878899 2.370365749787794 2.643883773247422 49 55 27
13.930585393787938 2.4670177607947292 2.596511097072088 47 55 27
14.285031191821764 2.017651570698471 2.6995311140470917 44 55 19
14.699809061814394 1.9561107162159674 2.6432323879830966 45 54 19
14.162659738855838 2.4938978343241756 2.7181542215909986 49 56 24
14.327700001140682 1.908886785210158 2.552391731602436 42 53 16
14.503233908940595 2.1546102731203445 2.668740151947179 44 55 19
14.346570055328696 2.1900309577503028 2.550426780794239 44 55 20
14.327700001140682 1.908886785210158 2.552391731602436 42 53 16
14.28577893277429 2.3678245239554356 2.5567965442867746 45 56 22
14.87892234033507 2.645611915425185 2.779063413062267 49 56 24
14.162659738855838 2.4938978343241756 2.7181542215909986 49 56 24
13.829704155194602 1.9561107162159674 2.6086632387619093 44 55 21
13.829704155194602 1.9561107162159674 2.6086632387619093 44 55 21
13.24752608390215 2.6552349782498172 2.538681725789168 49 56 24
13.67477590972362 2.5167313449712085 2.3815782917845665 48 56 24
11.98194575487028 2.858770406048913 2.292031813079753 49 56 24
11.58453118911551 2.8867857791154967 2.1063548580405964 48 55 23
13.24752608390215 2.6552349782498172 2.538681725789168 49 56 24
12.90011487579578 2.7556310772117403 2.3334379026684138 49 56 24
13.591912625436999 2.366056087952528 2.3880142765050962 45 56 24
12.17749361811421 2.294775376361181 2.174373123174472 42 54 22
11.98194575487028 2.858770406048913 2.292031813079753 49 56 24
13.303278764224913 2.6082634435214485 2.411431694487375 50 54 23
14.082635292347153 2.6552349782498172 2.5789579876284066 49 56 24
14.082635292347153 2.6552349782498172 2.5789579876284066 49 56 24
12.976182104562978 0.06107066669534724 2.440051290623474 44 49 15
11.729623840469731 -0.15775908676589326 2.200942814808635 37 44 11
12.434566300114545 -0.199620025539997 2.493305887114661 43 51 19
12.593497082600386 -0.32612371938396145 2.4768243819119005 44 51 21
11.897974833409089 -0.2599128218650964 2.190661361450344 42 49 19
11.732471450907328 0.16007901353988305 2.200765806950996 32 37 4
12.975323953886493 -0.058415987023775366 2.4401295698325765 44 49 16
13.170587640952775 -0.06633196867174444 2.5472204426160587 46 53 19
12.975323953886493 -0.058415987023775366 2.4401295698325765 44 49 16
14.587758237976454 0.11672240715024475 2.835987377591593 47 54 22
14.061280653354885 0.2748367042445081 2.7344461915496447 45 50 17
13.511836511286512 -0.07672477451687076 2.6500063052788394 43 50 18
13.988390651088231 -0.09096864024087231 2.7467038000879542 45 52 18
14.40193270515485 0.0802053354406354 2.682680376028912 45 50 19
14.654628954862355 -0.3291258710374291 2.821840448969172 48 55 23
13.296874180381613 -0.4347750362170586 2.681107960519599 45 52 20
14.587758237976454 0.11672240715024475 2.835987377591593 47 54 22
12.119489221697313 -0.6408428254033329 2.282096412537962 44 51 21
13.102642694002684 -0.5017954033309852 2.554936616060565 46 51 22
12.129096565562989 -0.6972544804330226 2.5273233427489865 45 51 24
12.049487106208716 -0.7941333570666249 2.083608444009443 44 52 19
13.102642694002684 -0.5017954033309852 2.554936616060565 46 51 22
12.140874504010194 -0.949665677058118 2.2805794189809414 46 53 21
12.82863587709093 -0.4427011728927312 2.453775388372883 44 51 21
12.35405243760903 -0.4928072139956676 2.2658468535189744 43 50 20
11.945442440440727 -0.44721316886730655 2.088519469477746 44 51 21
11.758785811497642 -0.7973540253683954 2.430864936101554 46 53 23
12.969119487998766 -0.8996126359141707 2.570610398914743 47 54 24
12.047465557472288 -0.7954930430113769 2.28725999552518 46 52 25
13.422957572439447 -0.9792544760959568 2.5199506214543814 47 53 26
12.15634286679674 -0.5810209863203778 2.175573103974758 44 51 21
12.119489221697313 -0.6408428254033329 2.282096412537962 44 51 21
13.455259195945018 -0.8000561664603216 2.6579180945895855 48 55 25
14.067335915735312 -0.6749557479340652 2.733449186017779 48 55 24
15.293324269330306 -0.14451725411044217 2.917765735496278 50 57 25
14.328266986431313 -0.8121456991152969 2.8999086798331755 51 60 28
14.526443376419909 -0.6376636058841546 2.8496631810688244 48 57 25
12.644888516222002 -1.2656150041753773 2.4716559668979667 47 54 23
12.711576547467569 -1.6692368836458544 2.6029721293466657 52 57 28
12.428055395754006 -1.5228736863555465 2.493997799803858 48 55 26
12.439382564502704 -1.6561605948474378 2.492794935467313 50 56 29
13.304080302200541 -1.3912596093700382 2.532534269674793 49 56 24
13.790272565553598 -0.8043362011779694 2.782739413785522 49 56 24
13.790272565553598 -0.8043362011779694 2.782739413785522 49 56 24
13.674588846767977 -1.4909548351805493 2.8060174848319632 53 60 28
12.734626445033925 -1.4909548351805493 2.7801550045994285 54 61 31
13.871951008993072 -1.0869115855078761 2.7673567563169366 53 60 30
13.632479320485839 -1.3643208585588769 2.6337249120909227 50 55 28
13.768181243626568 -1.2220833150137942 2.616288109761446 50 55 28
13.120535065006973 -1.5054549700805175 2.7089888169541596 53 58 31
13.326105397295576 -1.1648598352739679 2.6767055106058666 51 56 27
11.518406308133354 -1.1769153263943184 1.7375488883335737 46 55 25
11.688707261829258 -0.9278599589665292 2.00448465821482 45 51 23
11.150932384734185 -1.1401549432830076 1.929229976104776 46 54 24
11.62004467609122 -1.4530411612159988 1.4770133797802723 44 53 22
11.545870081569406 -1.5395448290706653 1.4764090964413021 44 53 22
11.507061442444671 -1.6265177112108464 1.5631344101297813 47 56 25
11.212912693722883 -1.6318175372068509 1.9271600580342416 47 56 26
11.276792795152554 -1.441933046545741 1.9250521439916435 47 55 25
11.138254290735475 -1.3495575149849546 1.8352961197722026 46 54 24
11.67357312831957 -1.2305528399586205 2.1018345941836687 47 54 25
11.650374438294136 -1.0076676376401072 2.1030044765491605 47 53 25
11.609778281701288 -1.5285118646597535 2.3205797258790724 47 55 25
11.621903003225698 -1.6461451055577856 2.319608685016849 48 56 27
12.382606491273679 -1.4120327766083745 2.3741749207598044 49 55 27
12.080642315369332 -1.193990381720254 2.2848709387768347 47 53 25
10.916322297406703 3.0005231678928994 1.7468396415915288 44 52 22
11.043889334467844 3.0935943167707918 1.8376110985374698 46 53 19
11.309318313874316 -2.911825817292462 1.8312015858438935 43 53 16
11.132068587060218 -3.002575296850097 1.8354466223175998 45 52 18
11.729985515621076 -3.095682613711418 2.002855631516545 45 52 19
11.861790752481129 -2.8247626324765087 1.9068716211516135 47 53 25
11.763326977711854 -2.624026360120021 1.9097971290503037 49 54 26
11.257376369180166 -2.624026360120021 1.7414529905794376 49 54 25
11.980397399439214 -2.5491768139298103 1.8163051557062817 48 53 26
11.714170961729948 -2.7058340675108083 2.003478243954302 48 53 26
11.910337531723156 -2.7423909539764235 1.8177793109025437 48 53 26
12.241744674629613 -2.4811679805138467 1.6453510584989457 50 55 29
11.223916462757002 -2.649331332307161 2.653224075161354 52 59 29
14.171029177154777 2.8798467014953535 2.716845719056001 50 57 27
12.496791746558577 -2.019231529316188 2.632466744790891 52 57 30
11.75645969507038 -2.2187201552921962 2.760225116576898 52 61 31
12.324290092769276 -1.861279955187464 2.658134151326811 53 58 29
11.75645969507038 -2.2187201552921962 2.760225116576898 52 61 31
12.09099145063524 -2.102575025324315 2.6962808963112397 53 60 30
12.09099145063524 -2.102575025324315 2.6962808963112397 53 60 30
12.801009959696582 -1.8184742759620542 2.5913923879683387 52 57 28
11.609559528824114 -2.082114237866235 2.445929739470313 51 56 29
11.755689976287385 -1.7864916558733708 2.43117092613256 50 58 29
12.53075880592143 -1.7864916558733708 2.4832386666822144 51 57 29
12.196704561103008 -2.023316408414042 2.39010735354673 50 56 29
11.10909711421219 -2.58768038278784 2.501784868558038 53 59 32
10.636275712244114 -2.4969567553169543 2.5641689208059946 51 57 30
11.462537606940174 -2.4694303880986346 2.4614370245683537 51 56 29
12.25615917912751 -2.4694303880986346 2.5127736913534084 49 54 28
12.243753095170941 -2.2726724837763927 2.5141681923698473 49 54 27
11.44927161097658 -2.2726724837763927 2.4628706715977273 49 54 27
11.00491211797687 -2.372839055554898 2.5146162856331666 50 56 28
12.267815129414217 -2.2163615317165863 2.271722967976962 49 54 27
11.96091761193239 -2.1916512310207725 2.4114503801527594 48 53 26
12.53161122190417 -2.125574290978568 2.3619265998013095 49 55 28
11.164867819600044 -2.9709625217292164 2.2383542691982976 46 55 21
11.164867819600044 -2.9709625217292164 2.2383542691982976 46 55 21
11.40667706484542 -2.9883699782801347 2.115633017276311 44 53 19
11.07594437199919 -3.085076814942532 2.244698956293489 47 54 22
11.812906237254829 2.9684605875734933 2.304684449001747 49 54 23
11.4096052766566 2.986114580746312 2.1154774920706445 48 54 22
11.213307137686051 -2.9210414014332775 2.4894005406612525 52 59 27
10.625079633960743 -2.783013385800451 2.4107881862465876 53 60 27
11.40667706484542 -2.9883699782801347 2.115633017276311 44 53 19
11.320637007988122 3.088624540184764 2.120245429836218 46 53 21
11.076949671913312 3.082508086216058 2.2446264782623357 47 54 22
11.57972414866566 -2.888950229501736 2.106601215035105 45 54 20
11.277144802392623 -2.8266989305327344 2.348410596586183 51 58 24
12.176257399160782 -2.437543100804722 2.17444311764218 49 54 28
12.198493186377071 -2.36776879541269 2.276528318757227 49 54 28
11.23858464645693 -2.610427484751207 2.233194159755632 50 55 30
12.39553047489947 -2.4508818138049966 2.373094708133949 49 54 26
11.674053047382369 -2.518651227387708 2.2044190264084005 47 53 27
11.674053047382369 -2.518651227387708 2.2044190264084005 47 53 27
12.223555314005171 -2.3662388953290483 2.075608232295414 49 54 28
11.035672312577388 -2.757845149082794 2.13613552805625 49 55 28
10.877869973393565 -2.7132574755886463 2.2593270503364393 50 56 29
11.838587286448089 -1.7967324356845538 1.4787495837333533 49 58 28
11.314198546215076 -1.725974888701061 1.9238296334585465 47 56 26
11.649122777171668 -2.0256719448877885 2.006058852142141 50 56 30
11.201298896811263 -1.8174453172173164 1.833772025456338 50 57 29
11.78651882072408 -2.303667428221387 1.8204288600614416 50 55 30
12.49781341198855 -2.0711002799405116 2.2562929348489287 49 55 28
12.314761398963876 -2.1572964608802474 2.1667088200676226 48 55 28
12.161976090042165 -1.975962153912828 2.2790897043927054 49 57 29
11.260919825442322 -1.8724001920581725 2.231648111336928 49 57 28
11.757723131843592 -1.9371689467062838 2.0976363625945535 49 57 29
13.855902428222766 2.945493032299027 1.1947778307634926 10 20 3
14.353765105552943 2.7988107954209775 1.2084352539917795 24 37 8
18.982931707476496 1.9718855823362622 3.0550172339994734 49 58 24
22.24505876105503 -1.7554837751161325 1.1001062819143401 46 48 27
20.378665997021574 -1.8525362518223165 1.6647499907235113 69 69 66
17.633408484798682 0.5460899805555096 0.9617259684054358 38 46 14
12.184270927581947 -0.23578832224275187 2.0773906912368565 41 48 18
12.184270927581947 -0.23578832224275187 2.0773906912368565 41 48 18
16.28725016796041 1.5442199806799286 0.9788314870302023 42 52 29
13.889752539396516 2.7718852035682042 1.1170669095963484 19 31 1
16.162481395798025 1.6149295190064523 1.1168042104248541 42 55 28
13.374628406079633 2.929130590603483 1.0981966132753695 48 57 27
10.723734730038924 1.6380723884028559 2.0465785842292807 25 34 4
10.991363093961011 1.4422030705150979 1.8389175486335967 29 38 7
11.56803064041225 1.5396052513091292 1.4765904487902226 36 45 17
10.590492569225677 0.8682612941610525 1.949129800674661 31 38 4
10.930674885611065 0.6427844924283109 2.142241404917665 32 39 5
11.497295282668597 0.5044832626767703 2.457708376942875 40 46 9
11.099229544966297 1.0449433173476859 2.2430246301166186 36 44 8
10.462188258316163 0.5499205008706285 2.1713104827680216 33 38 4
10.889674033443141 0.7140783183530612 2.2584354135344653 36 42 9
10.889674033443141 0.7140783183530612 2.2584354135344653 36 42 9
11.769197809874592 0.7993779188201477 2.4298377984808788 37 44 10
10.903620890477129 0.8821419845564936 2.257385243217323 36 43 8
12.594620354050114 1.3276613164973834 2.250023105611888 34 43 11
11.204484741732355 1.5330520840701884 2.1266058123361202 28 37 5
11.414825604956482 1.150253181329826 2.3366036942978012 36 46 8
10.638801030232576 1.7256513429690734 1.5625090872709253 11 20 0
10.291477203264005 1.8416315922921491 1.8576506786098883 21 31 3
11.181187029439997 2.2333799076587746 1.8342562921214922 31 42 9
11.596419775941497 2.3023648123792326 1.7364166741344818 26 37 4
11.48227385237397 2.2333799076587746 1.9184413666335245 37 48 16
11.257869461183018 2.82287404891146 1.4739869908831413 49 57 27
11.786674239078149 2.3647544648865724 2.0006389980418904 43 53 21
11.722722979024796 2.7039373149359003 2.003141323776674 49 56 26
10.971084420864916 2.9098423916962157 1.6540048536605987 47 54 22
11.798655602312277 2.1560893463699395 2.095619551416873 39 49 21
13.167241210362004 1.7612470844550285 2.4230482428566575 41 49 15
12.948243588235288 2.214935113916662 2.3298923305660937 43 53 25
14.86147756054002 2.1004147111996576 2.782170918321693 47 56 22
13.639609199355311 2.584829784376559 2.632786485606446 49 56 25
14.55344319354279 1.8176611883462925 2.6620399114863713 43 53 16
13.92127156728056 2.2706767661964866 2.5976154699353087 45 55 23
14.503233908940595 2.1546102731203445 2.668740151947179 44 55 19
15.027474142055837 1.785871693350085 2.6045301169085895 42 52 17
11.122266785452615 2.5167313449712085 2.1312038869769223 42 54 23
13.911918916836298 2.4488926804042417 2.4724463564769126 47 55 23
11.831588909056384 2.5738410782530146 2.0940086960133475 43 54 21
12.230670234093216 2.7556310772117403 2.2742886166680063 48 57 26
11.650196940363811 2.435852156248772 2.1030134486302225 44 57 26
13.776016296803348 2.71084833023925 2.4850205250109516 49 56 24
12.764508814432219 2.824066138346379 2.4599125252787513 49 56 24
13.776016296803348 2.71084833023925 2.4850205250109516 49 56 24
14.364640165341472 2.5448934428379797 2.5485553235250826 48 54 26
12.717066728285328 -0.22998650391779116 2.6022500934310098 44 51 19
12.43725250927165 0.20252551437891153 2.493020819156998 46 51 18
13.171433069734585 0.0693442623218322 2.5471254856510517 48 54 19
12.309065438619902 -0.1762633501096256 2.3803883223484847 41 50 18
11.729623840469731 -0.15775908676589326 2.200942814808635 37 44 11
14.586994896385272 -0.11167990779393848 2.8361532918115726 46 53 20
14.789722090093859 -0.5187855786770108 2.795313461544996 47 54 22
12.146585315797857 -0.35681889237198905 2.176128440670132 43 50 20
11.539657562551884 -0.7120748858475472 2.326253129778581 46 53 23
12.15634286679674 -0.5810209863203778 2.175573103974758 44 51 21
12.969119487998766 -0.8996126359141707 2.570610398914743 47 54 24
12.578566317210766 -0.8000561664603216 2.6209392087998857 47 53 26
11.454798550178435 -0.7226344715631444 2.113089077811006 44 51 21
12.398707946028528 -0.5477178828936757 2.372829658141045 45 52 22
11.83256677128993 -0.6146676961069797 2.4236513117190124 45 51 24
11.415680309332743 -0.7954930430113769 2.221150714186542 45 51 23
13.519785230040426 -0.5770845615818853 2.6489093673021853 46 51 22
14.388878603658233 -0.4172057292713275 2.8833738157881657 49 56 24
14.526443376419909 -0.6376636058841546 2.8496631810688244 48 57 25
12.4969949689438 -1.3912596093700382 2.48673962668782 49 56 24
13.737274200583883 -1.2767864033198024 2.793170038285962 54 61 30
13.185854645261108 -1.3280574639488902 2.6983827941161826 52 57 28
14.076553098318508 -0.9283635991288931 2.7319376026731605 50 57 27
13.569309860475501 -1.515502363232556 2.6421532396187795 51 56 29
11.578497976110288 -1.056673363602928 1.9154315619086026 46 54 25
11.558061844729986 -1.6265177112108464 1.4765089549518893 45 54 23
11.728914273786218 -1.3682683187495783 1.563279338312518 43 52 21
11.200345236238396 -1.5365675617426473 1.9275777852140852 46 55 24
11.030938520839719 -1.4120327766083745 2.2479615797230306 48 55 26
10.823299968049433 3.0935943167707918 1.7483687048766519 44 52 20
11.816814325427982 3.0005231678928994 1.999470033216799 44 51 19
11.772494853723671 -2.3662388953290483 2.0011912248797965 49 54 27
11.730934766639875 3.0935943167707918 2.0028183189823787 45 52 18
11.816814325427982 3.0005231678928994 1.999470033216799 44 51 19
11.81398704477876 -3.002575296850097 1.9995794075441038 45 52 18
11.354199811172677 -2.5756752846555004 2.018171692031403 48 53 27
11.49225450535969 -2.497481829410011 1.918126684811862 48 53 26
11.981152682097015 -2.911825817292462 1.99321031893271 44 53 19
11.672959283278223 -2.72606205247947 2.5851281924932525 51 59 29
11.487124551447494 -2.4969567553169543 2.6117067373206044 51 57 29
12.13770424012634 -1.9573055066481921 2.5263185633865373 51 56 29
12.383264019859949 -2.2863948973169625 2.374119879535247 49 54 27
12.53075880592143 -1.7864916558733708 2.4832386666822144 51 57 29
11.473886982703998 -2.252258334153176 2.6136796479960687 49 58 28
11.936411708914338 -1.9098170071246534 2.4137467791980276 49 57 28
11.633835761401345 -2.019231529316188 2.5905582188595426 51 56 29
11.889806478157576 -2.3698484511894935 2.4181567667583437 49 54 26
11.72604848895033 -3.085076814942532 2.3113856737705794 49 56 24
11.099381297919756 -2.949147908531684 2.3643038251970703 51 58 26
10.5995436439753 -2.8266989305327344 2.2811315474144216 49 56 22
10.410215932583583 -2.949147908531684 2.2968814895710365 50 57 25
11.637765026714707 -2.437543100804722 2.1036426502383847 49 54 27
12.758564406531324 -2.296249142918292 2.2396913593385506 49 54 29
11.391391183174568 -2.662471659990069 2.1164464285943376 49 54 27
12.292566208350937 -2.518651227387708 2.27002504417212 48 53 27
11.60578048673679 -1.7126569091614272 1.5631995838339148 48 57 26
11.627931151944383 -1.9873571958340444 1.7359637153274554 50 57 31
11.50185925880242 -1.8174453172173164 1.917824404213826 49 57 27
12.082373075838346 -2.1071392105289637 1.989448035473214 48 56 29
12.866005378816658 -2.3094530562250837 1.6417274157942772 49 54 31
11.942281102983612 -2.1814256287117657 1.8171049615325015 48 54 27
11.719654733929241 -1.7617346863741468 2.3118845210231873 49 57 27
14.463216549900498 2.8706611503936452 1.1363135317282245 6 16 0
14.937734761506064 2.8222067160620243 1.2935788699648008 28 41 12
18.92959127684052 2.4683148393206213 3.0982757154542666 53 62 28
18.975511021961776 1.3374495488760847 3.059646474739189 47 56 22
20.30926779538272 -1.8525362518223165 1.6157088931979364 76 73 72
12.019930463159865 -0.14274692238215428 2.0849935233897874 39 46 14
16.15376510920577 1.546050650484768 1.116540883654372 45 55 31
16.675483339489475 1.6120876044373664 1.1970595689923034 43 56 29
10.411568047942646 0.35890646418066596 1.8542498525373972 28 33 0
10.272700064692703 0.494872787925871 1.9614566578322412 27 32 0
10.852815368536033 0.7972057331539811 2.1468613156394927 33 40 7
11.827977082062588 1.0234043550680663 2.564402388224928 38 45 13
12.325717510809572 1.0945017072693208 2.505055333375429 38 45 11
11.133500541831351 0.29182845981297 2.2405771208099785 30 35 2
12.474060011966692 0.29182845981297 2.3666045533639886 38 42 8
10.893721817031242 1.1948859411185413 2.1444241179691903 33 42 10
12.13735622856439 0.6996916608148053 2.5263591316559233 40 46 9
11.286333345635667 1.2231821049982414 2.480974251569183 36 46 9
11.467207352291847 1.1948859411185413 2.217736705809528 35 45 10
10.867517054150754 2.069998287606558 2.0397733107177696 33 43 13
11.61187761176142 2.9098423916962157 1.9143998801788373 48 55 23
14.153498631609231 2.2498383666270345 2.7195926471521368 49 56 26
13.168052424585516 2.069998287606558 2.314172113673952 42 52 20
14.312244346791033 2.722762177694335 2.695530717798823 49 56 24
14.521109067310656 2.584829784376559 2.6663394602168595 48 55 23
13.527764150770084 2.1900309577503028 2.5092161864889486 45 55 24
12.125387923905105 2.8867857791154967 2.177338678395647 48 55 23
14.134370820280509 1.8601706810348133 2.7226170101044818 44 53 17
14.054977576870424 2.0806534384398243 2.5820861807412703 44 55 23
13.3483197527992 1.785871693350085 2.5277988606563047 41 50 14
14.911943673442579 2.0806534384398243 2.6176871819730536 44 55 19
13.207393161074876 2.6604442047347696 2.311437241068218 50 55 24
13.170587640952775 -0.06633196867174444 2.5472204426160587 46 53 19
12.265899293466802 0.05455915075768733 2.2718547816654957 35 40 7
12.31177902984238 0.17884441727241115 2.3801570127780654 41 47 11
12.87251008425248 -0.37305555641258725 2.582402624011078 44 51 21
11.172610120860826 0.16007901353988305 2.128378818790426 30 34 1
13.511836511286512 -0.07672477451687076 2.6500063052788394 43 50 18
14.656908293092707 0.3336938374453442 2.8213711164538062 47 53 19
13.989186656483376 0.09508833196885405 2.746567296479219 44 51 19
12.012305633075085 -0.8667965916149886 2.1838847882536494 44 53 21
12.430051521286712 -1.043653257617869 2.3702262406150676 46 53 21
12.647565901501583 -0.5770845615818853 2.611502796728632 47 52 23
14.526443376419909 -0.6376636058841546 2.8496631810688244 48 57 25
12.700492142275586 -1.515502363232556 2.604434458339081 51 56 27
13.239344030333376 -1.5228736863555465 2.53958003672465 49 56 26
13.120535065006973 -1.5054549700805175 2.7089888169541596 53 58 31
13.538958874068076 -1.021603186314818 2.6462778146741344 49 54 27
13.131264907014904 -1.6870226587010255 2.707222674952561 53 58 29
13.790272565553598 -0.8043362011779694 2.782739413785522 49 56 24
11.276792795152554 -1.441933046545741 1.9250521439916435 47 55 25
11.782893178340148 -1.096395106048506 2.197649491370689 47 53 24
11.841604469750528 -1.299724462243798 2.302500728466928 48 54 26
11.368556268195052 -2.794370271586025 2.0175658504188796 47 53 26
11.309318313874316 -2.911825817292462 1.8312015858438935 43 53 16
11.53913881499183 -2.7132574755886463 2.326295471551308 51 57 30
11.462537606940174 -2.4694303880986346 2.4614370245683537 51 56 29
12.53161122190417 -2.125574290978568 2.3619265998013095 49 55 28
11.473886982703998 -2.252258334153176 2.6136796479960687 49 58 28
11.936411708914338 -1.9098170071246534 2.4137467791980276 49 57 28
10.902754098186728 -2.6578594952360186 2.3828084173090476 52 58 31
11.487124551447494 -2.4969567553169543 2.6117067373206044 51 57 29
12.53075880592143 -1.7864916558733708 2.4832386666822144 51 57 29
11.879791845363755 -2.610427484751207 2.299617878144387 51 53 29
10.836711170621717 -2.72606205247947 2.536368312570845 52 60 29
12.292735925982491 -2.2346510088736946 2.072501177976213 49 54 28
12.49781341198855 -2.0711002799405116 2.2562929348489287 49 55 28
11.757723131843592 -1.9371689467062838 2.0976363625945535 49 57 29
13.180539622366977 2.8486482885624986 1.1744655079763666 48 54 25
9.931450735862049 0.5499205008706285 2.08814064668496 28 34 0
10.961453077118572 1.3276613164973834 2.035435986814717 28 37 5
11.193129600832 1.008849667074993 2.02508790893448 31 39 6
13.038845295059467 1.5330520840701884 2.323320410789182 36 46 14
13.73830395482705 2.022149846803793 2.4885909046447225 42 53 19
14.054977576870424 2.0806534384398243 2.5820861807412703 44 55 23
13.167241210362004 1.7612470844550285 2.4230482428566575 41 49 15
13.546926501836042 2.5448934428379797 2.5072883282828933 50 54 24
14.535369432249652 -0.9762245487730373 2.8476266166661346 51 60 28
12.469595890394649 -0.289383013866952 2.3669701544104766 43 50 20
12.745681165033158 -1.7126000330745712 2.7778676703153344 52 61 29
13.002709059722598 -0.8804602991532063 2.4376401877838587 46 52 25
12.707027636991556 -0.39539043851023054 2.3480595586350868 43 50 20
13.989186656483376 0.09508833196885405 2.746567296479219 44 51 19
11.392059997163093 -1.2608577835627794 1.8292667899416024 46 54 24
11.539799065950298 -1.1401549432830076 2.01046867863467 46 54 25
11.621903003225698 -1.6461451055577856 2.319608685016849 48 56 27
12.531850057019092 -1.299724462243798 2.3619073219906 49 54 27
11.042881024872663 -3.095682613711418 1.8376360561695257 44 51 17
11.607081896761423 -2.911825817292462 1.9145477154071018 44 53 18
11.879791845363755 -2.610427484751207 2.299617878144387 51 53 29
12.020649825526817 -2.3775068729546986 2.7087033085740204 54 61 31
11.96091761193239 -2.1916512310207725 2.4114503801527594 48 53 26
11.960024521490638 -1.8184742759620542 2.5476613204563368 51 56 28
11.912615019096808 -1.9212435231704756 2.7287646114547632 52 61 29
11.3196533499993 -3.090928338897215 2.1202986426243604 46 53 21
11.478274027127458 -1.904898385015095 1.8272815017747315 49 56 28
11.844310326580727 -2.2346510088736946 1.998409347548693 49 54 28
14.666753202485776 2.889662654926744 1.2883176974349122 13 26 2
15.832294299929096 1.69164796588629 1.0346056075747319 37 47 23
10.570055776974304 1.6316885691643095 1.6571695199031016 19 28 2
11.199242737678615 1.261473328385271 1.7423476146077141 35 44 12
10.331706465707946 1.0974589690726801 1.9591057687859064 32 41 9
11.341604962555378 -2.861148657017552 2.2261289326154614 46 55 23
11.65686848949161 -2.5491768139298103 1.6490992759245173 49 54 26
11.90074838778572 -2.156473999149177 2.5550783049145247 51 56 29
12.869014256016639 -1.1491454477115381 2.449965608353325 47 54 22
11.812906237254829 2.9684605875734933 2.304684449001747 49 54 23
12.264991446184931 -0.05218640480108843 2.2719172630403834 37 42 9
13.132306258141908 -1.0931042830061928 2.551547110424873 49 54 27
10.410215932583583 -2.949147908531684 2.2968814895710365 50 57 25
13.90259258501751 2.2846988683374474 2.4732950395393627 44 55 21
10.818877319858787 1.2312896339369686 1.940752876173931 30 39 7
11.72699805865483 3.082508086216058 2.3113116531608027 48 55 23
12.439382564502704 -1.6561605948474378 2.492794935467313 50 56 29
11.42602237212707 -1.3271129791410192 2.114607282554009 48 54 25
21.718426569442265 -1.8992073378459138 1.8946766135255264 72 70 68
11.841606021738349 2.7923292736926744 2.0935208052495797 49 58 28
11.181187029439997 2.2333799076587746 1.8342562921214922 31 42 9
11.82123186413444 -2.5756752846555004 2.094514157646678 49 54 27
11.82927555507893 -2.372839055554898 2.5642338374113884 47 53 25
