12.993952598534616 1.410438803431014 2.1650487003274197 0 2 0
12.363425676945631 1.5032419632920937 2.1031465475787705 15 17 5
12.983637555792281 1.2955573071106667 2.261856245711006 0 4 0
13.202533250380208 1.1638244563054598 2.34974285228652 1 4 0
14.665089454529111 0.7773926484454529 2.562635863707383 24 25 13
13.72132687823657 1.349141898344484 2.535230219663673 24 30 8
13.968913344538763 1.4627318787694665 2.6440323445152023 32 37 9
14.055913192921079 1.3170308268620643 2.632753319045073 31 35 12
13.597597324616801 1.0594738407581836 2.5484777247074186 14 15 7
13.632191886843348 1.4768087613516716 2.544723447938153 27 33 7
13.436620529441251 1.4876483889394942 2.4413942929401724 24 30 5
13.436620529441251 1.4876483889394942 2.4413942929401724 24 30 5
15.251053082382986 1.039620333085339 2.7819212934790385 36 38 14
14.673129718439352 1.1207487166543246 2.701534813422132 33 35 14
15.104849038039536 1.215156799486982 2.808612576232756 36 41 13
14.977922102390332 0.9276654447707691 2.8340531062811305 39 43 13
15.191323384253675 0.7730346779360855 2.792527287780204 38 41 18
14.829719398463233 0.7756798448557792 2.6796174215293935 36 36 20
14.304778678806647 0.8730371664144025 2.6023878052310634 29 30 15
14.521108087003842 1.2743578684753007 2.7243224056937385 32 37 10
14.43691187251445 1.443722179490963 2.7376798697416644 35 40 9
15.516305087661461 1.3037347035831497 2.965066615765353 44 49 13
15.37853224326035 1.1549244039040718 3.0255901562565586 45 51 14
15.716621557757879 1.3751422933024071 2.904020635141549 40 44 12
15.716621557757879 1.3751422933024071 2.904020635141549 40 44 12
10.879470684999518 -0.23935380409541757 1.9746426814485079 66 71 74
10.535924485376718 -0.33393039910893857 1.7884555766604575 59 66 71
10.920157115274934 -0.3393357524033262 2.4307145234616336 40 44 26
10.609203841297392 -0.5327109923467885 2.465461843644777 41 46 20
9.938835719231905 -0.4118305821640557 2.130298186968834 9 11 10
10.463034011699017 -0.2655937985317099 2.0992201594061832 79 84 86
10.183294035742243 -0.3393357524033262 2.3665951161643597 34 38 24
10.90297982201553 -0.06491306576916057 2.588113975423326 40 42 23
10.747385776954342 -0.20139209281843773 2.449592265672365 18 20 12
11.649895278927065 -0.14021531905428242 2.1396263138990848 30 32 35
11.585896566202745 0.0645495419673231 2.1431618173511398 0 2 3
10.665963184591968 -0.05527343547269002 2.4588559870174693 18 19 11
11.57482309265925 -0.03823243746718115 2.1437783432442767 0 0 2
10.649497053536505 -0.4647687750829838 1.9838892801928616 81 85 86
11.55463533428556 -0.8944793596061031 1.9498018008637161 3 8 0
10.700089387921562 -0.7540931332997358 2.3184463181584847 33 37 19
10.180185861844361 -0.5768317342975879 2.2349727640627957 7 11 2
10.615323324760986 -0.8393277759767033 2.203271892246341 18 22 11
10.657058268819219 -0.7588734253274838 2.088623940057096 1 4 1
10.615323324760986 -0.8393277759767033 2.203271892246341 18 22 11
11.428989283944881 -0.9714764486986949 2.050550497116843 1 5 0
10.091053491157345 -0.6744235024616062 2.1208791170381662 0 2 0
11.287645231580196 -0.7472120670957462 2.5352023218874926 44 50 19
10.742524964775535 -1.4377249231233384 2.612781644859495 44 53 18
11.05794528555034 -1.1022172863316344 2.5658339035612157 44 51 19
10.936366455716367 -0.8499893410661495 2.428994923971016 43 50 23
10.76988690809352 -1.001372655531427 2.1927935622704267 9 13 6
10.708151413648906 -1.2174280412696261 2.3177484548132163 43 51 19
11.215021401755665 -1.3416931378787391 2.400698678042046 44 53 19
10.49887379855246 -1.3416931378787391 2.336366673481514 44 52 17
11.086455068128304 -1.042462571224459 2.4134658528296953 43 52 25
11.383476123844359 -1.3072744847027327 2.5231684344750205 42 53 17
11.275875708894404 -1.4584180130665962 2.5367089186230607 42 53 16
11.411172626051071 -1.2174280412696261 2.382095006970123 42 51 22
10.570973688980951 -1.1527422468743347 2.09326929167111 59 64 46
10.602807525256429 -1.368269221480002 2.204137314513372 45 54 23
11.76958509116705 -0.8658937368305403 2.6321736137414 44 49 17
12.412393313132927 1.9235470903711547 1.5123679840250994 21 27 7
12.29458114094683 1.845798861396235 1.7569244276885274 21 27 1
12.294113839351391 1.7644908740941196 1.8404545635055545 22 26 2
12.345693127955954 1.5972218604823123 2.103992872498611 26 30 12
12.397154536650367 1.9341654072503598 2.3016508477197735 29 34 7
12.070664063836125 2.0313613778765 2.2176962189666747 30 35 8
13.372012982531347 1.5999649647450604 2.337307143280125 23 29 6
12.760181093596632 1.7030577821678023 2.276429116215594 23 29 6
11.95178656997225 1.899216377296892 2.1235595180209708 24 30 5
12.310618092795076 1.8702143426484084 2.0136352513278353 25 31 6
11.936230162477141 2.0319421703652436 1.6778330682689062 26 31 6
11.890032905077117 2.0319421703652436 1.5097979522622325 25 30 5
12.451998514755395 2.453624222754817 1.8369517717728021 33 40 6
12.70245251485842 2.2811055576655255 1.5924613186170749 30 36 7
12.82235139653199 2.503244374644438 1.5142380910005193 30 38 5
11.718759286692638 2.148817656155075 1.766185465237769 30 34 7
12.957931769356035 2.5689437560364476 1.9070230162243993 34 41 7
13.441323035792891 2.4433743813497943 1.5168451835629544 30 37 6
12.451998514755395 2.453624222754817 1.8369517717728021 33 40 6
12.17360005436579 2.335657463509402 1.7587961581922744 30 37 7
11.49667593745543 2.2000353405797317 1.951810395434211 32 37 8
12.903355035199844 2.171421305356217 1.5145935232243113 29 34 7
11.378880979023211 2.3329034460553473 1.955960782871398 34 41 8
11.904302637213945 2.1200299713484885 2.1260221385014786 33 38 9
12.888696753749036 2.2596305989277687 2.2679644472575466 36 42 7
12.182714676576127 2.072474033179443 2.018620236940515 31 35 8
12.27062141890926 2.2596305989277687 2.2054441297457434 35 41 8
12.324163868859353 2.466594261561758 2.1050242486598845 36 43 10
12.242284293795185 2.4030851056180085 2.207149411118011 37 42 11
12.95292085073629 2.768925508904287 2.26381928148625 40 46 10
12.952477300850399 2.728641959689882 2.368984923162682 41 47 11
12.57932012860499 2.8023282325731844 2.093066160019289 39 45 9
12.865969815192411 2.8913110261760497 2.171785854570583 39 48 11
13.45672817921758 2.8913110261760497 2.2331153052620376 40 49 12
12.668238795425488 2.6789994844872025 2.1825265812372874 36 43 8
12.853088349762555 2.640713517511569 1.9937119847084863 36 43 7
13.381780260972546 2.8656312677928395 2.3366045506630244 41 48 12
12.70866627985227 2.834264226358719 2.3888708479781973 42 49 13
13.066780161704495 2.5964582133967338 2.161287286388039 36 43 9
13.211119520957054 1.9769808105927096 2.461902193973515 32 37 10
14.009076654363547 1.7616954545230983 2.638779241199258 33 38 11
13.47837007700867 1.718176923182211 2.437726240894696 25 31 6
14.135631328247566 1.9022251550257634 2.622733503398984 36 41 10
14.003000856992005 1.9769808105927096 2.5068042527425214 32 37 10
13.761882419379566 2.1442567816110913 2.530993873533756 36 41 10
13.616111779065928 1.6076063208297657 2.546463534041495 29 35 8
14.598286112953451 1.9558325677675912 2.7125524661093183 38 43 12
14.242664351140863 2.028689625259487 2.770884913462647 40 46 11
14.787555638980699 2.0985771170292713 2.6853772911182503 39 44 12
13.98475927033933 2.631939595853898 2.3960812231735478 41 46 11
11.0860449991166 -1.608885752506895 2.4135073429628298 44 54 17
12.0654231756265 -1.8708666436216503 2.447665504178536 45 55 18
12.293749661809668 -1.9895395815127093 2.4256316120731554 46 56 19
12.597544407047971 -2.0969177682064912 2.398335888586658 47 57 20
12.220043253890239 -1.9443033378088117 2.314720598891336 47 57 19
12.918196899368526 -1.9443033378088117 2.3717111572205836 46 56 19
11.774715457540681 -1.6043396471754754 2.350111075764471 45 54 20
12.525625791442463 -2.043484550262126 2.292493632616234 46 56 19
12.220043253890239 -1.9443033378088117 2.314720598891336 47 57 19
12.560100415611892 -1.7226238739421922 2.401585303453813 45 55 18
11.0860449991166 -1.608885752506895 2.4135073429628298 44 54 17
12.042094767352838 -2.5399544888738403 1.9337311229406158 45 55 18
13.452146426708747 -2.4581922175771025 1.740744379633846 40 50 9
12.59982447375819 -2.4703417075750562 1.9169737522867734 43 53 15
12.188146292747671 -2.4857585793023302 2.1116395114182938 47 58 21
12.731448217737487 -2.4226881147049566 2.27835344209741 48 59 22
12.576805939124878 -2.701373256392757 2.1876356160331323 50 60 23
11.53996324762031 -2.276464356868048 2.1457285382715057 47 57 20
12.903008053036745 -2.3507393874469704 1.991971399376327 44 54 16
12.20304397025745 -2.214457824138103 2.110906479177932 45 55 17
12.277788336387047 -2.4142124285582893 2.0149037460196726 44 54 16
11.70472366395348 -2.4857585793023302 2.0383320843688493 47 57 20
12.262044432871534 -2.5661377262016414 2.205959220774792 49 60 23
12.43046415240544 -2.2628535171818083 2.4130792991292007 47 58 21
12.74286915676779 -2.6601087632615856 1.9976083190743732 44 55 18
12.113323082322529 -2.3499948180415178 2.115353382954851 45 55 18
12.738581544435785 -2.276464356868048 2.2778745965243763 47 58 21
12.284249745248697 -2.1335566448614376 2.2046275601681606 47 57 20
19.754832878506818 2.9958805277776843 2.9207790228051125 50 57 21
19.748340498415132 -3.054967665633863 2.9222483935520565 55 62 27
12.158100825661124 -1.769183012107258 2.5776048299236605 45 55 18
12.52769349750952 -2.0463051980587923 2.532551670117184 46 57 20
13.851100609976395 -3.101557133766949 2.4065931489408685 46 56 19
13.8603556131897 3.074004768738292 2.405854777412255 44 53 17
13.913896596255764 -2.9948502525903584 2.4016141670387157 48 57 23
13.913896596255764 -2.9948502525903584 2.4016141670387157 48 57 23
14.047777364227661 -2.891394738496567 2.3912350046787694 49 58 24
20.032531721309038 -2.8874506800161583 2.8657416404406546 54 63 29
19.98896687629562 -3.0713108235653626 2.873548759404821 51 59 24
13.28040406282031 2.6103693649887734 1.7429639809314514 33 40 6
14.376077664053883 3.0280681919594366 1.589938808828759 37 43 11
13.56923552716871 2.7118654463555427 1.6649107987396294 33 41 8
13.528615774866436 2.7118654463555427 1.5171936355857973 31 40 7
13.84964366236984 2.8543276362731 1.9615539143665832 38 45 9
13.621900012782003 2.930763361210114 1.9684509777878694 40 47 10
13.285603292689101 2.7522634751398587 1.9791072260646705 38 44 8
13.5265809125292 2.781188982402547 1.815355833679734 35 43 7
13.185889548126315 2.781188982402547 1.6676554022243149 34 42 8
13.770355982885485 2.8749085837921498 1.5907809459344877 37 44 10
14.53883505014736 2.959591046079184 1.5209213826521295 36 43 8
13.929009163997206 2.946221462530452 1.808152267560055 39 46 10
13.464757344335604 3.009778956516452 1.9733580998193898 41 48 11
13.954333087009303 2.8749085837921498 1.7345719712879157 39 46 11
14.465800281282053 -3.115566235815459 1.7287318076441933 41 47 11
13.957014059083416 -3.113607538504652 1.8821109039209871 42 48 12
14.813433535840934 -3.111330130166365 2.1635252622198595 42 50 14
15.147584079884519 -3.113607538504652 2.07177741399917 43 49 13
12.901763364733739 -2.8511536751828905 1.9920146186022571 48 58 21
15.205026597832054 -3.0386692314338863 2.069709911349128 41 48 12
14.813433535840934 -3.111330130166365 2.1635252622198595 42 50 14
15.156047409320204 3.094324335668607 2.0714716655998657 42 49 15
14.87216673872325 -3.0303548737812482 2.160867789116988 44 52 16
13.205764070393577 -2.6971808509411077 1.9004714660659867 43 54 17
12.831549957011765 -2.7718769311557376 1.9104673982777065 43 53 15
10.992109113751736 -1.1043190967178564 1.8733481632742839 0 2 0
10.29320899667468 -1.2884143096244107 1.8946140080607017 42 48 33
10.108753191828322 -1.1930182941017309 1.4990322320205285 3 9 0
9.613078995915533 -1.3893814884188032 1.7038386760935662 46 53 23
10.778429762151706 -1.494218258543518 2.08222063205508 49 56 25
10.4003032889294 -1.5015767678274434 1.5972579703585021 46 53 23
10.538221394405658 -1.4065436383398047 1.5019615886781696 41 48 18
11.360666700270528 -1.8771685339844357 1.8632378188701517 50 55 22
10.695359049145045 -1.69367499737617 1.7851599202313546 50 56 24
12.335070552941888 -1.7872669732780677 2.1045012268337904 47 56 21
12.612869532622291 -1.999281882113329 2.185609424735453 47 57 19
12.398681390484573 -1.9622435638151903 2.010269483516726 47 57 20
12.925671646400337 -1.9075476049546567 2.2655712266063963 47 57 20
11.933102900170214 -1.7066334954535778 2.2264322991978722 49 56 23
12.614235960062496 -2.231292192991314 1.916561688142637 43 53 15
12.399144751116607 -2.041747673240074 1.9228179040891236 46 56 19
12.31131978515007 -2.231292192991314 1.8400683090919776 43 53 15
12.090841019351641 -2.041747673240074 1.8451042771499564 47 54 19
13.251097144199633 -2.3513242909733165 1.6671772813351915 41 51 13
13.59015391865847 -2.3513242909733165 1.8141886183952973 42 52 14
14.09623261262463 -2.4024227352743868 1.732908653794902 40 50 12
12.927893842096935 -2.294478238247793 1.8269296126436658 43 53 15
12.454214488266201 -2.161238529836774 2.0081741820098444 45 55 17
14.916898075336952 -2.448373610357415 1.3870980527586851 36 46 8
12.695562532747774 1.5930382195577868 1.6714087216599791 23 27 12
13.48382127680135 2.3378291241640996 1.4425269125397802 29 35 8
13.388386268131294 1.496250435772772 2.3361302083903603 15 20 2
12.956416501783789 1.2655106843429782 2.36867305961732 3 7 0
13.904416876019134 0.952084553108288 2.5164952735326294 4 5 0
14.212911431041585 1.1815051725222725 2.6132898035452943 29 33 13
13.527044278477904 1.3741329441332168 2.4334980893112323 10 15 1
14.43762470097946 1.0594738407581836 2.587201986710899 28 30 13
13.882109600457598 1.2283877530778577 2.5187254896095412 17 22 7
13.904416876019134 0.952084553108288 2.5164952735326294 4 5 0
15.460684841926094 0.8938866512524224 2.7474369569744836 35 37 16
14.521108087003842 1.2743578684753007 2.7243224056937385 32 37 10
15.251053082382986 1.039620333085339 2.7819212934790385 36 38 14
15.79399724102418 1.1283229961823416 2.884568758282053 41 44 10
10.649497053536505 -0.4647687750829838 1.9838892801928616 81 85 86
11.105789003134262 -1.4735590887044965 2.411515331484173 43 53 16
10.279506656920528 -0.3689983008334397 1.9997210899463762 77 83 85
10.708151413648906 -1.2174280412696261 2.3177484548132163 43 51 19
11.333904708050165 0.08120829837360266 2.3893024605445605 0 1 2
10.71812789944763 -0.9109813634948561 2.085381008646503 1 4 1
11.585896566202745 0.0645495419673231 2.1431618173511398 0 2 3
12.381636846242234 -0.7623874319608672 2.102280339660818 2 4 1
11.215021401755665 -1.3416931378787391 2.400698678042046 44 53 19
10.36142519027771 -1.042462571224459 2.34919564342093 46 53 32
11.55463533428556 -0.8944793596061031 1.9498018008637161 3 8 0
10.760914813965455 -0.933323358134094 2.313217931677721 43 47 34
10.321045772473314 -0.5153156987357951 2.1072706155180976 7 10 9
10.855413316798458 -1.2610743057663816 2.59524665990673 47 54 21
11.114482703294874 -1.485113411259115 2.28440646177289 45 54 20
10.234665726143788 -0.6526648576151632 2.3614835406339187 40 46 22
11.361722051280976 -0.04261232133742931 2.265715612758849 1 1 2
10.654627541341576 -0.9714764486986949 1.8832503777278278 5 9 1
10.907464380611813 -0.8658937368305403 2.587448942960256 43 50 18
11.799057525680267 -0.6203891304461062 2.6277196758695354 43 48 14
11.934304719842414 1.6907385175757823 2.0286434153925894 23 27 8
12.663239780379275 2.5689437560364476 1.8324068154273931 33 40 6
12.537559163984348 2.5964582133967338 2.094984400635443 35 42 8
12.565687621570591 2.521414183423234 2.004030163869604 34 41 7
11.499070015076542 2.148817656155075 1.5947289815481138 29 34 7
13.11895627226903 2.176326504175343 2.3560515650488356 37 42 9
12.86520125547822 2.503244374644438 1.6700776551690601 32 39 5
12.271089615131524 2.3329034460553473 2.1075849929956227 35 41 9
12.149336254603345 1.845798861396235 1.6759485711325164 22 28 5
12.73609157552068 2.3926227055788125 1.671087471369025 32 39 7
11.681699369322729 1.9537035742959188 1.766813382315449 26 31 6
11.459399150175845 2.072474033179443 1.8606448231889283 32 34 8
12.90332377778367 2.718591535092353 2.078672426757156 38 45 9
11.755213649579522 2.2717082136079263 1.8531478668016257 32 37 8
11.846293135938856 2.466594261561758 2.0323077496020043 35 42 8
13.221784045149267 2.9679211574907476 2.348306546220185 42 52 14
13.015851428070945 2.3292966164687283 2.3640024668808666 39 44 12
13.8029775288022 1.8613450599400645 2.5267523287052027 31 36 9
13.616111779065928 1.6076063208297657 2.546463534041495 29 35 8
13.420306091609923 1.6033433048532575 2.4428382240242037 25 31 6
14.421729048732297 1.6206679543701237 2.7401501411765947 36 41 10
12.955271271606863 2.1442567816110913 2.486722667759764 37 42 11
15.012209266195308 1.9022251550257634 2.655771944300978 34 39 10
11.840851677406814 -1.7226238739421922 2.3446081253267064 46 55 19
12.701101007021174 -1.8367941441852362 2.3895069595462224 46 56 19
13.547443495162106 -2.793118175344531 2.324911602512622 50 60 23
12.530903268412084 -2.5867660277352686 1.835235513352988 42 52 15
12.828635575391754 -2.5867660277352686 1.9105476765277205 44 54 17
12.042094767352838 -2.5399544888738403 1.9337311229406158 45 55 18
12.496581824403533 -2.6558498140152027 2.294540908044224 49 60 23
12.276384460578761 -2.192425550608878 2.310505088355662 46 57 20
11.70472366395348 -2.4857585793023302 2.0383320843688493 47 57 20
12.261575891267881 -2.5059541973071044 2.3116077564371165 49 60 23
12.354642202949245 -2.739526497076378 2.011945989155496 47 57 19
12.105346740883748 -2.4226881147049566 2.2155339256612416 48 59 22
11.95068491786992 -2.6169098903636057 2.0279681125168287 46 57 19
12.113323082322529 -2.3499948180415178 2.115353382954851 45 55 18
11.027642876704304 -2.192425550608878 2.176135049524868 47 57 20
12.026042309359324 -2.701373256392757 2.11975479307836 49 59 21
11.719745637160239 -2.1335566448614376 2.1358205560556014 47 57 20
11.70472366395348 -2.4857585793023302 2.0383320843688493 47 57 20
11.62580153882017 -2.192425550608878 2.2469255755056663 46 56 19
12.825948257647177 -2.1623844056442936 2.4999674891282275 47 58 21
12.3037091979306 -1.9145566245141592 2.55916250564024 47 57 20
14.870621444943382 -2.977429751074762 2.5418217741059106 48 57 23
14.820537149226118 3.065872382075295 2.546781846050534 45 55 20
14.60833125690935 -3.101557133766949 2.452513693299454 47 57 20
19.98896687629562 -3.0713108235653626 2.873548759404821 51 59 24
20.032531721309038 -2.8874506800161583 2.8657416404406546 54 63 29
13.598403887328308 2.946221462530452 1.6647083284721287 38 45 9
13.217863729317553 2.8543276362731 1.8211887257190509 38 45 9
14.066953241970374 2.806265945265528 1.5903595222191909 36 42 9
12.92118031941375 2.7522634751398587 1.9080172564770495 37 44 8
14.752430112757157 2.8927949190443973 1.521644090188069 36 42 10
13.26671797975385 2.930763361210114 1.8988998256756462 40 47 11
14.019335641501042 -3.0386692314338863 1.8806808017816676 35 42 6
14.474662254931225 3.0976298049699644 1.7286343018387105 39 46 12
13.966198876639375 3.094324335668607 1.8818992953211133 41 48 12
12.526178344398557 -2.8511536751828905 1.9190952722725947 46 55 18
15.147584079884519 -3.113607538504652 2.07177741399917 43 49 13
15.450944874288187 -3.0303548737812482 2.2146704485715203 45 55 18
12.831549957011765 -2.7718769311557376 1.9104673982777065 43 53 15
16.071155886002682 -3.0303548737812482 2.264455704937188 45 53 16
9.95358428556393 -1.494218258543518 1.9060883928128665 48 55 23
9.762125252090645 -1.2884143096244107 1.5989882880119053 33 39 14
10.601335156900017 -1.1930182941017309 1.8848746879743044 4 8 3
10.304661007235111 -1.600762728148684 1.9986050258969401 48 55 22
10.860596186693854 -1.7872669732780677 1.7818488089871067 50 55 23
10.695359049145045 -1.69367499737617 1.7851599202313546 50 56 24
12.398681390484573 -1.9622435638151903 2.010269483516726 47 57 20
11.933102900170214 -1.7066334954535778 2.2264322991978722 49 56 23
12.089890648076523 -1.8771685339844357 2.022311744598116 47 57 20
12.614235960062496 -2.231292192991314 1.916561688142637 43 53 15
13.969732276078735 -2.4024227352743868 1.662204988664302 39 49 11
13.914131875952942 -2.4024227352743868 1.5905744161158228 38 48 10
12.856929450667558 -2.1153078658780378 1.9097699403768025 45 55 18
13.373947780657105 -2.1828596311307256 1.896171767729454 44 54 17
12.453753176586796 -2.083939638504896 2.098879292001656 48 58 20
11.981052298501975 -2.083939638504896 2.026721637008555 46 56 18
13.74618883534287 2.232690005728871 1.3712508083195736 26 32 7
12.89979257481549 1.5032419632920937 2.169989368124517 3 4 0
14.890899616673526 0.9868736536450723 2.671432996375227 33 35 15
15.594674707511173 0.9915577268107396 2.9388220555826994 43 47 15
15.79399724102418 1.1283229961823416 2.884568758282053 41 44 10
14.212911431041585 1.1815051725222725 2.6132898035452943 29 33 13
10.869113720910423 -0.2981041230548311 2.3041219165746853 14 17 10
11.151772494383856 -0.39312370190413626 2.5529988719042214 40 45 15
11.314196684020825 -0.6900717803035735 2.055836682087042 1 1 1
11.105789003134262 -1.4735590887044965 2.411515331484173 43 53 16
11.438192967168094 -0.15605000948279474 2.2601551070941346 22 25 25
11.275875708894404 -1.4584180130665962 2.5367089186230607 42 53 16
10.760914813965455 -0.933323358134094 2.313217931677721 43 47 34
10.535924485376718 -0.33393039910893857 1.7884555766604575 59 66 71
10.810073222570422 -1.2567530576037271 2.190130927697266 48 55 30
10.609203841297392 -0.5327109923467885 2.465461843644777 41 46 20
10.939259777992563 -0.6203891304461062 2.5827697179416895 43 48 16
13.069549697146853 2.1200299713484885 2.256431353751099 33 38 9
13.430285758139593 1.7030577821678023 2.3331374752593645 22 28 5
12.749320347901161 2.082193394260893 2.385472770160001 33 38 11
12.264055061620905 1.9891686677808855 2.107926356155975 29 34 7
12.668238795425488 2.6789994844872025 2.1825265812372874 36 43 8
12.588597373874872 2.631939595853898 2.288099738162206 39 45 10
12.45526975856153 1.6805101844556734 1.9211632111067765 21 25 4
11.916897841264785 1.9537035742959188 1.8492141009689362 25 31 6
13.673344299048356 1.7371628104000172 2.5403088429019993 30 35 8
14.840577427156926 1.6131536290796962 2.6781501551906395 32 37 9
14.475776770016498 1.7945732809237178 2.7314437582060496 37 42 11
14.331012434173461 2.0304293903287207 2.5993362343815325 36 41 10
12.701101007021174 -1.8367941441852362 2.3895069595462224 46 56 19
11.256430044322897 -1.6148563877771773 2.539212282099958 44 54 17
11.882496893717901 -2.4142124285582893 1.9388367428746274 43 53 15
12.918196899368526 -1.9443033378088117 2.3717111572205836 46 56 19
12.88713635314444 -2.3490148722852577 2.3742005352066564 48 59 22
12.825948257647177 -2.1623844056442936 2.4999674891282275 47 58 21
14.617106817971383 3.074004768738292 2.4517852334404924 45 54 20
14.667885754095714 -2.9948502525903584 2.4475996442614782 48 57 23
14.811882114545764 -3.0967286006363093 2.547646095165941 47 57 20
15.110933453770109 2.8281884271445787 1.4564029606981495 33 38 7
13.025475671133462 2.6788124613669897 1.8249681707851175 34 42 7
14.442482097072695 2.7407528993313695 1.5205883632437416 33 39 7
13.312151233485741 2.6788124613669897 1.8977382737575548 36 43 7
14.046749826142474 3.0196018934075957 1.8800559491907902 41 48 13
14.152218985469053 -2.964871250710945 1.8776756994140889 35 44 8
16.016819944314456 -3.111330130166365 2.267279853479953 41 51 13
11.063071807115614 -1.3144046736028856 1.3219366219089794 33 38 10
10.443292095571739 -1.3893814884188032 1.9925604553777343 47 53 27
11.688737836692889 -1.9622435638151903 1.8547981215186113 48 54 20
10.543526715194421 -0.9652310923652059 2.4732641425824187 41 49 18
10.370742902676959 -1.1035527913156042 2.220668471739141 47 53 37
11.361722051280976 -0.04261232133742931 2.265715612758849 1 1 2
10.96282994453655 -1.057503575706379 2.0728052026387247 11 16 8
10.982645372718135 -0.235410482240973 2.5764838106142185 40 43 23
11.725631013773642 2.397197388563701 1.8538798440332593 34 41 8
13.687220422925146 2.8023282325731844 2.2200492371178537 40 47 11
12.281437695879704 1.8034074330038554 2.2047958614522054 24 30 7
12.424541199179544 -2.6169098903636057 2.1002513733568264 47 58 21
12.293749661809668 -1.9895395815127093 2.4256316120731554 46 56 19
12.112848787974434 -2.276464356868048 2.2150682997950932 47 58 21
14.552399012215183 3.0280681919594366 1.7277841399921576 39 46 12
13.408994713930907 2.830415688520685 2.0578029841202055 39 46 10
13.954333087009303 2.8749085837921498 1.7345719712879157 39 46 11
13.173635398850093 2.912695368494416 2.067287839489656 39 47 11
13.104124162264926 2.6103693649887734 1.5154554969903717 31 39 5
13.384391264787574 -2.3513242909733165 1.7416131438835638 42 52 14
11.987609189826944 -0.948785523875019 1.8475284088930557 1 5 0
12.927893842096935 -2.294478238247793 1.8269296126436658 43 53 15
14.683819537089242 -2.448373610357415 1.521414238493841 38 48 10
13.695563403698443 2.4433743813497943 1.3705031861738695 29 37 6
12.811584153432396 1.3941126150746486 2.2730157971575005 3 8 0
13.326693836616435 1.1171654402002167 2.4512411387797624 5 10 2
10.792188393367123 -1.1674540351381626 2.444597798923683 42 51 19
10.647991104678153 -0.6744235024616062 2.201025180133357 2 4 1
9.792479450991284 -0.4651022581171339 2.2663569764786797 22 26 14
12.323231491524869 2.3292966164687283 2.3070414553511425 38 43 11
12.52746034968081 -2.3507393874469704 1.9190581142614351 44 54 15
12.285185081081636 -2.286616523349772 2.0146172879158737 45 55 17
14.794945179986755 -2.891394738496567 2.4373414317992834 50 59 25
13.687220422925146 2.8023282325731844 2.2200492371178537 40 47 11
12.410078810303212 1.5090360217147516 1.9224942903189945 2 5 0
10.22679221819711 -0.2981041230548311 2.2314101998051665 5 8 5
12.309453014112828 -1.9075476049546567 2.203123500282373 47 57 20
14.598286112953451 1.9558325677675912 2.7125524661093183 38 43 12
12.871594705754092 1.8292398427762966 2.37545307085109 28 33 8
12.376546345972848 2.5446466066103994 2.1991573621572664 38 43 10
13.609860553036647 1.8292398427762966 2.4264204483966623 28 34 9
11.888689896844916 -2.043484550262126 2.229308773267216 47 57 19
11.904785240178544 2.2000353405797317 2.0298656723416406 33 38 9
13.381780260972546 2.8656312677928395 2.3366045506630244 41 48 12
