19.79819181744402 1.2105705603290624 2.407039648694997 10 13 10
19.75254209164029 1.2592180058323932 2.488933903213717 9 12 9
19.954717544921998 1.4549755510073803 2.3270424604339732 3 11 5
19.954717544921998 1.4549755510073803 2.3270424604339732 3 11 5
20.190204680191062 1.3584409520073728 2.4610798950403883 7 10 7
19.423148145335897 1.3584409520073728 2.428680320179776 9 12 9
10.818874563190986 0.03914221734349341 1.7279129924793712 5 5 3
15.120015801291014 0.312444567390393 1.8863814273169377 4 4 2
14.964378617422984 0.46864787386607554 1.8897790518375963 4 4 2
15.16791021555886 0.3771727979703108 1.8167320844346813 4 4 2
16.302512729279535 0.312444567390393 2.062218981791107 5 5 3
14.509060217658622 0.4344227990652939 2.050241505019626 6 6 4
13.016289051345199 0.0481511983441931 2.410836669669941 8 11 8
12.364238882524626 0.16199780208079087 2.3504921412784805 6 10 7
12.272343950454895 -0.5972612031796535 1.8764404622041655 4 7 4
12.100382833928732 -0.7181179847588031 1.880927737134008 4 7 4
11.646797947202039 -0.7181179847588031 1.7166611806174037 4 7 4
11.769982286073114 -0.14707898553730397 1.9809089653576244 6 6 4
12.126598682218013 -0.4421887827463292 2.059464920333092 7 7 5
11.58924062369155 -0.23725031150035533 1.8950947716243363 6 6 4
10.675000728407538 -0.26071820343297636 1.9240298785795587 6 6 4
10.925906807100436 -0.14707898553730397 1.7263612468536413 5 5 3
11.945550610422536 -0.23725031150035533 1.9745278642040747 6 6 4
12.117442420697499 -0.5231787822666274 1.9684756293099908 7 7 5
10.870953285345028 -0.1620246153833404 2.01715762761071 4 4 2
11.690539527636348 -0.4421887827463292 1.9838653047329462 7 7 5
13.023201339287 -0.5231787822666274 2.1105406677742486 6 6 4
11.072223351907255 -0.18031460781897535 2.2198982780497314 7 10 7
12.783294247297018 -0.648920297526618 2.1218221455971076 8 8 6
13.997541422228027 -0.6645719585216114 2.069336613453842 5 8 5
13.239747269736695 0.1826581415864619 2.5109212530387444 9 12 9
12.569478138048558 1.861656147038956 2.7659080329163395 8 12 9
12.710263622600522 -2.0770041811483493 3.089226655145065 10 13 10
10.794520945180528 -0.7791344717989572 1.5423373621629586 2 5 2
10.126821115530964 -0.8487400460653451 1.6392662067610968 4 7 4
10.169382410978526 -1.1191957436350264 2.16494315353854 6 11 8
12.273736514988983 -0.9095602031732535 2.053101858897792 6 9 6
11.51891395955506 -0.8409657188874727 1.5441275073310106 3 6 3
11.309468122096154 -0.9863357144585517 1.9986819179203303 6 9 4
12.218008794861314 -0.6286483412350036 2.2518748455105566 8 9 6
11.531832882848608 -0.4923505922130476 2.4246414620252157 9 12 9
11.705154188513998 -0.2031952929690836 2.4078161634109576 6 11 8
11.790419547580617 -0.5628255162179038 2.5358766099775294 9 13 10
10.507281696228127 -0.32440984999968686 2.2613597922380597 7 10 7
10.982939197889745 -0.2031952929690836 2.346803836415669 7 11 8
12.768331495998906 -0.9095602031732535 2.1225424361925196 7 10 7
11.409982512055263 -1.1191957436350264 2.310704625015312 6 13 11
11.864423432614853 -0.9529545362007856 2.3930496670713555 7 14 11
13.083617542971318 -1.0612808017294006 2.5274528186252025 9 16 12
13.251684106357619 -0.7791344717989572 2.1901609900221075 7 10 7
11.607485512304448 -0.8590390370945832 2.295279137970055 7 13 9
13.4855455916832 -0.7781897010057208 2.3728102694768674 7 10 7
12.69730091406624 -0.7791344717989572 2.125989355082585 6 9 6
12.44701730375883 -1.0180251100679718 2.343938282095586 8 14 11
12.106749443089615 -1.1191957436350264 2.3717440639076273 8 14 12
11.8187848046096 -1.1661748654866737 2.9954745121618713 10 14 11
11.841390306692439 -1.2313298583040693 2.3951461044753195 8 15 11
12.018340533371571 -1.1844503950522987 2.509011375792015 9 16 12
14.097364222741419 2.3360356013208787 2.9014540353137668 8 11 8
12.627183441683655 2.3420158552544192 2.754486629584954 8 11 8
13.348644144803421 2.167618392663561 2.826834075041962 8 11 8
11.800476339038854 2.0547828326123883 2.7048548659015723 9 12 9
13.618692111059898 -2.4183368952958197 2.473749380854005 6 12 11
11.242647216294534 -2.3033776592154775 2.827562273587276 7 14 10
14.631908174690947 -2.077840772460908 2.2948748299682014 8 15 11
14.298517213855037 -1.9945819322242708 2.3156868220398366 8 15 11
14.0970872063885 -2.1518959701179874 2.5489201244339035 6 12 11
13.134163513544664 -2.409416665956105 2.2940797076483954 7 14 10
15.178883913215342 -1.3063757442280852 1.9552470495602172 5 9 6
15.548634263106475 -1.2603944779885408 1.7448622365444049 6 6 4
15.739415617418135 -1.1995053830149474 1.6785589970490282 6 6 4
15.228931849885456 -1.1138561513682153 1.6821860399874549 4 5 3
15.178883913215342 -1.3063757442280852 1.9552470495602172 5 9 6
15.783162934453587 -1.1748560936159913 1.9398046972596772 5 8 5
16.077952801352335 -1.1995053830149474 1.8025488098758466 6 6 4
20.768311798235132 -1.5378943070730633 1.7008234370621582 7 10 10
20.977686092211822 -1.4894756623765644 1.7477550427319453 6 10 9
21.081227940176976 -1.4414358672115914 1.7468767797916787 7 9 6
21.120940728419274 -1.5378943070730633 1.7948553390270456 6 11 10
17.91029631430016 -2.2084828347346765 2.0775647588057393 4 12 8
17.91029631430016 -2.2084828347346765 2.0775647588057393 4 12 8
18.181219136388556 -2.172335867442198 2.0076825085302623 5 13 9
19.96291002745698 1.18200004304967 2.475269851694743 10 13 10
19.586054772668902 1.2828906860888845 2.419113132453047 9 12 9
20.658435402800368 1.5203531527003817 2.4335457881285656 6 9 6
19.357409598177906 1.3738452045495768 2.3565660579092356 8 10 7
15.325393504963097 0.4038896211468512 2.022740949771666 6 6 4
12.364238882524626 0.16199780208079087 2.3504921412784805 6 10 7
13.086637623793116 0.16199780208079087 2.4048588848320454 7 10 7
11.408190122106625 -0.14707898553730397 1.9004346302074442 6 6 4
11.579659470518557 -0.32366315549942565 1.805494251763563 5 5 3
10.959896756958653 -0.35448893902130413 1.9144625399695625 7 7 5
10.816180398139627 -0.14707898553730397 1.6348961507585795 5 5 3
10.20174376763639 -0.07564225526789158 2.2863676133251927 3 10 6
12.013291530894573 2.07128310160286 2.910101222226825 9 12 9
11.944623522262406 1.7034091784987646 2.9359052164527792 10 13 10
9.62202314360065 -0.928051751546899 1.7476507672465913 5 8 5
11.404578337023956 -0.7791344717989572 1.9005429805224199 5 8 5
11.535643023255192 -0.8409657188874727 1.6308933495987878 4 7 4
12.118852784815331 -0.8487400460653451 2.155877245774477 6 9 6
11.152527168137123 -0.9529545362007856 2.3319877161895217 7 14 10
10.889824504586148 -2.267160664237883 2.9511006313925843 9 13 10
10.889824504586148 -2.267160664237883 2.9511006313925843 9 13 10
11.128020634555181 -1.2313298583040693 2.334087937400486 7 15 11
11.841390306692439 -1.2313298583040693 2.3951461044753195 8 15 11
12.792964321316417 -2.4308426427804535 2.5604530894592 6 12 11
13.153889358457455 -2.2658742227455897 2.2927564743638693 7 14 10
14.028629733414089 -1.9045789779058926 2.3335749248424227 8 15 11
12.401637768950152 2.167618392663561 2.8018680916288106 10 13 10
12.627183441683655 2.3420158552544192 2.754486629584954 8 11 8
12.933756813016029 2.2155937003158193 2.699962254733679 8 10 8
16.457685862989198 -1.1413695046162142 1.7971071479979095 5 6 4
16.016597321295684 -1.2603944779885408 1.8681579035814824 5 8 5
15.111839510160396 -1.239129566130864 1.8865580841580685 6 9 6
20.913000703359987 -1.5864676478886874 1.7483082016795655 8 11 11
21.112538444513937 -1.5864676478886874 1.7949460328489275 6 12 11
19.067845134885157 1.2105705603290624 2.3718813183313974 10 13 10
13.547895951572912 -0.6645719585216114 2.004463233435754 4 7 4
11.338576034251286 -0.1620246153833404 2.0967953187413677 7 7 5
12.60936585204072 -0.5972612031796535 1.9521433033306737 4 7 4
11.326210014602596 -0.4421887827463292 1.9029119830203376 6 6 4
11.825356812104205 -0.5972612031796535 1.7144432757549994 3 6 3
12.869910512261903 -0.5716229145419518 2.2114735056760804 7 7 5
12.62926621624853 -0.26071820343297636 2.225757021166255 6 8 5
13.148992960270256 1.6648877206387298 2.8774203402857825 9 12 9
12.274992118506496 -0.9863357144585517 2.1474740355008137 7 11 8
11.881680476623588 -0.32440984999968686 2.3914873662166047 7 11 8
11.531832882848608 -0.4923505922130476 2.4246414620252157 9 12 9
13.637717142903995 -2.250804112377112 2.4719826979209447 7 14 10
12.546644839597219 2.8245769695656135 2.7705494364864927 8 9 7
13.357274087361018 -1.9045789779058926 2.27942672325308 9 16 12
21.120940728419274 -1.5378943070730633 1.7948553390270456 6 11 10
15.752641321384562 -1.2603944779885408 1.8074251751061778 6 7 5
20.08206929939462 1.4365302262183135 2.4677592711355003 8 11 8
14.58237639417227 0.33534266531723184 1.971853480899901 5 5 3
11.060801133003215 -0.26071820343297636 2.0089593435002 8 8 6
10.913227061640134 -0.648920297526618 1.634325366876245 3 6 3
12.626958333340433 -0.4421887827463292 2.129448506581814 7 7 5
12.783294247297018 -0.648920297526618 2.1218221455971076 8 8 6
10.883990860564506 -0.07564225526789158 2.355765384478511 6 10 7
10.842011414972227 -1.0717711001713746 2.0184355363097226 6 10 6
11.770410299039197 -1.0180251100679718 2.283094039776335 7 13 11
12.615475597088052 -0.9529545362007856 2.447023256726895 9 15 14
21.176614340723145 -1.4894756623765644 1.79425626626779 7 9 8
17.44686312532113 -2.2084828347346765 2.027430595226797 4 13 9
14.563527175010783 0.4038896211468512 1.8988830737267939 5 5 3
10.826437234185228 -0.05443944251054013 1.7278023294807319 5 5 3
11.060801133003215 -0.26071820343297636 2.0089593435002 8 8 6
14.007669241800624 -0.7087159854884968 2.335006054698559 7 10 7
14.376007070656344 -2.0373897219198716 2.409530559279259 6 14 10
10.812370858802655 -0.7791344717989572 1.634918766147457 5 8 5
12.046272618886421 -0.26071820343297636 2.1598739119938912 6 6 4
12.69851463645926 -0.8487400460653451 2.221575277604301 8 11 8
12.293063128069482 -0.8590390370945832 2.3562327165706534 8 12 9
11.76648155557386 -0.7791344717989572 1.981038319093312 5 8 5
