14.764305151270369 0.5020683043870307 1.8063517738967065 77 73 71
14.363504729809723 0.5020683043870307 1.601834108262584 86 81 78
17.373853805227498 0.5091535640178274 2.369351646576675 78 72 73
16.158858723522826 0.8568748932919925 2.1951276642139055 71 63 46
10.009368967327386 0.5357233341938841 2.2704733673281807 51 50 35
10.13515112295517 0.24656033287581614 2.260072350621007 38 36 27
9.38146534719121 0.11927024043992811 2.190112639862538 43 41 32
10.13515112295517 0.24656033287581614 2.260072350621007 38 36 27
9.501234579023464 0.32936142573788013 2.4713327411621333 50 52 32
9.954167711081348 -0.012002549055595554 2.2751504759197725 38 39 29
9.779965517595368 0.3662221757889608 2.1613560929337656 44 45 34
9.011098477202776 0.480202373714307 2.3678656757488152 48 49 34
9.981242228253786 0.13717143539689258 2.412791369793463 50 51 35
9.94018509317981 -0.013825090475615021 2.417430004776099 49 50 38
9.410187758981834 0.2821675485817587 2.3253651839855523 47 48 32
8.937501641599805 1.4522204982993958 2.555466342257568 51 53 32
9.450626260272799 1.0254819519493474 2.3213498500085947 49 48 31
9.611862435092528 0.9400474659761123 2.4569430560226078 50 51 35
9.309461563635313 0.8195262986615569 2.335586864502627 47 48 31
9.309461563635313 0.8195262986615569 2.335586864502627 47 48 31
9.141661924329753 0.8286245325943492 2.5226360436332227 53 52 38
10.166905041910065 -0.6322248472535066 2.3925640612184984 52 56 38
9.932600963827467 -0.7391785989520915 2.2769970152207826 54 54 43
10.608866169332792 -0.7391785989520915 2.348775338658582 52 54 39
9.999468133569486 -0.1641984928509648 2.410752067947153 47 48 36
10.15733460224035 -0.3074830427958555 2.3935779893451956 48 49 35
9.999468133569486 -0.1641984928509648 2.410752067947153 47 48 36
10.266002893761309 -1.038845222996225 2.3822392053953587 52 56 35
10.77690482427044 -1.0552563265926505 2.10054415577935 51 54 36
10.390958712531564 -1.153727598349984 2.12243605829374 50 54 33
10.62313860476147 -0.9968388668912204 2.222779714982346 52 54 36
10.602039617755878 -1.2212450051863257 2.349409943449912 53 58 36
10.361203529522015 -1.498640967893139 2.2422227047885093 52 56 34
10.361203529522015 -1.498640967893139 2.2422227047885093 52 56 34
9.731008619118914 -1.6164329476444752 1.93274672187069 51 55 34
10.298734621533338 -1.4885084579091683 2.378896836963731 53 59 35
10.29049465180958 -1.6292784626361598 2.3797351490741447 54 60 35
8.554914924296408 2.405187401117429 2.1172619536672945 53 52 36
8.558487219128436 2.303286091639689 2.260484946389169 50 51 35
8.454495385525268 2.0280177659848384 2.437816136535326 51 51 34
9.165396123155393 2.312617364803056 2.077224699502122 49 48 30
9.2395872048515 2.0280177659848384 2.507909279125001 50 55 28
8.792544432530335 2.1786319724685383 2.3936526931125344 51 53 35
9.227089626321632 2.303286091639689 2.3441891034164493 51 53 32
9.498039046664175 2.416932562487511 2.471757291480933 52 52 36
8.733207514982912 2.3972464652456567 1.6218581504378178 40 41 26
9.497777602245623 2.468760713789592 1.5124063169442754 16 17 4
9.758084239412378 2.613508662239985 1.513965630891765 77 76 63
10.38369316477744 2.529405704084603 1.7104818902163428 64 63 48
9.058248864108835 2.3972464652456567 1.8441907975003706 48 47 31
8.782108815308202 2.4884275988627214 1.9739912138435565 49 48 32
9.622723273606747 2.941550991607906 1.513165324548968 48 48 38
10.2094386067608 2.748071940094569 1.5164806196833485 64 62 54
8.749252357238063 2.918520716229958 1.7367992180815446 53 54 39
9.976133541639662 2.8419315615574954 1.4143612019664205 50 48 39
9.755921829905823 -3.1319232827304635 1.305892561053028 52 55 40
9.560645300124664 3.0339955810315304 2.0544356262127086 54 55 37
10.064661844641545 3.0339955810315304 2.1425115258707397 52 56 37
9.898583584941537 2.5943409523385736 2.2799319119671444 50 51 35
9.996040359564315 2.6564564098753856 2.146934627980311 51 52 39
8.763849772675155 -3.1307743275215456 1.853623271167146 52 55 39
8.763849772675155 -3.1307743275215456 1.853623271167146 52 55 39
9.70689730486515 2.918520716229958 2.0465381508483644 55 55 38
9.062994200906434 2.6564564098753856 1.9608075818396902 45 46 33
9.951973272653056 2.8087714022078942 2.033891509064609 54 55 40
9.547986188493967 2.715873630082465 2.3118815620050683 53 54 39
8.729203743967663 2.5943409523385736 2.105161704846399 45 46 31
10.584591556027682 -2.1980149265525806 2.351037473080483 56 62 37
10.121659561219449 -2.022907814091456 1.5160091024959197 49 55 33
10.667695635265869 -1.8971323116170318 1.5188160351852948 50 54 35
9.719142966408269 -1.8304634337684509 1.8251722912033954 51 56 34
10.441035835992697 -1.7439509000165183 2.2361619032547413 54 59 36
10.17319206587541 -2.019630422202411 2.2569945918553977 54 60 33
9.536264860111114 -2.07032184585044 1.8301617616829158 51 57 35
9.4340596563847 -1.9702022129836885 1.9446919151382343 51 57 35
9.704418456417873 -2.4539208397911154 1.7203304530365298 52 58 33
9.080739680699113 -2.789574127244392 1.7306861836948957 58 63 41
9.816317742352807 -3.0262260027152332 1.3075612577481748 53 57 41
8.790776409454736 -2.8980406658679096 1.7360078572852735 56 60 40
9.95738726811687 -2.5975167823980514 1.4140642562617056 56 62 37
10.239319696629064 -2.8980406658679096 2.1315750992575166 56 62 39
8.831033127874443 -3.0126601542316602 1.8514130645930773 55 59 40
9.632061736411439 -2.5399364958320247 1.9366391492636859 56 62 37
9.835101773965748 -2.470770121172056 2.157602684632587 56 62 37
9.604311122251216 -2.789574127244392 1.9377462762001487 57 63 38
10.656128005723556 -3.0126601542316602 2.2204186848696015 54 58 38
10.239319696629064 -2.8980406658679096 2.1315750992575166 56 62 39
10.422125809855286 -2.470770121172056 2.2375865385873692 55 61 36
10.645661211077577 -2.5739033039183346 2.3453755939826277 56 62 37
10.441988328941202 -2.241176725227384 1.4213939888487155 48 55 28
9.670960421318519 -2.3061948662312313 1.7208516984177562 52 58 31
20.2872270386533 2.6675491546904375 1.023662456663553 43 45 24
20.096013436787057 2.6397825629230427 0.9582498040260363 44 46 27
20.5740955034287 2.692604430397624 1.0878585152172404 48 50 28
19.15742628944776 2.5191610261905018 0.9233873076978942 38 40 19
15.574625955316794 0.7488686877883848 2.143939485533 55 46 36
10.973631306235927 -0.016300158527350665 2.607570971890839 54 56 36
10.125665635058947 -0.016300158527350665 2.557281558237434 53 55 34
9.777564137347238 1.6551700358778674 2.6135356904101217 50 55 29
9.625151713013432 0.6816922100850312 2.641348793793246 51 53 34
9.625151713013432 0.6816922100850312 2.641348793793246 51 53 34
9.29913387755427 0.8443294288336154 2.709827859317658 53 55 36
9.658768431072358 0.9865480146097169 2.6350182067192733 52 53 37
9.797718274780655 0.39453344514789496 2.61001981127812 53 55 33
10.538920540157603 0.1957157341966713 2.682087409402133 54 56 35
11.081095208421207 0.24832369634105456 2.8013182402979044 53 56 35
11.044127592784003 -0.025390921291083408 2.8109024405522107 53 57 36
10.764796442407034 -0.1641984928509648 2.4727991554480346 51 52 36
10.586564804307688 -0.505504409484122 2.4943990637295226 53 55 38
10.56539278002943 -0.7115668557348925 2.6770495814879607 53 59 37
10.094835299793573 -0.5931925319767 2.561915761556522 55 58 38
10.962083113853868 -0.680185141871487 2.8334460597428843 54 60 38
11.097514926923527 -0.29544268407464913 2.7971635259209475 54 58 36
11.239969787365444 -0.5280520465536348 2.763414283909335 54 59 37
10.045801529579808 -0.8512515997174516 2.5694140487750303 52 58 36
11.037302048310773 -1.1009912376406041 2.597894581427245 55 61 38
11.01282411132145 -1.038845222996225 2.4447937190057383 52 58 35
11.00816491686011 -1.0970275368060245 2.8205545771742475 56 62 39
10.909172297243355 -1.383805921339683 2.84906837326408 60 66 43
11.74261857770147 -0.9222502022046133 2.916251040092689 55 61 39
11.74261857770147 -0.9222502022046133 2.916251040092689 55 61 39
11.24700653043729 -1.6388522589903527 2.5677935416481255 53 62 36
10.8467682689268 -1.2690075676515422 2.6276936515205014 55 61 38
10.746288999182434 -1.4564238517908763 2.6445087838263674 55 61 38
11.35052708676539 -1.3162504317167918 2.5538331548411692 54 60 35
11.329685701924271 -1.2012079582146327 2.7439583407497214 55 61 39
11.2335267604853 -1.4288051805649924 2.764860537250402 57 63 40
13.206001524431416 -3.120975400276885 2.8006221922149477 57 62 40
12.662438238556172 -3.1247819140720474 2.6996272648336976 58 62 41
13.550529006847611 2.5706530246190904 3.0171482033849246 56 61 40
14.646526704285753 -3.1039147895363826 2.9758200282351193 57 64 41
13.661232192125576 -3.1039147895363826 2.9637407059349834 58 65 41
12.008958069257247 -3.129315520821552 2.4760111158242815 56 60 39
12.042964362713244 3.0196202703024073 2.472422579202448 55 59 39
11.45437232097111 3.0008407241476496 2.5403627541110385 55 59 39
11.260733046767331 -2.1616688244669584 2.565910328044527 57 66 40
11.706190562879161 -1.8419245099437633 2.673268784294998 56 65 39
12.709029286804206 -2.942775728671281 2.6919421205779113 57 64 41
11.60320878570708 -2.2852163325260593 2.5219098595976286 56 65 39
10.958773313011266 -2.0818080886689665 2.4507085519336855 57 63 38
12.849200444003342 -2.4280006122577653 2.890334274021475 64 70 47
12.12603883929704 -2.592192701247996 2.8050368451498175 62 68 45
11.531681742664638 -2.6992842790782707 2.7041304451331465 59 65 40
11.816426952368449 -2.942775728671281 2.6551502114231376 57 63 41
12.31621208158965 -2.899334060536838 2.763371692469232 57 64 41
12.90169329753351 -2.0001428656083937 2.8749440400277146 63 71 47
12.099279144874115 -2.2340588648816833 2.811416543225418 63 70 46
11.754223372120443 -2.5308027343254746 2.665253992730842 61 67 44
11.495905646968545 -1.9482924206410706 2.5351157781434317 55 62 37
12.237005095979617 -1.9038316935654649 2.7800105451039325 61 70 44
12.392523515942313 -2.1040947815724587 2.748164819204118 59 68 42
11.726615239494636 -2.266395394090997 2.6698372898553044 59 68 42
10.371156703325092 -2.3942812697430105 2.522402726476489 57 64 39
11.118277971217537 -1.767780222940507 2.43353511243487 54 60 34
12.435448305646611 -2.8264994839425235 2.5680740906179613 57 63 40
12.058074356080919 -2.9955044862935765 2.4708397711428116 57 61 40
12.435448305646611 -2.8264994839425235 2.5680740906179613 57 63 40
14.038057228036697 0.5990204302623572 1.5313033720026095 42 32 28
13.82038551123946 0.7488686877883848 1.8982994452192419 36 27 11
9.662792059839333 0.4159861729642971 2.301062609657181 46 47 33
8.859820538755589 0.9400474659761123 2.385503702269093 48 50 30
9.215298184659343 0.5653838115436731 2.5115052261981408 50 52 33
10.08187151598733 -0.5559219902903803 2.2644354291188695 47 48 34
9.89682604080906 -0.8287266301715799 2.153461293724153 55 54 42
10.171018698022806 -0.2690052071179696 2.2571696027471804 50 51 42
10.089715969227663 -1.2615762169204428 2.140914718659962 50 54 33
10.353013278960459 -1.6220640002315747 2.2428514515153877 53 57 35
10.77690482427044 -1.0552563265926505 2.10054415577935 51 54 36
9.739721935004843 -1.50655478086349 1.9324080138525472 50 54 33
10.403537351815359 -1.3509128162448596 2.3684122984782316 53 59 36
10.889118361112303 -1.1027240611451687 2.323724046775425 51 55 34
9.029929476020477 1.8514698675314432 2.5402245199832496 50 55 27
8.792544432530335 2.1786319724685383 2.3936526931125344 51 53 35
8.724276852677498 2.312617364803056 1.9768205577750195 48 47 31
8.61244104306089 2.2125029167726677 2.1132041738649736 52 51 32
8.554914924296408 2.405187401117429 2.1172619536672945 53 52 36
9.608137170624238 2.468760713789592 1.4083173843320376 3 4 2
9.755921829905823 -3.1319232827304635 1.305892561053028 52 55 40
10.509504159609191 2.748071940094569 1.3252947536414568 52 50 40
10.02394639423919 -3.1307743275215456 2.1451270673892058 53 57 38
9.233569896590689 2.8087714022078942 1.838870383140381 52 52 40
10.52771490219212 -2.824375041358751 1.2264198273633156 55 59 40
9.462622427158738 -2.1276974261846138 2.0598844426149445 54 60 33
10.561958669073922 -1.8990680014680135 2.353160585283597 54 59 33
9.721580447193782 -1.9301485849888111 1.6166629504545933 51 55 36
9.687777711846342 -2.3061948662312313 1.409664809687933 50 56 29
10.207998483237564 -2.0818080886689665 2.388244459444783 56 62 37
9.005674589806077 -2.5399364958320247 1.6203119891631854 56 61 36
9.520052238687098 -1.7252236448381757 1.8306136657649246 51 57 34
9.671266510049676 -2.6890857866403786 1.82645964792006 56 62 37
9.49359527194449 -2.3821062888296898 1.942232609408761 55 61 36
9.82460554523787 -1.7252236448381757 1.9291420349744786 52 56 34
19.391219937832012 2.608890016621671 0.9324725697799727 41 42 26
10.761184863194437 -0.03520699965928854 2.898868226078386 54 58 37
9.29913387755427 0.8443294288336154 2.709827859317658 53 55 36
9.658768431072358 0.9865480146097169 2.6350182067192733 52 53 37
9.896467537037374 1.258515771644421 2.593288194369952 51 53 33
10.815968885284507 -0.399407170414234 2.879192400086862 54 59 37
10.56539278002943 -0.7115668557348925 2.6770495814879607 53 59 37
10.338920209006778 -0.3582574618043126 2.5267912103007015 53 54 37
11.74261857770147 -0.9222502022046133 2.916251040092689 55 61 39
11.027359943014408 -0.19292830203057293 2.5993879627210394 53 55 36
10.44450970594388 -0.7285446605492111 2.5126153533845055 53 57 39
10.613197126127812 -1.007303332034569 2.6681403192316964 54 60 38
11.329685701924271 -1.2012079582146327 2.7439583407497214 55 61 39
11.627749228474487 -1.6521659215717883 2.686785602971213 56 64 40
10.764796442407034 -0.1641984928509648 2.4727991554480346 51 52 36
12.292035012951134 3.0008407241476496 2.5863971952743214 56 60 40
13.691135151607066 2.7816360003818 2.9519747659835094 57 61 40
14.515178232636467 -3.077348658223014 3.043738960695162 57 64 41
13.691135151607066 2.7816360003818 2.9519747659835094 57 61 40
12.662438238556172 -3.1247819140720474 2.6996272648336976 58 62 41
12.258719673245412 -3.1274019954431833 2.590794202930211 57 61 40
12.337864531584785 -2.405972023198365 2.7589793115612853 62 68 45
12.237005095979617 -1.9038316935654649 2.7800105451039325 61 70 44
11.656322070867114 -2.746642240484476 2.381196456126599 57 63 38
11.950315024645041 -2.773087039025125 2.6343709485825673 58 64 39
10.83472365771629 -2.494595091827839 2.4646742431999087 57 63 38
12.849200444003342 -2.4280006122577653 2.890334274021475 64 70 47
12.444724316202928 -2.6992842790782707 2.7381789205928815 58 65 42
11.868666431768704 -2.0137522030872232 2.646891541051567 56 65 39
10.804766292360167 -2.2852163325260593 2.4681320190720966 56 63 38
13.437701983164681 0.6417052074925481 1.7538222690502836 62 53 47
14.820998819806702 0.41028282635133145 1.600875741416174 78 73 69
10.121418534547372 0.2821675485817587 2.397410182525442 50 52 33
9.779965517595368 0.3662221757889608 2.1613560929337656 44 45 34
8.95007284326688 0.39453344514789496 2.5533542226371955 51 53 32
9.995167409940514 0.11927024043992811 2.2716699450241506 48 49 35
9.501234579023464 0.32936142573788013 2.4713327411621333 50 52 32
9.38178088095478 0.6106753998078756 2.32821571762819 49 50 32
10.40930014407629 -0.438884725874686 2.3678451476347377 48 49 35
10.118220533916324 -0.8376677041964342 2.3977534996693324 54 55 41
10.465380700482298 -1.3773708918593182 2.2343377271984917 52 56 35
10.298734621533338 -1.4885084579091683 2.378896836963731 53 59 35
10.171018698022806 -0.2690052071179696 2.2571696027471804 50 51 42
10.243208359164129 -1.3982023170801137 2.019744619633707 50 54 34
8.088099783375121 2.1786319724685383 2.309463064144345 51 53 34
9.758084239412378 2.613508662239985 1.513965630891765 77 76 63
8.586704844015156 3.0339955810315304 1.7399717115904132 54 56 40
9.5956620286267 2.7067353518641943 1.8285196500050933 48 47 35
9.585791932637749 3.0453490526969 1.4079352525971756 49 51 38
9.591180238432266 2.468760713789592 1.7221094439401434 51 50 34
9.223031016204956 2.5568170878515595 1.8391842718597518 46 45 29
9.648984720561858 2.7677434030746304 2.170484084732829 54 55 39
9.020384334552398 2.8087714022078942 1.7317653108153042 48 48 37
9.897889131517678 2.7067353518641943 1.9263705726273403 49 50 37
9.114716059984366 2.405187401117429 2.2111346142414656 51 53 32
9.390700201552638 2.7067353518641943 1.7253654907015852 51 49 38
10.002154323250037 2.5163503434384364 2.410452529202951 52 53 36
9.278495432767457 2.5943409523385736 2.198046454955075 50 51 37
10.520543736636768 -2.3870360726466955 2.357080996599074 55 61 36
9.97708260396936 -2.9230470864609837 1.3119011140106844 55 59 42
10.645661211077577 -2.5739033039183346 2.3453755939826277 56 62 37
10.299848796725552 -2.746642240484476 2.2469648475721367 57 63 38
9.842723879300621 -2.160606008790357 1.7182138017695927 50 56 29
9.536264860111114 -2.07032184585044 1.8301617616829158 51 57 35
10.047591512917327 -1.8608760392337031 2.143604998497796 52 58 35
9.373310910870606 -2.6890857866403786 1.5116300653210533 58 64 39
19.164685157061268 2.47888735597484 0.8565176151262035 31 33 14
10.709750659042516 -0.013825090475615021 2.4793298323563135 52 53 37
10.799121093507914 0.33814531831546707 2.885065073885521 53 57 37
10.50004425797117 -0.019854547250803743 2.689627224276623 54 56 35
9.440453007098341 1.185613672047449 2.678405210805005 53 54 38
10.1659737008029 0.16134029871342434 2.551313122453096 51 53 34
10.799121093507914 0.33814531831546707 2.885065073885521 53 57 37
11.24700653043729 -1.6388522589903527 2.5677935416481255 53 62 36
10.729055889548492 -1.1694633149254805 2.4770256096981145 54 60 37
10.492864796579891 -0.9572944483137168 2.506308537542198 52 57 36
11.74261857770147 -0.9222502022046133 2.916251040092689 55 61 39
10.962083113853868 -0.680185141871487 2.8334460597428843 54 60 38
10.55618362321113 -0.23362265141355112 2.678793506900922 55 57 36
11.239376958576985 -3.129315520821552 2.4210411870550765 54 58 38
11.239376958576985 -3.129315520821552 2.4210411870550765 54 58 38
11.706190562879161 -1.8419245099437633 2.673268784294998 56 65 39
11.328084624942168 -1.7990829051439534 2.556813090704259 54 63 37
11.950315024645041 -2.773087039025125 2.6343709485825673 58 64 39
12.18930844815955 -2.8667349459802214 2.4573849510515084 57 63 40
12.709029286804206 -2.942775728671281 2.6919421205779113 57 64 41
13.708521892669296 0.5377534238081474 1.7501667896155158 79 73 69
9.530467396353233 0.24656033287581614 2.1790110126454962 41 39 33
9.450626260272799 1.0254819519493474 2.3213498500085947 49 48 31
9.578081089894168 0.705993302737701 2.4612747806713378 50 52 35
9.611862435092528 0.9400474659761123 2.4569430560226078 50 51 35
9.983435808797289 -0.9255589475292356 2.2726618951386284 54 54 39
10.118220533916324 -0.8376677041964342 2.3977534996693324 54 55 41
10.013367969266485 -0.14286529801358022 2.2701372536789615 43 44 34
11.197147624330844 2.66098138731327 1.2477829771610776 77 76 65
9.742093934482927 2.4884275988627214 2.1639643710430922 48 50 32
10.008819555642972 2.8896244549264853 2.270519573459743 54 56 38
10.047591512917327 -1.8608760392337031 2.143604998497796 52 58 35
10.068638885709369 -2.6374358031386453 2.1422574117162063 57 63 38
19.785425454360414 2.6675491546904375 1.0668399220467415 47 49 27
19.346771973924593 2.574382357547647 0.8646489841581482 36 37 21
11.037302048310773 -1.1009912376406041 2.597894581427245 55 61 38
14.515178232636467 -3.077348658223014 3.043738960695162 57 64 41
14.646526704285753 -3.1039147895363826 2.9758200282351193 57 64 41
11.31815501588784 -2.6229120085159696 2.558139630002867 57 63 38
11.00816491686011 -1.0970275368060245 2.8205545771742475 56 62 39
11.195952369612762 -0.8743499159842484 2.77343647259919 54 60 38
10.143923872245294 0.24832369634105456 2.768411247925119 51 55 34
13.661232192125576 -3.1039147895363826 2.9637407059349834 58 65 41
12.306839208131862 -2.973132461368211 2.5844608809822995 58 62 41
10.705844009444018 -0.4278973816714432 2.651517595549268 55 58 37
10.50004425797117 -0.019854547250803743 2.689627224276623 54 56 35
10.429445384552308 -1.475075414470143 2.5146033692342566 54 60 35
9.849018580947202 2.613508662239985 1.7181188965344374 45 44 28
10.13515112295517 0.24656033287581614 2.260072350621007 38 36 27
9.283829237201756 -2.2975224360717856 2.0701624756290764 52 58 31
9.285378013053371 1.0861325719909574 2.5012279997060682 51 53 34
10.62313860476147 -0.9968388668912204 2.222779714982346 52 54 36
10.855818806707553 2.8419315615574954 1.137877098658091 77 75 68
9.802089817876064 -2.2975224360717856 2.1598437741362777 55 61 36
13.049292521733628 -2.2340588648816833 2.8362640967854724 63 72 48
11.754223372120443 -2.5308027343254746 2.665253992730842 61 67 44
12.444724316202928 -2.6992842790782707 2.7381789205928815 58 65 42
11.20055225679129 -2.3942812697430105 2.5742426434148573 58 67 41
10.834450438364556 -2.019630422202411 2.3284628572997894 55 60 35
9.549885710845324 2.1786319724685383 2.4649316896515723 51 54 30
8.928005430539978 1.6551700358778674 2.557070249151553 50 54 30
10.527403123870302 -0.6581515609518775 2.2297400114130124 51 50 39
