10.690113531367137 1.1106271140659396 1.7513682064698624 35 40 23
10.914130702589478 1.1106271140659396 1.8416253323586846 33 39 19
10.959769182430218 1.2946387687995629 2.0363323725655014 31 37 17
10.928957734203284 1.319984043566746 1.7473799265879366 30 36 16
10.602848175153248 1.6024208129117563 1.752870952738426 21 30 6
10.227202307181837 1.4997780342276488 1.9641389643769982 20 28 6
10.728538635144337 1.411887676480422 1.7507143910071448 26 32 11
11.477478345029786 2.0015339354003423 2.0137981683695183 32 39 17
10.467757128505337 1.8131881707710573 1.954621428144785 27 35 14
11.43836684441991 -0.05408156819345235 1.2060562908493508 25 33 14
10.835073226853078 0.42892066979616766 1.3776149981791188 37 45 24
11.257635975561467 0.31037259057459204 1.4747012552668086 36 44 22
10.994981859709393 0.22323645726485628 1.4723983340455886 34 42 20
10.818728411066685 0.13252075594777185 1.4707899597567389 33 41 18
9.841215722299149 -0.16171722862394908 1.6644032125686175 28 37 15
10.740363173868339 -0.05408156819345235 1.4700578109665805 18 26 4
9.841215722299149 -0.16171722862394908 1.6644032125686175 28 37 15
11.257635975561467 0.31037259057459204 1.4747012552668086 36 44 22
10.152251731718637 0.2454456637168841 1.7610488814621372 35 43 20
10.117989519421341 -0.059661475761802314 1.8635409144505752 33 41 16
10.665490076259445 0.34015011253268096 1.8481039760171054 34 42 19
10.201136958249037 0.1460395528858992 1.8610851348363053 33 42 16
10.443092226813127 0.04364942962067636 1.9555754521835362 34 42 19
10.267528554770664 0.558884644347797 1.660505920043426 35 43 21
9.836717443953999 0.6153630762906674 1.8721706272813932 35 41 18
11.12606672850658 0.8387145828802869 2.0288377648857296 33 39 19
10.178444466217634 0.6153630762906674 1.9661276077379082 34 40 17
11.304542112325985 1.0644972205296073 2.1219506826209393 32 38 17
10.844850009028972 0.7689733019652399 1.7487640143634535 40 46 26
9.920540440913554 0.47166352584148685 1.76554892460305 35 43 20
9.682767687441396 0.5230048540667819 1.9875876522883273 34 40 17
10.055093112675609 0.7664648433349933 1.9712523676114677 34 40 18
10.883648511422706 0.9782558496648271 1.939236314645266 36 42 22
9.73401099782251 0.4196772135674646 2.100676517413789 33 39 14
10.092959808765755 -0.17998894236697166 2.0799686327134843 34 42 20
9.706272463399555 -0.07516548564050976 2.2267314095852884 33 42 14
10.069859119675526 0.1626027897291457 2.0812497924325264 32 41 15
9.698271330328186 0.05501028098644081 2.227366499423697 30 38 16
9.977841501406765 0.048676260293700035 2.086421311320008 32 41 15
9.698271330328186 0.05501028098644081 2.227366499423697 30 38 16
9.4290099396921 0.30589957442695337 2.119731515575169 32 38 15
11.457462488132466 0.6623765365303282 2.46310017009155 32 38 13
10.61095164660213 0.8780659590472298 2.569237621154555 29 35 9
11.065127044433137 0.975757055458326 2.508368251541732 31 37 10
10.674169323182726 0.8597785056297881 2.406792979885144 32 38 13
11.501818036242012 1.159831746528576 2.2163388967129665 32 38 16
11.170839376972618 1.0091697240329358 2.2388478543583408 31 37 15
10.791064659054959 1.1115664471100022 2.26693345176319 33 39 17
11.035366821303304 0.6825659117534717 2.248572327917631 32 38 14
10.579913951342169 0.5854567114833711 2.2837309119601614 31 37 13
10.579913951342169 0.5854567114833711 2.2837309119601614 31 37 13
10.53294406722094 0.9420537320033869 2.2875931050373763 33 39 17
11.21528565855067 0.9420537320033869 2.3548658435227536 33 39 16
10.339061295705386 0.05501028098644081 2.3040530896924496 31 40 10
10.451797735736216 0.21009311767516187 2.430656094365818 30 38 16
10.324194076263675 0.5430345662381426 2.4451306222296862 31 39 15
10.202442724901106 0.4740543359727739 2.3161820478503485 30 37 10
10.63429024871093 0.6323996716441982 2.565840288080909 29 38 12
11.109847208852399 0.5430345662381426 2.5029050163867685 31 39 17
10.634134547374217 0.34834875998881193 2.410969030300156 29 37 14
10.474056087303966 -0.23224804162615617 2.4281919023201777 34 44 15
10.370660180668654 -0.08638183766839733 2.4397898157197826 34 44 14
10.84361394282959 0.40373614257830825 2.536749239768769 31 39 16
10.450201201437167 -0.20285162811229712 2.2945137517821435 33 43 15
16.347679905410285 -0.15609942162004017 2.9123113172869237 39 49 21
16.342930580305122 0.1145743936417191 2.9135598258930653 34 44 18
10.753411484022244 -0.4421179817763125 1.4701804626354547 29 41 17
10.311174612395337 -0.3543455936295618 1.5630241795864122 30 40 17
10.050113692387306 -0.2604948108256953 1.6624520088846504 29 39 16
10.425172832585837 -0.2604948108256953 1.8546716153467275 32 42 19
9.847574624944938 -0.48577037225277925 1.6643425905320741 30 43 15
10.309716904515602 -0.5716534601960402 1.5630230806475653 33 43 20
10.309716904515602 -0.5716534601960402 1.5630230806475653 33 43 20
10.146165125691976 -0.7088589574305888 1.6615819221818122 35 43 23
9.397531241928242 -0.5380633635603771 1.8867310795415826 36 47 20
9.562625817592075 -0.7784040619987121 1.7729372482557977 35 45 22
9.468498344097405 -0.6014527267847198 2.1171826483800396 36 46 20
8.821056101818458 -0.7753790764095876 2.306495525053074 37 47 24
9.327274885282518 -0.4364303103816453 2.004525831612492 35 44 19
9.527994541163237 -0.8593443543034505 1.9947909167036144 36 46 23
10.02607808706446 -0.32419694409026095 2.202408055056643 34 44 14
9.823385924219387 -0.39134748335954167 1.8725925059938315 34 44 20
9.78967713795044 -0.4364303103816453 2.0973490231682055 34 44 16
9.67621465762375 -0.6287313006498305 1.7705320543817271 38 48 24
9.352387038560854 -0.7771604879577192 2.1247503364522125 37 47 21
9.379034549915652 -0.8737069736874746 2.2538701789837257 37 47 23
9.027580105160654 -0.4923053542616328 2.147162939862343 36 46 20
9.448906060804438 -0.9533731262181113 2.118444117932809 37 47 25
9.85816282878084 -0.2889728659326449 1.9797242740653058 33 43 19
10.154962131226954 -0.7784040619987121 1.967092768527126 35 45 22
10.285153787741608 -0.7088589574305888 1.758560984154825 37 46 24
9.953550993540448 -1.0722063527884091 1.7648947858743675 36 46 25
10.193767657774899 -1.0722063527884091 1.8613010984165856 36 45 26
10.292532722923943 -1.1197401574630566 2.1835969674005344 38 47 28
9.904454383449488 -0.9283885010797399 1.8700454626120304 35 44 25
10.664313455987841 -1.2048432796491646 1.848135381374251 39 48 30
9.904454383449488 -0.9283885010797399 1.8700454626120304 35 44 25
10.292532722923943 -1.1197401574630566 2.1835969674005344 38 47 28
9.615894906766709 -0.9887917276755918 2.374061796037642 38 48 25
10.228425743733235 -1.0618352125289794 2.313839866607302 38 48 27
10.819799678719336 1.9472802466859778 2.149730622020415 33 41 18
11.115178432553092 2.134988012133311 2.0293207708819136 34 42 20
10.380232025732816 1.7273824512279115 2.1776690519635333 31 37 17
10.223116568259035 2.4332484718491694 2.1883791275046316 34 43 19
10.42933097752202 1.375020856562295 2.174404259504812 30 36 14
9.729715859432652 2.531760828769095 2.2248783777893952 35 43 19
10.232176207500856 2.2634852628091946 2.1877503933363394 35 43 21
10.887707362170595 2.193540938540499 2.1456591728899905 35 43 21
10.380232025732816 1.7273824512279115 2.1776690519635333 31 37 17
9.095649808352878 1.420373667105674 2.6274824322250394 34 42 18
10.095104904164904 1.2096688511347842 2.6542551691074854 33 43 18
10.935443228534774 1.7480650761800107 2.3807246532704864 35 41 18
9.534120581464364 1.7749555035906857 2.382992367389905 34 42 19
9.167861998075429 1.8628755270031618 2.6137033399355607 34 42 19
10.54046870791134 1.1767616632590474 2.4209419917117523 34 40 17
10.874974502266255 1.4807341739346909 2.3865827746714117 34 40 16
10.982060204495252 1.3494492463383678 2.3762766651761527 35 41 16
11.027722626108616 1.375020856562295 2.2491304559211325 32 36 14
10.92108467177921 1.4913794738979393 2.2570248852931574 32 37 14
10.905480938406788 1.6099235248391317 2.2581973083834685 32 38 15
11.113073772692918 -2.271127479495358 2.954848405256576 44 58 31
9.645966702851817 1.9413804824952763 2.7511072525795846 34 42 19
10.297555712366712 2.0728176771811837 2.869914379503462 34 42 19
9.577360046117098 1.377389638435875 2.768895427293003 34 42 19
9.92002909639857 0.9082176847710155 2.688681147289615 32 40 17
11.015677479857167 -2.731785711238771 3.009601397342671 45 59 34
9.799642129605246 2.2446162147102267 2.354819764034422 35 41 19
10.386420342507384 2.16396939552301 2.299953264811666 35 42 20
10.051266879607983 2.3456078302852905 2.4782632251265277 33 43 19
10.051266879607983 2.3456078302852905 2.4782632251265277 33 43 19
11.032790634928606 2.0988703456430673 2.248760309391103 34 42 20
9.365314607931682 2.055654610960885 2.5785946609593875 34 42 19
10.237801965066467 2.920551060571634 2.4552832555640443 35 45 22
10.016659252267717 2.824185791838194 2.6692449146174244 35 45 20
10.472297670665586 3.0154174657657937 2.8153331098556773 36 48 25
9.924148372184048 3.044348629553251 2.6878289699994813 35 48 25
10.288553643547866 2.593462791782635 2.8730732391479066 36 44 21
10.479707860437271 -2.9698249047764245 2.8132496838237646 41 55 31
11.275776027381733 -3.0336349711582673 2.646131856628337 40 54 29
9.83382416572052 2.1684723041389384 2.7070417771830613 34 42 19
10.11748594326139 2.342472358458561 2.650097451994884 34 42 19
9.983103261114032 2.6459303565316254 2.336656552312713 35 43 20
10.582038328091311 -2.699121019208915 2.7859542402634916 41 56 31
9.83382416572052 2.1684723041389384 2.7070417771830613 34 42 19
10.406892107636606 -3.0336349711582673 2.6004311210572957 42 56 32
10.479707860437271 -2.9698249047764245 2.8132496838237646 41 55 31
9.68594905309482 2.776089820043108 2.366594881804756 35 43 20
10.039882349275263 -2.792171401708785 2.6647375147285635 40 55 31
10.206772469245976 2.6315031740848487 2.633997365853327 35 43 20
9.532017418122553 2.3366983978712117 2.7812580721481694 34 42 19
11.300479360349387 -1.5075124939061846 1.9250341638128927 43 52 34
11.358683108232588 -1.6958501771867884 1.9231397135767245 45 54 36
10.687690454772433 -1.2988963756602405 1.9463246310028601 38 47 29
11.741354420718924 -1.6958501771867884 2.003161915511031 45 54 36
11.685056929830079 -1.5075124939061846 2.0053864609905654 43 52 34
11.33771877299576 -1.7087496755790508 2.1201529432150235 45 54 36
10.24261639424412 -1.268997418236614 2.071830018046427 38 47 29
10.555109491099978 -1.3784769653415185 2.166211610331356 41 50 32
9.979762218722602 -1.231993073512441 2.2058075651179596 40 49 33
11.264299484910616 -1.605207962994261 2.1241482151947473 45 54 36
11.27940684592832 -1.5009255037088194 2.1233210585773277 44 53 35
9.04180175987481 -2.7548717363181248 2.2846102675948807 44 55 32
10.941090293842908 -1.9410765626309934 2.142501453647853 45 54 36
11.845751237696689 -2.1547855929833917 1.819853297441718 44 53 36
11.74149543947049 -1.905380661955039 2.099231833893138 45 54 36
10.489581735265665 -2.183765890846108 2.0589811773442457 48 56 38
11.358093401975408 -2.206529448813943 1.923158803729263 43 54 36
11.761740097996308 -1.8757643895825815 1.9105683810124268 44 53 35
12.08296131842675 -1.959317501650352 1.9011866481428705 43 52 34
11.639677860907712 -2.1547855929833917 1.7364945824033735 41 50 34
9.298857262059272 -1.2209268621432299 2.5900221574515263 41 51 28
9.913632900448135 -1.1851582134555871 2.3434175288414507 40 50 29
11.162314141940032 -1.7702648087590667 2.4966013278324195 42 53 32
10.11369073727236 -1.8534969236704868 2.6507989150169524 42 52 30
9.829750999757588 -1.2798331884493068 2.5076578643680665 42 52 31
9.709965437992981 -1.4511955301647075 2.524635240206732 42 52 31
11.005746771976732 -1.8534969236704868 2.693637468407493 42 52 31
11.567667238967454 -1.9266479421316645 2.8053424020748183 43 53 30
11.510520282416214 -1.3855881205005731 2.8198482795737525 44 56 31
10.335179985598245 -2.047056265431019 2.857138598082424 43 55 31
10.429729768997763 -1.3221179066053768 2.433116617848934 41 51 30
11.041262705804046 -1.492811074608594 2.2481425487088567 44 53 35
10.267114876696343 -1.614280139507041 2.3103835012721134 40 52 31
10.283687266807389 -1.4825698009038186 2.308914240928737 39 51 32
11.041412665992961 -1.7445063706428667 2.3706970435102397 41 51 28
10.283687266807389 -1.4825698009038186 2.308914240928737 39 51 32
10.396864898213957 -1.3538420570006136 2.299056125738356 41 51 30
11.170760318736553 -2.041565725024603 2.6638176915378216 42 52 31
9.863826429666577 -2.4828265053214698 2.7005340692833544 45 56 33
11.325046626532599 -1.9111965083821811 2.4777370638525076 38 50 29
11.572212631252517 -2.039405682654242 2.450892172068259 39 52 31
9.106836808397292 -2.6911234767596333 2.4338838941862107 43 51 29
10.934144228201454 -2.251773349331571 2.256047058726822 42 56 34
9.70927559510838 -2.4510212130547124 2.524735412671194 43 52 30
10.564354618657715 -2.1996679349878643 2.576120324316731 43 53 31
9.438735878912103 -2.5504159264238826 2.393715569468384 43 53 30
10.775037018778846 -1.966457878955256 2.5460183644242353 42 52 29
10.510726398517539 -2.3057177613331112 2.8046943879451183 43 55 31
10.775037018778846 -1.966457878955256 2.5460183644242353 42 52 29
11.724775027319877 -2.1480068052017387 2.768897317652139 44 54 32
10.788508708835904 -1.9848116681323613 2.267131458800365 40 52 31
11.13783391196022 -2.0899064507221867 2.2411883722220303 43 55 34
11.13783391196022 -2.0899064507221867 2.2411883722220303 43 55 34
11.455637993595802 -1.9848116681323613 2.3341528397433438 41 51 29
11.264446475878346 -1.8360018812351422 2.2323073989851254 45 54 36
9.873554229120874 2.598714651436158 2.0924178912359848 34 42 18
9.924318268708452 2.50466480745501 1.9768373195371542 37 45 22
9.224048309224122 -3.0723578561006986 2.009715133668636 41 54 30
9.878879134134099 2.9903015933106167 1.8708442666654335 36 47 24
9.778152801854866 2.972465195904579 2.098034263075263 36 46 23
10.071593449387601 2.887561388098517 1.864929662315955 37 46 22
9.215628512142702 3.090929510216856 2.0101440961931196 40 52 28
10.35768971695254 2.7900083722565108 1.8565730040460933 37 46 22
10.26166436511429 2.7517568036747413 2.070813746827828 37 46 22
8.967643120568958 -2.929589462530917 2.151513424055966 40 55 31
8.966526856497765 -2.954411985452895 1.9024849930002388 43 55 32
8.966526856497765 -2.954411985452895 1.9024849930002388 43 55 32
9.439443123431193 -3.0629486606930514 2.248673425580404 41 55 31
9.728171023848413 2.8224064395834274 2.225000130128591 34 42 19
10.088981604854729 3.0840318309191863 2.3266127075389607 38 48 25
9.049277216019298 -2.687510646247561 2.0188014510342227 44 54 31
11.163292669447301 1.029061735162722 1.7436353889870106 37 45 25
10.844385045508812 1.506572348472395 1.843411487477753 21 29 7
10.21053823859489 1.6057745265561512 1.9648163060747565 23 31 9
11.13880985881547 1.9104823711492052 2.0282738230640374 33 39 19
10.299186142963613 0.34015011253268096 1.6602294324532745 35 43 21
9.868066269454708 0.04364942962067636 1.7665979394796858 30 38 15
10.840233366660978 -0.14678908273572938 1.4709890153822904 22 30 10
9.394420464213301 0.5854567114833711 2.1219850823028557 31 37 14
9.977841501406765 0.048676260293700035 2.086421311320008 32 41 15
10.4048961697231 0.558884644347797 1.756374832323415 34 42 20
11.087064392956348 0.5110399609816683 1.5635680962044702 38 45 23
10.650607186838421 0.5230048540667819 2.1601499293929978 31 37 14
10.49269107518068 0.47166352584148685 1.9536619272708378 34 42 19
10.633825990237161 0.42892066979616766 1.5632600064870605 36 44 22
9.90453822857718 0.6825659117534717 2.0906209523092505 33 39 16
11.058413386044652 0.9184295777412771 2.135690483754888 33 39 18
9.731098013880299 -0.059661475761802314 1.6654656317940595 23 31 8
9.985618627019463 -0.06652337820039105 2.0859799498406857 32 41 15
16.347679905410285 -0.15609942162004017 2.9123113172869237 39 49 21
10.346566909532648 -0.07516548564050976 2.303399823089152 33 42 12
10.461297480260503 0.7630522261436865 2.293576836083351 31 37 12
10.234625209728557 0.7504583421133985 2.629125846576578 29 37 13
10.837068630062063 1.0516077501814316 2.390307267943082 34 40 17
10.697370003289365 0.6623765365303282 2.40439595274045 30 36 11
10.339061295705386 0.05501028098644081 2.3040530896924496 31 40 10
11.822545937167384 0.7581392810659034 2.5663549333131486 27 33 8
11.17256443709614 -0.2370296265994748 1.3835207677799006 29 39 16
11.444712946952764 -0.3235095354778262 1.3880249660565054 30 40 17
10.425172832585837 -0.2604948108256953 1.8546716153467275 32 42 19
10.350361555566176 -0.5716534601960402 1.6597860734203538 36 44 24
9.448906060804438 -0.9533731262181113 2.118444117932809 37 47 25
9.47008553964676 -0.32419694409026095 2.1170807259907356 33 44 12
9.388908704511175 -0.6791769470606391 2.2530146613105533 36 46 22
9.990718075971664 -0.48577037225277925 1.7641635541256826 34 47 18
9.527994541163237 -0.8593443543034505 1.9947909167036144 36 46 23
9.85816282878084 -0.2889728659326449 1.9797242740653058 33 43 19
9.027580105160654 -0.4923053542616328 2.147162939862343 36 46 20
8.944067772806894 -0.5628616082190512 2.2941145131843994 36 46 22
9.60921038560297 -0.4923053542616328 2.2345286898668766 35 45 17
9.580238593864836 -1.0618352125289794 2.236896056540238 37 47 26
9.027580105160654 -0.4923053542616328 2.147162939862343 36 46 20
10.655936953582163 -1.1170979308634554 1.5632756445719904 38 48 27
10.170402356002919 -1.0184590079014322 2.0757226848637473 36 45 27
9.75174385291024 -1.1197401574630566 2.0996116933661284 36 45 29
10.827208122045723 -1.1170979308634554 1.7490571039682343 38 47 27
9.9509490792278 -0.3687575315250983 2.3397686216484828 35 45 15
10.316509522531511 1.4913794738979393 2.1819638258129554 30 36 15
9.076908588609488 1.6452141408931682 2.631150216232423 34 43 17
10.905480938406788 1.6099235248391317 2.2581973083834685 32 38 15
10.33251686048666 1.3163594971618335 2.444167963800627 35 41 18
10.874974502266255 1.4807341739346909 2.3865827746714117 34 40 16
10.774806754611822 1.1132007890733373 2.5460499010778825 32 40 16
11.177934614470391 1.2254513393357398 2.358204036949808 34 40 17
11.015677479857167 -2.731785711238771 3.009601397342671 45 59 34
9.69878349913932 1.1167543691183834 2.7380830565417544 34 42 19
10.828051484596928 0.9082176847710155 2.7291043517095015 35 43 20
10.68003020147347 1.9924894946094178 2.2756537209551446 36 42 20
9.66273987000175 2.2161665904068886 2.5315592802404225 34 43 19
9.653145820000196 2.472709184903269 2.532982651034375 34 42 19
10.206118397820386 -2.8985536045275015 2.904191122180119 44 58 33
9.83382416572052 2.1684723041389384 2.7070417771830613 34 42 19
10.560007583612098 2.737880928415124 2.791614158852667 36 44 21
10.141136440851694 2.570769479811051 2.4670038462697685 35 43 20
10.487749361317869 2.8807950815996644 2.5877369466118285 35 45 20
10.206118397820386 -2.8985536045275015 2.904191122180119 44 58 33
10.147307397186786 3.0749631440394936 2.4662437985785446 40 54 29
10.838989848223571 -3.008965276102357 2.726804213714323 41 55 31
10.31116439047553 -2.546348402266693 2.86521614143942 43 57 28
10.147307397186786 3.0749631440394936 2.4662437985785446 40 54 29
9.50992336496356 -2.8973276663550687 2.385680760540854 40 55 31
10.75875979280725 -1.268997418236614 2.1534436025912513 40 49 31
11.264299484910616 -1.605207962994261 2.1241482151947473 45 54 36
9.979762218722602 -1.231993073512441 2.2058075651179596 40 49 33
11.403570041171296 -1.4141819070006527 1.9216928042566677 42 51 33
9.04180175987481 -2.7548717363181248 2.2846102675948807 44 55 32
9.231737326167453 -2.5154672427552334 2.132854692555534 40 52 29
8.778935910591361 -2.6271454307836715 2.165684974184116 42 52 29
10.33033340814437 -2.251773349331571 2.181026524092331 44 56 35
8.732125360539387 -2.5504159264238826 2.3157536410637083 41 51 28
11.605275419618518 -1.9953662775971894 2.008579938134584 45 54 36
11.896168615260914 -1.7875841059265545 1.9971644822992534 45 54 36
11.233280167337671 -2.1267667980629716 2.024137756040243 46 55 38
10.545692133317926 -2.0899064507221867 2.166816680418372 43 53 32
11.285693638753731 -2.0382509936885858 2.1229776212951696 44 53 35
9.280347997126231 -1.1242930697977005 2.412301161892354 40 50 27
11.495716648460764 -1.6626961029991583 2.8237342773324015 43 55 31
10.525330140973663 -1.629840912146702 2.5819900463148415 43 53 32
11.495716648460764 -1.6626961029991583 2.8237342773324015 43 55 31
10.316912675025465 -1.469242697907995 2.4459750142300885 42 52 31
11.005746771976732 -1.8534969236704868 2.693637468407493 42 52 31
10.93009780006992 -1.6426989720582885 2.7082635896721854 44 54 31
11.100825659298733 -1.7245930651194523 2.243834519115039 45 54 36
11.041412665992961 -1.7445063706428667 2.3706970435102397 41 51 28
11.041262705804046 -1.492811074608594 2.2481425487088567 44 53 35
10.283687266807389 -1.4825698009038186 2.308914240928737 39 51 32
11.025829049480235 -1.6092160108587927 2.249268870652209 44 53 35
10.966009737865768 -1.614280139507041 2.3778015318836934 42 52 29
11.168518594380176 -2.1529480398212786 2.359050878192267 42 55 34
11.034529751912288 -2.1089895020114846 2.5121554451011847 42 52 29
11.05848325275032 -2.3203180595015693 2.6838136515114264 44 53 32
10.171053542857384 -2.3203180595015693 2.6403475467713755 44 52 31
11.325046626532599 -1.9111965083821811 2.4777370638525076 38 50 29
11.205901023591665 -1.8690702696582095 2.355701441937573 41 51 30
9.431215623842432 3.0840318309191863 2.2493760176707633 41 53 29
10.071593449387601 2.887561388098517 1.864929662315955 37 46 22
10.179994670235061 2.9499194520748486 2.318219317257248 35 45 22
8.702537549202711 -2.8034321540810656 2.0380402525394503 42 54 31
11.444923173984403 -2.27790569800951 1.739340991032967 43 55 36
10.845155359084384 1.1993490199963335 1.9406069701260102 32 38 18
11.442301500970414 1.5121815126033806 1.5637925072103982 20 28 5
9.81871084579549 0.2724407225565398 1.9814661795266906 33 42 16
10.387874513290559 0.2454456637168841 1.8557193395363514 33 41 18
10.275733150749735 0.4196772135674646 2.18474690847572 30 36 10
10.011418158507643 0.2454456637168841 1.6628072721143774 33 41 19
9.7929162387709 0.18335624354440333 2.2199398897595106 30 38 15
9.961098009821352 0.1460395528858992 1.764745854511545 32 40 15
10.531045385935904 0.1460395528858992 1.952195573926709 33 42 16
10.883648511422706 0.9782558496648271 1.939236314645266 36 42 22
10.913978993521829 0.9009692682526058 1.747624832464121 39 45 25
9.816668654428106 -0.20285162811229712 2.2181050429201394 33 43 17
10.990192940251388 0.7664648433349933 2.1396295850046405 33 39 17
11.435803969099098 0.8597785056297881 2.465452885648863 29 35 10
10.791064659054959 1.1115664471100022 2.26693345176319 33 39 17
10.4278919317027 0.18335624354440333 2.2964058370095146 28 36 15
10.370660180668654 -0.08638183766839733 2.4397898157197826 34 44 14
10.610639556699088 0.30589957442695337 2.281229832789704 29 36 13
8.989590603163627 -0.6014527267847198 2.0219948432729353 36 46 20
10.154962131226954 -0.7784040619987121 1.967092768527126 35 45 22
9.573880578765545 -0.39134748335954167 1.7726963331211225 32 42 18
10.350361555566176 -0.5716534601960402 1.6597860734203538 36 44 24
10.323469940457986 -0.9866885236874083 1.660018499152496 35 45 24
10.299989942629376 1.6099235248391317 2.1830880152626673 31 37 17
9.636009977082292 2.34757695125162 2.232355357310148 35 41 19
10.095104904164904 1.2096688511347842 2.6542551691074854 33 43 18
10.307847444365452 1.0275773759297582 2.616637881897865 30 40 13
10.297555712366712 2.0728176771811837 2.869914379503462 34 42 19
10.109149914131216 2.322538600223686 2.947771821053522 36 44 21
9.66273987000175 2.2161665904068886 2.5315592802404225 34 43 19
11.146674960611332 1.8406587303317994 2.240559641706109 33 40 17
9.790182240142409 2.448968165490328 2.3557838374355073 34 43 19
9.82439719011679 2.512646690052028 2.709113767050752 35 43 20
9.67568808909136 -2.853803676889387 2.5296473271250117 41 55 31
9.848751527429911 2.715000234317542 2.5050382893808765 35 43 20
11.497968997406604 -1.809407469372048 2.1116423359076286 45 54 36
10.89614028115021 -1.3981380149618252 2.039268130121608 41 50 32
9.759870799965848 -1.3538420570006136 2.222511766263174 41 50 32
11.64053778720284 -2.0785972193041573 1.9142512561201843 44 53 37
11.518641675259772 -1.7875841059265545 1.9180384403170387 45 54 36
11.67047469228021 -1.6019569316684816 2.0059665416768837 44 53 35
9.70927559510838 -2.4510212130547124 2.524735412671194 43 52 30
10.283687266807389 -1.4825698009038186 2.308914240928737 39 51 32
10.603867156196912 -1.804828790698484 2.570275409483906 42 52 31
9.38694701405544 -2.604610352710591 2.574953758123309 43 52 30
10.335179985598245 -2.047056265431019 2.857138598082424 43 55 31
11.23996525060608 -1.316390341305838 2.9023633032839693 50 63 36
11.170760318736553 -2.041565725024603 2.6638176915378216 42 52 31
11.455637993595802 -1.9848116681323613 2.3341528397433438 41 51 29
9.972813739328501 2.858587425150231 2.086707068253153 38 46 23
9.196405899859501 -2.8034321540810656 2.1352762327782937 44 57 33
11.087965159871821 1.2322031516381364 1.6538520769853489 35 41 20
10.137028617137956 -0.8489946613298739 1.6616639731323097 34 44 23
10.324194076263675 0.5430345662381426 2.4451306222296862 31 39 15
11.109847208852399 0.5430345662381426 2.5029050163867685 31 39 17
10.821271879723332 -0.7793214222083011 1.65590390569485 33 43 22
10.421408337413233 0.6970776656800279 1.854777006692629 37 43 21
9.81241734777756 -0.7784040619987121 1.8729405101592536 37 47 23
11.501818036242012 1.159831746528576 2.2163388967129665 32 38 16
10.413633609539678 0.8475115038429022 2.175443894506465 33 39 17
10.292532722923943 -1.1197401574630566 2.1835969674005344 38 47 28
10.73313294287853 0.03956317196104975 1.4699897190897626 27 35 14
9.678449808131719 2.4332484718491694 2.1040424988088327 36 44 21
10.555029180340155 1.8406587303317994 2.1662167647265544 32 39 19
11.222800106417514 1.2637743156061305 2.235199680458799 33 38 16
10.017493215543597 2.8340312073295726 3.001863909288592 33 46 19
9.66273987000175 2.2161665904068886 2.5315592802404225 34 43 19
9.790182240142409 2.448968165490328 2.3557838374355073 34 43 19
9.83382416572052 2.1684723041389384 2.7070417771830613 34 42 19
10.859304513398827 1.615188535102846 2.3881175059455035 35 41 18
9.69878349913932 1.1167543691183834 2.7380830565417544 34 42 19
10.981299494492294 1.7273824512279115 2.25254211364348 33 39 17
10.48265955503739 -1.3981380149618252 1.954047363902432 40 49 31
11.28540020838718 -1.6019569316684816 1.9255283740672515 45 54 36
9.692241297792304 -1.3221179066053768 2.3659322552334507 41 51 30
11.205901023591665 -1.8690702696582095 2.355701441937573 41 51 30
10.213068859333424 2.6535198381373037 1.9647132897073603 38 46 23
9.778152801854866 2.972465195904579 2.098034263075263 36 46 23
10.759924006326907 1.3953505833016266 2.045684915216279 30 36 15
10.2914777953213 1.710993386100524 1.9615486700592357 28 36 14
9.521068870201296 -0.7753790764095876 2.3844398092988968 38 48 24
10.111964415298303 0.3759498518256498 1.9688726835210895 34 41 18
10.721456951715734 0.8387145828802869 1.9450833123227453 36 42 22
8.923324110346684 -0.9887917276755918 2.2961689467083026 37 47 23
10.223941033290584 -0.16171722862394908 1.8604189021827642 34 42 22
9.172146742714224 -0.6964219065976692 1.8947741592304754 35 45 19
10.363172016608793 0.06323680160173038 2.440644986888743 30 38 16
9.167861998075429 1.8628755270031618 2.6137033399355607 34 42 19
11.518641675259772 -1.7875841059265545 1.9180384403170387 45 54 36
10.30039374169182 -1.620880681267767 2.44789825573472 42 52 31
11.22480480563538 -1.6980183804786078 2.9079652618077416 48 60 35
10.680815208359965 1.6976932694302238 1.7515271391198688 25 35 11
10.119883637185161 -1.1664797602183705 1.9685436263099148 38 47 29
9.53771448249373 -0.6964219065976692 1.994330968192814 35 45 19
10.01650447280714 -0.16171722862394908 1.3616027087191118 26 34 14
11.101501821568558 1.8749352621324478 2.365140881799491 36 42 19
9.829750999757588 -1.2798331884493068 2.5076578643680665 42 52 31
10.198509421148021 2.9622432772970773 2.9072944873060496 35 47 22
11.741354420718924 -1.6958501771867884 2.003161915511031 45 54 36
10.024073679505804 2.704759536432056 2.202554350403409 35 43 20
10.39943003259824 3.06250959248079 2.6016262114772952 35 49 24
10.154954738948101 -3.0505879334890955 2.4653041904144017 41 55 31
11.215288363043495 1.2322031516381364 1.7428260635156823 33 39 19
11.005746771976732 -1.8534969236704868 2.693637468407493 42 52 31
9.931967541741471 -3.008965276102357 2.6862173933505344 41 56 32
11.168146183561442 2.045638716013534 2.1294753859822197 34 42 19
10.95931594423829 0.6375439803867807 1.746885648790674 38 44 22
