15.198818624619204 0.2179080987594202 1.431995303241572 52 46 30
16.068346362914202 0.20442163072916478 1.5021077438842947 53 34 17
19.711060830634658 -0.03784636224660885 1.5655787128979914 38 24 12
15.655005277613915 -0.11823495013975664 1.2387734560589687 46 26 16
15.013324599899283 -0.05439771208031857 1.1521815938832507 47 44 28
14.618571052592875 0.01855684283077289 1.2142222398838882 47 44 28
14.635375877147073 -0.05439771208031857 1.2146499187726336 48 49 34
14.389970163560573 -0.45661010214677206 1.1328240297349275 44 43 38
16.234308622966843 -0.17317674821697687 1.378484288843277 67 46 35
16.43302722907157 -0.2342555508844049 1.3808384108159921 64 45 33
12.379270720982106 1.14128891474636 1.1459192479555966 20 15 2
11.368990440873121 1.313636317021974 1.2015847393587638 86 83 77
13.20116391661433 1.3541872799165253 1.2547679030639618 84 78 73
13.170360511687852 1.2778115325079324 1.3329676679643352 80 74 69
10.955831047713627 1.2247947207254768 1.4699627801190465 79 76 69
11.998984321052111 1.5089713879452864 1.2218236070321247 77 75 75
12.472957505919991 1.421163599904918 1.1493149728238132 78 76 73
12.762092660467244 1.313636317021974 0.9805593047076011 87 84 78
12.8238852170443 1.14128891474636 1.0748130578193518 51 38 29
12.64456298507587 1.5955437849888359 1.3228747679911315 79 76 77
10.722949212418067 2.091180567355109 1.4677651711048143 72 72 72
11.789369782706657 2.2389111584830648 1.5620727440579465 21 21 19
10.718012317411963 1.7917513309486424 1.3733180739204194 74 74 73
11.982581900650018 1.5977417180086693 1.2213254836609373 79 76 76
22.419828698498833 1.251479275822534 1.883504308449219 87 79 69
21.861716260146217 1.2360795920349443 1.9403853059797003 91 83 72
21.852544063490022 1.1905138638424435 1.8919089991461553 76 70 60
21.922456743276754 1.3985919988691722 1.7495162469171515 45 44 28
21.416683687102154 1.3902691910062506 1.8497535764293893 47 43 27
22.240870462536567 1.3429368116414373 1.9337895953572553 32 26 12
12.07319376928659 -0.06367581273655175 1.8131271326466145 52 55 39
13.159092957712126 0.10681857239752425 2.0354833430229284 60 59 41
13.283752015133937 0.020018017706442834 1.8685543629361128 55 54 36
13.101653899999837 0.021728927895758046 2.0376823095520225 64 65 49
13.599237253776057 -0.06367581273655175 2.102696894454767 61 65 48
12.048095270008854 -0.23057572727406836 1.6453298471320987 55 55 41
12.359013823201458 -0.23057572727406836 1.807414543497451 50 51 39
11.54470053622195 1.0190012290126476 1.9151315211553057 33 31 12
11.160915259966494 0.9667081007462529 2.0250338189762895 43 41 16
13.556354070565554 0.3237883483085872 2.286712443623769 64 63 37
13.571134494908959 0.35805897115047497 2.3880652566755556 62 67 41
13.845002131933231 0.45495006373781527 2.367211685741948 61 62 34
12.142510920569006 0.9050869137831199 2.2788711030203594 55 55 26
11.517215806465556 0.9050869137831199 2.2128684149949134 55 55 27
12.642544332024567 0.8253398829680744 2.245478613476233 58 57 29
12.27707173658471 0.832015213291276 2.3813907417263924 57 59 33
12.77183801010317 0.7512452922837505 2.341475930694962 57 59 33
13.239740492251604 0.5049379102830548 2.415137956629444 61 65 39
13.732321263037663 0.4000102583076638 2.4874020099266008 63 69 44
13.479305771980071 0.565950178577297 2.512286312298282 61 67 42
11.311374025910464 1.5089713879452864 1.6501942026350158 76 75 75
12.030106926184128 1.421163599904918 1.9006982246310795 76 76 77
11.416678066982131 1.421163599904918 1.6494603388236346 78 75 76
11.10349992265245 1.190755868506644 2.027560300642029 59 58 40
11.29639038950781 1.313636317021974 1.9230257820655647 80 79 77
11.278629351113365 1.2247947207254768 1.8305797648696918 85 83 76
10.789845623439565 1.4068201719101172 1.8426397492287068 77 76 75
10.549792969205576 1.1011518480060811 1.7516086563741962 83 80 74
11.10349992265245 1.190755868506644 2.027560300642029 59 58 40
11.103842154571657 1.389468689066203 2.1306845153972773 55 56 42
12.28348214638331 1.389468689066203 2.2690859214375525 44 46 20
12.119254662693491 1.190755868506644 2.176216057652522 40 40 16
11.665745673426967 1.389468689066203 2.203381220665234 42 44 19
11.706716692782335 0.9962208178757684 2.3111964223327233 56 56 26
11.792150600563417 1.2148864411799503 2.4256854402328742 57 59 32
12.060189530742754 1.0995048724038616 2.400497027471949 58 58 35
12.15633566822495 1.4865930275343444 2.391894440070836 51 52 26
12.29074512987995 1.4750520527989541 2.506897867418674 57 61 33
13.109413692881358 1.4750520527989541 2.552142767646237 57 62 34
11.548832888486595 1.368066734772018 2.323761750366172 51 52 24
11.089390663775042 1.2550241084774698 2.2420393948897024 51 51 23
11.73717584242304 1.0534792193863431 2.198927087897623 50 50 24
11.604372454178606 1.3410373319634963 2.444492633716258 55 57 34
11.057147202734106 1.2148864411799503 2.366295061837453 53 56 27
12.678394636066756 1.3058859660918345 2.605098641309028 60 65 38
12.583653476505832 1.459860002921799 2.6178972811622 60 62 37
13.859748911394602 0.6414406354876909 2.6029313748253813 61 67 42
13.024371531321076 1.4389707295078644 2.722487226904188 61 67 42
14.373567666211999 1.090190165810431 2.883407702079115 64 70 47
14.744021124418975 0.7218255356557303 2.8010157442553854 65 71 46
14.106211508585302 0.6059259904330905 2.7245457767292716 66 72 47
14.996484637128827 0.8554039689826166 2.756315284551157 63 69 42
13.586178540434977 0.5190073917615622 2.637640200306434 64 70 45
14.36988502665461 0.7360039178181954 2.6848930084271667 61 67 42
13.586178540434977 0.5190073917615622 2.637640200306434 64 70 45
13.458924412456398 1.459860002921799 2.655062122688744 60 65 39
12.338686886198879 -0.16178346300100083 2.069104691867203 64 65 51
13.219604781455587 0.12862875422734216 2.309090679070519 67 73 53
13.219604781455587 0.12862875422734216 2.309090679070519 67 73 53
13.351641963901345 0.22841395712868323 2.300128254292369 65 64 43
13.234761288752132 0.1432280504655127 2.4155614668844585 65 73 53
13.36664875444028 0.25362044039551845 2.404516011559803 65 71 48
13.351641963901345 0.22841395712868323 2.300128254292369 65 64 43
13.298443601835027 0.0237595677692468 2.206620215662915 66 68 52
13.316914420272404 -0.06961027741606433 2.205596880684263 66 70 53
13.298443601835027 0.0237595677692468 2.206620215662915 66 68 52
12.62689436842893 -0.17813306510643717 2.246470419926579 68 72 57
13.177652060056984 0.029220804543788115 2.4204565043753687 68 74 53
13.196291951210998 -0.08554800665879442 2.418851164986225 68 73 56
13.181091209350901 -0.07676219534468673 2.311752720281322 67 72 55
12.73867902074273 0.28491114611178786 2.4605828562694816 66 73 51
13.530271790209849 0.28491114611178786 2.5071307241087037 69 75 53
11.952564676829242 0.037940349117356685 2.5463922609475524 69 74 57
11.973111951345741 -0.11091216518852823 2.543862523384494 69 74 57
11.552214571849907 -0.2973727840525932 2.599696646412391 69 74 57
11.443865346481024 -0.13017868563777812 2.6156354448370895 71 76 59
11.552214571849907 -0.2973727840525932 2.599696646412391 69 74 57
12.076713842976089 -0.25502079898463015 2.531376045847318 69 74 57
10.61764816937686 -0.8695172465974964 2.159653133636934 67 70 59
11.951278309701076 -0.36863847242472914 2.0868287014051305 66 70 57
11.529583901881912 -0.49953823196944347 2.1077030004217194 64 65 55
11.369030361020805 -0.3368385866677127 1.6497907064092536 34 35 25
10.781245064541485 -0.6412768405870004 2.0423030844939056 62 65 53
12.080466418910897 -0.3426770822045052 2.398664652299693 68 73 56
12.740919300800192 -0.3058249593055405 2.343834955177236 68 73 57
12.366425669977465 -0.6945903375705929 2.498632886279692 67 72 55
10.7209563478187 -0.6165279476681994 2.2696415068562663 63 65 52
12.212115185900302 -0.275945382996509 2.170962704177646 66 71 56
12.018189397966964 -0.5816587443107446 2.538375332656584 67 72 55
11.841656302263786 -0.7091248349038194 2.3008319962277652 61 65 50
11.714692015938784 -0.40670269730902137 2.200321685849043 66 70 57
11.646242519399486 -0.45293331544980964 2.3159518844994467 67 72 55
11.7450103856801 -0.4491449051484146 2.573017413247536 67 72 55
11.646242519399486 -0.45293331544980964 2.3159518844994467 67 72 55
11.209039427264408 -0.5816587443107446 2.4877432174364826 66 71 54
12.187810639376877 -1.0540695732928405 2.677220235815429 66 71 54
12.02636187026699 -0.9990960282180887 2.537389572846867 65 70 54
12.370397550834037 -0.8855292711677316 2.498204419651316 65 70 55
11.398671850899026 -0.9626003610472775 2.3361799371341765 62 66 52
11.761406198106005 -1.0694924947770146 2.4286957690449475 63 68 53
12.610881635594724 -1.131984384439952 2.614170460815604 66 71 54
12.447332401457638 -0.9090318362039971 2.6371854827689174 67 72 55
12.101424563525779 -0.791998803690653 2.691680637536637 67 72 55
13.837239988860386 0.3247003439020399 2.6056595949050143 69 75 53
14.096017138531655 1.2710501048651166 2.973420569190993 66 72 50
13.971016663630827 1.0637574383201627 3.0387200303636406 69 75 55
14.334727434866561 0.6962605605973017 2.8938756261850154 66 74 51
15.161971060000234 0.9255852217481806 2.954419808392715 69 75 55
15.306166148168966 0.6962605605973017 2.9098954316210697 70 76 56
14.020195335224948 -0.4141441096013256 3.0090125066151447 71 76 59
14.023698832778267 -1.1911018260184325 3.0071521878912955 72 76 61
14.108773323132507 -0.7996676726679278 2.9681760989722967 72 76 61
13.029641810672537 -0.4141441096013256 2.9988668438635573 72 77 60
14.023698832778267 -1.1911018260184325 3.0071521878912955 72 76 61
13.010763170112421 0.14871390346798954 3.00934637495082 71 76 59
14.002652241350255 0.14871390346798954 3.0187633828613034 71 76 59
14.267063192164237 -1.017306872206231 2.9133813938789945 68 76 56
14.409973762773154 -1.3869085675605934 2.874007827440137 70 76 56
13.760255803074493 -1.4250386856986403 2.785527937478298 67 75 53
11.212577209070476 1.8147346131931406 2.124617619914499 67 68 58
10.679561513936074 1.7917513309486424 1.7493877742477866 75 75 76
10.509347737182054 1.697219799633155 1.7523122417869874 75 75 77
11.367615412319113 1.600367997198028 2.0161741314724666 78 79 77
10.978807786588678 1.9136527406504347 2.0331493774117555 76 77 70
10.609064126345746 2.0060647382577015 1.847392789564407 67 67 65
10.977640872769731 1.6035613097696277 2.1379066787354777 58 59 48
11.367615412319113 1.600367997198028 2.0161741314724666 78 79 77
11.20899893731905 1.7917513309486424 1.9258929716834985 75 75 73
11.319932185476697 2.0060647382577015 2.0181859234309267 6 8 1
12.235353139460694 1.7107119070901373 2.2723922577281392 38 40 18
11.769290513569803 1.8147346131931406 2.19694678860406 36 38 17
11.019382181088957 2.051377394147285 2.1354959591913474 22 26 9
12.485285285265244 1.8782442270610635 2.4860309168961603 53 59 32
12.5680141265718 1.6192573338189808 2.620056162042168 58 63 36
12.207186682433255 2.051377394147285 2.2743436394192833 39 45 20
11.891541633902847 1.9514743523089226 2.297083802041678 41 47 18
11.70846006659387 1.8782442270610635 2.4339420526555124 50 55 28
12.773733503700882 1.9236662772315578 2.5926771942892475 52 59 29
12.206137202916416 1.7274015117547623 2.387522418250652 47 51 19
12.89098338649642 1.6075274270251272 2.4461310422205047 53 57 30
12.773733503700882 1.9236662772315578 2.5926771942892475 52 59 29
11.742308253126277 2.3591614633781623 1.647274554481087 21 23 19
11.694286858437415 2.4235278429851577 1.9105479933705687 2 5 2
11.690085261144116 2.2951505163319728 1.9106750343090835 19 22 14
11.446983354658634 2.1418811460068845 2.1120036706388294 21 25 9
11.490964454584812 2.4960363884378918 2.0110560951793626 71 75 64
11.86331841878005 2.35956908120661 2.091039997808278 34 38 23
12.30953640454617 2.8356682782750844 2.07039365829045 29 36 24
12.175334390715431 2.750019055194011 1.984736026266291 33 39 29
13.277837805766003 2.8051061520642966 2.3051070198096606 47 55 38
13.288267742284498 2.54790251486565 2.5323094095096 52 62 38
12.891963585180724 2.66811496060887 2.3324676726184217 47 55 36
13.641350818191233 2.446720708046771 2.496148396579983 46 55 31
12.467332662370103 2.222976745886938 2.157018888996502 30 34 21
12.645472309795963 2.2020714698523305 2.351225273198837 42 49 26
13.096358814828932 2.286172857092893 2.3176878410378317 42 47 26
12.606220929069751 2.5774165550567134 2.247785576652423 28 33 19
13.100109385854402 2.4334239063457996 2.317422814331798 39 45 26
12.475210905768554 2.4960363884378918 2.156599561278696 42 47 34
11.963012096223046 2.2020714698523305 2.291789542842862 41 46 27
13.255607026309798 2.5774165550567134 2.306621978802994 40 47 31
13.002679225310098 2.665016411120367 2.5645322989774484 55 65 41
13.980164575044306 2.4941317793549795 2.7453883529009246 56 67 39
13.980164575044306 2.4941317793549795 2.7453883529009246 56 67 39
13.365068976198014 1.9517380403012983 2.8762009618785926 58 67 38
13.503922944021744 1.7762475836324412 2.6487992809411978 56 64 35
13.840853420795227 2.0567305532762394 2.6052201825517023 51 59 30
13.643073747981374 1.8680791322908181 2.8093898670234387 61 69 42
14.449308355551176 2.274106162141626 2.538123796351585 47 57 30
14.24617120842129 2.3619350934020145 2.702897801568326 52 64 34
13.774618163919811 2.0670311095629867 2.782734920732777 55 65 36
13.503922944021744 1.7762475836324412 2.6487992809411978 56 64 35
14.319624499764467 2.5912224633416385 2.6920892326411137 57 68 38
13.70541342960484 2.36368588178561 2.7964476199572355 56 66 35
13.365068976198014 1.9517380403012983 2.8762009618785926 58 67 38
14.27629980047481 1.6637373287492814 2.9106122427881567 64 70 45
12.843122441149275 2.0670311095629867 2.755385750222199 57 67 38
12.638532569111417 1.6419753898292522 2.797375622118216 62 68 41
13.699177899806326 2.257031162184261 2.6228790451101798 50 61 31
13.009262010383907 1.6284618251090015 2.7251019588821723 61 67 42
13.20811063675195 1.9839431683005502 2.6922808307326243 57 66 39
13.519336261635392 -2.138636639864344 2.5082306120284947 65 70 55
13.021488563805121 -1.899829686767924 2.562317110874089 64 72 56
12.819745546595122 -1.6157306258664985 2.5868367148684963 66 71 54
13.757404205209538 2.9916783871257175 2.485028084715078 53 61 41
13.585658271010745 3.11427627729123 2.3869264845566622 53 61 42
13.31044397271984 2.842215854884976 2.52992604230206 54 62 40
13.810901230641445 -2.934357542540757 2.480017798330138 58 64 46
12.940443339910104 -3.0520131161801705 2.4415637177352596 58 65 47
13.641059460724106 3.0075889016548265 2.382617363501459 53 61 42
13.098524602797177 -2.9737459851537764 2.217932674478495 54 59 44
13.068763684522764 2.903873941102729 2.3196444867482016 50 58 40
12.894471938738604 -3.061598409168426 2.3322821784797934 55 62 44
13.702473423115594 3.1109884079236676 2.490247895967566 56 64 45
13.534822864359702 -2.3222985710625426 2.390929160861636 61 67 53
14.119096047016063 -2.7928952753521967 2.2525433782000506 57 62 48
13.4024608180466 -2.7819749988036384 2.5202047706393333 60 65 48
13.642491100416612 -2.6676859932795662 2.4960374105595413 61 66 49
13.207508800859 -2.822225357401721 2.4178887130644906 59 64 47
13.488184914355237 -2.5883267927155003 2.1962768772401224 60 63 54
13.45803847291078 -2.536263772277187 2.293084834797966 60 64 52
13.821945199829841 -2.709951322488583 2.1789450529567422 57 62 49
13.838140555990881 -2.4024319562772125 2.477493830567055 61 66 52
13.950239097256311 -2.5653479347524932 2.4672935227738098 61 66 50
14.19640012653811 -2.6328835415323413 2.1606973220999053 59 62 51
13.763048485568598 -2.622351378431559 2.373318070736363 60 64 50
14.339312525054135 2.7787276958642617 2.8926144678966983 59 69 44
14.550399836629147 3.0825914363512967 2.84080941651372 61 72 46
13.920458533242554 -1.9570695151559507 3.0837227687170974 71 76 59
13.978047433195256 -2.621840456711979 3.0339577043079595 69 74 57
14.014371022393846 2.3754005363900177 3.0121660849652745 60 70 46
14.066890825279359 -2.2120829685227767 2.9860894338612827 70 75 58
13.960451375187853 2.948973555827761 3.0463313985054308 69 75 55
14.390646477076373 -2.655406331658854 2.8789511829099435 65 73 54
13.95693200113769 1.8080858717819315 3.0490079081566286 70 76 56
14.303814127096262 -2.9195417814302123 2.902570448951003 66 73 53
13.781749126689103 2.659065653633867 2.7813580240970146 56 69 38
14.014371022393846 2.3754005363900177 3.0121660849652745 60 70 46
14.339312525054135 2.7787276958642617 2.8926144678966983 59 69 44
14.265960604760243 2.366973153134822 2.913714401375701 58 68 42
14.60214121148352 2.857999726507504 2.8295889320179626 58 70 41
14.567283303740941 -2.9699883742406654 2.8370952830951524 62 72 47
14.60214121148352 2.857999726507504 2.8295889320179626 58 70 41
14.138988213717424 2.095014161688002 2.9563742725198976 59 69 43
13.90278958806661 2.4440827156177183 3.113123115692381 70 76 56
13.895148686967515 -2.213625368467239 2.598683428744299 61 68 53
14.305809310154755 -1.952052748148305 2.6940951022408104 64 72 54
14.545869292478285 -2.4480999696375516 2.841815145773073 67 72 54
13.411259019759218 -1.952052748148305 2.6618247566471793 64 72 54
14.122425127457692 -1.6235375711365831 2.7219619202602354 65 73 53
13.512348041227437 -2.3073356894042827 2.6476393930949804 64 70 54
14.225646731730711 -2.013966901934834 2.9262748335018274 69 74 57
14.545869292478285 -2.4480999696375516 2.841815145773073 67 72 54
13.934294835865874 -2.0226462394578686 2.7533329977914125 66 74 56
14.742870813628697 -1.8388150036646709 2.801235981830768 66 74 53
14.452011361110701 -1.9056364909237256 2.863595589059761 69 75 55
14.351852465968694 -2.2687825207705368 2.8892008470229715 68 73 56
14.576257292275127 -2.1221050439426823 2.835142345636517 67 74 54
14.069830141464967 -2.0261583238357996 2.5784455186077593 64 72 56
14.102703771441432 -2.4253485079056545 2.725107551115826 66 72 52
14.169064212821876 -1.6808177631502461 2.945368374224563 69 75 55
13.65121188779298 2.798145298099913 2.6290677519674333 55 65 41
13.947274577897685 3.0936977921158517 2.7510640341261077 59 69 43
14.01619911816408 2.9715220011646957 2.5845356027701047 54 64 41
14.068712096600732 -2.9069533064125483 2.5785714062922342 60 66 48
13.964887238962696 -3.0018793327799114 2.7480117229627576 60 70 44
14.37444676729766 -3.0238210440532027 2.684247550705199 59 68 46
14.053813825528472 -2.8235751937739915 2.7330428581161432 62 70 49
13.65121188779298 2.798145298099913 2.6290677519674333 55 65 41
13.576524436987132 -2.8713999119009883 2.638931209695357 62 68 48
13.740946955496948 -2.7307678638805783 2.6175787176163707 62 67 49
14.21271580269891 -2.6638447962262815 2.707941926311541 63 70 51
13.975164781835415 -2.605405426706293 2.589267729990301 62 67 50
12.497061984932573 2.7064694522119797 1.6426474681833785 84 87 80
12.420015650062359 2.781624146766204 1.8062303581723163 62 67 58
12.867040411025355 2.883016635722127 1.7187788996869418 58 64 56
12.741154548954386 2.861275873088109 1.965307871142182 33 40 30
13.761064435824746 -2.8215924524172427 2.0957905581659415 54 59 44
12.523123679258825 2.944747379622649 1.9725674698993645 27 34 21
14.812864614013344 -2.885461190413642 1.6313994032032817 46 49 41
14.059502071008279 -2.9032884806284365 2.167229751095606 55 60 44
12.946927751766077 2.944747379622649 2.0437153746110734 35 42 27
14.614781565898936 -2.733885925651482 1.7009744395473967 51 55 44
13.300708897594902 3.0310864813696026 2.115957024349334 43 49 33
14.687534243393413 -2.9519303741138336 1.700325980375737 45 48 38
13.458595877378105 -3.0855898101220243 1.7122297648783413 39 42 32
13.66398202631275 -3.081048661857163 2.0170443027205947 51 55 41
13.750716764998515 -2.7734451413279633 1.858149307238602 50 53 43
13.66398202631275 -3.081048661857163 2.0170443027205947 51 55 41
18.650591366168488 -1.2021337332076594 2.1301774698864415 140 144 153
20.545659233254327 -1.2099522355249537 1.965322720401932 125 128 139
20.24180717223489 -1.260172491661443 1.9715808817541454 123 125 134
10.81848552031372 -1.2082526551207213 1.841901903558127 79 79 73
10.263641314416782 -1.1708922300248317 1.9602737033481856 74 75 67
10.887497432688978 -1.271706167099307 2.143188819334389 66 69 59
10.808917816473345 -1.0257198633516509 2.1478802734555513 65 66 58
10.518853227522888 -1.3008489953507167 1.8498281609475526 76 77 69
11.817030761122336 -1.4810950738127329 2.423268329283574 63 67 52
11.959799657761025 -1.4994328133683625 2.1854736330744036 62 65 55
11.460013606896224 -1.271706167099307 2.216606108767616 60 64 51
11.663103003878554 -1.1255145257814536 2.314618986128849 61 65 51
11.385719825641766 -1.2357732930739058 2.337273431127393 61 66 50
12.541426352259741 -1.9219804899808153 1.6423928641262877 71 74 66
11.609381821674528 -1.8690334869271972 1.8230149231296031 70 73 65
11.969200209947173 -1.6813049292709388 1.7299707651324174 73 76 69
14.175061495360097 -2.4969550411317787 1.9998641371819206 60 63 56
12.56512482802815 -2.06914840699352 2.0593251053753328 69 75 65
14.059979993416288 -2.253878904360438 2.351703267846831 60 65 53
13.647224250709831 -2.4377762640732903 1.710262043427896 60 63 56
12.69133677744137 -1.9866064183120498 2.145342449509239 70 75 64
11.855496635291507 -1.7187302143905159 2.2997876652878806 59 63 52
11.78754241563852 -1.6054644505627673 2.3049482446332816 60 64 51
12.6352608232126 -1.7374965300231582 2.470747430760336 68 72 57
12.777185149301944 -1.8598328977711547 2.4568723000858292 67 71 57
12.994733725955033 -1.9739080561322293 2.436618356776238 65 70 58
13.36360811360702 -2.1952968985995853 2.2030259359992836 58 63 52
12.829810717080724 -2.2665562087564486 2.048391528519243 61 65 55
16.30031126674905 0.26466718926141014 1.5030867381673945 47 31 14
21.648210390355498 -0.0841526701779441 1.2850121878701621 79 75 60
15.022802614613903 0.017294448159649783 1.3627565902967935 54 37 21
16.265116433002742 -0.3123465350606576 1.2516781931003527 53 44 32
16.14857536020915 -0.1847021645562261 1.1832493723431072 28 8 0
13.615210074983379 -0.3854443715337806 1.1866261004653764 52 50 42
12.941561624903784 1.5140052726923778 1.24820157576201 77 75 74
12.035488683568104 1.2247947207254768 1.1329575116841746 55 49 42
12.754281028175942 1.433214154585853 1.3250517002378006 79 76 73
10.809374019412012 1.313636317021974 1.3750089317492142 78 75 70
13.010163903864582 1.2247947207254768 0.9932787546804979 95 88 81
13.493344937660478 2.9737408711816133 1.5631744039484612 58 64 55
11.32987905356745 1.6860903983045616 1.5617189438693069 75 75 76
11.21107134852366 1.8824424058204523 1.2903692402494369 74 74 74
12.198475672488371 2.4793264354478883 1.3136070592167306 10 12 10
21.962140005735098 1.283135738845969 1.9878991157922985 23 15 8
22.141710935222754 1.2966204038915559 1.8875680986624916 46 38 27
22.473310273798127 1.2966204038915559 1.9298640191673868 15 8 4
21.517738883889844 1.4911373484920514 1.7058468192003793 62 64 43
21.6117490241872 1.3429368116414373 1.847169282333199 30 24 11
21.922456743276754 1.3985919988691722 1.7495162469171515 45 44 28
21.508419999686087 1.4445932119147817 1.6591163636122237 54 56 36
13.283752015133937 0.020018017706442834 1.8685543629361128 55 54 36
14.11530934702658 0.021728927895758046 2.1645479886524033 66 65 48
14.168639684760985 0.10681857239752425 2.162009469985024 68 66 48
12.313060285809868 0.6652783177729058 2.378321768093205 57 62 35
13.82751158556243 0.6652783177729058 2.4784765469005654 58 64 39
12.88428536369236 0.5989917563013194 2.333036134654293 58 60 29
12.953082094537919 0.4000102583076638 2.4404061493980875 61 67 42
13.594084038893339 0.5989917563013194 2.3862675872398063 59 62 34
11.936305030739177 1.1011518480060811 2.087540491061638 49 47 22
11.489534003802458 1.4068201719101172 2.0111147478350335 79 80 78
11.930218645287034 1.5089713879452864 1.9035665814078515 75 75 77
11.665745673426967 1.389468689066203 2.203381220665234 42 44 19
12.906231378756374 1.4865930275343444 2.444716590711071 54 57 31
12.387726650953221 1.3410373319634963 2.496341104829868 57 60 31
12.906231378756374 1.4865930275343444 2.444716590711071 54 57 31
12.254380955789939 1.368066734772018 2.3833401293868453 50 51 25
11.73717584242304 1.0534792193863431 2.198927087897623 50 50 24
11.342568491924553 1.0995048724038616 2.340942984053817 55 56 26
12.403286953404976 0.9962208178757684 2.370747993363397 58 57 35
12.583653476505832 1.459860002921799 2.6178972811622 60 62 37
11.374002858487863 1.1497281411070839 2.222317291797842 52 52 26
13.547545979670407 1.3058859660918345 2.6428358860049905 60 65 38
14.299859985956953 0.565950178577297 2.5534580748611355 64 70 45
14.290069689266952 1.359893947330389 2.9065499957953573 64 70 47
13.859748911394602 0.6414406354876909 2.6029313748253813 61 67 42
14.744021124418975 0.7218255356557303 2.8010157442553854 65 71 46
14.074808700234735 0.8554039689826166 2.7296107753181373 60 68 43
14.469919103298864 0.5190073917615622 2.6710184149470977 66 72 47
12.338686886198879 -0.16178346300100083 2.069104691867203 64 65 51
13.39999485681321 0.16153315895347964 2.520461835507195 69 74 57
12.73867902074273 0.28491114611178786 2.4605828562694816 66 73 51
12.563415824680433 -0.19811060119713297 2.35771294755272 68 73 57
12.076713842976089 -0.25502079898463015 2.531376045847318 69 74 57
12.600220261534439 0.16153315895347964 2.474259291080613 66 74 53
13.162429791780678 0.02620877743358889 2.313050538965858 67 71 53
12.076713842976089 -0.25502079898463015 2.531376045847318 69 74 57
13.181091209350901 -0.07676219534468673 2.311752720281322 67 72 55
13.36664875444028 0.25362044039551845 2.404516011559803 65 71 48
11.177733496165088 -0.4551524711688734 1.8329796840659838 78 81 73
11.854549723973744 -0.4551524711688734 1.9966556228686492 69 72 62
11.581630814684091 -0.6945903375705929 2.4468409599839687 65 70 53
11.203961985481264 -0.8695172465974964 2.2339430650568315 61 65 52
11.390049013734384 -0.6165279476681994 2.3369075282470373 63 68 51
10.915629044461703 -0.4491449051484146 2.5236706850493587 67 72 55
11.37243424878346 -0.5525390759536928 2.2224224830785584 65 67 54
11.748868907815636 -0.5099952903245454 2.4299309020212396 66 71 54
11.993940858051197 -0.3558834695634757 2.7106085578541603 69 74 57
11.889617734004647 -0.157479031821533 2.7301054797300006 72 77 60
11.293888313095028 -0.5290389742164456 2.638983042244403 66 71 54
11.02435323424503 -1.0694924947770146 2.3693351733455685 64 68 53
11.577716557004518 -0.6732411268416116 2.596048815860984 67 72 55
11.938807650683072 -0.7906007590934117 2.54809617994765 66 71 54
11.585871742870419 -0.8855292711677316 2.446401835951207 65 69 54
12.447332401457638 -0.9090318362039971 2.6371854827689174 67 72 55
14.108773323132507 -0.7996676726679278 2.9681760989722967 72 76 61
13.916929045630804 0.34985940449925146 3.088279530222962 71 76 59
14.55602165301306 0.5475867682469687 2.839566818111802 71 75 58
14.55602165301306 0.5475867682469687 2.839566818111802 71 75 58
14.182938214563956 -1.3223152708905603 2.9405067512630043 68 76 56
13.934580062089939 -0.8194414940855763 3.068286210517496 71 76 59
10.659927631814393 1.600367997198028 1.8460385587190338 76 76 77
11.438064715297166 1.697219799633155 2.013235990089487 75 76 73
11.769290513569803 1.8147346131931406 2.19694678860406 36 38 17
10.668652182162926 1.9514743523089226 2.156463466226512 37 41 22
12.140145845396141 1.6075274270251272 2.393327907282568 48 51 20
11.94548790966507 1.9981045404883602 2.411051013930898 49 54 26
12.140145845396141 1.6075274270251272 2.393327907282568 48 51 20
11.35575613639553 2.091180567355109 1.9211049400246507 17 19 13
11.232849466092889 2.1687461246125026 1.6507504244700606 16 16 14
10.833493175444833 2.091180567355109 1.7468234555158038 15 15 14
12.233107060982613 2.5497318085702045 1.9826622002927337 69 73 64
13.296636160166866 2.3601065375477015 2.410335277021202 44 51 29
13.375305039155563 2.517948053568991 2.4038033317582332 45 53 32
13.641350818191233 2.446720708046771 2.496148396579983 46 55 31
12.92343057501062 2.71270358374923 2.228211371686923 40 48 33
13.015006428585899 2.614139054065213 2.4347895851268033 49 57 37
13.637749096913446 2.274106162141626 2.496499188988829 44 52 27
11.992820329066443 2.1418811460068845 2.1835313488657837 36 42 20
12.337777202708834 2.71270358374923 2.164008677122109 27 34 21
13.641350818191233 2.446720708046771 2.496148396579983 46 55 31
13.980164575044306 2.4941317793549795 2.7453883529009246 56 67 39
13.365068976198014 1.9517380403012983 2.8762009618785926 58 67 38
14.045430552299674 2.3608476199179376 2.581203126838213 50 62 33
13.418674705857173 2.1320531117014947 2.660763715717791 52 61 33
13.584064819630665 1.6419753898292522 2.8222205021570894 64 70 43
13.499322686989213 2.186738441736538 2.8417832760938344 57 66 36
13.70541342960484 2.36368588178561 2.7964476199572355 56 66 35
12.701934882899575 1.8680791322908181 2.7837117309660493 60 68 40
13.976650164854261 2.23103386307186 2.745989868226653 54 64 33
13.70276347475739 2.465526457198781 2.6224208498350605 52 64 38
13.499322686989213 2.186738441736538 2.8417832760938344 57 66 36
14.090299515601897 -2.7588204336096513 2.3495729560873113 57 62 48
13.412214201183508 -2.3161691271640463 2.519189854102656 61 67 52
13.17592186480303 2.926203039608625 2.213501015899999 47 55 39
13.003066535414284 -3.0693338973863407 2.223492091321437 52 58 41
14.202964750145567 -2.7178068202273997 2.4453309996087063 59 64 49
14.388472743312375 -2.6698824538317707 2.3293234616858545 58 62 51
13.4024608180466 -2.7819749988036384 2.5202047706393333 60 65 48
13.887305920847012 -2.8811487359090617 2.26616457978065 56 61 46
13.114124122350203 2.876500729924741 2.4259844901948577 51 59 40
13.695010972906406 -2.9560961340709473 2.3784730173085546 57 62 46
13.57595178220861 -2.4749905458294674 2.3876871223329332 61 66 53
14.142462282864443 2.6429693801350083 2.9550677662197518 60 69 44
14.066890825279359 -2.2120829685227767 2.9860894338612827 70 75 58
14.286619303979737 3.0647923006737066 2.9075606594993832 66 73 52
14.082057500191837 1.7045518084857183 2.9793635426458276 62 70 47
13.95693200113769 1.8080858717819315 3.0490079081566286 70 76 56
14.194508154890736 -2.4930227341427478 2.9365465034838114 67 75 55
14.652554394955224 -2.7561929502942664 2.8190923578259954 63 71 49
13.920458533242554 -1.9570695151559507 3.0837227687170974 71 76 59
14.0096671345681 -1.7428226180086446 3.014771884896088 71 76 59
13.95693200113769 1.8080858717819315 3.0490079081566286 70 76 56
14.767326126267234 -2.293505610760236 2.7965901794891086 67 73 53
13.87063971918225 -2.573652657856865 2.7647114393819607 65 72 51
14.069830141464967 -2.0261583238357996 2.5784455186077593 64 72 56
14.225646731730711 -2.013966901934834 2.9262748335018274 69 74 57
14.396318561102408 -1.6515965427633894 2.8774896810875537 69 75 55
14.225646731730711 -2.013966901934834 2.9262748335018274 69 74 57
14.134044603076978 -2.1788671361275083 2.7201229910225755 66 73 53
13.964887238962696 -3.0018793327799114 2.7480117229627576 60 70 44
13.466209596496133 3.1012871437873524 2.654040313771797 58 68 44
13.962286530711781 3.1068011299192184 2.590766139467389 56 65 44
14.40977116315627 2.9451839702057994 2.679291408765979 56 66 42
14.053813825528472 -2.8235751937739915 2.7330428581161432 62 70 49
13.979880278863897 -3.0398269976891834 2.588720672357629 59 67 47
13.65121188779298 2.798145298099913 2.6290677519674333 55 65 41
14.27574299730578 -2.4962348374549044 2.555996235991744 62 67 51
14.439283151665093 -2.526642537227672 2.6752066072270937 63 69 50
13.740946955496948 -2.7307678638805783 2.6175787176163707 62 67 49
14.439283151665093 -2.526642537227672 2.6752066072270937 63 69 50
13.863267791404523 -2.4116169685844215 2.602506788715809 63 69 53
13.917169960402942 -2.922015190776256 2.008358302905667 52 56 44
12.839261968978946 2.960383976633001 1.798404624926152 41 45 34
13.645980996972177 3.12093480896622 2.017675524444875 37 42 30
14.044682043288196 -2.6035306513323784 1.9269629292842365 58 61 53
13.550845377180385 -3.011107634563611 1.711260529597003 42 45 36
13.458595877378105 -3.0855898101220243 1.7122297648783413 39 42 32
14.942862381122765 -2.672299782475246 1.6308715392928523 54 57 47
13.75485413448903 -3.000636727199078 2.013885874036632 52 56 43
13.301386333785521 3.040003932692048 1.947835060492178 33 37 26
22.436694349575557 -1.0129434532648622 1.7453774366310673 112 119 130
20.455298026317646 -1.091800827796549 1.9671626774452324 142 147 160
12.084736863773154 -1.3451207072711635 1.6451034398600177 80 80 81
10.664693561564345 -1.0779725896432195 1.9448866845692963 77 78 71
11.905161387508155 -1.3791774857744015 2.2960680791045442 60 64 50
11.010615793662199 -1.1255145257814536 2.2477349391453245 62 65 54
12.58715724588952 -1.4810950738127329 2.475577534569992 65 69 54
11.917867751421833 -1.3551573267885937 2.4136416123773996 63 68 51
11.94334342312536 -1.6019096408894593 2.1864466028356877 61 65 52
12.006641692760688 -1.8283119633078349 2.288600535885534 56 61 50
13.053428308749298 -2.101293099771668 1.8739737242766557 65 71 62
14.5661971467475 -2.579713723620486 1.6324269606624149 57 60 52
11.901895201894042 -1.5966144609021566 1.7308786399439502 79 77 74
11.205554771789075 -1.6914934076165518 1.8323134544741113 70 73 66
13.197236256112065 -2.0280590763091513 2.3106341025884616 64 70 57
12.57152225475022 -1.609935871598694 2.4771618524483103 67 71 56
19.698586538716622 0.012904824251421516 1.565575408771072 45 33 15
15.527305351031632 -0.12677821825467658 1.0956796892519598 42 37 21
10.60335747480082 1.313636317021974 1.5610969602403129 80 78 73
16.34833611136088 -0.2495608396081647 1.1882320136686173 47 30 20
12.472957505919991 1.421163599904918 1.1493149728238132 78 76 73
16.149133332362148 -0.1978495976543025 1.0451744562170049 39 34 21
11.982581900650018 1.5977417180086693 1.2213254836609373 79 76 76
13.088239615749027 2.636214769023377 1.4094302379247892 80 83 76
13.064692377663354 2.808685607419741 1.4862816526099967 81 84 78
21.77615103570352 1.4445932119147817 1.7507300815222329 65 65 46
13.666044478097543 0.09846202448907049 1.9372906565722103 52 52 30
12.451824234217657 -0.1481626055315169 1.8891240109079823 59 60 46
11.634446311002105 0.9667081007462529 2.1023466237906567 50 50 22
12.77183801010317 0.7512452922837505 2.341475930694962 57 59 33
13.19951828356912 0.7558110997033547 2.212163154312365 62 57 32
13.197851777475279 0.45233800123619655 2.5421965982243715 68 72 50
12.677495429458753 0.6823670714414968 2.243275266345301 60 57 29
11.29639038950781 1.313636317021974 1.9230257820655647 80 79 77
11.384903859649583 1.5029598174092602 2.0154493552939146 77 80 77
11.299940987665002 1.287247490182549 2.119843773297192 54 55 40
10.41651670039759 1.1011518480060811 1.6570313610205682 30 27 19
11.579379174022261 1.190755868506644 2.105145241941969 43 43 17
10.771249360463688 1.313636317021974 1.7478513956977706 78 76 73
11.562710166133677 1.4956556904388352 2.209929484164813 55 57 45
12.185671007763528 1.4956556904388352 2.275842521512336 44 45 23
11.85255153324165 1.287247490182549 2.191875531901323 41 42 19
12.432345247003724 1.2550241084774698 2.3683446086830697 55 57 32
11.846228711880341 0.926678378576028 2.420453129888323 57 59 33
14.36988502665461 0.7360039178181954 2.6848930084271667 61 67 42
14.781785945567332 1.0058321796678404 2.793878410078235 64 68 46
14.72708224361979 0.6414406354876909 2.6377713440743085 64 70 43
13.115929609332152 1.2584481056028451 2.7070836003603604 61 67 42
12.563415824680433 -0.19811060119713297 2.35771294755272 68 73 57
11.646242519399486 -0.45293331544980964 2.3159518844994467 67 72 55
13.219604781455587 0.12862875422734216 2.309090679070519 67 73 53
12.076713842976089 -0.25502079898463015 2.531376045847318 69 74 57
11.101550801084342 -0.36863847242472914 1.9294843637303214 69 71 62
12.187810639376877 -1.0540695732928405 2.677220235815429 66 71 54
13.355036307907026 0.11671808404607474 2.203496187898324 66 62 42
13.485747563255172 0.2076988980992169 2.196407413234006 70 66 45
11.98489824404552 -0.3368385866677127 1.9019901481317578 57 58 48
12.519377042062768 -0.2512715999928868 2.0612682946317444 66 70 57
12.026045891036347 -0.7896914240062688 2.4036048549087345 64 68 53
12.063859793037441 -0.3058249593055405 2.2844665002032487 68 72 57
12.846692399177838 -0.16178346300100083 2.1375330600131424 67 71 56
15.306166148168966 0.6962605605973017 2.9098954316210697 70 76 56
12.953150077871317 1.7274015117547623 2.4403999332827855 52 57 29
12.631770396687845 1.7762475836324412 2.611338229438986 57 63 35
11.293973022057957 1.5977417180086693 1.6503167919181834 76 76 77
12.442610433422445 2.4334239063457996 2.2583989806804157 32 37 20
12.203885747358186 2.627483812687807 2.075124671647919 34 39 28
12.201336732673237 2.596036330338797 1.7269172975900768 84 87 80
13.094402301748493 1.6125853185045815 2.5538591869224305 55 60 34
11.963012096223046 2.2020714698523305 2.291789542842862 41 46 27
12.1695202115112 1.6035613097696277 2.27697240642774 42 43 21
11.831316698746619 2.4793264354478883 1.6466980877352566 0 3 0
11.948822801827722 2.4793264354478883 1.7302445417614867 84 87 79
13.20811063675195 1.9839431683005502 2.6922808307326243 57 66 39
13.070866165780636 1.813942216761109 2.7145728874827393 58 66 39
13.636809712942684 1.9236662772315578 2.630947854574486 54 62 34
14.090299515601897 -2.7588204336096513 2.3495729560873113 57 62 48
12.990728002101704 -2.9560961340709473 2.3252422951960634 57 62 45
13.870079207564054 -2.23704485168463 2.474557313444193 61 66 53
12.984149255100958 3.1169263645459684 2.224606357479038 47 55 37
13.042105828165429 3.020461230862183 2.2212057878519285 46 52 36
13.757404205209538 2.9916783871257175 2.485028084715078 53 61 41
13.341805077090871 -2.395857173640745 2.300787382897366 60 64 52
12.882256019361536 -1.7616496523630512 2.579054779172327 65 73 57
14.864685805501436 -2.0226462394578686 2.7788040453069 65 73 54
14.688280891867972 -1.634623265520103 2.8118911435824896 67 75 53
14.089032857791036 3.0316767384755194 2.9763660045576907 67 73 53
13.964887238962696 -3.0018793327799114 2.7480117229627576 60 70 44
14.567283303740941 -2.9699883742406654 2.8370952830951524 62 72 47
14.10646852736671 -2.828451205330697 2.969111289486251 68 74 54
14.351852465968694 -2.2687825207705368 2.8892008470229715 68 73 56
14.14080019922322 2.842215854884976 2.5705454293631083 54 63 40
13.618682490020978 -2.0925632433977883 2.633328929753784 63 72 54
13.95693200113769 1.8080858717819315 3.0490079081566286 70 76 56
14.142462282864443 2.6429693801350083 2.9550677662197518 60 69 44
14.17919376232582 -1.7938521496748034 2.713076094369267 66 74 54
14.001244969844608 2.9093667082083803 2.741804570263214 57 67 42
13.90278958806661 2.4440827156177183 3.113123115692381 70 76 56
13.947274577897685 3.0936977921158517 2.7510640341261077 59 69 43
14.082057500191837 1.7045518084857183 2.9793635426458276 62 70 47
12.966594266698511 3.040003932692048 1.8760692975955227 34 38 26
13.761719210512059 -2.8460540448621408 1.934623502862878 51 56 44
10.632367046642868 -1.398430679063851 1.9460805488713264 74 75 67
20.535899238568547 -1.1615645295586723 1.9133128239092794 125 128 139
10.683475303216671 -1.1708922300248317 2.046974672321046 71 72 64
12.388033941247693 -1.897591674939302 2.1612759705623628 62 67 56
13.556315468023376 -2.1158972860823186 2.2867149206361908 62 67 55
13.255227596587028 -2.3268004809071012 2.2090286966521453 54 58 48
11.365346541680807 -1.7819474842536698 1.8285523440095748 69 72 65
13.285834237367855 -2.3909187685043514 2.1166361568273473 59 63 54
14.319883466518018 -2.483071848894541 1.633488437061518 60 63 57
13.290826282151654 1.2047941733116854 1.4119109509207615 75 68 63
14.389970163560573 -0.45661010214677206 1.1328240297349275 44 43 38
11.121047595480006 1.96813909046554 1.561548483610095 77 77 77
11.392715767436261 2.1687461246125026 1.3851538998391375 40 40 40
22.242503217097195 1.2360795920349443 1.9823207505252476 30 22 13
12.702386816563868 -0.06367581273655175 1.9665788747222277 62 63 47
13.732321263037663 0.4000102583076638 2.4874020099266008 63 69 44
11.085429840108791 1.1011518480060811 1.9300296253168832 63 62 44
14.003036807264497 0.5049379102830548 2.462590014844536 60 66 41
12.142510920569006 0.9050869137831199 2.2788711030203594 55 55 26
13.556354070565554 0.3237883483085872 2.286712443623769 64 63 37
11.486397173429856 -1.190500011520964 2.456850155820378 65 70 53
11.469276924347275 -0.3891184261808732 2.45868030393633 67 72 55
14.18065777391328 0.9255852217481806 2.9412972008493337 67 73 53
13.971016663630827 1.0637574383201627 3.0387200303636406 69 75 55
11.050576609409829 1.7107119070901373 2.1337086323160865 63 64 53
11.319932185476697 2.0060647382577015 2.0181859234309267 6 8 1
14.37444676729766 -3.0238210440532027 2.684247550705199 59 68 46
11.855793592088881 2.1687461246125026 1.9057370551429833 20 22 16
13.322486406475909 2.768075498651662 2.4081751688838415 54 62 41
14.066218463133321 -2.74408436022027 2.083270134969582 54 59 46
14.102703771441432 -2.4253485079056545 2.725107551115826 66 72 52
14.225646731730711 -2.013966901934834 2.9262748335018274 69 74 57
12.499868657697725 2.2951505163319728 2.062101878675581 14 18 8
14.112968067875375 2.1734703328713976 2.573622466701277 49 58 29
13.444303277193127 1.6192573338189808 2.657122199409329 59 65 39
11.829031708465088 2.286172857092893 2.1932989742249593 35 40 22
14.169064212821876 -1.6808177631502461 2.945368374224563 69 75 55
11.653416587504017 1.842922603822786 2.3153840700705186 45 50 19
12.34000422955883 1.7485643535312059 2.501496412674877 53 58 33
13.679919129983297 -1.6157306258664985 2.6253505462349795 68 73 56
13.984126636112363 -2.6713042584580506 2.0061195976169377 55 58 47
13.606310775735778 -2.3329702207142122 1.710684162475365 53 57 48
15.188857215284703 0.1521952388146479 1.3650638490280091 46 46 28
21.85088217018996 1.2966204038915559 1.844066617773141 7 2 0
12.84014970912333 0.020018017706442834 1.7190911042307897 55 52 35
14.996484637128827 0.8554039689826166 2.756315284551157 63 69 42
10.613020349272334 -0.7091248349038194 2.1599444010907307 63 66 58
12.678394636066756 1.3058859660918345 2.605098641309028 60 65 38
13.068763684522764 2.903873941102729 2.3196444867482016 50 58 40
10.81042861663857 1.8824424058204523 1.65388172800195 74 74 75
11.456365106164808 1.8824424058204523 1.9178980877525569 80 80 78
14.125977957646928 2.7396765894638375 2.7213985153085747 56 66 39
14.288499078992102 -2.8215924524172427 2.1563887116021467 54 59 45
13.425994722582654 2.5912224633416385 2.659719621571294 56 66 41
14.60214121148352 2.857999726507504 2.8295889320179626 58 70 41
11.482410925730074 2.222976745886938 2.0114070565587774 17 20 11
11.516763957875154 -1.398430679063851 2.1083657173411483 69 70 60
13.675636001683579 -2.3870736143704865 1.9370214641385093 57 60 53
12.777185149301944 -1.8598328977711547 2.4568723000858292 67 71 57
11.792150600563417 1.2148864411799503 2.4256854402328742 57 59 32
13.162429791780678 0.02620877743358889 2.313050538965858 67 71 53
13.219604781455587 0.12862875422734216 2.309090679070519 67 73 53
11.973111951345741 -0.11091216518852823 2.543862523384494 69 74 57
11.128085610262513 -0.5838531395216653 1.9285905543455968 81 82 75
14.24617120842129 2.3619350934020145 2.702897801568326 52 64 34
14.452011361110701 -1.9056364909237256 2.863595589059761 69 75 55
11.115271369650214 -1.3249221333614278 1.6515980200737952 75 76 69
10.297494493314256 -1.0257198633516509 2.0664055938406642 72 73 65
20.24180717223489 -1.260172491661443 1.9715808817541454 123 125 134
13.115929609332152 1.2584481056028451 2.7070836003603604 61 67 42
12.540221612270459 0.033014752484635854 2.480355200162011 69 74 56
11.516449143410876 -0.5838531395216653 2.0100138608105937 69 72 62
14.461129839867365 2.5427747774660703 2.861394615474802 58 68 41
14.125977957646928 2.7396765894638375 2.7213985153085747 56 66 39
11.889617734004647 -0.157479031821533 2.7301054797300006 72 77 60
12.142510920569006 0.9050869137831199 2.2788711030203594 55 55 26
12.818697204407512 2.8356682782750844 2.1389234751435366 40 48 33
14.525591319675906 0.8788123041454458 2.8463651533526075 65 71 49
