18.23860117124613 1.0781036733185974 0.8647491050978029 36 33 11
16.66077159354918 0.7692026439974111 1.0812873854185447 47 37 18
15.674787978752896 0.8158231777836079 1.389011509672481 53 42 23
16.397699026643384 1.1385141962021819 1.2715674067099623 49 48 22
15.861043125580487 0.8652214300762038 1.1941488871956556 47 37 17
15.87755331486295 1.1101400669934525 1.1945601440530624 51 49 26
16.556567818762154 0.8188954373884864 1.0080029264499937 45 36 16
17.20753683064587 1.1101400669934525 1.031693383121199 53 51 28
17.396492509206833 1.1726011597100796 0.9700319371810439 53 51 28
15.990402797605936 0.9070057310789443 1.3286833768876136 44 35 13
15.986183766661144 1.051320981350204 1.2636164022557128 52 49 25
17.465613811392192 1.3075791245823913 0.9016821187304825 52 53 28
16.430513962079576 1.260354186793559 1.1418426794606087 49 51 25
16.615717909745932 1.279571472157794 1.2756126869026343 49 51 24
16.548156890117166 1.2385216686642622 1.0076822531333396 52 52 27
7.161160933428915 2.0749102747797186 1.4541021080430383 30 34 13
11.834667100029987 0.19030129063101558 1.6694999946522584 39 42 11
11.76779727275591 0.019686042574337797 1.7559332467834035 40 45 16
11.630628154423398 0.10576430256499458 1.5850891840409733 38 41 11
11.790915021604949 -0.066684246320375 1.7555660675363631 41 46 15
11.591408889971992 -0.066684246320375 1.5851375469036493 39 43 16
9.765203357178208 0.8334487369114788 1.5878197589789733 38 39 11
9.62202450648114 0.4585400419001713 1.6922992074594099 40 43 12
9.226015333634566 0.5096417601256352 1.9211019767514688 43 46 15
9.375243993634568 0.914692552759632 1.8039617470886493 40 43 14
10.034821954190859 0.688777467909365 1.7883803255726634 42 44 13
9.332992088628187 0.8415824267164553 2.0335323093744964 45 48 17
10.10142223695732 0.5480266671311658 1.6865063421353461 40 42 9
9.724954218012153 0.6047181117612033 1.9024190913077328 44 47 14
9.123391885541587 0.7590780062257335 1.6989755062168468 39 41 10
9.218558684334434 0.7542032719385899 2.1656845205892514 43 48 17
9.319812611133303 0.6497224132388983 2.293781342625244 44 49 18
9.781103203609518 0.2544696620410839 2.010804393027851 45 50 21
8.812717136643379 0.4033023082278543 1.9382921336313177 42 46 13
9.712306642743288 0.4033023082278543 2.1316698414442774 45 50 19
9.33016732394517 -0.23014347394441495 2.157612204172448 51 58 26
9.16312029304203 0.03009060457508742 2.169784114209559 48 55 23
9.836188672795203 0.160894011637051 2.2483540822678596 50 55 24
10.240356617609168 0.4569787660429175 2.3459175907454966 47 50 19
9.721048134738103 0.03467104263290941 2.399693853979182 52 59 27
9.91889513952577 -0.23014347394441495 2.2416628194436456 53 60 28
9.7490205267977 -0.11711222422769325 2.3965687792016426 54 61 28
9.911959749159884 -0.1379127487633868 2.539013113772389 57 64 32
10.010293862459628 0.28639787444049725 2.23443693459409 48 53 23
9.789783265980926 -0.10174495960533146 2.2521740592631687 53 60 28
9.789783265980926 -0.10174495960533146 2.2521740592631687 53 60 28
9.244409768443829 -0.3083470198621948 2.457821587571235 56 63 31
9.957795804338936 0.21715143122960118 2.5323541618706 51 58 26
8.455912866973943 1.3828940687122022 1.7091561388079952 35 40 14
8.696630156152814 1.2686530187188052 1.7053028233610061 35 38 13
9.042139665585658 1.1619779909050016 1.700133754482403 34 36 10
8.658512061444089 1.1126300759062813 1.9451577098311992 41 44 15
9.020915740226059 1.3576314992414158 2.1805853814344376 46 50 23
8.727736015440403 1.2298427595311732 2.0684385842502033 41 45 17
9.509532232098355 1.0075194921253057 2.024292345900012 46 49 18
9.572604040195138 1.1126300759062813 2.140863992441674 45 50 19
9.490123916139456 0.7471134799099911 2.4266410036989328 45 50 17
8.706585129979494 1.0255481439326486 2.537612133151295 51 56 23
8.339472243941941 1.4380669809792725 2.604724132219445 49 54 21
9.212993856698906 1.4380669809792725 2.6602664071815725 48 53 22
8.888316652406703 1.4632385502931267 2.508586320678199 48 53 24
9.881333141815066 0.938310075338986 2.244683412324142 46 49 18
8.902471773747996 1.3246792589367546 2.335942421357818 50 53 22
9.212993856698906 1.4380669809792725 2.6602664071815725 48 53 22
8.834956445535516 0.9723612102043026 2.3433069470119063 50 55 23
9.233634183329569 1.114735009671484 2.4592548864270696 50 55 24
9.131424715860652 1.1801735227092576 2.312134767033645 51 54 22
8.26736046266327 0.8994068711780565 2.6195648516561647 51 56 23
7.435025312851984 2.0749102747797186 1.8664389536111796 40 45 18
7.398714317899732 1.943592125990325 2.0130121289784624 40 45 18
8.014818277418117 2.3801827109300135 2.271276280204617 42 48 24
7.409780936299113 2.3801827109300135 2.167913444984491 39 45 24
6.999914347761443 1.64061921487296 2.040165756229453 44 49 23
8.353839535091783 1.6309839179306587 2.09291804602907 45 50 23
8.103315239343958 1.64061921487296 2.2621039538880416 46 51 21
7.557891107040045 1.6309839179306587 1.8614914083823646 41 45 23
7.543307065636927 2.3756847411310895 1.592834764766409 33 37 23
7.846425841023128 2.3756847411310895 1.8505079290747837 36 40 23
7.515925943552465 2.152203960472643 2.158342249384069 43 48 19
8.210474231081571 1.838794198139128 2.420401647470923 44 49 20
9.205994902481795 1.6734557608266165 2.661724049246825 46 51 22
10.340223337033905 2.4340829173866427 2.9578846153868694 50 57 25
9.727662876284432 1.7049258173367083 2.8001866180135533 48 55 22
9.541652674962503 2.1432314458239627 2.860144609280722 49 56 24
10.269607736119639 2.9842955024307996 2.99958290797518 51 60 26
10.482392560324437 -2.834521999569383 2.8953642284746466 54 61 29
10.456382232623161 3.048378142829579 2.9054648062599937 51 60 26
10.456382232623161 3.048378142829579 2.9054648062599937 51 60 26
9.266205487751042 2.7526348006277175 2.454940283411893 46 52 24
9.024791045018757 2.512525360644511 2.4882565484125583 46 53 21
8.830938865777863 2.605735979516979 2.343750408879633 45 51 22
10.039188635119725 2.5663263120768884 2.72148448169226 49 56 24
9.556355806287891 2.6761581432490638 2.59544896277223 48 55 24
9.865593385374487 2.798385930858637 2.7627972965344756 50 57 25
9.886336380649258 2.919456997122398 2.54279102308583 47 54 22
9.791555404509163 3.075415250985279 2.782272721074088 51 61 24
10.684631688340891 -3.000451831418467 2.601943706265226 50 59 28
11.232424086753085 -2.7614565909726463 2.7023613870661385 52 61 31
9.812454913291413 3.099728434299332 2.55391591672318 49 56 25
10.876408622505954 -2.665325537048508 2.7782233844571214 53 61 29
9.812454913291413 3.099728434299332 2.55391591672318 49 56 25
10.803054138044763 -2.826402487504772 2.583912285264652 51 60 30
10.758793618696014 -2.920468002555731 2.808154934594416 51 60 28
9.791555404509163 3.075415250985279 2.782272721074088 51 61 24
11.314391896914683 -1.811769649427534 2.979581906761599 57 64 34
12.679681712929977 0.06379061133710517 2.8560391604173336 53 60 27
17.418378636391903 -0.671168142926282 1.4653229522276578 44 46 19
17.23798374380787 -0.7528603576702197 1.5224092180590771 47 51 19
10.13753905902309 -1.314162202815622 1.4884574464365934 52 55 24
9.923855152978252 -1.0910209312119603 1.4866803481575832 52 56 28
9.45788516661547 -1.9440706321707661 1.4825255903572951 55 60 31
9.817482222854581 -1.6153359522777693 1.4857667562038013 52 57 24
16.068166023776136 -1.7341985011702088 1.1992422712821742 50 53 19
16.877781175874766 -1.6615628999492607 1.2178671011570263 51 54 18
16.897367912649777 -1.7341985011702088 1.0887323409914438 48 51 18
16.635040944118202 -1.7993007836420205 1.1474586555480044 49 52 21
17.160033796423217 -1.9233761222203445 1.1612016068464621 50 53 23
16.249832174782078 -1.7993007836420205 1.203594737373245 51 54 21
16.282239655208436 -1.6002715386496755 1.1376737853952175 50 53 17
16.78687637383682 -1.9233761222203445 1.215871657780514 53 56 25
17.218482177039103 -1.7728358063367946 1.4640938271128385 54 59 25
17.460397875474804 -1.59675847823199 1.2902902729537398 51 54 18
16.85034505874299 -1.7852674213688864 1.279843857342233 51 54 21
17.183497421769836 -1.7150005035432885 1.405127194046001 53 58 23
17.376424406300533 -1.7150005035432885 1.348335382565319 52 55 21
17.767450515754216 -1.8293339395236559 1.3533109203300566 54 57 25
18.237511650310477 -0.7147828145974636 1.745291312343574 47 50 21
9.069960760154821 -0.3512907352431634 2.048052511920204 50 56 27
9.537960607531529 -0.8037307307212217 2.143194184330674 55 60 30
10.02824026819949 -0.651822099381255 1.8920235963670469 48 53 25
9.542570060193714 -0.31305538262857974 1.9090078573624307 48 54 26
10.69024931012045 -0.4628178427341908 1.5863465672737282 42 44 20
8.968169721676517 -0.7089139747389599 2.1847001308026397 56 61 32
9.866784530879539 -0.5628209681875334 2.0067200521190958 49 54 25
10.393728856555825 -0.5930517834174337 1.6832382008614395 43 46 21
9.948935300408507 -0.8009820383535469 1.8946772043312203 51 56 27
9.906627634107872 -0.4625983422299352 2.119395199695329 51 58 28
9.879537830674733 -0.41489332664486733 1.897036233965738 46 51 24
9.866784530879539 -0.5628209681875334 2.0067200521190958 49 54 25
10.154449851295945 -0.7302016262219434 1.5871671470484716 43 46 19
9.122275059373154 -0.5957598112499867 2.313053448497979 55 60 33
9.579171501382007 -0.7089139747389599 2.270135563891757 56 61 32
9.423385353676496 -0.39959986991743945 2.284124255219668 55 60 33
10.174898649001916 -0.8694484641051023 1.587134243191416 49 52 25
8.527301169345506 -1.0176016795119016 2.221624833689237 55 60 30
8.895536856631981 -1.2088139002270972 2.190466189558879 54 59 28
8.713611830386709 -1.0863089174446685 2.0693193591140058 55 60 30
9.757421852004256 -0.5458206906975612 2.5624366713855 55 60 33
8.827140537555973 -1.1527188791067926 2.344170217626176 55 60 29
9.33391423288251 -1.3061268156679249 2.4461380354958835 55 60 29
8.248194112577078 -1.1776642558676338 2.6236185582198823 58 63 34
8.848193795168209 -0.8137212281574416 2.5147927928217877 56 61 34
8.573371526697487 -0.929279905606836 2.3734902766127384 56 61 31
8.208153609414008 -1.0777081333573042 2.420723281403841 57 61 31
9.475277059264371 -1.4530658607673743 2.609694544581682 57 62 33
9.291615618650004 -1.3437709995452554 2.2964621976654818 54 59 28
8.494799572550383 -0.9737493724572767 2.5747524972200355 57 62 32
9.296206059242888 -0.6906643985573159 2.451012764520181 56 61 30
9.456531822212359 -1.394311461348767 1.9122097687989654 53 58 26
9.392680622030765 -1.2863860831790412 1.8035209019345242 53 58 27
9.790011713537961 -1.5130996080590944 1.5877766166385714 52 57 24
9.183830457147604 -1.2520958965685192 2.0416512238682984 54 59 28
8.836566898265975 -1.49829954835077 2.0617600608947675 54 59 27
9.511658926006703 -1.1408057819531328 2.0241833777215366 54 58 28
9.270148444957421 -1.039788651896647 1.8066549737301536 53 57 28
8.76181674716579 -2.2471282950851403 1.704296104848876 55 59 38
9.184611805263842 -2.040260900173785 2.168187613776621 57 63 33
10.292655574082737 -1.9700684158208912 2.487176631340014 57 63 34
9.822290293589965 -2.107661408272987 2.3885162578557786 57 64 35
10.43338423177319 -1.862992988475336 2.6436101994427688 57 63 34
10.815257859931062 -2.291618813325545 2.7933959713695016 56 61 34
9.477260478035658 -1.9160264811376582 2.2792155324085424 56 62 33
11.083360903523337 -2.4626281382028776 2.7319205725093285 54 62 32
11.01138515826024 -2.6699500498606037 2.5542785152773617 53 59 32
9.16931259618946 -1.6350202083547685 2.3083582192262053 54 59 29
11.304655125105834 -2.5348992788088722 2.516376618896043 56 60 36
10.015532044469012 -1.9344214799060107 2.726803794225243 58 63 33
10.54645105686755 -1.7266272532196405 2.872257017708518 58 63 34
10.063062193667376 -2.194747392697791 2.517520060227488 57 63 36
10.009824478221306 -1.6461074691617374 2.5249445018996055 56 61 31
10.063062193667376 -2.194747392697791 2.517520060227488 57 63 36
9.540231362834284 -2.22598053716544 2.273573883639246 56 62 34
10.859288243555957 -2.436823726783992 2.575664266669885 57 62 36
9.921683112901594 -1.6857452340178827 2.748838080325748 58 63 34
10.206956866507012 -2.144098077829638 2.686084104068396 58 63 35
8.738747912274572 -1.8744658287604727 1.941552895988786 55 60 31
8.829269555771813 -1.6267755661884604 2.0622019791286905 54 59 30
9.105655604075398 -1.8416150962212046 1.5890529455144349 55 60 31
8.96517351394687 -1.7330033649960652 1.7012504327631786 53 58 28
8.809504034555196 2.8505029868600897 2.0634031606370655 41 47 24
7.787788563999314 2.560362617674212 1.7211127709030822 37 41 26
7.865061481245634 2.676713123121697 1.985117806473635 40 46 25
8.390340872016404 2.732048763647797 1.831935547188243 39 44 29
8.383012754299646 2.8505029868600897 1.9581029001087862 39 44 27
9.13698222746251 2.9779582620768705 2.17173827364362 42 48 25
9.516529011482863 3.0122064275550464 1.5882646392506738 35 40 29
9.05699004189546 3.110980676527109 2.177805509822448 45 51 28
10.477749491147256 -2.907601967799234 2.3239561679330905 48 54 31
9.510068733532714 3.1174664723818304 1.693736788141211 30 35 24
9.841906045104565 -2.9559224369857153 1.7927159898184095 36 41 30
9.439932248585079 -3.0502926543282993 2.027888882594779 41 47 26
9.08700682364778 -3.038096155616332 2.1755132936522763 46 52 28
9.690518639841475 -3.038096155616332 2.260509199163991 48 54 31
16.99119186566378 -2.174945800781518 0.8794032164238799 58 60 38
16.286086219498394 -2.2351324608773293 0.9974906685019548 72 73 60
16.48969806885542 -2.1341367936686484 1.0054426143553612 37 39 16
10.829656035505527 -2.881929812187645 1.493730477641197 53 56 50
16.3069353022322 -2.037532532178219 1.069691257979379 40 43 14
11.060463613358928 -2.611405514498616 2.401381443272558 53 57 36
10.228387208774782 -2.7612603435173337 1.6850637094769572 44 47 37
10.049646774746394 -2.784711796890315 2.231378568330058 42 46 31
10.760540458007167 -2.734835330455617 2.4324264670043254 51 57 32
10.994202253337534 -2.672094181152425 2.2807767690006924 47 52 33
10.774258632742493 -2.5709863462583 2.1801178711714444 42 46 32
10.110072341199006 -2.503517990706616 2.2267427231161823 55 59 39
11.037909350416653 -2.541491995006149 1.957834482656695 36 39 29
9.659163498713482 -2.481462519096869 1.7969868865758247 51 55 40
16.214615893955337 0.7692026439974111 1.1357444401812464 46 36 17
16.131242725359854 1.1385141962021819 1.3308389595513987 49 47 22
16.028073838688332 0.9597918450981497 1.1982674209188795 44 36 13
16.572826125381447 0.8736748537547667 0.9355607441177535 49 41 21
17.61785302940397 1.2135268791202052 0.8343059882171369 53 52 28
16.628301684265512 1.3253192856781648 1.0802467867447079 50 52 26
11.56789244678969 0.019686042574337797 1.585166703267523 38 42 16
9.867380258012615 0.688777467909365 1.6892635994675127 42 42 12
9.446813010022936 0.6047181117612033 1.802162946401559 42 45 12
8.93153306159153 0.8415824267164553 1.9331757056266157 43 46 15
10.004583307854938 0.026578940038343504 2.1134219644872694 48 53 22
9.427275572332823 0.28639787444049725 2.150778138689139 46 51 22
9.712306642743288 0.4033023082278543 2.1316698414442774 45 50 19
9.192790539264257 -0.10174495960533146 2.167582469800479 50 57 25
9.192790539264257 -0.10174495960533146 2.167582469800479 50 57 25
10.03176512672807 -0.08993319022880282 2.111788882468283 48 53 22
9.629952751533148 0.5256245171742212 2.410073364139433 45 50 17
9.567259020206263 0.4569787660429175 2.2711833787283573 45 48 15
9.970432691204511 0.32716112447402856 2.3727963278571806 48 55 23
9.878665174301165 -0.2636988929313418 2.3824477713667536 55 62 30
9.8844484760121 0.04089543053208842 2.5430709799157505 55 62 30
9.8844484760121 0.04089543053208842 2.5430709799157505 55 62 30
10.129811098282257 0.3808014838727614 2.5084264313864364 49 56 24
8.696630156152814 1.2686530187188052 1.7053028233610061 35 38 13
9.410459334958883 1.0642999350732814 1.5884615531174209 34 36 10
8.48790093581237 1.3576314992414158 2.0838537303791895 41 46 20
9.11585129196521 1.0075194921253057 1.92552107358226 40 43 14
9.246936490065739 1.2298427595311732 2.1636093872107574 47 50 21
9.572604040195138 1.1126300759062813 2.140863992441674 45 50 19
8.466150894386956 1.2163722298303195 2.58009117905622 50 55 22
9.05171465992113 0.8703088410087914 2.4843806660316896 48 53 20
8.782089160520336 1.4804066428927072 2.349190549741891 51 54 23
9.05171465992113 0.8703088410087914 2.4843806660316896 48 53 20
9.461069231354445 1.0509510692433905 2.2806827160812 47 52 21
9.52169400915312 -0.3703670196057416 2.6014679864027723 57 62 33
7.629046186322328 1.7973488626993537 2.1484990832659383 44 49 21
7.579147799640603 2.4805445424992425 2.001769637855931 36 41 22
8.881061831470339 1.653919040429557 2.509700501939382 44 49 20
9.205994902481795 1.6734557608266165 2.661724049246825 46 51 22
8.227921011724666 2.2531907881173354 2.417993103007198 44 50 23
10.185560543265234 3.0903051062454896 2.6903912609157175 50 59 25
9.135253141288603 2.5663263120768884 2.676822901290965 49 56 24
10.876408622505954 -2.665325537048508 2.7782233844571214 53 61 29
10.185560543265234 3.0903051062454896 2.6903912609157175 50 59 25
10.418929495961851 -2.2515950337098274 2.9208999416082553 55 61 34
16.822259392833164 -1.598403725569986 1.2166510859355784 50 53 17
16.339596522882413 -1.6676701070846056 1.1392963598784935 50 53 17
16.490243541243768 -1.8624921771777492 1.2091965062814694 53 56 23
16.249832174782078 -1.7993007836420205 1.203594737373245 51 54 21
16.675222405046217 -1.7240051148126752 1.2766975517671804 51 54 20
17.07048614723733 -1.6561782972996033 1.4040201709991758 54 57 21
17.513896776869334 -1.6561782972996033 1.2911702144910349 51 54 19
17.0471417586663 -1.7150005035432885 1.463017211755209 53 59 23
17.353491579071907 -1.7728358063367946 1.4067648714593877 54 57 24
17.376424406300533 -1.7150005035432885 1.348335382565319 52 55 21
9.487938579202018 -0.5628209681875334 1.9110338156707194 47 52 23
9.570613704817573 -0.3512907352431634 2.140997315859856 52 59 29
9.764467006340514 -0.5215765972646235 2.2542783810361624 54 59 32
9.503493916425002 -0.8009820383535469 1.6938222738043411 46 50 22
9.586484542550009 -0.651822099381255 1.6927518972992297 45 50 21
9.629751157454887 -0.9494567465099469 1.6922012348317337 51 56 28
10.015532044469012 -1.9344214799060107 2.726803794225243 58 63 33
8.750847416837923 -1.2540164356262995 2.530320044606953 57 61 31
8.628349601964905 -1.4530658607673743 2.5508811378620484 57 62 33
8.848193795168209 -0.8137212281574416 2.5147927928217877 56 61 34
10.54645105686755 -1.7266272532196405 2.872257017708518 58 63 34
10.634788020259343 -2.048593675169234 2.8436448386730686 58 63 36
11.432933799279107 -2.582977496532169 2.6664022853561025 55 62 32
9.233606534109462 -1.0863089174446685 2.1645821926868334 55 60 29
9.342829302977377 -1.6267755661884604 2.1567112873838914 54 59 29
8.848193795168209 -0.8137212281574416 2.5147927928217877 56 61 34
9.219167058240982 -1.4733192852758268 2.4611884821827297 55 60 30
9.540231362834284 -2.22598053716544 2.273573883639246 56 62 34
8.956683750427297 -2.3261559396508162 2.0546038840275958 55 59 36
8.989634624588795 2.8834034750294952 1.8141611605866472 39 44 26
9.538659848770386 -3.0599233375514654 1.693366427845724 30 35 21
9.411041199774273 3.11460772454422 2.0293993267147714 39 44 28
10.547255877923003 -2.8728598601274746 2.4563279567908953 50 58 30
7.983500171847889 2.808348382667219 2.119820390676644 42 48 24
17.45198233315482 -2.2351324608773293 0.9010642754122822 64 66 46
16.964115913980404 -2.1925487442594016 1.0230872963721562 36 38 18
10.994202253337534 -2.672094181152425 2.2807767690006924 47 52 33
10.793377033289863 -2.6733314756282867 1.772868590264371 49 52 44
11.060463613358928 -2.611405514498616 2.401381443272558 53 57 36
17.980697793100127 1.1726011597100796 0.9241386456314821 54 53 29
16.656722363183935 0.9191547412246883 1.0117916073511484 51 41 21
16.87521442326328 1.016788301759386 1.0198707760512187 35 31 9
16.353078034829917 1.197985334798423 1.2060220934749493 48 49 23
9.96760753931815 0.9761481426763224 1.4870504391620083 34 35 9
9.586511174006608 0.7590780062257335 1.9073961287324503 44 47 16
9.369006317613149 0.6725190668742479 2.0316156152237768 44 47 14
9.405340955725375 0.360409211462106 1.8032018674484556 42 45 12
9.602843551453295 0.1423769225983473 2.019561941608716 47 52 23
9.242193955481074 0.160894011637051 2.1639550974749446 48 53 24
11.829472864783693 0.10576430256499458 1.754956901759651 38 43 12
9.362444246541424 0.5721648475863758 2.1553215256908893 44 47 16
10.296089910630934 -2.6480145696200212 2.9826006922247115 55 62 28
10.758793618696014 -2.920468002555731 2.808154934594416 51 60 28
10.525744866786843 2.674693183621038 2.87947793127062 51 58 26
8.164130250982787 2.605735979516979 2.255955195535177 41 47 24
9.742393038189748 2.400738257935762 2.795956558362956 50 57 25
6.748142612664003 1.7973488626993537 1.8975933119998425 41 46 22
10.733453113311965 3.075415250985279 2.8150394929908793 50 59 25
9.82336558291461 1.9892832882848062 2.773748501940225 48 55 25
7.551673366467875 2.2744022437573697 2.0034431213667956 40 44 20
9.007279643294156 1.280015237774628 2.490800536555283 49 54 23
7.910947486933519 1.4928580601461805 1.9825683767158817 40 45 21
10.733453113311965 3.075415250985279 2.8150394929908793 50 59 25
7.46058615865605 1.7668619259048253 1.7277587685755014 44 48 28
9.865593385374487 2.798385930858637 2.7627972965344756 50 57 25
10.13753905902309 -1.314162202815622 1.4884574464365934 52 55 24
16.635040944118202 -1.7993007836420205 1.1474586555480044 49 52 21
9.42384277164979 -0.4625983422299352 2.028728770201735 47 54 24
10.347427912993487 -0.3756776698011137 1.683743482621741 43 48 21
9.620653918307553 -0.6286131092924173 2.13766550372247 53 58 31
9.758747070225972 -0.651822099381255 1.7946391606368302 45 50 23
10.040788497208137 -0.5083717699616644 1.7882489526357355 45 49 23
9.219167058240982 -1.4733192852758268 2.4611884821827297 55 60 30
11.304655125105834 -2.5348992788088722 2.516376618896043 56 60 36
9.296206059242888 -0.6906643985573159 2.451012764520181 56 61 30
9.468471982889882 -1.6618087991616621 2.6109171338196284 57 62 33
9.898143412290079 -1.4120525770141443 1.5875910988988906 52 57 24
8.848193795168209 -0.8137212281574416 2.5147927928217877 56 61 34
9.104708773939294 -2.1506452568655336 2.0460799026069685 56 62 34
9.168202920404099 -0.9777422532411568 2.042519096109321 54 59 29
9.176339528684066 -1.487640800322582 2.3076626417133106 54 59 28
9.16931259618946 -1.6350202083547685 2.3083582192262053 54 59 29
8.573371526697487 -0.929279905606836 2.3734902766127384 56 61 31
8.692713233631569 -2.1506452568655336 1.9436123697223744 58 63 39
9.462889976253276 -1.3721646341804672 2.148314439270121 54 59 27
9.024575932640474 -2.0893818379787312 1.700386889683496 56 61 33
9.470292811435966 -1.1848446775755976 1.5883499324057273 54 57 26
9.053431501335293 -1.506539636333346 1.8124119409403205 53 58 25
9.046309097655199 -1.6204053470298536 1.8126059663823977 53 58 27
9.068450882881386 -1.9869970694777608 1.927457793196624 56 61 32
8.996989295320438 2.953090754334435 2.325902315795313 45 51 22
9.921934254668809 -3.0502926543282993 2.1184526018960637 38 44 26
9.093437940280191 2.9970698474413715 1.9264341642448046 38 43 26
17.371679026328763 -2.2901397689984293 0.9690527926063343 70 71 56
16.37171522815776 -2.174945800781518 0.9264748303895682 54 56 35
9.206563509259231 -2.410469347307163 1.9218740576576185 55 59 40
10.774258632742493 -2.5709863462583 2.1801178711714444 42 46 32
16.34939964081486 1.1726011597100796 1.0711133465448666 52 52 27
7.587425320251543 2.3756847411310895 1.460685461557765 26 30 15
7.734224540805948 2.189682962233294 1.7221617958356763 35 40 14
9.283607545214338 0.8530257970748788 2.297227709921228 46 49 16
9.61518681215055 0.5096417601256352 2.0189438766325627 44 47 16
9.55530496958332 -0.08993319022880282 2.0219590041053026 48 55 21
6.787934631808633 1.943592125990325 1.7434621559363632 38 42 21
9.219351486226222 0.4033023082278543 2.0396909249430193 44 48 17
8.103315239343958 1.64061921487296 2.2621039538880416 46 51 21
10.018462842000277 2.217221113255849 2.7261399400291473 50 55 26
9.7956190434228 0.18488466592429714 2.3914255040720707 50 57 25
13.415583221696089 0.08855377499722468 2.9484877279459942 52 59 25
8.902134976128325 1.4928580601461805 2.1899375206549454 45 50 23
10.395597553428788 0.5256245171742212 2.474375734487657 47 52 22
10.269607736119639 2.9842955024307996 2.99958290797518 51 60 26
11.565363663926293 -2.512525707035909 2.8781100661479035 56 61 34
9.37382316295758 2.8715685413555074 2.628384376680378 50 57 25
16.869963650033096 -1.8624921771777492 1.1537244296717668 49 52 22
9.620653918307553 -0.6286131092924173 2.13766550372247 53 58 31
18.152856620048706 -0.6368313399069097 1.635085546821054 44 46 17
9.487029901972873 -0.46222094186744844 2.42701673600998 55 60 33
9.683447098723702 -0.721276134093778 2.015557579203833 53 58 29
17.95432050894713 -0.7936016839219856 1.6357974445187264 49 54 24
9.167732747458064 -1.0176016795119016 2.3085148116953498 55 60 30
9.270780971826898 -1.779676846673964 2.298457680652313 56 61 31
9.757421852004256 -0.5458206906975612 2.5624366713855 55 60 33
10.182088926120311 -2.42107590192554 2.3515392397457644 54 59 36
10.102854667159546 -1.8145460498355945 2.5120707578649375 57 62 33
9.21357643759352 -1.2863860831790412 1.6977140451807446 54 57 26
8.934600563507466 -1.753437645340092 2.0559030800266798 55 60 31
8.991316860825906 -0.9017210307852314 2.1828869996470575 55 60 30
10.69242062365975 -2.784711796890315 2.3052958472411302 49 55 33
15.886047956705989 0.8158231777836079 1.3270607976991398 45 34 15
15.894506192743792 1.1726011597100796 1.1263639608198641 53 51 27
17.981104269117054 0.9779180142311683 0.8524738395896495 31 25 4
16.316421572310716 1.051320981350204 1.2051640588414574 54 50 26
9.304232262430888 0.7590780062257335 1.8057746691339198 42 45 14
9.327816971972746 1.2163722298303195 2.637205005476508 50 55 24
16.591159908059414 -1.7852674213688864 1.3376158383662073 52 55 22
9.319463501332224 -0.8829940577035973 1.9174407284522632 54 59 30
10.446832393341372 -2.319636684693726 2.4681742212318354 57 62 37
10.815257859931062 -2.291618813325545 2.7933959713695016 56 61 34
9.035021471686617 -0.8076565098938909 2.321947847302803 55 60 31
10.617278034824293 -2.0426885538594823 2.6126307053351 57 63 36
11.083360903523337 -2.4626281382028776 2.7319205725093285 54 62 32
8.915741179180692 3.1062276708117387 2.3345141823130877 47 53 25
9.841906045104565 -2.9559224369857153 1.7927159898184095 36 41 30
16.849455357750934 -2.2351324608773293 0.9476100640666064 64 65 48
10.370150659040512 -2.672094181152425 2.207580896032312 43 47 33
10.070140962007114 -2.85581899732041 1.787604984081487 39 43 33
9.7490205267977 -0.11711222422769325 2.3965687792016426 54 61 28
9.68754238472129 -0.204057796627165 2.015356107964505 46 55 23
13.435866089399722 -0.2925208098252451 2.940914189698221 57 64 30
9.461069231354445 1.0509510692433905 2.2806827160812 47 52 21
9.30706336528713 1.8981381472530694 2.6412594407448022 48 53 25
8.54802512221326 2.808348382667219 2.2197799068994177 44 50 24
9.82093559204737 -2.907601967799234 2.249604397624009 39 45 28
9.79932334964771 0.8334487369114788 1.4856088081998513 37 37 9
9.212993856698906 1.4380669809792725 2.6602664071815725 48 53 22
10.859288243555957 -2.436823726783992 2.575664266669885 57 62 36
9.11806980827572 -1.1408057819531328 1.9254309550390352 55 59 30
8.802333337673142 2.8834034750294952 1.7036779625887024 42 45 34
9.761927678530117 0.03009060457508742 2.254490255208297 50 57 25
9.072060935325915 1.1126300759062813 2.0479328008137667 42 46 16
8.24870233786568 1.5022991036591693 1.5909498605895784 35 40 16
8.834956445535516 0.9723612102043026 2.3433069470119063 50 55 23
8.888316652406703 1.4632385502931267 2.508586320678199 48 53 24
8.96517351394687 -1.7330033649960652 1.7012504327631786 53 58 28
7.742771786906144 2.006787990716341 2.301283433196345 45 50 21
