16.056024720268457 2.3444849155135077 1.5517692391223616 31 37 15
16.056024720268457 2.3444849155135077 1.5517692391223616 31 37 15
10.888273371934861 0.13671805343891552 1.5427366853178668 12 12 13
10.797577720966414 0.044802788912075564 1.5425009320710261 12 13 14
9.248929074173232 0.7588623119936292 2.1031635003757865 32 33 21
9.833526204295332 0.9129250632131961 1.848360130641225 11 11 11
9.440363516031834 0.8424851840450737 1.9728982416408178 23 24 17
9.89415544808789 0.6137987901192286 1.8466146446971008 14 12 6
9.534528658240406 0.7628614689705002 1.7494699501203796 12 12 10
10.158245385216143 0.04937561971760916 1.8392640664301734 9 11 12
9.824741058136542 0.37760108403155157 1.8486149100574485 11 11 11
10.728018757034853 0.34208829003131597 1.8246815372259386 12 12 10
10.038312786619228 0.15049340195856523 1.740413638233754 13 13 14
10.068266398340773 0.1673269095484647 2.0558647094263445 31 35 21
9.711670182578754 0.5226558643997757 1.9610473355953157 19 20 11
10.263371797300993 0.2755754643248553 2.045871326787773 19 19 15
9.824741058136542 0.37760108403155157 1.8486149100574485 11 11 11
11.298398892781082 0.08340527700930393 2.6022444598071885 39 45 23
11.126384921797039 0.21532263059958134 2.4677546032211346 36 40 21
10.146526007430747 0.47446281489928954 2.291328071801836 30 34 21
9.271726631180886 0.6595290334205448 2.232144165013912 33 34 20
9.95796109370353 0.30889034700743356 2.1795627479824766 31 32 20
10.733051952627935 0.4056547965793498 2.5150671265585918 35 39 20
10.27698411336223 0.06203541083134534 2.2802362294085565 34 40 20
11.841396333720718 0.07115303757656978 2.529935017100013 37 43 21
12.167286288500582 0.08340527700930393 2.6444666476925294 38 45 23
9.516456900208766 0.47446281489928954 2.2122820437893633 34 35 23
11.385105617519422 0.2511216533430916 2.5896526909633195 37 43 22
10.561724633299749 0.30889034700743356 2.2573134196343596 33 37 20
11.129958836630268 -0.13973755116786082 1.3621437266732794 12 12 14
11.038242436491405 -0.04787411855755307 1.3603841050384287 12 12 12
11.270388586125256 -0.4325450063638222 1.273131008814977 8 12 15
10.47695315613337 -0.3450958653584209 1.4458665881251012 11 13 13
11.384300663467616 -0.5608542292990528 1.9958479391993316 8 11 4
10.566236919019538 -0.1538080411620414 1.9279972894702282 13 15 6
10.073209574059865 -0.17099866371228079 2.055606080609143 37 41 28
9.941534028441085 -0.052759352564959935 1.7420810855055768 9 12 11
10.156125652710426 -0.380862041895269 1.9431109873529901 24 29 20
10.27145261106022 -0.2790710759011582 2.045466703281553 36 40 26
9.524949478573667 -0.2790710759011582 1.8576028460707263 7 11 3
10.020079826033934 -0.4750033903603819 1.740725283733348 9 11 11
11.543242660908422 -0.6383639590437182 1.8965881203979196 6 9 5
12.135882281356418 -0.7078907246992361 1.8801356379710568 9 9 5
11.869734649982837 -0.7078907246992361 1.7998002061926344 11 11 11
11.183498541274819 -0.6971026101366934 2.003990378550749 16 20 10
10.958071767916273 -0.6383639590437182 1.6342185126314446 10 12 11
11.55771874184499 -0.8304114925011397 1.6309239108425346 11 11 11
10.425249588980167 -0.7618755934158358 2.268089097995869 39 45 20
10.433678186452337 -0.6828379788115001 2.148119019128901 39 45 25
10.84312415467412 -0.47832697797851564 2.3597578501098693 39 47 25
10.247365117034704 -0.5463921428225252 2.4201865251083357 39 47 25
10.740779408843322 -0.41049032124967355 2.514073826687068 39 47 25
9.856526554999759 -0.3552999390002908 2.317463751988773 37 45 25
9.966289542017911 -0.3127558791726463 2.1789803394139358 36 42 22
10.545970366261436 -0.5874897401675865 2.258538254101351 37 45 23
9.941250066270682 -0.5874897401675865 2.180735010885397 36 44 29
11.048611486919345 -0.1924620832810777 2.341198735471152 38 44 24
10.278598644009023 -0.06628230612294084 2.280101377998918 35 39 20
10.15796748113223 -0.47832697797851564 2.2903395509783455 39 47 25
10.956214134935554 -0.06628230612294084 2.349415708039526 37 43 23
11.299867484122158 -0.08910206240969787 2.6020273633127218 38 45 23
10.045469834237732 1.0021427583173834 2.0570611869219593 28 29 18
9.662274023365457 1.2538675223946882 1.9631511716370857 25 29 16
9.858180754920387 1.3637014541970902 2.0671306759371006 29 33 19
9.861174616787181 1.5937350301274795 1.847561376958528 24 28 11
9.797113142173346 1.3850118006357874 1.744631574069895 10 13 5
10.490112627928779 1.5915475949250173 1.5416713631076238 28 31 21
10.243891526092069 1.2854061617702792 1.8369646851114771 7 10 2
10.75536957505965 1.1037194252592941 1.7290064958531624 11 11 7
10.75536957505965 1.1037194252592941 1.7290064958531624 11 11 7
10.10446437968786 1.0574663562104276 1.84072863060386 9 9 8
10.027376302523178 1.2854061617702792 1.74060043124043 11 11 9
9.105334579486373 2.248431968772424 1.988599140554062 37 43 20
9.946071054906652 1.8264767053768325 2.0623513153593978 33 37 18
10.970319693202098 1.8685903045533514 1.5429465960636124 22 27 10
10.737867658378592 1.7792552988231387 1.6355209279867826 23 28 11
9.796450466952646 1.9333128922536702 1.9574900463264815 34 38 19
9.933675816680859 1.698487833920306 1.8454888015723738 25 29 12
10.370545600265915 1.8978935690321377 1.8336365056575992 23 27 8
9.350870535833735 2.0840136474804933 1.9769718789362238 34 41 19
9.887159126822233 0.8535753013934657 2.314600478962811 34 36 20
10.071253248480273 1.4666201988182859 2.2979093929118592 34 40 20
9.725894755602917 1.1654065982016897 2.329965634201277 35 39 17
9.849632201322358 1.1012253020121996 2.4673798336689843 39 43 22
9.406181707644674 1.5998624930363061 2.2210668826892412 32 36 17
9.571099910717924 1.3369695047441286 2.2080248746120987 33 37 18
9.35218314691008 1.4506959924072755 2.368600051861984 35 41 21
10.064170015824889 1.6043425177450068 2.4411327255277073 38 42 22
9.86578379526139 0.9352521561829853 2.1860905955111596 34 35 21
10.432614389279713 1.2565120114261137 2.55602394662778 38 44 22
9.450963216823629 1.6104543641571945 2.5220633105194117 37 43 20
10.670506356769122 0.8968085629401907 2.710558402192971 39 46 24
10.973812259270156 0.7442672913505188 2.6539142465844123 39 45 23
10.331021572242257 1.3498484959052945 2.788735584680823 40 48 26
9.813652786902178 1.3980206023290984 2.6593596353846967 40 46 24
10.303647758647283 1.633175765137034 2.796021764231486 40 48 26
10.108320399718549 0.7531382539957436 2.4359678129234204 34 38 20
9.675396204368505 0.8700004449962362 2.4902434567533307 37 41 22
11.09155501775518 0.4789505039292404 2.6342631620063948 37 43 21
9.943471758582643 1.1923948135383087 2.634983258009164 40 46 25
10.69849256297505 0.5809762137466732 2.7049048154527338 42 48 23
11.122818079167462 0.9482673082598823 2.8631827601421715 39 49 26
11.808675557239773 0.3007686723955109 2.7037048794040914 40 46 24
12.300495702554283 0.12711416101628398 2.8263965042187795 46 56 30
12.112149161828144 0.4898023832746759 2.8782288140832817 42 50 28
12.030683477537703 0.17201855760593676 2.904639652164866 48 56 33
11.839446581020626 0.26483653780122496 2.9849648813676266 48 56 34
11.725101536211811 0.1007375740459442 2.7191851240078497 40 48 25
9.209500157987982 2.031462319133279 2.237413564408556 39 45 22
9.232395077348166 2.1014415245988265 2.381993125923241 39 44 21
8.960091025567065 2.2264427352165184 2.259507360749015 40 44 22
9.661602099730349 1.8588849004578398 2.2011085004653097 36 42 20
10.114368137027101 1.7320863365407249 2.294123068725301 35 41 20
9.174627780851722 2.5529238931054152 2.3886464567537358 37 43 20
8.645151502954352 2.451241708445019 2.456510211189536 37 45 22
9.038392123980298 2.316544825080949 2.5892830096661688 38 46 23
9.177374034023149 2.0301293961846656 2.565179120044345 38 44 21
8.930373408369565 2.4317303708896936 2.262249728347546 39 45 20
8.702052620224356 2.484269001398303 2.655615264116525 40 46 24
9.310188369896109 2.2997066720253163 2.7758864307755187 42 48 26
10.08134391640043 2.0266412548152015 2.8636779517342026 41 49 27
9.094254059058908 2.3256521512543302 2.398125462492429 39 45 20
9.039619996984072 -1.337964921817106 2.116859603440861 42 44 23
9.28868016898698 -1.216266036404456 2.1006442962916303 40 44 23
10.264241412130204 -1.192485203224679 1.6385120083844877 12 13 7
8.825561806241828 -1.216266036404456 2.0027168639829105 37 43 21
8.378304865557316 -1.5997342305244393 2.027467215148873 39 44 20
8.864819823671484 -1.5997342305244393 2.1288867583421607 41 47 21
8.66408063423385 -1.8576817097588667 2.011325191767483 38 43 18
8.945399986266752 -1.7313864081690324 2.1232729387778533 41 46 19
9.428174888629604 -1.9752584442572212 2.09200014744229 39 43 18
8.855869840117364 -1.2582816824057321 2.4278873672441716 43 49 26
9.09847685564531 -1.1949198874721214 2.5786588930915326 42 53 29
10.91582993570292 -0.30708662185870633 2.6640252451857878 39 48 25
9.718211885422235 -0.6340369686332997 2.4844859317505597 39 49 25
9.463410051816192 -0.9697697209286562 2.3566246150436156 41 47 22
9.345968686260996 -1.0186625321098985 2.5379937552780127 44 50 25
9.385509670888894 -0.7568189530805977 2.3649667496797737 39 48 20
9.500032585164124 -1.429904897846182 2.514857379350554 43 52 26
11.812890470631036 -0.30708662185870633 2.7029434220662276 43 53 28
11.35545437492236 -0.13573758606271347 2.7987289199431435 45 56 30
12.032062689124553 -0.18357291463384856 2.9041654471407146 48 58 34
11.154132959912669 -0.4990440771650582 2.8535237669156217 48 58 34
9.345047836138104 -1.6041718013372397 2.3693830886922087 40 49 23
8.689403349231156 -1.4513018172614487 2.2854298220844917 41 50 24
8.835755777379054 -1.303805715259779 2.271146912083613 42 48 26
9.43260667006191 -1.5997342305244393 2.218937735409126 40 46 21
9.004872698552727 -1.8341149742666238 2.5953529197805203 47 57 33
8.75967361546806 -1.788025098769299 2.4406630303904437 44 52 26
9.645586196491854 -2.2235289616331473 2.3378958000244814 45 51 26
13.758241543143054 -2.7403313135456395 3.0453100774432897 43 53 29
13.88251997180662 -2.9127201575221333 2.9768325051475806 42 52 28
14.148946914667412 -2.7011292093555928 2.887463380843796 43 53 29
13.335548294931987 -2.477837314005973 2.8302750319700296 47 57 33
13.183461636009678 -2.7011292093555928 2.868392670224385 40 50 25
11.995661105272546 -2.8587171018456443 2.671513141933122 38 48 22
8.933710415614362 -1.8988007424485769 2.2619405664653915 39 48 22
9.627122239087917 -2.145204522802248 2.203724060711716 38 47 21
9.076092541994988 2.4188565715222987 1.9900299139457918 38 42 20
16.101685248579994 2.432438216290252 1.5518232018768032 31 35 13
11.268001024250665 3.08283447650806 2.3224729976476306 39 47 24
11.310249102487056 3.0747162730642943 2.4476481938364008 38 46 23
11.401232827942696 -2.9344806333183646 2.438111041103185 39 49 23
12.041942239996102 -2.6268595475532837 2.506577558563267 43 53 27
11.252525708722679 -2.6268595475532837 2.453836976478705 43 53 27
11.576756783109968 -2.8060980090332013 2.4204205813925395 40 50 24
11.528608331296061 -3.058696997484818 2.56975840614857 39 47 24
11.26947357691736 -3.078810763743407 2.3223508654778495 38 46 22
11.28807204010046 0.044802788912075564 1.273611563018552 12 12 11
10.405576000697941 0.9725155142003742 1.7343720298293326 12 12 12
9.733383966506779 0.4208555274992227 2.0740873609871384 28 29 17
10.747679384665027 0.24861211707558203 1.9217040919261381 12 12 7
9.408411058668202 0.7628614689705002 1.6446824864196736 12 12 12
9.917356140085237 0.6595290334205448 2.3118025276759164 32 34 19
10.372232876674877 0.18835040373327666 2.2723784955040234 33 38 21
11.126384921797039 0.21532263059958134 2.4677546032211346 36 40 21
9.848105281616004 0.35099205806622374 2.3182553586558576 34 38 24
10.553398302145641 0.35099205806622374 2.387807379423201 33 37 21
10.715606628854673 -0.5608542292990528 1.8249821157732309 10 13 9
11.234854727961524 -0.5134743888276803 1.5436025073464168 9 11 13
10.934766297361126 -0.4750033903603819 2.0145365747083055 18 21 15
9.310825685784065 -0.17099866371228079 1.8643924773866436 10 13 4
10.958071767916273 -0.6383639590437182 1.6342185126314446 10 12 11
9.923620728899255 -0.1538080411620414 1.6408400423280838 10 13 9
11.309693688310425 -0.22929303377984417 1.3655074381163539 10 12 13
9.610869476887498 -0.380862041895269 1.7480356014720093 5 9 4
10.873446287755195 -0.04787411855755307 1.4504446182944601 12 13 13
9.820644620019326 -0.052759352564959935 1.6415757206392423 11 11 7
11.039149272685892 -0.07601975820920251 2.4777131551936415 37 43 21
9.966289542017911 -0.3127558791726463 2.1789803394139358 36 42 22
10.561257208086209 -0.3552999390002908 2.3870149872611703 39 47 27
9.932403605080024 -0.6631035875625698 2.310417288166964 38 47 21
9.52865495554343 -0.47832697797851564 2.211326301525961 36 44 24
10.648629135808259 -0.5258517626221066 2.135026485898253 34 41 29
9.76185123923793 -0.1924620832810777 2.193636258400639 36 41 24
11.130858200649486 -0.21998762909529446 2.4672514797612117 38 45 24
10.018605891364487 1.3850118006357874 1.8431005771765057 16 19 11
10.535480559728923 1.4962998481052407 1.6367660804958986 14 14 12
9.727223560956384 1.4788264859897482 2.0744360877269457 31 35 16
9.849698171703615 2.0321660460508517 1.847892361354521 32 36 15
8.906702167954885 2.3313578593545126 2.1259538032498355 40 44 22
10.416434309541339 1.8005062624848165 1.933369982093978 24 28 11
10.846217805834637 2.073777300946628 1.6348734596435963 21 25 5
9.324411606578977 0.9352521561829853 2.0984012979393993 31 32 20
9.61885783784347 1.0021427583173834 1.965019691260198 18 19 12
9.35218314691008 1.4506959924072755 2.368600051861984 35 41 21
9.48831803878889 1.3025035225271513 2.354000676862132 36 41 17
9.43615938340843 1.4666201988182859 2.2186526518766234 33 37 18
10.05772729740283 1.0426714916815738 2.299106570507346 33 37 19
10.308956950319873 1.4290635109498697 2.5743665928873596 38 44 22
10.170421830267822 1.0153636254275749 2.5961212942095466 39 45 23
11.353992973514599 0.12711416101628398 2.799089679762785 47 55 32
11.440278354318762 0.37375027223767326 2.7785280091846496 44 51 28
11.808675557239773 0.3007686723955109 2.7037048794040914 40 46 24
9.93889860807807 1.9768617405676183 2.180900357056753 36 42 20
9.482162449851383 1.7320863365407249 2.2149859549566875 33 37 18
9.526586803986806 1.789298517613715 2.511018245923977 38 44 21
9.445171753678277 1.907057553946494 2.740219117116553 39 47 25
9.625301027221138 2.137701692567104 2.6981930272062526 39 47 25
8.645151502954352 2.451241708445019 2.456510211189536 37 45 22
10.070217399115442 -1.0041487548402028 2.0557625977893763 43 47 29
8.391793799261736 -1.0448910340633495 2.0266776397742694 40 44 23
8.864819823671484 -1.5997342305244393 2.1288867583421607 41 47 21
9.814562248960884 -2.0821231082677745 2.0695390503777524 40 43 19
8.181482354561386 -1.337964921817106 1.906404658080627 36 42 19
8.463518348084543 -1.7313864081690324 2.0225265284160687 39 44 19
8.855869840117364 -1.2582816824057321 2.4278873672441716 43 49 26
9.690819381065193 -0.8736330251597921 2.488158610400562 42 48 21
9.259154460032295 -0.8565631194987852 2.2332013385351304 40 46 19
11.099032876945293 -0.4844006608310444 2.6330524084237594 40 49 25
11.619497377149852 -0.5870827173981306 2.7398840552827437 46 56 30
11.84084806773423 -0.28209730619114554 2.9842171619787683 48 58 35
11.7265166888041 -0.10760201144299644 2.7189167068094244 39 48 25
8.689403349231156 -1.4513018172614487 2.2854298220844917 41 50 24
8.953604428255113 -1.9530107476581455 2.415372650484315 44 50 25
9.232894031569888 -2.029432311415085 2.23542166108909 39 48 22
8.739338154683926 -1.7555088127424499 2.2804830264937914 39 48 22
9.378338345708961 2.3352675892081916 1.8622167575192918 38 42 20
9.788289239647517 2.49189356741209 1.9578295788481275 35 39 17
11.527168882171566 3.0640003993090708 2.5699524726127634 38 46 23
11.268001024250665 3.08283447650806 2.3224729976476306 39 47 24
11.616453747798998 -2.902344043762349 2.55811299110303 39 49 23
11.576756783109968 -2.8060980090332013 2.4204205813925395 40 50 24
11.311716155324696 -3.070140075176801 2.447492325134175 39 47 24
10.779089624828014 -0.4325450063638222 1.5424523873412683 9 11 13
11.044104895097325 0.18835040373327666 2.3415948074197694 34 40 20
10.551357954837293 -0.2564991736766149 2.5392647794921905 38 46 24
10.27145261106022 -0.2790710759011582 2.045466703281553 36 40 26
10.240803148019355 0.8344957623474245 1.7370282495674385 11 11 13
10.728018757034853 0.34208829003131597 1.8246815372259386 12 12 10
9.47198503614776 0.6798859933968955 1.9714789268920054 26 24 15
9.856526554999759 -0.3552999390002908 2.317463751988773 37 45 25
10.893491669204582 0.42974494629035476 1.7269839167453587 13 13 13
10.222149932431506 0.47201032436303025 1.8375446061342866 10 10 10
10.363754307298827 0.21532263059958134 2.4075093141512407 36 38 21
9.971778352160001 -0.058753619772300696 2.0609715934991995 37 41 27
10.446222957108281 0.24861211707558203 1.8316877816390134 13 13 15
10.861308644824529 0.04937561971760916 2.0177540003921806 12 15 9
9.047707194764067 2.1475359096400286 2.1163165052749315 39 45 22
10.516383806679915 1.9892608426690863 1.7326331944525406 24 28 9
10.558295949383742 1.6864213781310013 1.5418594988668277 26 30 15
10.559458470499262 1.1912846116230253 1.82882592123963 12 13 6
10.170421830267822 1.0153636254275749 2.5961212942095466 39 45 23
10.973812259270156 0.7442672913505188 2.6539142465844123 39 45 23
9.78483170167046 1.6192872809085201 2.665017277357229 40 46 24
11.839446581020626 0.26483653780122496 2.9849648813676266 48 56 34
9.70520512622159 1.9551034814535275 2.486225054039406 38 44 21
10.135859740774832 1.1028049203367611 2.1673793685863076 30 34 19
10.45441802866102 1.0978403578632017 2.7579654464673666 39 47 26
12.64385400581698 0.1007375740459442 2.7516142727277693 43 53 28
11.326161380366793 0.728674384966677 2.8060493878017203 40 48 24
11.006917480857066 1.265579878352734 2.902773510612884 40 49 27
10.177431114637132 0.966952411547169 2.4280340294018066 36 40 20
9.579602331922546 1.900361058159254 2.344557617633533 39 43 22
8.896621836293628 -1.4670768632571942 2.1266567022642158 41 46 22
9.13538895299174 -1.8576817097588667 2.110501130547939 41 44 17
13.335548294931987 -2.477837314005973 2.8302750319700296 47 57 33
9.470257099325364 -1.6102160307403115 2.519212418586422 45 51 26
13.831933992677664 -2.2472637844301704 3.000517433018758 47 57 33
13.955556183324768 -2.5417557846287013 2.947873813208854 46 56 32
12.408152988627982 -2.548537132727746 2.6097902970739457 44 54 28
11.732043017791392 -0.5835452055498426 3.061591101088333 48 58 35
11.7265166888041 -0.10760201144299644 2.7189167068094244 39 48 25
9.090403167590809 -1.1672537470073752 2.2477635823848514 41 47 23
8.988753057856192 2.516854767994342 2.120302167136714 34 40 17
11.788773697593735 -2.75699398800048 2.536328416248206 41 51 24
9.388329256543416 0.5840921820510404 2.0944386935349497 34 35 23
10.247365117034704 -0.5463921428225252 2.4201865251083357 39 47 25
10.561524500462898 0.15049340195856523 1.9281638164936874 13 14 8
9.74531050135 -0.42440254403319894 2.0734136692272562 34 41 24
10.263371797300993 0.2755754643248553 2.045871326787773 19 19 15
11.011388585659342 -0.6828379788115001 2.224289038799258 38 44 21
9.996218729822822 1.1513892476551464 1.9493658497134885 14 15 7
10.40737368313438 1.1513892476551464 2.038767195506347 19 23 10
10.349547096576792 1.1912846116230253 1.7352656223081677 13 13 11
10.490112627928779 1.5915475949250173 1.5416713631076238 28 31 21
9.310188369896109 2.2997066720253163 2.7758864307755187 42 48 26
10.516670908972484 0.6295178831769549 2.544078749020797 35 39 20
9.857894391712538 1.8359743510675053 2.650854897992857 39 45 23
8.675846153694009 2.1932786221135085 2.4521917431267997 39 45 21
11.725101536211811 0.1007375740459442 2.7191851240078497 40 48 25
8.877569557895066 -1.0448910340633495 2.1279904162939483 40 46 21
9.80008265245429 -1.6189315248907066 2.6620116705917782 47 57 31
11.926393863255143 -0.7049930770235272 2.9440807039736394 49 59 36
9.109955006308102 -1.1036558877254392 2.3962529211487946 41 47 24
8.956418452755303 -1.3992653013088896 2.6043180010895832 45 55 30
9.09847685564531 -1.1949198874721214 2.5786588930915326 42 53 29
8.988753057856192 2.516854767994342 2.120302167136714 34 40 17
10.478177989145816 0.05498696547445766 2.1453552889888403 35 39 26
10.14468210174037 0.37760108403155157 1.943551554796182 12 12 12
10.469583325544862 -0.052759352564959935 1.9314449376098004 12 15 8
10.236023569411529 0.542191663430967 2.421447155104941 32 36 18
9.794474314889207 0.7588623119936292 2.191246136447253 33 34 22
11.109747525948059 -0.6166427806559421 2.1089710936309833 32 37 21
12.030683477537703 0.17201855760593676 2.904639652164866 48 56 33
8.972259673273413 -1.9752584442572212 1.9951932730586905 37 42 17
9.665328568066789 1.4884781521857295 1.7470264513104017 27 30 16
10.009912324920816 1.6581847964163827 2.8898985502437817 41 49 27
11.444628944586531 -0.38133204093377554 2.7775287000250604 46 56 30
11.678804675058773 0.06203541083134534 2.4105369077295866 35 41 20
9.669812508264561 0.6137987901192286 1.7469438765064558 11 11 11
11.528608331296061 -3.058696997484818 2.56975840614857 39 47 24
10.043171431533308 1.5998624930363061 2.300399943608883 34 40 20
9.278785158316298 2.179653608587927 1.754449926875339 35 41 19
9.806671356418668 1.2148230037225416 2.190357649634296 33 37 20
8.835516549795756 -1.1045840562868077 1.8806974987294072 37 43 23
9.615113359158519 1.2565120114261137 2.4985125898474587 39 44 22
9.698145627539695 1.5964378571801876 2.0760890174211903 31 35 16
10.12479313316393 -0.25179670191080006 1.6394461110077858 11 15 12
10.13521921398699 1.7564328091729284 2.43285828169107 37 41 20
11.725101536211811 0.1007375740459442 2.7191851240078497 40 48 25
11.975459523451601 0.4789505039292404 2.674844336600219 40 46 23
8.411946386662192 -1.4670768632571942 2.0255032901599255 38 44 20
