14.209508073690738 0.3552711618645055 1.711827351375266 23 26 16
14.384186095768106 0.3552711618645055 1.7807123776462397 24 29 18
14.613159196113758 1.1232166854341972 1.777375211143733 1 4 0
13.650801326132774 0.9874173335305935 1.8679801007743486 16 19 9
14.01809630331164 0.614357690898137 1.78627974086048 26 28 17
13.495256137336614 0.6590932679210157 1.871511867007713 25 29 14
12.733799199717508 0.8265689696780426 1.8901111897111083 25 29 16
13.737338121627225 0.5521437546698811 1.866051461910142 26 30 15
13.480347500213277 0.5521437546698811 1.7950196923301645 26 30 16
12.456121070273843 0.8265689696780426 1.8138135594508187 24 28 13
14.053982133989527 0.38175555001629696 1.9343331609297618 26 31 16
14.053982133989527 0.38175555001629696 1.9343331609297618 26 31 16
14.084159199957556 0.9627658046703504 2.2637693134747026 25 33 11
13.104840802379996 0.709665444780266 1.9620371832189816 25 29 12
13.121231870062484 1.011734110496639 2.0454964996216027 25 28 18
12.76584039311661 0.8320205708396082 2.150923588430448 27 31 12
13.475024494498552 0.9057871920120134 2.3019182956881576 29 33 12
13.113888469714274 0.538594500442957 2.3269011190224465 30 34 13
13.113888469714274 0.538594500442957 2.3269011190224465 30 34 13
13.294519258299673 0.4477178767021984 2.125078469922564 29 33 14
12.959332048941283 0.6435854907773505 2.0519271912808277 27 31 12
12.789026600884005 0.6996699307861143 2.1497359154135176 28 32 13
13.128562623254037 0.48930935912209467 2.2257924558335636 30 34 13
12.913529581161555 0.8909353884803081 2.053779722518213 25 29 14
13.598598948675033 0.4847727109793257 1.9471047299264435 27 31 15
12.967332873559998 0.5702466560081746 2.140774028723545 29 33 14
12.967332873559998 0.5702466560081746 2.140774028723545 29 33 14
12.409745148169227 0.7608853560588148 2.3818634503000276 32 36 15
13.294519258299673 0.4477178767021984 2.125078469922564 29 33 14
12.913529581161555 0.8909353884803081 2.053779722518213 25 29 14
13.152812040925543 0.7608853560588148 2.434250746764423 32 36 15
13.630250174752078 0.8391346585940377 2.394205607496782 31 35 14
12.73613792880333 0.668973181388575 2.473426131587469 33 37 16
12.73613792880333 0.668973181388575 2.473426131587469 33 37 16
13.340683771239636 -0.008064516846125021 1.72107971815833 23 28 15
14.849331303189155 0.26780322410287605 1.7057126566805711 23 28 18
14.454346393630086 0.13266526532606254 1.7094229073817764 24 27 17
14.51622178695455 0.20116367176492309 1.6395560433410803 22 26 18
13.83221960326188 0.2159610225890393 1.789222014713969 26 30 19
12.876187029808621 -0.09051349375553218 1.8864572152418575 23 31 12
12.931627585125518 -0.24952114552267785 1.804707601325918 20 28 9
12.931627585125518 -0.24952114552267785 1.804707601325918 20 28 9
13.394598283456343 -0.1583588398925157 1.4958710666713038 7 13 2
13.000343733309464 -0.17110703943589747 1.8833398657729075 23 31 11
11.549308517816069 -0.845242215664995 1.9242192518877852 25 30 5
11.549308517816069 -0.845242215664995 1.9242192518877852 25 30 5
14.13229806229298 0.30917179165670877 2.009064033349955 28 32 16
13.614700980713845 0.07317802511711032 2.026957531156793 27 32 17
13.716681013884651 0.15411234674218666 2.023312725752568 28 32 18
13.890089750576731 0.23306558703216756 2.017252195252338 28 32 17
13.174905601575714 -0.008726058862959182 1.9598444449177779 26 33 11
13.204748875039021 0.07317802511711032 1.9589181335168513 26 31 17
13.535744230857487 -0.24952114552267785 1.948940265642068 21 29 7
13.799605669756605 -0.32492758110646613 1.941355593563256 19 27 4
12.984217777018937 0.08747370230102564 2.23435987652999 30 34 14
13.272694593257274 0.27668674491037565 2.2174777001285797 30 34 14
13.898169365326037 0.27668674491037565 2.2749332575558325 31 35 14
12.167078309275375 -0.01298752801856689 2.403098041436198 31 37 13
12.727148427524774 0.07969115663684267 2.061474964564851 27 34 13
12.892045048185981 0.09693555457101297 2.3432560197236683 32 36 14
12.199387272582687 0.10868357640922591 2.4001933962215727 32 37 15
12.696182570120563 -0.009505830285767325 2.062778473840545 26 34 10
12.215160071937264 0.09693555457101297 2.2845906240132363 30 36 13
12.861476209286534 -0.011574420750457932 2.345574695126225 30 36 12
12.78952310722686 0.4007572249984546 2.246317854477743 30 34 13
12.313094861523059 0.22722235023306878 2.390162871880463 32 36 15
12.999695410542117 0.20321138935417668 2.335217982811473 32 36 15
13.332751114457425 0.1676384668751279 2.123304415672075 30 34 18
13.759969577179012 0.33485583398609986 2.104271982314456 29 33 16
12.947176865945826 0.4372920306942814 2.585645569392563 34 38 17
12.915174400568267 0.49632650974292214 2.4560528689468617 33 37 16
13.206689367153901 0.5614923309974897 2.5547807791608186 34 38 17
11.792378401825912 0.14337831288012418 2.5825819639203926 33 38 16
11.909972443891858 0.29688162968564064 2.566992306064579 34 38 17
12.346658012185099 0.12365537183793156 2.514472382248917 32 38 14
12.651279710497928 0.14337831288012418 2.6245147333606997 33 39 16
12.62012769629703 -0.01718317229042912 2.628872023271179 32 41 14
13.243649431055058 0.33962687916844075 2.42626503142206 32 36 15
12.743853287425278 -0.09855220871816167 2.0607747781364556 27 35 9
12.840902367605898 -0.46476333358771577 2.347144439472346 27 37 9
13.944015929882193 -0.2958990341378819 2.2721438632226723 25 35 7
12.90853651811972 -0.11981356297902018 2.3420118494568074 30 38 11
12.410508082057804 -0.10815186057663488 2.1698052369661704 28 36 9
12.512182532777889 -0.778606327140346 2.373283605365784 32 38 13
12.366883095192177 -0.704087588566789 2.274012557156736 32 37 13
13.230865601116358 -0.3259632409127298 2.3185956965212555 28 38 10
13.944015929882193 -0.2958990341378819 2.2721438632226723 25 35 7
13.558243841589515 -0.27078673763253724 2.113082164703133 26 35 11
13.588731915413923 -0.3830770371296843 2.200032864211537 25 35 8
13.209337762680294 -0.5071716021546974 2.2211038378254937 24 33 6
13.19475344112097 -0.5575179410097068 2.321137114429302 29 38 11
12.055785622511925 -0.6897726385660856 2.4132961092162395 30 39 13
13.501319677779954 -0.40782468644899783 2.522729574697121 31 41 15
12.363876964165739 -0.1526813641925676 2.5125532213429036 30 39 12
12.99637862420159 -0.46512356621585205 2.5795819344439668 32 42 16
12.161873515301734 -0.46512356621585205 2.535751567781154 30 40 14
12.45487503589597 -0.5857377415823566 2.5025804755917123 30 40 14
12.45487503589597 -0.5857377415823566 2.5025804755917123 30 40 14
13.291753789406656 -0.362529634054466 2.422109479303516 29 39 11
12.49312604365357 -0.2849885553067556 2.498471067587724 30 40 12
12.794260923789897 -0.3280006695107085 2.605190619714325 31 41 14
12.99637862420159 -0.46512356621585205 2.5795819344439668 32 42 16
12.294626968978386 -0.7795564594221951 2.1762539987067497 29 34 9
11.754282724391329 -0.7795564594221951 2.1062443016370365 28 33 8
14.86480815054673 1.2133023426288505 1.6379411405249749 3 6 1
14.545884148258445 1.2779006746966062 1.6394156059461984 7 10 5
13.980487783969885 1.4853620923959339 1.4990165315730637 8 11 8
14.86480815054673 1.2133023426288505 1.6379411405249749 3 6 1
14.804966726770136 1.3451139637604972 1.844189635669836 10 13 6
14.380979596027538 1.4144643227079958 1.780759882285176 10 14 7
14.214535614832867 1.5571299156748535 1.7832558771726874 49 53 49
14.13433975240308 1.2566023873695547 1.8575196846679962 8 11 5
13.551392295345497 1.4787720228625298 1.870227459654235 37 44 36
13.500387307197713 1.5560701280893472 1.8713939999048632 47 54 48
14.191352101888107 1.3282658957567626 1.9306530719979365 10 14 7
13.696784629202472 1.3087616197995355 2.0240190620854346 7 11 4
13.608420906767781 1.2036200082658037 2.1108619542837355 18 23 10
13.474947322062242 1.126194092271235 2.032052912482441 18 22 9
13.963584241761186 1.2320917196111536 2.014734215129135 6 9 4
13.674200695899737 1.0425592751332964 2.2889289124064836 27 31 14
12.019566212568646 1.4377950920071232 2.2987729898546276 27 31 16
13.182626446628362 1.0876874568010075 2.1303411827989884 25 28 18
12.028192159976282 1.4211824415504877 2.415872074288557 30 34 13
12.706874591327642 1.4377950920071232 2.357556310489573 28 32 15
13.03798583870755 1.0425592751332964 2.2311396899259512 26 30 13
13.393899890425773 1.1702023163836093 2.21066313405238 26 30 17
12.908795562667306 1.352965130355104 2.2389360813096513 22 26 13
13.108170108176992 0.7560259641255379 2.566181700294499 32 36 14
13.108170108176992 0.7560259641255379 2.566181700294499 32 36 14
12.452492609469656 0.9931250219155118 2.653319129056258 32 36 15
12.74536574159018 0.8627180963235099 2.611678532110587 33 37 16
12.23457381729712 1.1500251361860618 2.6879903405099075 32 36 15
13.75568621396776 1.226417613787865 2.384417305690642 30 32 11
13.140756691770017 1.1500251361860618 2.721343644638346 32 36 15
12.878347232129965 1.074700777280118 2.5943081057364026 32 36 15
12.3395549771583 1.2632098079453673 2.5152671064490546 31 35 14
13.638873060914046 1.024667514992505 2.5087061588542428 31 35 14
12.878347232129965 1.074700777280118 2.5943081057364026 32 36 15
13.754679180945589 0.9891819947785966 2.3844947765014646 29 33 12
12.533645759925607 1.371580311765302 2.641265907978901 32 36 15
12.959381122866601 1.8768385925560902 2.338205239393125 22 26 9
12.676951939788982 1.661634701797044 2.3599259636011336 27 31 15
11.996576813462518 1.673066895495545 2.41884736116911 30 34 13
12.119519856055538 1.5516057381504227 2.186289871995678 30 35 22
12.145080726093187 1.6524962766748423 2.1848024137089537 38 43 30
12.552732509230838 1.9755510742449378 2.2615262038992148 51 55 39
11.940536148217737 1.9755510742449378 2.1969296473521016 62 65 54
11.460190002914564 1.7715829511593058 2.2275871105960694 28 32 19
11.987928117164923 1.661634701797044 2.301127696942678 24 28 15
12.10529138613781 1.7962122200227189 2.408722323254395 30 34 13
12.560992323351442 2.0204938179965506 2.3692709693554725 31 35 18
12.464579356893323 1.957870737882654 2.5015333776415405 29 35 14
12.277846482274299 1.8275772473016236 2.5222476100711755 31 35 14
13.258227933712613 2.0920585559284817 2.701936523952152 31 35 13
12.625614531691792 2.2323431624269303 2.628100564151573 30 34 12
12.503308547712189 1.707395917906845 2.645722011317603 31 35 14
12.145166348729184 1.543257873097808 2.537740175932177 31 35 14
12.0642227017276 1.7348527718251983 2.71787520788552 32 36 15
12.625614531691792 2.2323431624269303 2.628100564151573 30 34 12
12.607654379038493 1.8687818581152886 2.6306322490212466 31 36 14
12.223095455238964 2.118074501594811 2.284028447112179 20 24 7
12.199268919467256 2.149480441012847 2.0847398303865767 0 2 0
12.224748106462528 2.349058817804365 2.3979305550870538 28 32 13
12.962498470775715 2.347588178584553 2.5837460723506167 30 34 12
12.562600523214515 2.2553103941640447 2.4911274656302234 29 33 12
12.55595081885288 2.4416089980778586 2.491823774381002 29 33 12
13.388215080490934 0.5086221011291208 2.681727506152776 34 38 17
12.768589128893282 0.6436505191786415 2.6085819229048473 35 39 18
12.04885621275098 -0.8663525272587411 2.413941189167711 32 38 13
13.423364321442348 -1.0124216418699674 2.67646847885116 37 46 20
13.638903136460572 -1.2264599673798446 2.645904238126254 31 36 11
13.118509140593389 -0.21003446495199926 2.725154937729773 32 42 14
13.638903136460572 -1.2264599673798446 2.645904238126254 31 36 11
12.828553911597727 -0.8836669850155817 2.6007113391605854 34 43 16
12.367573780631643 -0.7772870981294794 2.5121425432135904 32 42 16
12.916126422401065 2.492064610787105 2.7621347062087453 31 35 14
12.922590788996775 2.1959517719681054 2.7608822661043977 31 35 14
20.052635968767092 0.644152540815287 3.067315317791809 34 38 16
20.032996631894058 -0.08915996606650188 3.0819239842624016 35 40 16
20.14729447119562 -0.46781387939964203 3.0195114310600357 48 54 29
20.028827302492306 -1.400821364970075 3.085516581386298 39 44 19
20.108870377787216 -1.4808901231765028 3.0362245914614014 44 48 24
11.890878472666707 -0.9400133365006171 2.308460750081456 30 35 10
12.075972030610611 -1.05278950004297 2.0905133588415925 24 30 6
11.24269989416787 -0.9400133365006171 2.2425889526354528 29 34 9
11.340915118565295 -1.0013247928260056 2.128010371105269 28 33 8
13.033009463068973 2.551184648076518 2.5751345799345042 29 33 12
13.033009463068973 2.551184648076518 2.5751345799345042 29 33 12
13.730248500340064 0.38175555001629696 1.8662085110640019 25 30 17
15.043111561538066 0.33209491715145295 1.637144107704822 21 26 17
13.473122649916178 0.38175555001629696 1.7951419883532822 26 30 17
13.991134921440691 1.0909328474902311 1.8605389179727905 4 7 3
14.441251045167723 1.1232166854341972 1.7095494267814146 0 2 0
12.114861384296645 0.8909353884803081 1.9070509974679193 25 29 14
13.263755253528297 0.4847727109793257 1.8769291762170437 27 31 17
12.592157545938223 0.9423622585208075 1.811136130630071 22 26 13
13.760590339593326 0.48930935912209467 2.2834564031225404 30 34 13
12.513764225767591 0.5976048834518666 2.373152822411134 31 35 13
13.128562623254037 0.48930935912209467 2.2257924558335636 30 34 13
12.424052348477906 0.7669801298484965 1.984749215143251 26 30 12
12.73613792880333 0.668973181388575 2.473426131587469 33 37 16
13.48922870622892 1.0540785171946825 1.9503105362925874 17 21 8
12.513764225767591 0.5976048834518666 2.373152822411134 31 35 13
13.128562623254037 0.48930935912209467 2.2257924558335636 30 34 13
13.606223872401147 0.412264290922244 2.027263261226699 27 31 15
12.858917788800332 0.7669801298484965 2.056008189191171 27 31 12
12.898610796784922 0.9627658046703504 2.1441926078807043 25 29 14
12.914682724903574 0.8391346585940377 2.3415493563169996 31 35 14
12.27047315537231 0.6996699307861143 2.081466839715227 28 32 13
14.619007658164087 0.20116367176492309 1.707851578205548 23 28 19
14.232954157763425 -0.07781164929087854 1.5706097858081947 3 8 0
14.350381170047045 0.13266526532606254 1.6403519436684408 23 26 18
12.859654074330228 0.07317802511711032 1.8868771109789908 25 30 14
12.829008054757193 -0.008726058862959182 1.8876584591235501 24 31 13
13.555655228281516 0.06764758556267025 1.7937529096825868 25 29 16
13.386059474012637 -0.08368444908937817 1.7205664413861983 21 27 13
13.3098703260121 0.15411234674218666 1.9556910692520775 27 31 18
13.488510048840476 0.23306558703216756 1.9503317867779106 26 31 17
13.737800354499393 0.30917179165670877 1.9431040503099632 27 31 17
12.77445950143065 0.44379008056137936 2.352265264339324 32 36 15
12.215160071937264 0.09693555457101297 2.2845906240132363 30 36 13
12.3615519291566 -0.010438634528296485 2.1725114074410894 28 35 11
13.437506883782275 0.4007572249984546 2.304425379995451 31 35 14
12.328722189483528 0.20321138935417668 2.276639672312517 31 35 14
12.314735434731896 -0.014793640872403301 2.5180581592940077 31 38 13
13.453964638577247 0.3826235135337438 2.5276890319046776 34 38 17
12.649682784745266 0.3826235135337438 2.482133582693539 33 37 16
13.364626119365 -0.18606167680876656 2.1218345650650585 27 37 11
13.500686994090003 -0.4202195965169708 2.3002146666003656 27 37 9
13.755829146046466 -0.20384102357626444 2.2837555480715017 27 37 10
12.216813796633971 -0.13427716748145269 2.39863689162594 30 38 11
13.821675760398481 -0.35171366763783335 2.101637345251883 23 31 6
11.813552462834616 -0.778606327140346 2.314425638056105 32 37 12
13.923590766270596 -0.4645444452895946 2.182635231054706 24 32 5
13.320694062675642 -0.2958990341378819 2.2147600042349427 24 34 7
13.837676613867584 -0.5071716021546974 2.278652309577319 27 36 9
12.668084615616927 -0.17687093361066306 2.6221868391056087 32 41 13
11.810405492066053 -0.17687093361066306 2.580146737688493 31 40 12
11.170648444334834 -0.8542173058320693 2.137535899455232 28 33 8
12.53829638276644 -0.9738033170265935 2.069539461307587 25 30 5
13.262201619826726 1.633544272997961 1.798772566366079 44 51 45
13.870824940801384 1.3282658957567626 1.8631258001137165 6 13 5
14.262987009857234 1.4853620923959339 1.7825231504442052 8 12 8
13.905638087961274 1.1593442328424903 1.938394874563493 6 9 5
13.498967867239068 1.3887128786889291 2.0311687008135477 32 36 29
13.334517009541448 1.2859382987982366 2.123222766268666 20 25 14
13.608420906767781 1.2036200082658037 2.1108619542837355 18 23 10
13.115516710246048 1.2589011417253322 2.2265567218228646 26 30 17
13.047000163858987 1.226417613787865 2.3317470393009145 26 30 13
12.019566212568646 1.4377950920071232 2.2987729898546276 27 31 16
13.739589876439243 1.0876874568010075 2.192063194974199 25 29 17
12.706874591327642 1.4377950920071232 2.357556310489573 28 32 15
14.021365087435207 1.1305256560146855 2.3645752390560344 30 32 10
14.351949505664766 1.0425592751332964 2.341422248652933 28 34 14
13.409378198586756 1.082818304651934 2.412154159829041 30 34 13
12.3395549771583 1.2632098079453673 2.5152671064490546 31 35 14
13.161747723205826 0.9527801549495363 2.559935869848559 32 36 15
13.513377772685775 0.8488073173610557 2.5214777743679737 31 35 14
12.20183762128918 1.3998735672563487 2.531039649177164 31 35 14
12.74536574159018 0.8627180963235099 2.611678532110587 33 37 16
12.452492609469656 0.9931250219155118 2.653319129056258 32 36 15
12.926256861339791 1.6388044099260242 1.9677429474987866 46 50 45
12.926256861339791 1.6388044099260242 1.9677429474987866 46 50 45
13.851908593682934 1.633544272997961 1.9398890623211285 43 50 46
12.119519856055538 1.5516057381504227 2.186289871995678 30 35 22
11.940536148217737 1.9755510742449378 2.1969296473521016 62 65 54
12.096720416886106 1.7715829511593058 2.293102604913341 27 31 16
12.294645332228908 1.9128041578759702 2.391770444334526 25 29 12
11.317928533919593 1.5494485696641032 2.2373145676150044 24 28 13
11.710188734768957 1.7517523452806456 2.1084796648567923 42 47 34
12.360660095677382 2.0920585559284817 2.6674956060696866 31 36 12
12.503308547712189 1.707395917906845 2.645722011317603 31 35 14
12.170673356076055 1.687775886691232 2.534708627862867 31 35 14
11.60680017902827 1.5385882885341895 2.6086882287076953 32 36 15
13.045819159611254 2.144693021303311 2.573592538193015 30 34 12
12.55595081885288 2.4416089980778586 2.491823774381002 29 33 12
12.044500845906763 2.4282126136278466 2.296929367011522 24 27 10
13.423364321442348 -1.0124216418699674 2.67646847885116 37 46 20
13.240393756585155 -0.38554861500401105 2.7048089578243992 32 42 15
12.272688664691769 2.345354015152006 2.681660868923154 30 34 13
12.307004422590635 0.349858984474462 2.6760636468927443 34 38 17
12.977086133734028 -1.0894001538185896 2.581947074041953 33 39 14
20.032996631894058 -0.08915996606650188 3.0819239842624016 35 40 16
12.585216755905906 -0.9400133365006171 2.3672971253618043 31 36 11
12.585216755905906 -0.9400133365006171 2.3672971253618043 31 36 11
13.21180576395753 0.9423622585208075 1.9586997562284032 24 27 16
12.73613792880333 0.668973181388575 2.473426131587469 33 37 16
13.211237928760037 0.5243707504613527 2.0419985649273023 28 32 14
12.93760218666944 0.6866446086411163 2.3398303951171937 30 34 13
13.555655228281516 0.06764758556267025 1.7937529096825868 25 29 16
13.658076142358013 0.1425922733760412 1.7920530353937678 26 30 17
13.394201844752978 -0.1583588398925157 1.6453262545966902 19 26 10
12.23256412606221 -0.11981356297902018 2.283358956653603 28 36 11
13.558243841589515 -0.27078673763253724 2.113082164703133 26 35 11
13.930200806026106 -0.3259632409127298 2.3712529467080308 28 38 10
13.511088317470167 0.2530497780432091 2.1151864500401514 29 33 17
12.346658012185099 0.12365537183793156 2.514472382248917 32 38 14
14.200293131143285 -0.3830770371296843 2.2569974964263837 26 36 8
13.220850289146233 -0.09051349375553218 1.9584202403106823 25 33 10
13.535744230857487 -0.24952114552267785 1.948940265642068 21 29 7
13.204748875039021 0.07317802511711032 1.9589181335168513 26 31 17
14.151023481825396 -0.42811219119475047 2.0880284789446955 20 29 3
13.341799995712906 -0.17110703943589747 1.9547217730630406 25 33 11
12.199387272582687 0.10868357640922591 2.4001933962215727 32 37 15
12.393353918114675 0.08747370230102564 2.1707504721889705 29 35 13
12.76096131001382 0.29688162968564064 2.6095959782139473 34 38 17
13.139535713595349 -0.014793640872403301 2.562511825236287 32 40 13
12.215160071937264 0.09693555457101297 2.2845906240132363 30 36 13
13.525963071378467 0.3649868725178343 2.203415154908204 29 33 13
11.737890637091763 -0.8542173058320693 2.2094725045571977 29 34 9
14.831312531639075 1.2133023426288505 1.5706173116669104 0 3 0
14.462341993410547 1.1881231057382573 1.8508391405374753 7 10 5
12.149898663325569 2.1017940358899403 1.9060432218633807 32 33 30
14.817966309091434 1.2779006746966062 1.7744795263130069 9 12 5
13.0828278151278 1.9250809675293268 2.7313647451369665 31 35 14
12.286206458720484 1.8768385925560902 2.279592822492503 35 39 26
12.277846482274299 1.8275772473016236 2.5222476100711755 31 35 14
12.176310493713958 1.451103109730727 2.1829956411600246 23 27 14
11.962031442874475 1.5494485696641032 2.303068088702722 28 32 15
12.0642227017276 1.7348527718251983 2.71787520788552 32 36 15
13.0828278151278 1.9250809675293268 2.7313647451369665 31 35 14
12.294645332228908 1.9128041578759702 2.391770444334526 25 29 12
12.962498470775715 2.347588178584553 2.5837460723506167 30 34 12
12.296203796655709 2.066586902637761 2.1761652385073003 23 26 14
11.755932028873083 2.066586902637761 2.1061610721487494 21 24 16
12.55595081885288 2.4416089980778586 2.491823774381002 29 33 12
12.550939472629123 -0.5393476775921962 2.6387514490938755 32 42 16
12.742571498636705 2.005964313636956 2.7978999945144425 32 36 15
11.989334279340968 -0.6693677813120974 2.556848284754654 33 43 17
20.063242479994738 -0.749043975898403 3.0605212152591754 46 51 26
20.052635968767092 0.644152540815287 3.067315317791809 34 38 16
20.063242479994738 -0.749043975898403 3.0605212152591754 46 51 26
12.61899803322156 2.4611056776294107 2.62903107059566 30 34 13
12.87503926584738 0.6237743957355731 2.2410070122307766 30 34 15
15.043111561538066 0.33209491715145295 1.637144107704822 21 26 17
14.0756533776342 0.412264290922244 2.0910773437503027 27 32 17
13.278907067651112 0.5947907788510084 1.956635846008812 26 30 13
12.77396240958618 0.7643653083192936 2.247294323021656 29 33 13
14.075423773203967 0.28704542604853406 1.7853883493210514 25 29 18
12.182892938076623 -0.011574420750457932 2.286886954798159 29 35 11
13.182539057756777 0.3050433108544693 2.3220012304640316 32 36 15
12.386361616677016 0.5614923309974897 2.5100627530701582 34 38 17
12.459021603330962 0.25752556576145097 2.502132680249413 34 38 17
12.98089703594435 -0.5189222387260484 2.4498855424364763 29 39 12
13.094196196812513 -0.2517359222140421 2.4395030548156775 29 39 11
13.291753789406656 -0.362529634054466 2.422109479303516 29 39 11
12.651279710497928 0.14337831288012418 2.6245147333606997 33 39 16
12.598481760671381 -0.6175493912277962 2.366221168450388 30 38 12
12.700037129874934 -0.40782468644899783 2.4770358981775535 30 40 13
13.675525907267827 1.4025591065215128 1.8674264590981626 2 7 2
14.236335450085031 1.6290385624706352 1.78292556844307 51 55 53
15.131156639046898 1.2133023426288505 1.770206202659318 6 9 2
12.727370617935463 2.075710573506623 2.474299384769491 27 33 12
13.326814659690465 1.1305256560146855 2.31193851905092 28 32 15
12.439591409982556 1.8475404715332202 2.1682100164227096 49 53 42
13.963584241761186 1.2320917196111536 2.014734215129135 6 9 4
12.789572832713542 2.015716493463824 2.605807466726458 31 35 13
12.31306205648605 2.1800187716376778 2.390165723571103 27 31 10
12.193240037629552 0.1705142838759338 2.6949942548735506 33 39 16
20.136732232263903 0.387443890649369 3.023863809829426 35 40 17
20.11717499430481 -0.04853620077246441 3.03239076839259 40 45 21
12.39584981534092 0.7487646357648762 2.6619927134706938 34 38 17
13.467325288576898 0.9627658046703504 2.2066110243393395 27 32 11
14.26540269008645 0.614357690898137 1.854811857155038 25 29 16
13.306873723156064 -0.2849885553067556 2.5435529954982754 31 41 14
12.819385980512932 -0.6897726385660856 2.46524077467565 31 41 15
13.227811498416983 0.07969115663684267 2.1282031728701902 29 33 18
11.357880149178404 -0.918658646045102 2.0263830097635647 27 32 7
11.970698849244796 1.5467451246727606 2.421301947916709 30 34 13
12.828935855554416 0.9057871920120134 2.2438585989427944 29 33 14
12.667756381194948 1.2150372638254907 2.6222321578528174 31 35 14
14.622149776375792 1.4144643227079958 1.847697321593493 6 10 3
12.552732509230838 1.9755510742449378 2.2615262038992148 51 55 39
13.343884821531647 0.9931250219155118 2.6884811936038724 32 36 15
13.082214338564114 0.8265689696780426 1.9627507421361339 24 28 15
13.320694062675642 -0.2958990341378819 2.2147600042349427 24 34 7
12.700037129874934 -0.40782468644899783 2.4770358981775535 30 40 13
13.16945913890395 0.12365537183793156 2.559045949897935 33 39 15
13.240393756585155 -0.38554861500401105 2.7048089578243992 32 42 15
12.452492609469656 0.9931250219155118 2.653319129056258 32 36 15
13.206208544783959 0.9254718328755765 2.429534290192728 31 35 14
