11.99978560105715 1.3773840033112446 2.1914955639253653 5 5 5
11.719252228461816 1.1464431026399866 2.2087171441443187 0 0 0
11.217660180108492 1.3554961844284228 2.242288783067954 5 5 4
12.37329450297558 1.0980600600466885 2.382827024914924 3 3 4
11.374870597479571 1.208105721419827 2.348253599020305 2 2 3
11.164013376489994 1.328131881038636 2.3670175828222577 4 4 1
11.288688560878244 1.2930036465274657 2.490478469513717 19 22 14
11.84218351522556 1.3952738852058506 2.004744873289712 5 5 3
10.7599000982059 0.9329966975820686 2.2765708949380157 1 1 1
10.748577715068706 -0.5713457791541263 2.277468941320004 49 53 49
11.074706621884895 -0.4615980133354233 2.3752931703819415 54 56 55
9.806515238180125 -0.0610798112996885 2.3626865624788387 0 3 1
9.814616430182376 0.08407371460155783 2.361850707548597 5 9 6
10.798255342680275 -0.2981582839949044 2.2735477540927116 2 4 3
9.990146329842585 -0.17843712963397274 2.2124265093662903 8 11 8
11.312275258120884 0.5471157881802262 2.4877469423322487 13 16 13
10.085143142197861 0.8939022617861797 2.6688699279002073 28 33 23
10.085143142197861 0.8939022617861797 2.6688699279002073 28 33 23
10.414537850407878 0.7456153731607893 2.6103380857779395 10 15 7
11.312275258120884 0.5471157881802262 2.4877469423322487 13 16 13
10.91642234257351 0.662003735199402 2.39047787909116 26 29 26
10.538317252843989 0.4865686806453025 2.590676670806495 23 26 21
10.481844625521187 1.0099907055119124 2.5995097461219556 38 42 31
10.694343458454206 0.759498475738046 2.2818066602588196 12 12 10
10.479611559522107 0.9636144709384254 2.436258671198901 9 12 5
10.736644488365835 1.2463998886590992 2.561307626690455 45 49 35
10.481844625521187 1.0099907055119124 2.5995097461219556 38 42 31
10.85069978236042 -0.6449524608292697 2.3969878343720286 79 83 79
9.360609891868483 -0.08602623580449771 2.591383229186151 22 24 21
10.500540831159844 -0.4607561566188629 2.5965606212363292 2 5 2
10.85069978236042 -0.6449524608292697 2.3969878343720286 79 83 79
9.926351723652086 0.09829575441149638 2.504506613531981 1 4 1
10.413379651152924 -0.9939595144188509 2.6105273973507277 42 49 38
10.413379651152924 -0.9939595144188509 2.6105273973507277 42 49 38
10.316022116193912 -0.28346996916757805 2.6268221202298774 11 14 9
11.19700711538243 -0.6675641918864611 2.2437554502924177 39 42 39
11.713838559028288 -0.7511385405213483 2.209059794869411 1 2 1
10.559511259476807 -0.8296312963727042 2.172722534415182 3 4 2
11.407040223000536 -1.1496264286599787 2.476981058490006 49 54 45
11.798691692524535 -1.3231416683662995 2.4356913157906144 47 53 42
10.875638887168833 -1.0829530519095214 2.5420931822973696 47 53 41
11.951753353807788 -1.2416463647766 2.3017919555370048 50 53 46
11.951753353807788 -1.2416463647766 2.3017919555370048 50 53 46
11.269576868063973 -1.2010194008240047 2.357491692413419 51 56 47
11.293807433904455 -0.9894255815532509 2.236942031962382 0 1 0
10.875638887168833 -1.0829530519095214 2.5420931822973696 47 53 41
13.867232586262679 -1.3596732916460774 1.7140048390263702 15 18 14
10.732742642200332 2.1907029522351564 1.3813749286161099 30 34 15
10.475229829630267 1.9772979502474688 1.664403438950677 1 1 1
10.479214730387502 1.9772979502474688 1.4732225035123145 0 3 0
11.693260346471572 1.5824936094511937 2.010654887880132 11 11 9
11.35876761723753 1.6766199668276478 1.9287016506382846 11 11 10
11.693260346471572 1.5824936094511937 2.010654887880132 11 11 9
11.292990404867094 1.583714557367899 2.128753748174898 11 11 9
11.166109572521018 1.4383971795512371 2.505025037657817 12 15 5
11.804066446042091 1.7179871611988609 2.4351573250124923 38 42 24
11.166109572521018 1.4383971795512371 2.505025037657817 12 15 5
11.09429643904623 1.4690167650975656 2.251156711221967 7 7 5
11.116584034653734 1.701036853556514 2.249535296893415 3 3 0
11.062447078001057 1.7179871611988609 2.3764452331166446 15 18 7
12.10268062098191 1.857904088729337 1.994793282986556 11 11 11
11.003109110496997 1.7889662440958871 2.0403853045886438 0 0 0
11.490285436250254 1.7889662440958871 2.1180728437708254 4 4 1
12.10268062098191 1.857904088729337 1.994793282986556 11 11 11
11.726748436991748 1.857904088729337 1.916990638347312 10 10 9
10.49779869394986 2.0690743982280098 2.1767665882295404 37 41 19
9.800246061387876 2.1306606521813274 2.2269824183853304 34 39 14
10.670881165656276 1.8134575875157577 2.1655702899600042 14 17 1
11.332455323921298 1.8830235601183591 2.4854266188385825 33 39 14
10.44045363826454 2.1306606521813274 2.302945340421582 33 38 13
11.940833229872151 1.843988920150434 2.4218388043925465 32 37 13
10.76636025621732 1.96171869122824 2.276059654382089 42 46 24
10.80341649297627 2.014059263520526 2.401749332535194 33 38 13
11.208266989798929 1.843988920150434 2.362991150074361 40 44 24
9.744193588325503 2.250359529347621 1.5686539882547446 29 34 10
10.451725835420836 2.325209834175046 1.4729650555861702 28 33 9
10.427631447633566 2.1091624459104774 1.8605281526604323 18 22 4
9.897189818876091 2.395892677665228 1.772121938526789 31 36 12
10.870148535365532 2.4608407418787897 1.8484134198639874 32 38 14
9.712573660765107 2.2324439246795085 2.109061565666261 34 40 15
10.481930400878928 2.395892677665228 1.9601791842509473 33 38 12
11.185632681699863 2.4608407418787897 1.934497065784016 33 39 15
9.976712502710113 2.1652353944829157 1.9810492397189374 35 40 16
11.392425709517495 2.395892677665228 2.1233156163510554 32 40 12
10.883815582873105 2.592736221742888 1.3840354237710726 28 34 9
10.060314512029395 2.5397740092929992 1.368544300349417 28 34 10
11.023298175898514 2.0811822449348707 2.5227645504378815 35 43 16
10.255400285413174 2.676403109132854 1.6664160260556153 32 40 13
10.694575272538726 2.592736221742888 1.5688443690758647 30 36 11
10.628237103817606 2.5397740092929992 1.9545370941048823 34 40 14
10.84566314210101 2.4771667553762056 2.1547080593294314 35 41 13
10.832319453371415 2.402667764611416 2.2708872014227266 34 41 14
11.002267061285563 2.3136423600568126 2.3821581859318144 37 43 16
10.703177726408025 2.7265677425959702 2.163530398931019 38 47 16
11.279494603041396 2.6759706379710884 2.356610526165706 37 46 18
11.292309894440532 2.7265677425959702 2.2370462722690134 38 47 17
10.703177726408025 2.7265677425959702 2.163530398931019 38 47 16
10.282513011475691 2.8660625915702793 1.9681502492731706 35 44 13
11.209218190809395 2.8660625915702793 2.1334248497750004 38 46 15
12.007716177901719 2.6759706379710884 2.4155077664897973 38 47 18
10.825818843957526 2.9495614906467447 2.2713931738042494 41 48 17
11.022142164489868 2.970174629464259 2.1441647327302955 39 46 15
11.051626101798082 2.4994872123212777 2.377465386466676 36 44 17
11.647970523100854 2.628281291367565 2.213261427803081 37 43 16
11.077769089398087 2.628281291367565 2.140925581096362 37 43 16
10.577761028975544 2.767720172655869 1.95646453436875 35 43 14
9.64462557274399 -2.8822676480290093 1.7774694089321612 34 45 9
9.942828967828044 -2.7829071295437418 1.7711852204754237 36 47 10
10.283462412554458 -2.516342738294917 2.316752799491323 45 55 24
10.462329326606996 -2.4297427959016784 2.4382009400349025 47 57 28
10.402473719040536 -3.0955342887378414 2.0699106952775628 38 48 12
9.15678666620214 -2.968482518295813 2.0203401179409632 37 48 13
10.402473719040536 -3.0955342887378414 2.0699106952775628 38 48 12
10.725642129366381 3.0703820717989667 2.2792960365947175 39 47 14
10.718229542806599 -3.0898742516349196 2.2798888240950963 37 49 14
10.803772025424514 -2.968482518295813 2.273115331971235 39 50 17
10.068260941468331 -2.643253752068334 1.9770978863001079 38 49 12
10.068260941468331 -2.643253752068334 1.9770978863001079 38 49 12
10.29751734363482 -2.5862123628396025 2.190307803945436 40 51 17
10.068260941468331 -2.643253752068334 1.9770978863001079 38 49 12
9.364175750987936 -2.8520120686323858 2.009681525513595 37 48 12
10.123590383329734 -2.743070882142815 2.084991060215808 39 50 13
10.980097241026533 -2.8520120686323858 2.259602408569747 40 51 17
15.765281573803183 2.893382142687416 1.1789372318300186 20 28 6
11.596361718195725 2.9137308773677297 1.3956339316023438 29 39 9
11.281617785286432 3.0005441755429754 1.4801822182388027 30 40 10
11.460818165656557 2.9137308773677297 1.6563329458524303 32 42 12
10.786347639592497 2.8017391722398806 1.4760093171002229 30 39 10
11.235352649663197 3.0005441755429754 1.5689383203610503 31 40 9
10.633018798732737 2.892106660262014 1.7580182447766397 33 42 12
10.991752946516868 2.986823452097011 1.9412195857891406 34 43 12
11.179337520274139 2.892106660262014 1.9347114120377964 33 42 12
10.561367071471663 -3.1000783104573997 1.8567552461982613 35 44 9
11.17468072749297 -3.1038066274063545 1.6585287513213247 33 44 9
11.18179072941135 3.0895460334376788 1.6584728227560561 34 43 10
10.893102325890244 3.084415690959267 1.9447389930891492 35 44 11
11.073192573564162 -1.4351589197616328 2.5164651526999515 49 57 41
11.095522560624214 -1.7440669742928043 2.5136818468109894 46 56 33
11.214232443706186 -1.6895234544946507 2.1331429050619786 41 49 30
11.633547840291033 -1.4671090832995353 2.3265976012658216 53 58 45
10.937490553338993 -1.5854923112532395 2.2628139223169192 49 54 36
10.897059395466707 -1.5874724172823598 2.392382932801295 49 57 36
11.681465627920568 -1.4532568653286824 2.4475465584946976 51 56 41
10.954150675856685 -1.7210933430234363 2.3867962839039576 50 59 36
10.954150675856685 -1.7210933430234363 2.3867962839039576 50 59 36
11.783597140790565 -2.141723498681875 2.437195387875078 47 57 31
11.269965223167036 -2.2211530083896047 2.4926619499483484 48 59 32
11.240913417261213 -1.8902437927885802 2.4960769044284623 46 57 33
10.444616998459507 -1.792528935825533 1.9616455433190272 42 50 25
10.616131839353882 -2.0261917599636097 2.0589714542486584 44 53 25
10.616131839353882 -2.0261917599636097 2.0589714542486584 44 53 25
11.374147892809656 -1.926028700452551 2.2314022131574447 44 53 27
11.101393182407948 -1.8495453805308493 2.372798884948955 49 58 32
11.141082834557157 -1.8178557755162457 2.247762930086276 45 54 29
10.98989119161311 -2.078022942915954 2.2588688955219167 47 56 28
10.655054896266522 -1.9692416369548205 2.2849868587792868 46 55 29
10.81974919559298 -2.175107538872371 2.156291480807404 46 56 25
10.699226176295367 -2.332541430145283 2.163779172218272 44 54 22
10.778876403386601 -2.2443336607187976 2.2750715326091333 46 56 25
10.243127431527462 -2.4911469693690313 2.0784111181560307 41 51 18
10.130764794746291 -2.4170355447243073 2.2020964503523563 45 55 24
11.23869058484809 -0.7230240446394757 2.6636126787035175 42 49 38
10.714625200352904 -1.069086035584558 2.7689142689666975 46 54 40
10.438493556973839 -0.9113989956372163 2.843821542422249 41 51 32
11.011897810624387 0.5871654062858574 2.7050360456588116 42 48 36
10.476493712770441 0.9419341824230556 2.832221566311264 36 44 26
10.48206032862285 -0.45874067369159494 2.8305643958117663 39 51 32
10.393870467147252 -0.1451769445349164 2.85814545436325 38 47 30
10.162679609673722 -0.22048637703916085 2.9512440100839346 38 50 29
10.393870467147252 -0.1451769445349164 2.85814545436325 38 47 30
10.821411129639577 0.3869348090286376 2.744436776098231 38 44 33
10.1704971070162 0.29955594022432214 2.947295262319715 38 47 30
10.401514209132374 0.19880880676847296 2.8556334791971443 34 43 28
10.504782358417975 0.5021872638166135 2.8239046359412696 38 46 31
11.953567076634087 1.589603624614756 2.5586093309331375 34 38 19
11.466529454878723 1.4150211401258523 2.6265727377290102 40 46 27
12.084003193345481 2.0050300860993495 2.7106367468703008 39 48 18
11.12671239984285 1.0642999466583294 2.9785362206792425 40 50 27
11.488094918727201 1.7695462992145918 2.6232655962517994 37 43 18
10.637828191398263 1.3307211160500898 2.7878394482232256 38 46 24
10.637828191398263 1.3307211160500898 2.7878394482232256 38 46 24
10.637828191398263 1.3307211160500898 2.7878394482232256 38 46 24
11.071331388998267 -1.6576975021176596 3.0124415057016223 41 53 30
11.24346139629925 -1.621879967235162 2.9243233843061676 43 54 31
10.915093483391477 -1.5987849767899507 2.7244492987617415 44 55 33
10.949509221427821 -1.3751113214378814 2.7174124180939527 47 55 39
10.585400641689464 -1.320016916993336 2.8015045119903057 45 55 34
10.54979716895647 -1.6069612150459656 2.811174553901152 43 55 32
10.585400641689464 -1.320016916993336 2.8015045119903057 45 55 34
11.6674470213215 -2.3214757415136655 2.5969188147623834 49 61 33
11.352612317625479 -2.1859706039835216 2.6445901988913483 48 60 36
15.909802243619515 2.8425702174868404 2.797858730883108 39 52 23
12.08181962455975 -2.2211530083896047 2.54270301353341 47 58 33
11.411740654136445 -1.7752157411798295 2.635120360873562 45 55 32
11.356949907269481 -1.5936235134634023 2.6438865238744125 46 56 35
11.288688560878244 1.2930036465274657 2.490478469513717 19 22 14
11.427527569660441 1.247324546061236 2.2277774718663137 3 3 3
12.196201905113586 1.27910969553329 2.1800280157748757 1 1 1
11.447122134507687 1.3773840033112446 2.120372167010962 7 7 6
10.734464427928318 1.1586765381308126 2.408813770735171 0 2 0
11.27481567238862 0.6816618116843431 2.2382666921168646 13 13 11
9.897574361762286 -0.053340635645335546 2.219432343659892 5 8 3
9.899938715048298 -0.20371836382552025 2.3531721678883146 2 5 2
9.806515238180125 -0.0610798112996885 2.3626865624788387 0 3 1
9.990146329842585 -0.17843712963397274 2.2124265093662903 8 11 8
10.085143142197861 0.8939022617861797 2.6688699279002073 28 33 23
10.085143142197861 0.8939022617861797 2.6688699279002073 28 33 23
10.826591572444956 0.6332241704340776 2.5487546836325414 3 5 3
10.826591572444956 0.6332241704340776 2.5487546836325414 3 5 3
10.15232840285969 1.0948225359945127 2.475011863643836 14 17 7
10.4122903495091 0.7540236572553177 2.443886510949151 31 34 31
10.339109050911613 0.31324819094681594 2.6228880913692922 22 26 19
10.034511104014863 0.26258400251388536 2.490081321400795 23 27 21
10.343364990560794 -0.736418119131808 2.451873023465381 74 78 73
9.78911540527493 -0.10806455515566676 2.7319318603545666 42 50 39
10.732705259998692 -0.8509057044975732 2.5618677253864077 42 48 40
10.413379651152924 -0.9939595144188509 2.6105273973507277 42 49 38
9.360609891868483 -0.08602623580449771 2.591383229186151 22 24 21
9.78911540527493 -0.10806455515566676 2.7319318603545666 42 50 39
10.200764426101124 -0.39073699725222255 2.468999148646362 1 2 1
10.950561801985652 -1.0276408567982005 2.3871447810742685 57 61 54
11.295075529272465 -0.7450792322701127 2.3552308857667033 62 65 60
11.751251924424816 -1.3515598033528404 2.31719881194025 58 63 54
11.603389391044793 -1.139382901795222 2.2161398763600997 100 103 99
12.230980936507649 -1.139382901795222 2.2815035894878726 92 95 90
11.798691692524535 -1.3231416683662995 2.4356913157906144 47 53 42
10.858058884882007 1.9772979502474688 1.2888610424887803 0 2 0
10.647482455298814 2.4608407418787897 1.3798394964215264 28 33 10
11.09429643904623 1.4690167650975656 2.251156711221967 7 7 5
10.04086644616246 2.1091624459104774 1.6684654953337748 17 21 2
11.261702986696129 1.8134575875157577 2.2391847095079886 6 8 0
10.045023662075954 2.1091624459104774 1.468990599332777 28 32 13
11.883912009622458 1.76890627780756 2.0031182983204205 8 8 8
11.746482498663447 1.6766199668276478 2.0085236777791806 12 12 10
11.042472678418573 2.0619477766143968 1.7509984170141795 0 1 0
11.025802707799414 1.4881601301338012 1.8443926290156012 11 11 11
11.348089964635568 1.6875713963642653 2.125726308593888 7 7 5
10.261205407981597 2.2324439246795085 2.1928338250876993 33 38 14
10.499696689090788 2.4608407418787897 1.6641846744063928 29 35 11
11.332455323921298 1.8830235601183591 2.4854266188385825 33 39 14
10.261205407981597 2.2324439246795085 2.1928338250876993 33 38 14
10.189409041439637 2.250359529347621 1.8675053540675801 32 37 13
11.326257931169414 1.4795792833038974 2.126921663075433 8 8 6
10.876140808117652 2.592736221742888 1.7537852321489018 32 38 12
9.855274054989772 2.5397740092929992 1.5686781349523808 31 37 13
10.634365690160271 2.676403109132854 1.8547375899670024 35 41 14
10.993055885199366 2.767720172655869 2.0408494247972078 37 45 16
11.358091047797744 2.676403109132854 2.0245883246437693 36 42 15
10.993055885199366 2.767720172655869 2.0408494247972078 37 45 16
11.67542536724617 2.8341385002197783 2.3232224256956115 39 48 17
11.635546959854825 2.5702631848023665 2.3264356828396076 36 44 16
9.702371169068769 -2.987137793669623 1.882889319728929 35 46 12
9.702371169068769 -2.987137793669623 1.882889319728929 35 46 12
10.503719707536918 -2.643253752068334 2.064663412642643 39 50 14
10.908579777013255 -2.5862123628396025 2.2650123019407924 42 53 20
9.962590534912412 -3.0955342887378414 1.9816658382565275 36 46 10
10.095652293105656 -3.0898742516349196 2.2046416015372214 38 49 13
10.29751734363482 -2.5862123628396025 2.190307803945436 40 51 17
10.908579777013255 -2.5862123628396025 2.2650123019407924 42 53 20
10.095652293105656 -3.0898742516349196 2.2046416015372214 38 49 13
9.970564914851776 3.078164836860528 1.9813174229396517 36 45 12
9.83087161976969 -2.8520120686323858 2.101892071137547 39 50 14
16.021955487899877 2.82804891839871 1.1855482475921997 25 31 11
11.138859663688512 3.0895460334376788 1.5689222249255055 32 41 8
10.782476247140448 2.8017391722398806 1.6617286210043887 31 40 11
10.435618535537648 2.986823452097011 1.761602928610474 34 43 12
11.277916406468727 3.0005441755429754 1.6577236287439343 33 42 11
11.391965684036489 2.986823452097011 2.0231385135443336 36 44 13
10.655054896266522 -1.9692416369548205 2.2849868587792868 46 55 29
11.335274330666014 -1.9692416369548205 2.3516975907474906 47 57 30
10.865002234399768 -1.792528935825533 2.0468462097043645 42 50 25
10.789485204517575 -1.926028700452551 2.1581524559691667 44 53 25
10.971836037935377 -1.4671090832995353 2.2602224908229855 51 56 40
11.471950488709641 -2.0236074476975756 2.469792503519803 47 57 31
11.64921253893721 -1.5874724172823598 2.450880353729642 50 58 38
10.897059395466707 -1.5874724172823598 2.392382932801295 49 57 36
10.931531910363113 -1.4532568653286824 2.3889986725377357 54 59 45
11.03916243798771 -1.5900691278913597 2.5207494168478704 50 58 38
11.673030013344292 -2.3280571840385633 2.4484154239491858 48 58 29
11.451743353240463 -2.2443336607187976 2.3416679123651356 47 57 28
10.17424156694352 -2.332541430145283 2.0821811080082635 43 52 20
10.714625200352904 -1.069086035584558 2.7689142689666975 46 54 40
10.934151984630326 -0.871621793293865 2.720533333669321 43 52 38
10.721193230314453 0.14839559388407972 2.7673503805842823 40 49 38
10.975751483014724 -0.5582042027233666 2.712148666759961 35 43 29
10.344294759661521 1.2433285695975025 2.8750920973344907 36 44 23
11.948875244797796 1.811431245680606 2.735931486916895 37 46 18
10.585400641689464 -1.320016916993336 2.8015045119903057 45 55 34
10.972090927084832 -1.8197367368777737 2.712877766858866 44 56 32
11.6674470213215 -2.3214757415136655 2.5969188147623834 49 61 33
10.949509221427821 -1.3751113214378814 2.7174124180939527 47 55 39
11.105262948889418 -1.0180823366495775 2.990728526000143 42 54 33
15.841807121541839 3.028975009348704 2.8100579994679116 46 59 29
16.192910993307407 3.0472458488107907 2.751942777746697 46 59 27
11.778066559472098 -2.0935945138556105 2.581608248209985 46 58 33
11.39003062485725 -1.4105298391767418 2.6385670413768145 46 54 38
10.48315984433431 -0.5271488592082854 2.4358612354723292 63 67 64
10.4122903495091 0.7540236572553177 2.443886510949151 31 34 31
12.487916005332535 1.305342309796537 2.0700755019138506 2 2 0
10.889203133261274 0.8525553263276696 2.393158932367346 11 12 8
10.252637724732578 1.1819500828899787 2.6378597188168595 43 47 31
10.234169307359322 0.1182821087696183 2.6411436675627398 32 38 31
11.667911876096898 1.0980600600466885 2.3238254173587283 4 4 6
11.45770749754406 1.3952738852058506 1.9254739045324303 10 10 8
10.732705259998692 -0.8509057044975732 2.5618677253864077 42 48 40
11.760211426376369 -0.9010196528840673 2.206137702223263 1 1 1
10.663444139163591 -0.9212570935247764 2.284305090661447 6 9 4
11.751105101288754 1.5871227540554755 2.4404552486302125 31 35 19
9.800246061387876 2.1306606521813274 2.2269824183853304 34 39 14
11.005917580671404 1.5871227540554755 2.381808876393984 4 6 0
11.062447078001057 1.7179871611988609 2.3764452331166446 15 18 7
9.943128647702853 2.250359529347621 1.7711790987179272 31 37 13
10.146736611228913 1.96171869122824 2.2009461085311606 39 43 21
10.275290783079102 2.3203354997877077 2.0766708637535705 33 39 13
11.04163363112397 2.5397740092929992 2.03861559699913 35 41 15
10.300079183134788 2.3136423600568126 2.315263050194733 36 42 15
9.64462557274399 -2.8822676480290093 1.7774694089321612 34 45 9
10.573663836476316 2.2072808177360743 2.4258749404201305 37 43 16
9.671030603841745 -2.743070882142815 1.9948383516351285 38 49 12
9.909481217369896 -2.69394496705079 2.2185218084699816 40 51 17
10.633018798732737 2.892106660262014 1.7580182447766397 33 42 12
11.101393182407948 -1.8495453805308493 2.372798884948955 49 58 32
11.603525560687272 -1.6782219011169723 2.0142974192358083 46 51 31
11.120274481304222 -2.0261917599636097 2.138476808651788 46 55 26
11.158471926766236 -1.58393250465131 2.1362953598721672 48 53 38
10.214848558565679 -2.3280571840385633 2.322977800050909 47 57 27
10.616131839353882 -2.0261917599636097 2.0589714542486584 44 53 25
10.252858249967723 -0.6480360749872769 2.909998506576331 40 52 31
10.162679609673722 -0.22048637703916085 2.9512440100839346 38 50 29
11.85206108589431 2.0811822449348707 2.5717275805592212 36 45 17
11.433670071356946 1.5929734026936775 2.6316736206132236 37 43 20
11.50028128417408 -1.6069612150459656 2.8393896543146986 43 55 33
11.2768750373953 -1.2234662261074514 2.9112857179413756 43 53 32
12.024663911405682 -2.0186666511366633 2.721498240410137 46 58 34
11.694079559213245 -2.1264322337539503 2.7901057133141256 48 61 35
16.259437905171346 2.8891680678737557 2.7420968637774528 43 56 23
15.909802243619515 2.8425702174868404 2.797858730883108 39 52 23
11.39003062485725 -1.4105298391767418 2.6385670413768145 46 54 38
9.846706340683811 1.0880027040259166 2.718664833031011 36 41 26
11.196788834759468 -1.2864868786175219 2.501327670246387 48 55 42
10.808619003971408 -0.838208281650349 2.4012221746338605 55 58 51
11.565286387468335 -1.0894149037733767 2.332175130175512 78 82 75
11.940833229872151 1.843988920150434 2.4218388043925465 32 37 13
11.060331235477358 1.585220072449387 2.253644369343705 0 0 0
11.50083107185938 1.76890627780756 1.9240856380535676 11 11 11
10.415999312151232 2.1652353944829157 2.069202928582635 37 41 19
10.900876764640199 2.395892677665228 2.045150121720482 34 41 12
11.303720105406086 1.5824936094511937 1.9305236640439065 12 12 10
10.718229542806599 -3.0898742516349196 2.2798888240950963 37 49 14
10.186424331841996 -2.968482518295813 2.198107417396313 37 49 14
10.410111143992454 3.078164836860528 2.0695107848307592 39 47 14
10.411486872110537 2.8341385002197783 2.1825225902234937 40 47 17
11.495938541554079 2.9495614906467447 2.3379403354036237 40 48 16
11.143531425816203 2.8017391722398806 1.8414290290573567 32 41 12
10.863670562162977 2.892106660262014 1.8485833543739933 34 43 13
10.331659095436226 3.084415690959267 1.763546877268388 34 44 11
10.714511654409161 -1.6895234544946507 2.0541017051485793 43 50 28
11.240913417261213 -1.8902437927885802 2.4960769044284623 46 57 33
10.130764794746291 -2.4170355447243073 2.2020964503523563 45 55 24
11.650577569910347 -2.078022942915954 2.3252208477226075 47 56 29
10.700906828520486 0.7310563464430527 2.7722073094295245 40 48 32
10.276087093771235 0.6997316222136096 2.9006002662178707 37 45 27
11.022060593143323 -0.4474513143404838 3.053297846190168 40 52 31
16.259437905171346 2.8891680678737557 2.7420968637774528 43 56 23
11.948875244797796 1.811431245680606 2.735931486916895 37 46 18
10.775082514389771 -0.6117097150572524 2.555888512114462 66 70 67
9.882703368150038 -0.3512704841923381 2.710643538115774 40 48 36
10.80341649297627 2.014059263520526 2.401749332535194 33 38 13
11.040050191529462 1.455699926977533 2.378560132948754 0 1 0
10.323963633671093 -3.1000783104573997 1.7636923613732234 33 44 8
12.033321882690052 1.8342906527704654 1.6522541580810473 13 11 12
12.007716177901719 2.6759706379710884 2.4155077664897973 38 47 18
10.99437188589789 -1.7034669226868808 2.2585338990616437 43 50 29
12.005635319158774 1.7399612612792077 2.552064996980433 29 33 11
11.248463742321844 0.8417970106058624 2.240114436678291 0 0 0
11.862548543818555 0.4799577208101615 2.4293995091157705 0 2 0
10.897059395466707 -1.5874724172823598 2.392382932801295 49 57 36
10.79536242957285 2.3203354997877077 2.157790060315024 32 40 13
10.414537850407878 0.7456153731607893 2.6103380857779395 10 15 7
11.418936190260485 2.9137308773677297 1.5689681917761271 31 41 11
11.158147245716444 2.7167865214623155 1.4791767278416115 29 37 10
11.553152743658877 -1.9442131690715423 2.6134761328528873 45 56 33
10.44045363826454 2.1306606521813274 2.302945340421582 33 38 13
11.292309894440532 2.7265677425959702 2.2370462722690134 38 47 17
11.57306513855391 2.892106660262014 2.015548166044628 36 45 14
11.427451960123527 2.4771667553762056 2.2277825750302758 34 41 14
11.275857231652381 2.0619477766143968 1.2995768948105735 14 18 6
11.628578521157603 1.9345000441726248 2.60246168821599 38 44 17
10.663706399650271 -0.6995720221065718 2.7813254037347557 42 51 33
