15.744426072944147 0.6115126652110044 1.8630310822990777 11 11 10
14.05829261097353 0.19644532080239352 1.8250406056948547 5 4 6
15.514945023920571 0.40087138533958966 1.9356451861813553 10 10 10
14.541923026391478 0.12344478134468562 1.9613307728396898 6 5 5
14.109723971412594 0.04909990560295328 1.8980781960986675 3 3 3
14.451454197090449 -0.025791148722144164 1.963909337541049 3 3 1
13.167952186533691 0.053070137087052334 1.922461899522994 2 2 4
13.599296964632682 0.04909990560295328 1.7583640145338248 4 4 2
13.167952186533691 0.053070137087052334 1.922461899522994 2 2 4
15.921027115022863 0.49448238978981635 2.06386060355069 12 12 10
15.529571982184425 0.42961326235555464 2.077455210728931 11 11 9
14.342436442784084 0.9494604724950452 1.538429239178965 12 12 10
14.255762450590305 0.8508569427736243 1.6787417918725065 11 11 9
15.11177264367235 0.7051475643324103 1.7394008218240458 11 11 10
14.27419231378168 0.9064364920164609 1.8941691425217906 11 11 8
14.008257788835285 1.008514337513992 1.752825861832352 12 12 10
14.988385285225206 0.6967424252204193 2.022013848824281 11 11 7
14.532794976692879 0.8017687761673352 1.961589362723598 11 12 7
13.391464252308985 1.2401059904608862 1.6108219169280427 12 12 9
13.581074736344773 1.0337494308044044 1.990637710027023 10 10 3
13.51080828506743 1.0723101566674953 1.7596072433056689 11 11 9
12.054287096205035 1.266650771970946 1.9565806066341866 13 14 8
13.274253608219569 0.9894547503927219 2.0856081225540146 30 31 18
12.465053297372176 1.266650771970946 2.030977307045776 14 16 8
12.82639712049773 1.0652528488261008 2.1054732257483635 34 35 20
12.156667202213596 1.3722854363368118 1.7809376732403945 12 12 9
12.769765051438759 1.1836436276473694 2.0191837415696563 24 26 15
12.442954525758532 1.1479780801595085 2.123823741706677 27 31 18
12.66004269162867 1.0176295573077738 2.2083698917437014 32 34 16
12.9096495498459 1.105597358071617 2.2932132955140956 34 36 17
12.470771512358526 1.3325803981921664 2.2196602855775898 31 35 18
13.104436064845606 0.878771340848101 2.2801871200842125 31 33 14
12.977644985165238 1.054613285152892 2.396154991258088 33 37 17
12.996108403621774 1.1479780801595085 2.18934700404013 32 35 16
13.099307555059799 1.3325803981921664 2.280523268149752 33 36 15
12.677930572391013 1.1589031986188707 2.4221331927425385 33 37 17
12.771981989361292 1.7008544683743059 1.5344476952621366 13 13 11
12.73826038095533 1.4649434982564369 1.6128755674653668 12 12 13
12.735445073668311 1.4649434982564369 1.534343367961359 13 13 13
12.121502583972013 1.72491040909176 2.045075557790787 12 12 7
12.121502583972013 1.72491040909176 2.045075557790787 12 12 7
12.505248207335569 1.5384614114519526 2.120751737130088 16 17 11
12.716925697599358 1.874689590436946 1.8525529883513938 13 13 11
12.466336469102728 1.7947862719457541 1.8583763874748735 13 13 10
12.292228875330073 1.7118710027900086 1.8625684270731497 12 12 10
12.511966214681356 1.5412338798652685 1.9417684644073934 10 10 6
13.879919376941988 2.0896124664522535 1.8283816689039802 12 12 8
12.878772752300078 1.9826896764517281 2.015115887140454 12 12 6
13.339209268692828 1.9826896764517281 2.0828556031512524 9 10 0
12.484468086199083 2.100631273893815 2.0302066235897414 17 18 3
13.879919376941988 2.0896124664522535 1.8283816689039802 12 12 8
12.532893253369876 1.8391621604770234 2.215906395933367 20 21 10
12.513746402363289 1.9046540552919407 2.43723960378745 39 41 22
12.948464407819829 1.4166780036422584 2.398599534514533 34 37 16
12.883065813615918 1.5309972441623583 2.404142478445931 36 38 18
12.268780580160765 1.759754978801123 2.3402432956416015 38 40 21
13.387158089284227 1.9703782429115562 2.36358578402984 39 41 24
12.782177730643024 1.9326886637488339 2.2013100722230945 37 38 22
12.90441091775186 1.6385615185420248 2.293571143194647 34 38 20
13.02818493187394 1.525805264774676 2.5127304526835426 37 40 19
13.092858678750218 1.396927580278095 2.5059707743927966 35 38 18
12.359723259967511 1.7405802170503486 2.226492145099807 29 30 18
12.892368552628767 1.5351153465300715 2.2943952818370756 34 37 18
12.253222049249635 1.5351153465300715 2.233195395623815 32 35 21
13.084920996988275 2.117137655366426 2.3873158695631505 38 41 21
13.097234562836592 -0.030335398475892138 2.0932705754649583 0 1 0
13.541764214288131 0.19587577978939627 2.4623154383746546 39 44 16
12.905150934213397 0.15871196207362476 2.1943723461601783 47 49 39
13.299034166207191 0.6562087280021159 2.3703339689976874 33 36 17
13.661058802856175 0.5649699512841908 2.4515720682044724 36 39 16
14.819610271338234 0.4229058907312641 2.269808891365336 36 37 21
14.819610271338234 0.4229058907312641 2.269808891365336 36 37 21
14.555433031456182 0.5003296510733378 2.1974504927451983 11 11 5
13.353390175069716 0.4618392565378645 2.4799800563550716 35 40 15
13.9310174441351 0.3469611149210456 2.546452687866034 38 43 16
14.549629572359702 0.3729077320951799 2.380571876703387 37 39 15
14.499758662790969 0.5442619232321505 2.2884997246909937 35 36 23
12.079696996608561 -0.1428719721421959 2.244449106050685 41 45 26
13.456146535614456 0.07842181470666103 2.470234204010764 39 44 15
12.87164703489891 -0.24579255592502255 2.2958184144843337 39 45 20
12.231417787093537 -0.24579255592502255 2.234586534959214 43 47 28
12.673349704531914 0.07005874099923333 2.3097680151933546 35 39 18
13.67986665455695 -0.04683653334391827 2.5741396889951424 39 44 15
12.847841662235156 -0.04683653334391827 2.5322927495272403 38 45 15
13.355673348600106 -0.0368226021652261 2.3659812124965205 38 43 15
12.913385959167318 -0.18102040018919005 2.5250571599155074 40 45 18
12.803121640441343 -0.033265796483222726 2.2001165861619585 45 48 38
12.66105423280042 -0.0368226021652261 2.310653267333157 38 42 22
12.803121640441343 -0.033265796483222726 2.2001165861619585 45 48 38
13.090752420834187 -0.3436755745441764 2.2810848168970175 40 46 21
13.176805630949962 0.8199468280009171 2.637197563327555 38 42 19
12.72273511375155 0.9157567987458533 2.546528735948215 35 40 16
12.881725849947937 0.9478302738481316 2.6803972630688575 39 43 20
13.059900978110244 1.1777977333991494 2.65365941799086 36 41 15
13.150482190873323 0.6330551312082452 2.50005505855432 36 39 16
13.097989713589808 0.8136692114429167 2.5054399772535616 35 38 16
13.24713034731576 0.8093217706924449 2.3743728853120016 31 34 15
12.798324760536296 0.8942190855575856 2.4114607506368793 33 37 17
12.100348141723895 1.1051316580107284 2.4784552905402646 33 38 14
12.83057611352782 0.5227295749318226 2.5342236356083245 37 42 17
13.663652502666498 0.5227295749318226 2.5760041971469594 37 42 17
14.298797766762506 0.3964197775468627 2.6397697216512666 39 44 18
12.371992206908388 -0.20878327920894574 2.5898063023040843 41 47 20
12.520171433345316 -0.3539253754707682 2.570869825756734 41 47 20
12.278185880263118 -0.559114488564443 2.602345826243629 44 50 23
12.745320485296176 -0.4850885864511956 2.5439159391166712 43 49 22
10.748564728535472 -1.0365949400846635 2.2244210288753212 45 49 27
11.4551361963126 -1.090743014202811 2.177985566212297 42 47 20
10.915513225106611 -1.090743014202811 2.102676989942032 42 47 22
11.835209733168211 -0.9743091702272455 1.874186795898173 12 16 1
11.697731853655714 -1.1355741793729026 2.063763686889077 41 46 21
11.36431189106555 -1.227066378446411 2.079592842906192 41 46 19
12.7030293526195 -0.4799927951599705 2.3076411128935903 43 48 24
12.069697965189306 -0.5341336270210293 2.3563459887330103 44 49 22
11.802304614559622 -0.6290340571956016 2.263353544099017 44 49 24
13.078817082827747 -0.5696242947284941 2.2818699201126704 43 49 25
12.587354998282338 -0.8882015385701698 2.5626090499417624 43 49 22
12.167955264004194 -0.7853586734501853 2.4713744752136058 42 48 22
11.931845847735634 -1.0856282315452508 2.496749208907005 43 49 24
11.902769448778207 -0.8707055865126334 2.3704748929241086 42 47 23
11.902769448778207 -0.8707055865126334 2.3704748929241086 42 47 23
11.502016554303372 -1.2617712913275847 2.407021706976843 45 50 23
11.401202524217068 -0.7853586734501853 2.416865778673574 43 49 24
12.587388532290836 -0.682508575144161 2.562604974648412 45 51 24
12.852327494769552 1.5099295664764893 2.68502177246728 38 42 19
12.864407342361002 1.6861511202387856 2.683113747628968 39 43 21
13.119233390139689 2.0097407715582785 2.645205370386479 42 46 24
12.534410633702693 1.3714478951946327 2.569102741923225 36 40 17
12.466840183930387 1.519056807430083 2.577568251907028 36 40 18
12.987098256392395 2.07302393151419 2.517092969355606 40 44 23
12.504128225260034 2.1445681385640984 2.5728714759960356 43 47 26
12.57153183372758 1.814557070079239 2.564537270850736 39 43 21
13.376940602916552 1.4968994638276913 2.785093814222437 40 45 20
14.270034206587894 2.5132743702875273 2.8194246483899823 45 51 25
13.4399362221915 1.2896278293733545 2.7727132009264617 39 43 20
14.085023339256686 -2.7891922290332842 2.8614308163934865 46 56 30
13.859192914092196 -2.6729601260956084 2.9251612874930566 44 54 28
13.958256440557587 -1.7643007390383312 2.894953617753717 50 59 31
14.193457342562164 -2.2418665427875477 2.8360001185680273 44 54 26
14.414051670939509 -2.400607422885079 2.790721941569973 45 55 27
15.002752936407733 2.9640853091609567 2.891459186237439 44 53 27
14.790941194985145 2.899480885010161 2.955605041758249 41 50 24
13.991630704909902 -2.4183349040195083 2.8856510219348137 45 56 30
13.282473217449937 2.356149156547131 2.6229690692885694 44 49 25
12.741691019780463 2.761913165682843 2.5443345141229665 44 50 25
12.34010249247942 2.9285864969404245 2.4539644199468253 43 52 26
12.504060710569892 2.567734173257672 2.5728799236581885 45 51 26
13.851785804578181 2.8567756456972964 2.702174690721567 45 54 28
14.409477160782938 2.7998776587532888 2.791590326742111 46 55 29
13.334144496639308 3.0433796808832856 2.616219254922159 45 54 28
14.377014179056367 -2.8604836760135055 2.7978293993251437 46 56 29
14.197169693935631 -3.0899131127579236 2.652975687412223 45 55 27
14.15324972360358 -2.607561251877321 2.6588454030223523 44 53 27
13.950841414987504 -2.7486313483965885 2.687304490064091 45 55 29
14.377014179056367 -2.8604836760135055 2.7978293993251437 46 56 29
14.318171501704875 -3.0677792923404468 2.809500123526211 45 55 29
13.756779168141868 -3.080795724083563 2.717104117888759 44 54 28
14.50472468740245 -2.6750986598066024 2.7740228368595528 45 56 30
13.455864212207157 -1.6491718162966071 2.4702606138821004 47 52 27
13.444315804829008 -1.5295131655263712 2.471342612368593 46 51 26
12.847611681064338 -1.523899757436108 2.532318400202114 44 53 25
13.181615792490788 -1.6737259267131894 2.636536909387013 43 54 26
13.430424541897663 -1.967183187238689 2.6039821070951272 42 55 26
13.930714444283225 -1.9177249917923547 2.546484815164203 45 55 27
13.353042456944028 -2.032612447836883 2.480013498233847 47 53 26
13.228698199763839 -2.170685230432305 2.630136571095527 44 52 27
12.987986827181986 -2.0319261825531987 2.664196847035545 43 53 26
13.928109864927977 -1.9836811913223593 2.4286579168504403 47 53 28
13.66334357370074 -2.093504732186074 2.576039817880223 45 50 23
13.928109864927977 -1.9836811913223593 2.4286579168504403 47 53 28
13.631858105903973 -1.506391380898205 2.7378576797146574 45 55 27
13.727667824297917 -1.8711645840926667 2.721820753799516 42 54 26
14.109222954118657 -2.170685230432305 2.664833431275444 44 50 25
13.761601317305868 -2.270286454021436 2.7163294903872637 43 52 26
13.530373852155465 -2.119430730761425 2.755792270872522 43 52 26
14.31195579403122 -1.9348505502762563 2.8107617716738833 47 56 29
13.643247767921027 -1.6928100358795644 2.735907972812802 44 55 27
13.727667824297917 -1.8711645840926667 2.721820753799516 42 54 26
13.367014137095756 -1.640813270724583 2.36511640664519 45 50 23
13.842291344046496 -1.9436802083004656 2.330757138174312 46 52 25
13.453167700534326 -1.7461266251109895 2.3586185876139405 47 53 26
12.931614713851033 -1.8476648338442108 2.2917172471915133 49 54 27
13.513123488766782 -1.7294748703542902 2.254504069175433 49 54 25
13.309924815295963 -1.910468427308249 2.1726645218920484 50 56 27
22.366008293594103 -2.0742739115436177 1.7295530743217484 38 42 18
15.54500467119748 0.5551157910445366 1.9349067090768446 11 11 10
13.53348375873653 -0.027879360135726124 1.992207980297569 2 3 2
14.232588440930817 1.1060874231121725 1.467741519222173 12 12 9
14.860005359642834 0.7509663208646747 1.880986075502827 12 12 9
12.442954525758532 1.1479780801595085 2.123823741706677 27 31 18
15.305859104028741 0.6517561668765289 1.940868037512486 11 11 9
13.86216325000794 1.008514337513992 1.681819249930646 13 13 10
12.608318910037877 1.2020595983021327 2.3144779274814917 34 36 16
15.623740175838858 0.5936342999395765 2.0741132978631818 12 12 8
12.9096495498459 1.105597358071617 2.2932132955140956 34 36 17
12.696829835674365 1.2373395000803806 2.2062252982324804 31 34 19
12.650569110321022 0.9613296009968668 2.3114101039216135 32 34 15
12.451529136445409 1.2736035924065816 2.443140343265928 34 38 18
12.52437434743588 1.6269607052816089 1.9413831215408255 11 11 8
12.579294269550477 1.4559384549054126 1.939687360207758 10 11 9
12.684028776685295 1.6225311031860592 1.6130555876535324 13 13 11
12.75326029213676 1.5435685667872634 1.6915180089873858 13 13 11
12.298027448766833 1.8150143446667422 2.0377206345584122 11 11 5
12.895116866292504 1.646362205220302 2.4031143079214177 36 38 19
13.017485918420524 2.064248473576662 2.285935475168455 40 42 25
12.26589192947662 1.6385615185420248 2.2323900037195363 31 34 21
12.32196398107198 1.432424888185794 2.228851510787309 32 36 21
13.040101872933716 1.6561875169021987 2.5114751402054805 37 40 20
12.340307726522784 1.7837384186400995 2.4539441717502544 38 40 20
13.19699019052651 0.14492623433045565 2.0889231576499867 1 1 1
13.109120933205519 0.05773814543747419 2.0927485145078046 0 1 0
15.163520272080605 0.5003296510733378 2.2508932191391384 27 28 18
13.61280668844028 0.2768984254864083 2.346903166457669 37 40 15
14.139713675733889 0.4622265648134905 2.310951498690706 33 34 17
14.139713675733889 0.4622265648134905 2.310951498690706 33 34 17
14.223708144422535 0.5089116468731 2.404945423784457 35 38 16
13.080676278113383 0.7362304730191662 2.281747493638992 32 34 16
14.196800072050038 0.4229058907312641 2.2158636834606282 23 24 15
14.155731894757055 0.4618392565378645 2.5233959005368494 37 42 16
12.764219176307062 0.17536633586360292 2.3033000856627046 35 39 19
13.453512830833391 0.17536633586360292 2.3585928097267788 36 41 13
13.444566974822326 -0.0412305776569763 2.471319044144611 39 44 13
12.165112068057743 -0.2738688645494509 2.3485308226400963 40 46 20
12.262639282568013 -0.30895622814677426 2.4616917936046345 40 46 19
12.815280807980104 0.06330533706350798 2.199425961333404 48 50 40
12.868893708959277 -0.129222083069383 2.196400465752187 37 39 32
12.39671138572478 -0.3811654740819884 2.3302954024860045 41 47 21
12.492430657279405 -0.427277604881074 2.4392499602772824 41 47 20
13.430707400065668 0.3964197775468627 2.6039467826765668 39 44 17
12.65896974917782 1.1042664295270528 2.717176680343456 39 43 20
12.414015100423338 0.9924763511758188 2.446747125790475 33 37 15
13.097989713589808 0.8136692114429167 2.5054399772535616 35 38 16
14.517820636108512 0.5227295749318226 2.612926716409998 38 44 18
11.190218473565858 -0.9416973511336809 2.194528769120616 43 47 25
11.114441034683361 -1.189569800619729 2.1994433777786773 43 48 20
11.350672875653455 -1.0011131872914074 2.0802631987289315 45 49 27
11.681376630091831 -1.0512387861052237 1.9695805545439704 44 48 28
12.587388532290836 -0.682508575144161 2.562604974648412 45 51 24
11.763068882914423 -0.8882015385701698 2.5160760406289375 43 49 24
12.167955264004194 -0.7853586734501853 2.4713744752136058 42 48 22
11.902804911483317 -0.7000190419617659 2.3704718272403924 43 49 24
11.384347150017456 -1.0365949400846635 2.2942124530746613 43 48 25
11.717233035354031 -0.7853648977680702 2.2693922418959023 43 48 25
12.167955264004194 -0.7853586734501853 2.4713744752136058 42 48 22
10.919620061630733 2.3561627793809308 2.1024556915286894 39 42 23
12.917881706976077 1.337376791502347 2.6747965089512054 37 42 17
12.987098256392395 2.07302393151419 2.517092969355606 40 44 23
12.512400622901323 1.2896278293733545 2.7438921599397808 39 44 20
13.357579832527238 2.1445681385640984 2.6132007114520452 42 46 24
12.953904064318753 1.8555244661352535 2.669308248568479 39 43 22
12.03328514940261 1.337376791502347 2.6373892277412665 38 43 19
15.079591974530896 2.7162725963956333 2.872236403515798 43 52 26
14.215357330013195 -2.57134041093775 2.8311539291575722 44 57 30
12.832109440815387 2.4528346593955144 2.5340517291705944 44 50 25
12.024648044850757 2.25947320980136 2.4865566044003122 43 47 27
11.779509734812283 2.843877925207731 2.2649600848983695 41 47 24
12.189769160341228 2.6392895646259125 2.4691199156984425 43 49 24
12.513577744687673 2.8076686379513385 2.4372554649074036 43 49 25
14.256511805871678 -2.942292847779726 2.6452025739395824 45 55 29
13.699693068537039 -1.8788859160278173 2.448162357969129 48 54 28
13.54145250461484 -1.7666330932475578 2.462343946463883 48 54 27
13.268973175729341 -1.8260237548514733 2.6247544994841108 42 55 26
13.775127973662498 -1.79248277973371 2.5633804864064076 45 55 27
13.883786159821339 -2.0319261825531987 2.697296724138053 44 52 27
13.643247767921027 -1.6928100358795644 2.735907972812802 44 55 27
13.631858105903973 -1.506391380898205 2.7378576797146574 45 55 27
14.231002227985265 -1.7205167662459728 2.8277452409222024 48 57 29
13.530373852155465 -2.119430730761425 2.755792270872522 43 52 26
13.453167700534326 -1.7461266251109895 2.3586185876139405 47 53 26
13.070709405057134 -1.8220670494341753 2.1852906915041466 50 55 26
13.539169483310907 -2.2874079120938275 2.590658495633636 43 48 23
13.150129107418596 -2.203839945867539 2.5000910065026787 44 49 22
14.109723971412594 0.04909990560295328 1.8980781960986675 3 3 3
13.904103447842553 0.12344478134468562 1.8279234868424945 6 4 3
14.858421053163447 0.8002099415436205 1.5395536152491736 12 12 11
13.071059434997187 1.1408600371312856 1.766039971301536 11 11 7
12.22301873185997 1.2913501776781526 1.696782279944034 12 12 10
12.038416293340218 1.1836436276473694 1.8689068151752102 12 12 7
12.234713235041973 1.3542094959030613 2.0403310684922467 16 18 9
13.090151881593838 1.3062640870865072 2.386890681195972 33 36 16
13.345733967212226 0.9613296009968668 2.3667409899350553 33 37 17
13.113581765348405 0.9382636354120826 2.182985641715752 37 38 21
12.696829835674365 1.2373395000803806 2.2062252982324804 31 34 19
12.888045838457257 2.058724743545208 1.9304424825092497 10 11 1
12.466336469102728 1.7947862719457541 1.8583763874748735 13 13 10
12.5519772692594 1.9012555242760028 2.0275476113904176 11 11 5
12.025812681721678 1.6322188297874625 2.0491646968739876 14 15 9
12.443216270784342 1.8684528088772077 2.3267527276955198 38 40 22
12.957720195290102 1.432424888185794 2.2899483366989832 32 36 15
12.233637493015452 1.525805264774676 2.464629313779592 36 39 18
12.782177730643024 1.9326886637488339 2.2013100722230945 37 38 22
13.10323325653362 2.02004606991384 2.1835403108360585 27 28 13
13.109120933205519 0.05773814543747419 2.0927485145078046 0 1 0
12.859958546795987 0.0890461867239099 2.530943932679983 39 44 16
14.699458875715797 0.4129087125412798 2.4731392521777664 37 41 15
13.367329914457596 0.07005874099923333 2.365092358538015 37 42 13
12.009603572862831 -0.0368226021652261 2.249116569249451 41 45 26
13.700031988386758 0.3081209046082957 2.4481325930844484 38 43 16
13.928473531951237 0.4129087125412798 2.4286277204452125 36 40 16
12.727560482608897 -0.1428719721421959 2.30589372588095 38 44 18
12.798324760536296 0.8942190855575856 2.4114607506368793 33 37 17
14.196800072050038 0.4229058907312641 2.2158636834606282 23 24 15
11.36431189106555 -1.227066378446411 2.079592842906192 41 46 19
11.36431189106555 -1.227066378446411 2.079592842906192 41 46 19
11.641733346172717 -1.3249506121282242 2.166892533297176 43 48 21
11.902804911483317 -0.7000190419617659 2.3704718272403924 43 49 24
11.74673276184006 -1.1434494437340115 2.384241146120554 45 50 24
12.249897122705597 -0.6003892480792505 2.462979384958549 43 48 21
11.488541020867276 -0.9703307703756656 2.4083213317292853 43 49 25
13.859192914092196 -2.6729601260956084 2.9251612874930566 44 54 28
14.32904510425169 3.0016533763528748 2.807306667050417 46 55 28
11.347144742295344 2.696071360135816 2.29711157211767 42 48 25
14.085023339256686 -2.7891922290332842 2.8614308163934865 46 56 30
13.243206372572244 -2.2418665427875477 2.8132802283245395 44 54 26
14.040782638362778 -2.0304174440428646 2.8725985851265405 47 56 28
13.32245889503175 -3.0899131127579236 2.6177342711252867 44 54 28
13.784187444361839 -2.5186434424265722 2.7127259066102583 44 54 26
11.782625103144804 2.53116723929189 2.381024553133498 44 50 25
13.768096147560412 3.0261556775131275 2.715289108240617 45 54 27
13.66334357370074 -2.093504732186074 2.576039817880223 45 50 23
13.228698199763839 -2.170685230432305 2.630136571095527 44 52 27
13.169826903321862 -1.516521301474971 2.6381583282363064 43 53 25
13.353042456944028 -2.032612447836883 2.480013498233847 47 53 26
13.883786159821339 -2.0319261825531987 2.697296724138053 44 52 27
13.367014137095756 -1.640813270724583 2.36511640664519 45 50 23
13.173356191376241 -1.9436802083004656 2.2757044029449895 48 53 26
13.612434588128691 -1.8476648338442108 2.346929998834313 47 53 26
14.060310275874313 -2.390746393072557 2.6716132877844787 41 50 24
13.599296964632682 0.04909990560295328 1.7583640145338248 4 4 2
13.717663286902498 1.9507869003831182 1.9861974094282482 13 13 11
12.40388139954464 1.3722854363368118 1.8598660011035613 11 11 8
12.883065813615918 1.5309972441623583 2.404142478445931 36 38 18
12.26589192947662 1.6385615185420248 2.2323900037195363 31 34 21
12.532893253369876 1.8391621604770234 2.215906395933367 20 21 10
12.359723259967511 1.7405802170503486 2.226492145099807 29 30 18
12.763404845888202 2.0162512808383304 2.4145223781023217 39 42 22
12.892368552628767 1.5351153465300715 2.2943952818370756 34 37 18
12.773995615755018 0.728052820585301 2.4135909447031185 34 38 18
13.539481245544545 0.7166173737887009 2.5906210187726684 38 41 18
13.663652502666498 0.5227295749318226 2.5760041971469594 37 42 17
12.464594278332894 -0.6290340571956016 2.32513698934097 42 48 23
11.48534588331711 -1.2968674055971445 2.286472841665649 44 49 22
10.908635118634978 2.4372101534295076 2.2132295674863363 42 46 25
14.992367965849995 -3.047691786700826 2.894184990649578 42 55 28
12.965856721979177 2.2363987159691154 2.667506845428581 45 50 26
12.534410633702693 1.3714478951946327 2.569102741923225 36 40 17
12.74182353055512 1.9503992733231204 2.5443192233404255 39 43 22
13.420540522076676 2.897757327582964 2.605218716093611 45 54 28
14.868874869369046 2.5840312914260317 2.9295501708291636 41 49 24
15.013158839111778 2.3561150138294282 2.8887604737489636 42 48 23
13.991630704909902 -2.4183349040195083 2.8856510219348137 45 56 30
11.07964521149772 2.53116723929189 2.3187681726621663 44 48 26
13.713614419554249 0.9673090426292306 1.9079007158015582 9 10 4
13.143677005753164 1.1058883522040395 2.005542638066089 15 16 7
12.572612238102597 1.4452676055177156 2.117470343950366 15 18 9
14.729686363186945 2.0549280908528917 1.8132134697103057 12 12 8
14.072987345169414 1.4007557551667413 1.3947917501585336 13 13 13
13.988597138463536 0.9064364920164609 1.8263355651487645 11 11 9
14.164684607766995 1.1060874231121725 1.5380229218237726 13 13 10
12.698261144340146 0.7166173737887009 2.5493820070164595 37 40 17
13.3343344309957 1.6689403005360033 2.6161946848998014 37 41 19
12.02461294148255 2.4528346593955144 2.48656040467463 43 49 24
12.66105423280042 -0.0368226021652261 2.310653267333157 38 42 22
12.526119073758595 2.1811493681047085 2.436078006768441 41 45 25
13.691000564363323 -1.6597905844365344 2.5728650725196123 44 54 26
12.303564102131043 -0.05420508801751263 2.598908747237323 40 46 19
11.691005071058191 -1.2167907820816564 2.524661427211399 44 50 25
13.539169483310907 -2.2874079120938275 2.590658495633636 43 48 23
14.385292156348887 -2.8029265776941403 2.6289181794871426 46 56 30
14.731231820257602 -2.9082269680215536 2.7359638788363934 44 54 26
12.416869291897573 1.0367423282600512 2.583962654694286 36 41 16
12.742572989174661 -0.1597187405169099 2.4163618729342797 39 44 17
12.680725361622533 1.2320937048312781 2.5514406680256196 35 40 15
13.775403753841507 0.2217288178241455 2.5633498109758728 38 43 16
12.676145503736118 -0.0412305776569763 2.4222939416103784 38 45 14
13.81801268756026 -2.9082269680215536 2.707403314401663 45 55 29
