17.936317951917033 0.7220827354779432 2.230909045652216 48 56 24
17.92138085400473 0.8219972945115986 2.2315562261095163 46 55 22
12.530421603085513 1.6005228205712467 1.7309848127726024 28 37 3
11.079719945582386 2.0072083921830632 1.9400276255682085 45 52 21
14.513359432402746 -0.7855606096741465 1.2189807059065794 47 54 23
14.041392613759287 0.24196959051099248 1.5707006029918742 46 49 18
14.041392613759287 0.24196959051099248 1.5707006029918742 46 49 18
15.479192345027576 0.37490359399776696 1.899617344840434 46 49 18
13.792718006271027 -0.046580992043285266 1.7162149047767565 46 51 20
13.7828928399781 0.02673390904490649 1.71631930446896 47 50 18
13.792718006271027 -0.046580992043285266 1.7162149047767565 46 51 20
13.766360926319773 -0.11939905901508047 1.643403306793452 46 53 21
13.87187634406139 0.17174158481134358 1.642850065639055 45 48 17
15.884982092705924 0.4015882679413128 2.0984826353925676 47 50 21
13.391814894334061 -0.518395174763361 1.5706959598534829 46 53 19
14.058522588591869 -0.9902465339997599 1.4279529876937151 45 50 18
13.279737252308673 -0.8402555221644887 1.7985675459489725 43 52 20
13.269565558547107 -0.9008857171731157 1.9570284656095147 45 52 20
12.975203824523566 -0.7308824583678756 1.4935458461193227 46 53 21
12.927000077372643 -1.1199767512492624 1.5706923509696438 45 50 19
12.96551745243494 -1.1199767512492624 1.647896682199638 47 52 21
13.86866198095357 -0.7308824583678756 1.9395231590279298 43 52 18
12.887707571984526 -1.013200326211356 1.8056242789284922 46 51 22
13.242370242813974 -0.9483354496160217 1.7223041606486387 46 51 21
13.127995960523574 -0.6227945556362245 1.646940590295157 45 52 20
13.155427716510697 -0.5579400609308947 1.8796374959155635 44 51 16
14.027862984963175 -0.19096883509913773 1.7137604052825375 46 52 19
14.073724942749589 -0.7855794246044197 2.091263211915734 43 52 18
21.886771293311398 -1.277288026835456 1.0962236334287747 46 51 28
21.886771293311398 -1.277288026835456 1.0962236334287747 46 51 28
11.717137501665402 2.1061025672321905 2.3221736736397114 44 49 20
12.682587763804616 -1.1919098209363415 1.412331450837583 50 54 27
12.808601304033097 -1.520793396449267 1.4139034445705498 42 47 16
12.563651706236099 -1.1919098209363415 1.4910100265882464 48 53 20
11.929514072796556 -1.3483077260145466 1.5706836570337221 45 50 19
12.581834256143328 -1.3483077260145466 1.8942171082531845 44 49 20
12.300619555130508 -1.3483077260145466 1.8170587794800517 45 51 21
11.695352403005773 -1.5165040456121535 1.656289559749498 43 48 18
12.226892160860533 -1.5114106929146491 2.0835878907239738 42 47 18
12.319154472166227 -1.41850415945808 2.0793761541296814 42 48 19
12.04279577572712 -1.3281667318731283 1.9988208757900434 44 50 21
12.270328776297282 -1.16001906468457 1.9027388179489622 45 51 23
12.286884955990754 -1.698688930352796 2.0808409249482063 43 48 19
11.83922535337501 -1.9070318036303417 2.102121638381881 42 48 17
11.432261672983104 -1.7117948983688243 2.1231742225492916 42 47 18
12.79784511571806 -1.5998857761528127 1.727609503496196 42 47 19
12.308880057166876 -1.602384246268983 1.901659432136683 42 47 18
12.450594112228671 -1.2102946257743201 2.167736212754997 45 51 22
11.914637794089318 -1.6089350287396225 2.198638499586349 40 45 16
12.24299577815044 -1.9426353317945206 2.2827644486155325 42 49 17
12.546617369808207 -1.7278690479013763 2.3705976943386213 43 50 19
12.744667731321337 -1.8117461836473332 2.2492733083100616 42 47 17
11.942736655349409 -2.039058690260851 2.19693185888958 42 49 17
9.489274848930924 2.3564403223633335 1.8923118084531863 47 52 23
9.938716737454433 2.2837279677347544 1.773275001765192 27 33 8
9.851073493155742 2.3564403223633335 1.9887713959253752 47 52 21
10.575416829786601 2.458905132457169 2.42850292255498 44 50 19
11.859727214178767 3.08440760712376 2.5737745313691454 43 52 20
12.724833058469905 -3.0421259489821573 2.614644363753619 46 53 21
12.087649054731259 2.7860394734598213 2.544866129879961 44 52 20
11.867993632689664 2.831042804618506 2.431388693896148 46 54 21
12.78199931315683 2.930494303701035 2.6070075546994835 43 52 20
11.859727214178767 3.08440760712376 2.5737745313691454 43 52 20
11.094865346278423 -2.1835266423674295 2.1420291513020384 44 51 19
10.40293037595331 -2.731731353482341 2.0720263248507895 42 51 19
10.486260620123186 -2.771398151929922 1.8608049199342456 42 51 19
10.793141126156256 -2.6357035064654637 2.0523228286305937 42 50 18
11.046484379027659 -2.4886284742868137 2.1448466192121756 44 51 18
10.925765346017549 -2.1269349263136017 1.9454863276514653 41 47 16
11.013028826843465 -2.4171193379809583 2.259437685454392 45 52 20
11.696996439593445 -2.2509617995917477 2.323783436607964 45 52 19
10.498062871717066 -2.798068112146469 2.3005172510255565 45 52 21
11.169207401732287 -2.5800046548585063 2.247982695304189 43 51 19
11.037319144559472 -2.2509617995917477 2.2576277000176943 45 52 19
11.189577108520547 -2.798068112146469 2.367178644132984 49 54 23
21.919044511055137 -1.5349556711132417 0.9358269414504945 44 45 21
20.951574782989045 -1.4226264231665682 1.0179821000145906 44 49 22
21.341083011099013 -1.5349556711132417 0.9735607781475686 43 46 23
21.493514698117192 -1.4226264231665682 0.9783760728693979 43 48 23
21.649712950933438 -1.5368774041862105 1.0377586181747944 45 48 23
21.649712950933438 -1.5368774041862105 1.0377586181747944 45 48 23
21.31283023576124 -1.430470536584486 1.0823391941561467 49 51 25
22.096221229540394 -1.4878549512498498 1.1010872379772667 48 50 25
21.760169563438026 -1.4375305522170985 1.144324213364253 49 51 27
21.903644774908013 -1.3878755903108766 1.1472983844716924 50 52 28
21.207625856256097 -1.3271579666460758 1.1324540777267615 50 52 28
21.913006121521434 -1.5916412094188694 0.9356239050377124 43 43 14
14.611705594820698 -0.11939905901508047 1.9199465353384448 45 50 19
14.300511479688824 -0.11939905901508047 1.8541907569611626 44 51 20
16.447596267370596 0.5644089569838368 2.1497049322805966 49 56 23
17.01530883596962 0.5644089569838368 2.198919334843444 52 52 22
12.93674943961375 -0.8402555221644887 1.5706924293276574 44 53 21
13.492991626933732 -0.35169670554532395 1.6448770010915232 48 55 25
12.68170506178919 -1.0837652119278716 1.8915785864521977 44 50 22
13.156379375420503 -1.013200326211356 1.8796144176903504 46 51 23
13.429632560256913 -0.6227945556362245 1.3454061496513203 46 53 21
13.73437691402626 -0.888988566002047 1.4978237159957508 46 52 22
13.279501554047188 -0.7308824583678756 1.7985716600625887 44 52 20
13.269093796478852 -0.6702683332285604 1.9570429237187308 45 52 19
13.268824613692132 -0.4511430443955927 1.7987581834721003 46 53 19
13.976402347517377 -0.4196179518619288 1.427107885521326 47 54 20
13.430364633440528 -1.0527199471153335 1.4961688550435917 47 52 20
12.216063888075093 -1.6053520385698459 2.084087028055147 42 47 18
12.680414195873121 -1.5998857761528127 1.4917462479484453 43 47 19
11.79177437141134 -1.431416159761282 1.6555887897918495 44 49 19
12.491046469566657 -1.3281667318731283 2.071720597201197 43 50 20
11.594478511937396 -1.8117461836473332 2.114573198953069 43 48 18
12.55268562642431 -1.2682047960689073 1.8120143946288396 44 49 19
12.450594112228671 -1.2102946257743201 2.167736212754997 45 51 22
12.27262492177687 -1.9861868908766789 2.39385622249232 44 51 19
12.528204403398925 -1.6089350287396225 2.2632815070656935 41 46 17
12.375967387521683 -1.9070318036303417 2.1718402407070965 41 48 16
10.393974254833678 2.2006254984919416 2.0724984926153254 48 54 21
9.673359423878289 2.3564861344563233 2.239693598410722 45 50 19
9.236250535977037 2.2714293355723134 2.0185376920754847 47 53 19
9.938716737454433 2.2837279677347544 1.773275001765192 27 33 8
10.997076925498593 -2.9231553503977783 2.3852398510053785 47 54 21
11.932401042226958 2.930494303701035 2.564297039066526 43 52 20
10.40622372101823 -2.4171193379809583 2.185172481722322 45 52 19
10.925765346017549 -2.1269349263136017 1.9454863276514653 41 47 16
10.792602050512093 -2.683210285385785 2.276366391834735 42 51 19
11.22555926391618 -2.5123404428658516 2.3639075280362136 45 52 20
21.9706437610143 -1.4784993848448231 0.9375561466989163 41 46 21
21.295488627377004 -1.3139274101413077 1.027915872996563 44 49 24
21.701952581590337 -1.4834262682355965 1.0391782481926188 48 50 24
22.091519028929493 -1.3965572629451497 1.2483112377355288 51 53 29
21.66195523109108 -1.4878549512498498 1.1422632082060988 49 51 27
14.364016546579279 1.2614376745111673 2.161389371482359 39 49 11
14.449638389365553 1.3610337771167238 2.0764142854413854 39 49 12
14.013535848769445 -0.9483354496160217 1.2058557315035572 46 51 20
13.145059006079343 -0.28021817866592824 1.5706940757893753 50 57 25
13.976818626858435 -0.518395174763361 1.2804497368005803 47 54 20
14.234454878894837 -0.5808612617117463 1.358351232393531 46 53 21
12.779549201300755 -1.4423209441083436 1.6490209256060027 44 49 18
12.31962674992635 -1.5165040456121535 1.9013598137688512 43 48 19
11.385589444996851 -2.039058690260851 2.1257028906102864 42 49 17
12.682163838344671 -1.1919098209363415 1.7290518922685336 47 52 21
12.597270759079674 -1.7117948983688243 2.258742060111615 41 47 17
11.240908497840953 -2.0903903833844852 2.242864703185716 44 51 19
12.694602491948796 -1.8383989565025403 2.3586725307847733 43 50 18
12.528204403398925 -1.6089350287396225 2.2632815070656935 41 46 17
11.867993632689664 2.831042804618506 2.431388693896148 46 54 21
11.046484379027659 -2.4886284742868137 2.1448466192121756 44 51 18
21.949271924366272 -1.4439178317565244 1.246144921148285 50 52 28
21.100548828951414 -1.3676691896726327 1.0223323047983113 44 49 24
21.39407626148882 -1.4784993848448231 0.9752443923290178 44 49 23
21.459296532136346 -1.3782946601404924 1.0859627360666269 45 50 23
21.651006504316133 -1.3271579666460758 1.0906213498565784 46 51 26
17.341112705454012 0.7220827354779432 2.1853412343060903 48 57 26
16.822161716778613 0.6665826276686321 2.207283353477739 48 56 23
13.089990439833752 -0.7308824583678756 1.724081716554578 45 52 19
21.448264952082315 -1.277288026835456 1.1377068597494886 49 51 27
12.23031762465018 -1.2682047960689073 1.488830654330714 45 50 16
10.381191753837635 2.1413266265305353 1.8638266411798095 54 59 30
14.90460551570377 0.24196959051099248 1.9128012791844256 45 48 17
15.16167308104728 0.30984829827997873 1.9067717972361897 45 48 17
12.41119971047446 -1.431416159761282 1.8988290289445175 43 49 20
10.486260620123186 -2.771398151929922 1.8608049199342456 42 51 19
10.980001233792096 -2.335601977167664 2.1487673098377162 45 52 19
12.216063888075093 -1.6053520385698459 2.084087028055147 42 47 18
12.300146547568097 -1.2416864712162132 1.989295873302729 45 51 23
21.919044511055137 -1.5349556711132417 0.9358269414504945 44 45 21
13.532113056148388 -1.1199767512492624 1.2706159923375995 35 40 16
21.703263377431014 -1.3391156838366336 1.1932183982548938 50 52 28
21.459296532136346 -1.3782946601404924 1.0859627360666269 45 50 23
12.259064276454424 -1.1226596796987691 2.082110916108216 45 52 22
14.582313327470604 -0.888988566002047 1.2207159628171353 46 52 22
14.037548164530435 -0.35169670554532395 1.8596507505835722 48 55 25
10.097030526087291 -2.836469469035619 2.0887024897579898 45 52 20
