9.881667174381612 -0.12201836176757971 1.8993833826505722 9 13 13
9.283392537825682 -0.016707280586629278 2.038930798512088 6 10 6
9.69076339717623 1.3186030460288558 1.9061076456563146 10 13 5
9.132324155547039 1.538820764042241 1.8128368246368811 27 33 11
8.785653581718304 1.2881178462683494 1.9422428598179238 17 20 10
8.51392991654926 1.6616906954066666 1.9547052980132742 32 38 18
8.999919630862 1.4089681109015963 2.0549218142720935 26 30 17
8.35716872379037 1.2495372867319228 2.095817296441958 30 34 21
8.969654164009945 1.6514808450215281 1.7037314522774507 29 35 10
8.489035950910795 1.0601834831829406 2.2284279284228843 32 36 22
8.459433037250252 0.733651207039865 2.3914539783668864 33 37 20
9.775434700993546 -0.016707280586629278 2.1303493268074654 5 9 5
9.596517829895138 0.1177474318753905 2.2716995219825122 30 33 25
9.783396315570904 0.16165102858926092 2.56260577466157 33 39 20
8.960200537589097 0.848533316882756 2.333262620410072 33 35 22
9.795855546787436 0.2566192276928696 2.787717353902202 36 44 22
9.558763941922843 -0.019000630573756887 2.2750370853563737 40 45 35
9.275096335654785 0.7168556118676871 2.652774009932639 34 39 21
9.627866402674709 0.5510607529013736 2.2689551532608148 22 25 15
9.242551326739802 -0.0323007498613923 2.65943620640713 37 45 25
9.67441544041254 0.5889651265830912 2.580071873433826 34 39 22
8.796183934851324 0.8661373875839468 2.5274569835198704 32 36 19
9.933880020194382 0.5157728079203826 2.7518410007452165 35 41 20
9.369283302882724 0.49638234475176995 2.4453869433946327 33 37 23
9.727650555278071 0.288030562058604 2.4024024370110633 31 36 25
8.697879832575033 1.3858845324532392 2.210013802711331 34 38 21
8.632456743354354 1.6748481266845257 2.2156591641130663 34 41 19
8.620189893607668 1.3552387799672554 2.371650479484884 34 40 19
8.554172645313184 1.692437540817531 2.379643389391978 35 43 20
8.014313506831224 1.855677725910456 2.2750309894443386 36 44 21
8.772812207142934 1.3126870488748446 2.531245552344559 36 42 20
9.709343667914771 1.1491827929251779 2.8126823677076267 40 47 25
9.14422190466397 1.249919246112577 2.6804043964518374 37 44 22
8.96997825848319 0.8972975055413787 2.7211787348798766 37 44 23
9.31799236625008 0.5912101530549593 2.9749248142692153 43 51 29
9.462989384945208 0.9671949245581228 2.900312245836377 44 52 28
9.27910531114955 -0.10742443567094455 3.002021764040067 43 53 29
9.469355704239835 -0.06053893426918502 2.89759511044936 40 48 27
9.462989384945208 0.9671949245581228 2.900312245836377 44 52 28
8.707952105160238 1.717132481749636 2.541977209916615 36 46 19
7.49403728597788 1.9890823548788807 2.5424859374747024 39 48 22
8.055046940007095 1.910215608374694 2.4470124045002946 37 45 21
8.338965249097633 1.9890823548788807 2.610160479246413 40 50 24
8.842675027705036 2.1111112542080366 2.754638865530425 40 50 25
9.082014649058046 1.7542674367534439 2.6943851605053353 40 48 25
8.679095909230966 1.472064814836446 2.8038856063228166 42 52 26
8.679095909230966 1.472064814836446 2.8038856063228166 42 52 26
8.704010783748718 1.8161534074453234 2.795826536776991 42 51 25
9.387453089280797 2.6763995560648937 2.9355404769283346 43 54 31
9.256952931794745 2.264543762574687 3.0202380870783276 46 56 32
9.19428590470125 -0.4542372567399051 3.1072779051770416 48 58 33
9.531393490226838 2.3156804893933107 2.8726936989046585 41 52 26
9.130019589526869 -0.25263826102632647 1.9275919178264007 3 9 6
8.477307294586861 -0.7714817524746275 2.087627650978317 35 44 30
9.1340922397834 -0.6854817348630906 2.047212809845879 26 35 22
8.96910897732149 -0.40685363536513786 2.056729126560832 21 28 19
9.365987907582307 -0.5167036874414617 2.034476902171353 14 21 13
8.477307294586861 -0.7714817524746275 2.087627650978317 35 44 30
8.914803283450889 -1.0303349097935663 1.9366058816594063 40 49 32
8.124515274693822 -1.0796178882325724 2.1124858720834396 36 46 22
8.577566701970259 -0.9615406464691282 2.080996763979121 34 44 23
9.14674111793983 -0.9336327699660525 1.8124477138360355 36 45 30
9.337217419687734 -1.1873182123756874 1.9193330409055942 41 47 32
9.782890657488032 -1.2258584920966797 1.6926232252194664 40 46 30
9.782890657488032 -1.2258584920966797 1.6926232252194664 40 46 30
9.494105936756283 -1.3259361757472428 1.696348166358526 30 39 20
9.219774584138131 -1.539788712954236 1.700104573054512 33 43 14
7.851064080272696 -1.670840604221926 1.989056083840467 38 47 21
8.600661147284564 -1.7786690517702792 1.8281275752636355 36 46 20
9.243232189245477 -1.6490469304150166 1.6997745785051792 31 41 12
9.304361636368998 -1.4312631622220227 1.6989225109304684 33 43 19
8.585898905101699 -1.2612000198431745 2.080453760243824 35 44 17
7.823433342884943 -1.5311092911545447 1.9906264676269458 38 48 22
9.625319825092221 -0.15504600850937542 2.2691771873520854 39 46 36
8.445343218798007 -0.25976376768333526 2.5891082824901472 40 50 27
8.895766779053563 -0.3337412706752292 2.740246566998508 39 49 26
7.899289197957124 -0.7681775115468001 2.287467651645632 38 48 26
8.136929048294427 -0.9000869577409997 2.4350189404759193 39 50 27
8.154734991223462 -0.6323250489825575 2.432464723840987 38 48 25
8.732454428800903 -0.46322498753266494 2.207073935166716 35 42 29
8.466143364653774 -0.8758920693235962 2.2305179739505796 38 48 26
9.075058859049163 -0.3280285663940784 2.3212424089376777 35 43 28
8.187413122787367 -0.5772661412729296 2.6425468793110065 40 50 29
8.637165954247175 -0.4630275988439584 2.554073798589389 38 48 27
8.466143364653774 -0.8758920693235962 2.2305179739505796 38 48 26
9.126733943689946 -1.1526183668351846 2.4778175954310386 38 50 27
8.865470446899876 -1.7093524433953662 2.516458434984536 43 56 27
7.501611227114936 -1.8932029758502371 2.3346383269756714 41 54 27
8.577165295673 -0.4624842367409959 2.8395456763400553 41 51 28
9.347652593743138 -0.725579962923369 2.957015761585395 42 52 29
8.863097071966417 -1.182598439820486 2.749023115319997 43 55 31
8.577165295673 -0.4624842367409959 2.8395456763400553 41 51 28
8.36178963481329 -1.1526183668351846 2.4040709970375183 39 49 22
9.062085399350162 -0.9417972205195587 2.6989926263547868 41 53 29
9.179564328822638 -1.5024103398427007 2.6727159793046047 44 57 31
8.393661701723358 -1.2700705306727988 2.599177574599121 42 54 30
8.048957804637787 -1.5156889635965693 2.447921006603498 42 52 23
10.394981931744612 -2.555997311285678 2.9421254774268606 47 59 36
10.414713973760268 -1.4390121272963026 2.9329609280105524 48 61 34
10.414713973760268 -1.4390121272963026 2.9329609280105524 48 61 34
10.435485857267102 -1.8941229353313696 2.923758854063935 49 61 37
8.069565460339337 -1.687002482525634 2.2692284057854097 41 50 23
8.042685421966803 -1.5246524593697734 2.2720378495166207 39 48 20
9.643572803885048 1.9679138695518086 1.4865862335300544 24 32 10
9.304052799820465 1.8682542541493155 1.483505580514323 25 33 11
9.009651086900117 2.265410275352998 1.7031378302671512 39 46 21
8.600898318539164 1.9034985023462694 1.8281203184241042 33 39 17
8.600898318539164 1.9034985023462694 1.8281203184241042 33 39 17
7.835513704004128 2.248368075233982 1.853916415085715 38 46 21
8.03927932751376 1.947768803226904 1.9786735475909696 34 42 20
7.638057584601169 2.1358777598983205 2.0014863800305682 36 44 21
8.993537917169961 2.4240616472751504 1.7033763362283052 36 46 21
8.429893832532791 2.067202477383774 1.9587355178645132 35 43 21
7.9641435074719755 2.3410523955835547 2.124647513713459 37 45 20
8.153706712137803 2.43684205680741 1.9726172988308917 38 47 19
6.926846979934385 2.5962514894004394 2.2202233404046305 40 50 24
7.3962419812711016 2.4555332080479935 2.1728685924324345 40 49 23
8.186989110020562 2.3370570143097176 2.4278852987115576 40 50 24
8.826257032598336 2.5408152248050095 2.759229495591835 41 51 25
7.459828691435483 2.3370570143097176 2.340016798246444 38 47 21
7.6117759127335525 2.080353527221019 2.3208666764710273 37 46 20
9.08988446392926 2.3301981027442005 2.6925833956275507 41 51 27
8.583784183420246 2.4854391922760866 2.563478490014167 42 52 28
7.945291464413717 -1.9344273064982866 1.8498989823497454 38 47 21
7.912416570216645 -1.9874371803714461 2.128695452058734 40 49 23
7.8524956109883925 -2.115219572829136 1.988975054167637 39 48 20
11.361531329830097 -2.7389487406836728 1.948394754540368 39 52 25
10.88164943688239 -2.9450219225005956 2.5763105813051133 43 54 30
11.581027848472525 -2.833361007165751 2.487239751280706 42 54 31
11.046233434206156 -2.7044744492413355 2.4058420494466053 47 60 33
11.581027848472525 -2.833361007165751 2.487239751280706 42 54 31
10.673253493609703 -2.589382151850825 2.3097852915318784 47 60 31
11.429425040882801 -2.715928335389143 2.6713532253360235 45 59 34
10.606071246379651 -2.744760905905537 2.8601805312590245 47 59 36
12.200541752853225 -2.4403346632076492 2.731490347181803 51 65 41
11.877072648053607 -2.783634912622372 2.6018883118889913 44 56 33
12.195601244271684 -2.904758020412647 2.7324231551283926 45 57 33
11.982337227152547 -2.619477110335727 2.7756323115259924 49 63 39
11.453616332968075 -2.829174335791513 2.0409615891690236 40 53 24
11.003391496394508 -2.755314188964499 2.2827742829180755 42 55 28
10.722578583475375 -2.6493263094561836 2.1860692714630154 43 56 27
10.760939121889777 -2.8712569544252813 2.3023849491170716 40 52 27
8.68384541294441 1.12447498910601 2.074160759290525 23 26 16
8.999919630862 1.4089681109015963 2.0549218142720935 26 30 17
9.104273378140906 1.7621332684278408 1.701754422375769 28 34 13
9.272142422636824 0.42734992784113796 2.3016017648693508 26 30 17
8.527502072459217 0.9767816611775713 2.3829268673538966 31 35 18
9.281591533218354 0.19849592446081055 2.651459914139346 36 43 22
9.007158785640272 0.63115461270714 2.32829473775581 29 33 20
9.721453387830852 0.63115461270714 2.403101991748998 34 38 24
9.275096335654785 0.7168556118676871 2.652774009932639 34 39 21
9.758872861731277 -0.04212790992052662 2.7981222600870725 38 46 26
8.858574894970207 0.7438394522122922 2.1965962926741205 32 35 22
9.92159411735923 0.33876164017158916 2.5416334086465175 33 38 22
8.554172645313184 1.692437540817531 2.379643389391978 35 43 20
8.528820066330399 1.5224766300720742 2.3827638560889657 37 43 21
8.154558804609863 1.1993209177168263 2.2605091063234024 32 37 21
9.507464636563759 0.36080363998284654 2.8819835614324414 38 46 24
9.649615027429924 0.6839733550736152 2.831328117472578 38 46 24
8.768900038182975 1.1491827929251779 2.7758379501959345 38 46 24
9.650779777077354 1.8161534074453234 2.830951911286346 41 51 24
8.683048539757241 1.5125581121473957 2.5461858818002012 38 44 21
9.379832942092838 1.419694294206367 2.9394640303982134 44 54 28
9.709343667914771 1.1491827929251779 2.8126823677076267 40 47 25
9.27910531114955 -0.10742443567094455 3.002021764040067 43 53 29
7.89289787649884 -0.8758920693235962 2.1302393795071497 37 45 25
8.477307294586861 -0.7714817524746275 2.087627650978317 35 44 30
8.611319725045766 -0.582411159303433 2.0788046067603703 33 40 27
8.963480512777766 -0.5167036874414617 1.9345265098509867 4 12 4
9.782890657488032 -1.2258584920966797 1.6926232252194664 40 46 30
9.052787499920557 -0.7737221620772723 1.8150064683667546 29 37 27
9.333538774881987 -1.7564717183629797 1.48378204359453 31 40 12
8.731493599749879 -1.2972525074328558 1.8241863378516912 38 44 23
8.281537046502606 -1.5311092911545447 2.101115472093628 37 47 21
7.627138261409363 -1.843471907849158 2.1522106524852935 40 49 23
9.219774584138131 -1.539788712954236 1.700104573054512 33 43 14
9.494105936756283 -1.3259361757472428 1.696348166358526 30 39 20
7.465931967053434 -1.687002482525634 2.1664681810272644 41 50 24
8.413666930488215 -0.3845831036036729 2.397309684059151 37 46 28
8.76610393203311 -0.752608273208132 2.7766717000999734 39 51 28
8.355752087798486 -1.2146635784898543 2.240806760333853 37 47 20
8.145711989682379 -1.326028436500761 2.433756701794301 40 50 21
8.721617100922284 -0.5360012179951918 2.3597289245771407 37 46 26
8.503560858904924 -0.7628159812496568 2.5781017676914475 40 51 28
9.615488871572204 -0.1792312264714982 2.4152896454653656 37 42 26
8.688292581105143 -1.0021916239528372 2.3635992524996827 37 49 26
8.841010593980236 -1.5156889635965693 2.5203022394343906 42 55 28
9.203124425377355 -1.7422426079924445 2.6676871389789802 47 60 33
8.60351433084139 -1.0665947788384 2.5599731877371257 41 53 29
8.445343218798007 -0.25976376768333526 2.5891082824901472 40 50 27
10.277283271337453 -2.132575898966771 3.0103308682246204 48 60 36
8.776719388575827 2.012405267269805 1.706671625443425 33 39 16
8.475162118073067 2.3436677280032043 1.83202651043616 37 47 23
9.169850302254442 2.1111777644197955 1.5913949889424839 34 40 18
8.429893832532791 2.067202477383774 1.9587355178645132 35 43 21
8.273489369400888 2.3436677280032043 1.7149922260892105 38 47 21
7.599983341131091 2.547491840827386 2.003789376328089 39 48 22
8.575446605717634 2.515056325060782 1.828901445770051 37 46 18
9.08988446392926 2.3301981027442005 2.6925833956275507 41 51 27
8.826257032598336 2.5408152248050095 2.759229495591835 41 51 25
8.00513223048491 2.4555332080479935 2.276005766057165 41 50 24
8.308997165881284 -2.115219572829136 2.099178776414101 39 48 22
12.541384173411606 -2.554465260925568 2.6728923985652195 50 64 40
10.955776687152664 -2.6983272308610844 2.0641926415069443 41 54 26
11.877072648053607 -2.783634912622372 2.6018883118889913 44 56 33
12.329213411535632 -2.715928335389143 2.708111595588652 47 61 37
10.326738425124493 -2.7044744492413355 2.3408053335944388 44 57 30
9.217713738232689 1.4269634796165933 1.810550455993 15 20 4
8.655639811469559 1.785768629723562 1.9481005631229005 33 39 17
9.096956135761861 1.175161494558761 1.9289470393684536 12 15 7
9.21627657428705 0.733651207039865 2.465492932218 35 39 23
8.607334750310327 1.5295100015835144 2.2178562020838974 33 39 17
8.842675027705036 2.1111112542080366 2.754638865530425 40 50 25
9.746366353951373 -0.026190300734077382 2.568443771412799 35 43 23
9.402891254478819 1.938228249004651 2.9278276497273863 44 54 28
9.337221016970311 1.0367809864287878 2.6404079561006935 36 42 21
9.058139553115785 1.4975251166029053 2.6999126109811096 39 47 25
9.58665734046601 0.136271190227992 2.4186818395909135 34 38 23
9.31799236625008 0.5912101530549593 2.9749248142692153 43 51 29
9.233530184034654 1.2529645669868468 3.0432027458876947 47 57 33
8.338965249097633 1.9890823548788807 2.610160479246413 40 50 24
9.558763941922843 -0.019000630573756887 2.2750370853563737 40 45 35
9.427148442217382 0.4099748056094646 2.6232630653234414 34 40 20
8.720888398714896 -0.6854817348630906 1.9451373049589118 14 22 17
8.704240691911812 -0.8601114359395601 1.94588880971173 39 48 31
9.178401274667857 -0.6144014861978014 1.8115976323055911 1 8 5
9.514890351387724 -0.4633270438305648 1.8029224461962898 3 9 7
9.414566975865295 -0.3621651053373059 1.9163492172740897 2 8 5
9.304361636368998 -1.4312631622220227 1.6989225109304684 33 43 19
8.00451779400436 -1.8067825203895496 1.9805508500767817 39 48 22
9.351908396111812 -0.13657589944363327 2.0352298674422884 5 10 5
8.375604929234116 -1.3929018013012389 2.094542737881431 36 46 18
9.19488166270731 -0.2855731209066702 2.170407989034164 33 40 30
8.503560858904924 -0.7628159812496568 2.5781017676914475 40 51 28
8.136929048294427 -0.9000869577409997 2.4350189404759193 39 50 27
8.929186435554277 -1.326028436500761 2.506637593137242 40 52 26
8.006789705796914 -1.0021916239528372 2.275829566617207 37 47 24
8.106643587065777 2.1358777598983205 2.113812956924831 36 44 21
8.609207940788016 2.1730048592333717 1.8278663261735963 37 45 22
7.6429252911048655 2.6774807183175087 2.150853778703746 39 49 23
7.486643789147228 2.3410523955835547 2.010798724404353 38 46 23
7.9641435074719755 2.3410523955835547 2.124647513713459 37 45 20
11.361531329830097 -2.7389487406836728 1.948394754540368 39 52 25
7.791486952101065 -2.0571201743630225 2.299585692486051 41 54 27
10.068004413141347 -2.833361007165751 2.3660362502320753 42 54 29
11.141363281164473 -2.795991452870917 2.159743858944477 40 53 25
10.90197973420291 -2.901016703119298 2.1744855044815177 39 51 26
11.28516473638067 -2.904758020412647 2.697161819885225 43 55 31
8.220380816351337 1.8159328157711239 2.1054832489861726 34 42 19
9.028291486316444 1.7621332684278408 1.59171801179413 28 34 14
8.381699521686542 0.9397192637713653 2.0941228364362368 29 32 22
8.912443620240156 1.5347567732612828 2.0600902560004086 31 39 19
8.973802766932856 1.1316878072772827 2.499919658507579 34 40 19
9.891322284694416 0.8972975055413787 2.7624527176817675 37 43 22
8.96997825848319 0.8972975055413787 2.7211787348798766 37 44 23
7.90257447188784 1.717132481749636 2.4705060998287163 36 46 19
9.737368269793755 0.25023493337173147 2.259555445810183 18 23 14
8.607334750310327 1.5295100015835144 2.2178562020838974 33 39 17
9.81235496481246 0.1036411076995376 2.1279944243349562 6 9 4
7.5414815714620556 -1.3646802954216033 2.15969355264268 38 47 19
9.782890657488032 -1.2258584920966797 1.6926232252194664 40 46 30
9.16840197211447 -1.6490469304150166 1.5913982433683436 28 38 14
9.347652593743138 -0.725579962923369 2.957015761585395 42 52 29
10.435485857267102 -1.8941229353313696 2.923758854063935 49 61 37
8.483258331029289 -0.6644606204586111 2.2289540305609137 37 46 28
7.486643789147228 2.3410523955835547 2.010798724404353 38 46 23
8.600665052636467 2.1838532466401976 2.560477248801692 41 51 25
8.023230675211513 2.2234949837967366 2.2740871583252993 37 46 20
8.286272920183215 2.004777910780305 2.2474674600135987 36 44 21
7.784195062150678 2.1838532466401976 2.489896715784738 38 47 21
11.43867966109669 -2.9736954726545326 2.5036385927991964 42 52 28
11.429425040882801 -2.715928335389143 2.6713532253360235 45 59 34
11.22089628616734 -2.924967150061576 2.0515296271452277 39 52 25
11.844812864173784 -2.844359254939726 2.807237774121093 47 59 36
11.51999173529379 -2.2471956083016384 2.9012524815617002 49 63 39
11.45318983371223 -2.8712569544252813 2.367400771206084 41 53 29
7.573569545825625 2.5962514894004394 2.3255773166707807 42 52 27
10.55141995179824 -2.2471956083016384 2.8786912309909876 50 64 39
8.479788647402188 -1.1396825719531927 1.9563322238441567 35 45 23
8.884184330748498 -1.843471907849158 2.341467520159463 42 53 27
16.08654646553235 2.3006080999298653 1.133595596567663 27 37 14
9.615488871572204 -0.1792312264714982 2.4152896454653656 37 42 26
16.327517315616205 2.3494727791822667 1.2069086767920871 28 37 14
10.322720532081217 -0.022023636331625858 2.486984148084268 36 41 25
8.895766779053563 -0.3337412706752292 2.740246566998508 39 49 26
8.796183934851324 0.8661373875839468 2.5274569835198704 32 36 19
