15.909038014874051 0.6035959296680802 1.0958866998606478 9 11 10
10.031445053784024 0.5268523604948067 1.6431784933824796 26 27 19
9.891688076710903 0.667687512624467 1.7461290138244316 33 34 22
11.433375239561503 0.9866193875552586 2.312702142973648 29 31 9
10.782909701664158 0.9866193875552586 2.244282984186381 34 36 14
11.31182540367099 0.8181231938286975 2.3225962782021448 31 33 13
10.181655999419847 0.8939935547908698 2.0534320603516196 34 36 14
10.76860954884851 0.8133412457502215 2.02507959251321 27 29 11
12.113357365416107 1.3404980863599005 2.502891998460227 32 37 12
13.19015195327414 1.6290288684839294 2.6658567751387414 42 45 16
13.688298950356316 1.6405697456409458 2.764285204089452 44 47 18
13.19015195327414 1.6290288684839294 2.6658567751387414 42 45 16
12.974009980337328 2.008059632965252 2.6992832758871503 43 46 17
10.481660863699336 0.3957251481067235 1.6400643882777992 10 13 6
12.159288610586097 0.2545422093378058 1.7131819538504374 10 10 9
11.935148285917302 0.20744744839812704 2.169413519985101 4 6 5
10.777592010009496 0.30435944728301273 1.9237464259132255 18 21 13
12.145339548046628 0.30435944728301273 2.157655600037518 25 28 22
12.39815179571848 -0.10012059134206328 2.243514372897635 1 2 2
11.690090567295938 -0.09077240806582244 1.986931149941004 4 4 4
11.695350945251837 0.09649816624494205 1.98673237924159 8 8 8
12.00221624233877 -0.08301714581081787 1.7998746799037886 5 4 3
12.516096029480062 -0.2013351546923394 2.2360291104303824 0 2 0
10.953406566808248 0.4850175238230014 2.231923087476921 32 33 19
9.341385895581073 -0.7316230963468149 1.8668650710975352 15 20 1
10.015859470272977 -0.8130068202617768 2.1792993154695974 43 47 22
10.3457296813389 -0.4787027531144068 2.1572530072329053 0 3 0
10.422362061785641 -1.0221805921249796 2.4057110196962146 47 51 25
10.083440969420945 -0.6418562177379333 2.174637475856815 9 15 2
10.27237493350252 -0.576170714827773 2.048810316886485 0 2 0
10.619245202114502 -0.8130068202617768 2.2566422223094404 47 50 24
9.09801771349379 -0.6418562177379333 1.9926812524937179 0 4 0
9.519444905334604 -0.576170714827773 1.8611644059117456 1 4 0
11.250594983706659 -1.2199683023621444 1.9083023305933777 43 47 17
10.858065755106026 -1.042750942868328 2.1262167054780607 43 48 19
10.349550477294308 -1.0885241302408706 2.2781590492514465 47 52 25
10.139280303027975 -0.8896992943285859 2.0556231602757835 40 45 18
10.454308642779077 -0.9542041710165374 1.9351621142997968 35 40 12
10.767275808808158 -1.092646342316194 1.9240993917789417 38 43 13
10.774429142756995 -1.184467765507624 2.024815837600423 46 51 22
10.630881645103443 -2.393222806908204 2.3843024799511316 50 52 26
11.009376729056116 -2.3872163499081407 2.2279743443242723 50 52 26
10.76012639134313 -2.5830492506583234 2.371680011400468 50 52 26
10.225909139377016 2.496053690656382 2.4271818785318606 38 43 14
10.688824497891039 -2.200721781586471 2.3785852177046243 51 54 28
10.428588026569434 -2.3872163499081407 2.1519830608223423 49 53 27
10.207343846148705 -1.7055500271351798 1.7406533351629019 48 51 21
10.12357155941217 -1.6060485402403328 1.7420727459847796 50 53 22
10.662335077848477 -1.5058461466958826 1.927731397767266 54 59 30
11.11497420584658 -1.7055500271351798 2.0099172281599373 51 54 26
11.154960769618251 -1.406928852279148 2.008234160112594 54 58 29
11.118098601417405 -1.4896103356751884 2.3390142637538536 51 56 29
11.410774818604471 -1.24994939874862 2.314519075143007 49 54 26
11.104741500179577 -1.6148852912673364 2.3401771103253886 52 56 28
11.331218529839719 -1.3890392308198256 2.206239243710007 52 57 30
10.669026526726856 -1.311135270464961 1.82911536138448 48 51 22
11.216186870809738 -1.6099750639056354 2.2138240682218706 53 58 30
10.736260526431385 -1.2076364141527574 2.373975587460166 47 52 25
10.901763274078531 -1.982367772088061 1.637391092120703 48 51 22
10.387157246738912 -1.802445670890844 1.7376850614942367 48 51 21
11.01436721580046 -2.1869720733318427 1.6367092764615454 51 53 27
11.157869797241837 -1.8951177330799642 1.9112201875887833 51 54 27
11.497879182143654 -1.982367772088061 1.9007647274506887 51 54 27
10.930978626876641 -2.0190560528441504 2.3556893701842356 52 55 29
11.031497636195938 -2.3098595224723972 2.116489326801854 50 54 27
10.850372182470783 -2.2437125833401814 1.9212766254611464 51 53 28
11.032391470214344 -2.0225074117334962 2.013436125707526 54 56 30
10.89762610555581 -1.827208051643957 2.123965429574163 54 56 30
11.233054091942707 -2.2437125833401814 2.0049854427698706 51 53 27
11.156227947270635 -1.928404912346066 2.1097145710303256 53 55 29
11.594170328692053 -1.9689042572347755 2.300063175629988 53 55 29
10.547180303902156 -2.3098595224723972 2.035358044451346 49 53 27
11.323344940133635 -2.1869720733318427 1.8138773792401732 52 54 28
10.9532578658748 -1.9689042572347755 2.2319336484177055 54 56 30
18.49530912585701 -1.9796170173942447 1.5559522269520987 32 29 4
12.285347821267985 0.003556019314402802 2.3606259744812297 14 17 11
13.05063947450079 -0.1116063618906365 2.4116456705080673 36 39 30
12.328474326535495 0.11862457002438713 2.3571029644433334 22 25 18
13.01463402573845 0.003556019314402802 2.41474275108512 36 39 29
12.442136264665825 -0.22388301852383788 2.3479925570065623 20 24 15
13.172511999561557 0.3451361385879492 2.6684626327491854 39 44 19
14.134786296543739 0.7143518899457343 2.6912408875619067 42 44 20
12.164356035786815 0.4277172750332086 2.4972670519872153 36 38 19
13.172511999561557 0.3451361385879492 2.6684626327491854 39 44 19
12.781274481414103 0.296448615881026 2.566523127816586 37 43 20
12.53821687322011 0.2595250192162586 2.458565376861471 34 40 20
13.479202084789765 0.004625740059754155 2.625781722445883 38 44 21
13.278208709475807 0.27534484806347154 2.8520411664405327 48 51 22
13.055786619276619 0.18049938461193973 2.6862371512313343 42 47 20
13.21348939394003 0.13395988325841054 2.5178628270526118 36 40 21
13.699239664592305 0.4118816062802816 2.7622750378746987 43 48 21
13.363254862087455 0.49247153910256874 2.641296859950243 40 42 18
14.521872142661074 0.6931845304473071 2.8088743935953677 46 48 23
14.763003713956945 0.8351460163638617 2.7644488682676056 41 43 19
11.12624107200646 -0.6125480442662078 2.472240609996689 48 51 26
10.256684402980586 -0.8274898268519444 2.588130871661085 50 52 26
11.06503048061159 -0.8187441717464229 2.479263615409863 47 52 25
15.729423724501062 3.054341764533689 3.1191534482886794 50 53 22
14.86898985242587 1.7422265968472488 3.0025367291374994 49 52 23
15.265610552386747 0.8526195371131462 2.8747822763189848 47 50 21
15.813172668675852 -2.519469767589328 3.036219974792366 51 54 25
15.817061867185654 2.490059173986995 3.033920128990926 49 52 23
14.95595281757741 0.8889460248366342 2.9658033920719946 48 51 22
15.763130362824754 1.8995148060048908 3.072448113776811 49 52 23
14.399743511891046 1.1825899296490843 2.8343602165111275 45 48 19
15.77254296429199 1.0092756896928665 3.0643092418071487 50 53 23
10.175676948575763 -1.2504951929674804 2.6011526907184073 50 52 26
10.384663407487277 -1.0811285982857126 2.5684961486536135 50 52 26
11.416661312116696 -1.6296275300038312 2.5903337765541536 48 52 25
10.898611193922576 -1.1532131426105647 2.4990976861902903 49 51 25
10.657973309038542 -1.7934662321578474 2.5299039794470892 49 53 26
10.591792129108098 -1.4625944008623037 2.538869336119183 48 51 25
11.416661312116696 -1.6296275300038312 2.5903337765541536 48 52 25
10.927106828712388 -1.6414305319751517 2.6682094990721468 52 54 28
10.699667902849386 -1.3013598686090289 2.524370296725268 47 51 24
9.944985782660329 -0.9824009661194754 2.641156106885717 51 53 27
12.05234109749677 -2.0127974374141853 2.6679377825396307 50 52 26
12.28666322503309 -2.1641785255526087 2.6319839196683046 51 53 27
11.27395336217423 -2.7889955691394803 2.611279928836889 48 50 24
11.090479232482235 -2.082406973631132 2.4763266943212487 51 53 27
11.490888402641845 -2.635044926939325 2.5799156042434577 49 51 26
11.651029571051815 -1.9460762150590643 2.5584386012057454 51 53 27
11.89326100531283 -2.082406973631132 2.528250708735849 51 53 27
11.432493030004025 -2.200721781586471 2.4390724467806595 51 53 27
11.675634203798971 -2.1056465851798305 2.735368530459369 52 54 28
11.41201359097675 -1.8962230242274996 2.4411948095226697 51 54 28
11.172632619517046 -1.6212014691418732 2.467009838190991 49 53 25
11.18590865221621 -1.4780237303340353 2.465527164399557 47 52 25
18.993172231198297 -2.1005599823206245 1.3437953430060843 30 25 6
18.993172231198297 -2.1005599823206245 1.3437953430060843 30 25 6
19.68152761077657 -2.2606741058505193 1.403642911782257 32 23 5
20.47875592021737 -2.3696938997523596 1.3605198812605954 25 20 1
20.156420801039754 -2.3696938997523596 1.4577112069095377 27 21 4
20.098944047822048 -2.2991373172197997 1.5073406607886326 31 21 3
21.134308831997274 -1.940526487736036 1.8451330243167994 27 21 1
20.915956505943885 -2.093436045069612 1.7014734127641762 32 24 5
20.915956505943885 -2.093436045069612 1.7014734127641762 32 24 5
20.915956505943885 -2.093436045069612 1.7014734127641762 32 24 5
21.42849513693174 -2.134215465857405 1.6983305358161802 41 31 14
9.883614740831607 0.5818048450531664 1.9572795100847116 32 33 19
11.784573152132575 1.0921255796624334 2.40448252561028 33 35 13
14.161809879194196 0.9433422660704618 2.6873101244875413 33 35 11
13.254556794756756 1.79126844182814 2.656510048176978 43 45 19
13.750370737885458 1.8332627288728522 2.753053126696284 44 47 18
13.688298950356316 1.6405697456409458 2.764285204089452 44 47 18
13.201399216578928 1.4636894972951104 2.6642057509913992 42 44 16
12.289436902775888 1.2105446355436267 2.4838393708396755 31 35 11
13.254556794756756 1.79126844182814 2.656510048176978 43 45 19
10.243103286587624 0.436135816241487 1.9430381216216623 30 31 20
12.607737711287088 -0.08301714581081787 1.9549845337606298 6 4 2
12.403111876085731 0.10642776451345015 2.2431958129856477 5 5 4
12.525920818095958 0.20744744839812704 2.2354139123757415 24 27 21
11.390821056904395 -0.2013351546923394 2.097444332428322 1 2 1
10.2948517134774 -0.8187441717464229 2.41949379776455 48 52 26
10.937968064638769 -0.5382263740099171 2.3550512118191946 35 41 21
10.783357757559456 -0.7215190943168152 2.369460400058024 45 50 26
10.813069114362387 -0.9091616386450682 2.3666428591134894 49 52 26
10.422362061785641 -1.0221805921249796 2.4057110196962146 47 51 25
9.454044058431696 -0.7215190943168152 2.2213285646235508 32 36 15
10.146876370229261 -0.9825700081663546 2.170331481323207 46 51 24
10.96015327233294 -1.2199683023621444 1.8221034473985998 40 43 14
11.047700527781881 -1.1414649679804278 2.225300490335025 48 53 25
10.32219946870553 -2.082406973631132 2.4164909111631063 51 55 28
9.874599211931773 2.6262996926926134 2.469237872063922 43 46 15
10.207343846148705 -1.7055500271351798 1.7406533351629019 48 51 21
10.669026526726856 -1.311135270464961 1.82911536138448 48 51 22
11.118098601417405 -1.4896103356751884 2.3390142637538536 51 56 29
10.96718080284885 -1.311135270464961 1.9173857600755564 48 52 22
11.181165013574454 -1.7387976358672712 2.3335786479506733 53 56 29
10.72637345338678 -1.7203618912264431 2.1338541054412556 55 57 31
11.331218529839719 -1.3890392308198256 2.206239243710007 52 57 30
11.03809242222876 -1.6060485402403328 2.0131913236090724 52 56 26
10.965510401328208 -1.2836777283752934 2.120147318049482 49 54 25
11.338060229114074 -2.063455925723961 1.634824897995721 48 50 23
11.12507136601267 -2.1869720733318427 1.7265218468404027 52 54 28
11.12507136601267 -2.1869720733318427 1.7265218468404027 52 54 28
11.318157183245129 -2.063455925723961 1.5465376902707626 48 50 24
11.06533779677786 -2.225646300903899 2.224077990771455 51 55 28
10.899306910865052 -1.802445670890844 1.919635800557417 51 54 27
10.899306910865052 -1.802445670890844 1.919635800557417 51 54 27
11.638447715557616 -2.063455925723961 1.8071688967698614 52 54 28
11.345555003425451 -1.857735410997079 2.319820289162254 53 55 29
11.17717606070133 -2.162157946971782 2.108594257197093 53 55 29
11.088999102383141 -2.1087557794088316 1.9134209710448997 53 55 29
10.68354186643336 -0.9374846642486323 2.5265002761427704 50 53 27
12.452019408535934 0.23063402446792314 2.347212072558028 29 32 21
12.452019408535934 0.23063402446792314 2.347212072558028 29 32 21
11.36448772483579 -0.4200308124716296 2.4461705090576635 47 51 32
13.518520517168717 0.15381295146343257 2.6206752046340864 38 42 19
13.055351659546357 0.11862457002438713 2.4112423974192194 31 34 22
12.323484205330214 -0.1116063618906365 2.3575087111099378 5 9 6
12.781274481414103 0.296448615881026 2.566523127816586 37 43 20
11.486833131971116 -0.7067492842411723 2.5804768636852833 50 52 27
13.882747405267082 0.5777778880649486 2.730384879489143 44 46 22
13.17326056195864 0.004020949965752273 2.5221194778153686 35 40 23
16.811614254578693 2.490059173986995 3.04031245559674 50 52 24
14.303423988778583 0.8526195371131462 2.856348162027891 45 47 21
16.780013877057513 3.118842482292475 3.060937154923729 50 53 24
15.048096227997858 1.360028241074201 2.9341456379368767 47 50 19
15.783470403554086 3.118842482292475 3.0558325469523817 50 53 24
15.77254296429199 1.0092756896928665 3.0643092418071487 50 53 23
10.062185082612377 -1.44104356046833 2.620255466911348 50 52 26
9.72655691867821 -1.1771727344400982 2.683904219518366 52 54 28
10.210556794596842 2.5332387250023363 2.5954862515943873 44 47 17
11.090479232482235 -2.082406973631132 2.4763266943212487 51 53 27
10.978528153495033 -2.5034275927096075 2.489433705730903 50 52 26
11.27395336217423 -2.7889955691394803 2.611279928836889 48 50 24
11.36995342455224 -2.4021116618410745 2.5970519759103845 50 52 26
11.917365536723766 -2.2720232999351677 2.690534057139418 51 53 27
11.248594886725506 -1.7623538172399562 2.4586098106375234 50 53 26
11.288108127616185 -1.3385375667812263 2.454318751195454 48 53 26
19.599808254325314 -2.1758106048323027 1.1905454548223382 31 26 7
19.513008644236276 -2.2196054613035807 1.297082666574049 30 24 5
19.166262393791932 -2.145919168910118 1.4518420353533215 29 23 3
21.06960285085866 -2.093436045069612 1.7485478725835482 34 26 7
10.711759464405448 0.6477655238114084 2.2495944190286785 33 34 18
13.19015195327414 1.6290288684839294 2.6658567751387414 42 45 16
13.19015195327414 1.6290288684839294 2.6658567751387414 42 45 16
12.037618119612562 0.27728782510015526 1.9742075853387202 5 6 4
11.408858277086074 0.3618626083268688 1.6344270277742416 7 10 7
12.090105596580505 0.0028881270884755597 2.0641315885193934 4 6 6
12.360245793680162 0.003187462060812231 2.2459600142903593 2 4 2
10.340051452034949 -0.5215219595428812 1.8375312159521258 4 7 4
10.327192747984576 -0.8089536184081348 1.9398608818985172 31 36 8
10.50085158893283 -2.4776986944801735 2.2659043767224043 50 52 26
11.133469199745715 -2.3016887222584055 2.3376811865766234 50 52 26
10.930978626876641 -2.0190560528441504 2.3556893701842356 52 55 29
11.22941141137655 -1.498628578733164 2.2129419778644372 52 57 29
10.658151947849664 -1.8951177330799642 1.7334034325670649 48 50 22
11.220915703981952 -1.3668256549215803 2.330198267131545 50 55 28
12.410574441514344 -0.126053141699609 2.4713055218109377 38 42 26
12.53821687322011 0.2595250192162586 2.458565376861471 34 40 20
13.587040121285735 0.2182122855165331 2.7835609141792177 45 50 23
13.547920546228395 0.006615934147870661 2.791359599670799 45 50 23
11.424148347732777 -2.1641785255526087 2.5892687779854358 50 52 26
15.813172668675852 -2.519469767589328 3.036219974792366 51 54 25
16.760883227616098 1.8995148060048908 3.0765701908417133 50 53 22
10.591792129108098 -1.4625944008623037 2.538869336119183 48 51 25
10.591792129108098 -1.4625944008623037 2.538869336119183 48 51 25
10.699667902849386 -1.3013598686090289 2.524370296725268 47 51 24
15.817061867185654 2.490059173986995 3.033920128990926 49 52 23
10.591792129108098 -1.4625944008623037 2.538869336119183 48 51 25
11.491010520861645 -1.7934662321578474 2.5798987166874676 50 52 26
11.18590865221621 -1.4780237303340353 2.465527164399557 47 52 25
10.144034872033934 0.7367219192529801 2.0553762801377906 32 33 18
12.321769902944776 1.4636894972951104 2.6269086465861813 38 43 16
10.107588531341737 -0.7316230963468149 2.0572755107565603 22 27 3
11.462626842427474 0.18844662817299213 1.901818215388189 8 9 9
11.800984713798352 -0.10012059134206328 2.1771890062547405 1 3 3
11.367164994505726 0.33706706034508443 2.203909091557088 30 31 19
15.817061867185654 2.490059173986995 3.033920128990926 49 52 23
15.124220072853756 1.0726512204131717 2.9114532023979565 48 51 22
10.898611193922576 -1.1532131426105647 2.4990976861902903 49 51 25
13.699239664592305 0.4118816062802816 2.7622750378746987 43 48 21
15.869298021366527 1.2617300135012985 3.0068529078700377 49 52 23
10.94364678759331 -2.290024354389513 2.4936192232360934 50 52 26
13.01507034623984 0.005444669688894217 2.692668108528971 43 48 19
20.030610300999122 -2.333590597556153 1.304330353936214 31 23 4
10.464378084115246 -2.3016887222584055 2.26881467368908 50 54 27
11.154960769618251 -1.406928852279148 2.008234160112594 54 58 29
10.617840330398165 -2.128962668905331 2.25675050840082 52 56 29
10.138221433938405 -1.5058461466958826 1.7418228056197773 53 56 27
10.89762610555581 -1.827208051643957 2.123965429574163 54 56 30
10.219055724264148 -0.4302770491435665 1.9439570835799522 4 6 2
11.299425877066454 -2.0705996174223342 2.2083158599586286 54 56 30
11.004764010239555 -1.8363617237162688 2.6546131039635465 51 53 27
14.548176721956516 0.9894793679755469 2.8036810871491795 40 42 16
11.515957050369265 -1.8989954609975324 2.768917708205497 53 55 29
14.548176721956516 0.9894793679755469 2.8036810871491795 40 42 16
11.686836105701103 0.5450190984952759 2.4137422247844356 34 36 18
10.653469278473297 -0.7067492842411723 2.530506968357336 49 51 25
13.69913723120383 1.4426125468258262 2.7622937963533825 43 46 17
10.94068080016605 -1.44104356046833 2.6657930626940933 51 53 27
13.278208709475807 0.27534484806347154 2.8520411664405327 48 51 22
11.632096812582384 -0.48397804089425517 2.5609105170878665 47 49 24
10.122822528208363 -0.9091616386450682 2.297468622381295 48 52 27
10.830307582481158 -1.9460762150590643 2.5075723648240933 50 54 27
11.992391869682931 0.37727725049562694 2.385588855064894 32 33 18
20.068189436094205 -2.3696938997523596 1.5072432835916978 32 22 4
19.634146509513187 -2.188760672699517 1.5058363880678343 30 21 2
