11.405232543932632 -0.06446074765127405 2.41731848867013 6 8 8
12.055781161843697 -1.2135260960105012 2.144407636553502 59 64 47
12.378487186541703 -1.0846803223523924 1.8610190197305934 0 2 0
12.363822496975539 -1.1943037217365386 1.614672029196272 59 63 45
12.551392818638549 -1.1754875928184012 2.3193579514505123 55 59 42
12.765059656551104 -1.1213211372935756 1.6132920638791861 80 83 73
13.634311119176978 -0.7817698428160581 2.2478886563168574 10 9 10
13.103390302857003 -0.8443182946937788 2.0935671457355793 6 6 6
12.228471215151917 -1.0794611514656682 2.2354438291439993 49 52 47
12.78691474091672 -0.9671395507441428 2.0190973585573637 2 3 1
12.858152755446778 -0.837794523124342 1.6910328639125711 6 6 5
12.378644993831992 -1.245126887136307 2.0350219768831703 50 56 35
12.635207526064416 -1.128973731810902 2.4267782823954946 65 70 58
13.255291180692774 -0.9923609279430227 2.271092701745709 0 0 0
10.551964187297973 1.6189740281278162 2.015809054909044 35 35 35
10.824909496750477 1.823711111944139 2.003817759069779 40 42 40
11.01946200758374 1.6189740281278162 2.0978110208830385 28 29 29
10.83531649524705 1.740491588127745 2.219048218207213 40 40 38
10.45164329313913 1.8519535691541105 2.1297271110558933 51 54 51
10.521914277694604 2.2808623889126953 1.9141628707214664 65 66 58
10.521914277694604 2.2808623889126953 1.9141628707214664 65 66 58
10.600672364943458 2.3525525431929832 1.6219755499655653 67 71 57
10.427614274203004 2.1409613086580435 1.8170829406163393 57 57 53
9.846855203104003 2.1063824830869087 2.0502496615273182 62 63 58
10.338177600153047 2.1991161968889954 2.025694881254786 65 65 61
10.145742851387851 2.268337619407914 2.148698844334835 32 34 13
10.730992788574131 1.956698076911185 2.1135264612979325 61 63 57
10.346262712567222 2.1063824830869087 2.1361104534047577 36 37 26
9.956294160783369 2.0022211337357274 2.161159398487852 42 43 34
10.629532924982046 2.053252541916432 2.0123316291428903 57 58 56
12.777445949000132 -1.5137976902458856 2.3030468557081747 50 59 32
12.383206888776336 -1.3090616567234767 2.225689658634977 52 58 37
12.781789096936446 -1.5070987324032008 2.4136640049026865 50 59 31
12.781789096936446 -1.5070987324032008 2.4136640049026865 50 59 31
12.618748167361696 -1.3330443724930328 2.1158435938059696 54 60 38
12.88932164345401 0.9054809150447338 2.68033398512789 0 2 0
12.172200896890741 0.42579326709756254 2.618135556955729 26 27 27
12.655608563093287 0.5054564959572955 2.7190037089346184 39 41 38
12.417281807491074 0.5650462363764677 2.5848900288043435 3 3 3
12.891502663173954 0.6584404307975332 2.6799937055869036 23 26 20
12.005667905697157 0.2665773991347406 2.642693965298288 9 11 10
12.57410830301819 0.7814129076823568 2.7336567116194197 16 19 12
13.568970438721486 -0.5009930425177164 2.7500899371849714 66 73 63
13.70458701500587 -1.025554450121974 2.4484678452522894 81 84 77
12.653578620728322 -0.3632928425666452 2.5555710057491305 1 4 1
14.067634717693577 -0.9336316370396301 2.417953035169931 0 0 0
13.491030526091267 -0.7776399000014933 2.764330687918142 44 53 36
14.557769960360803 -1.0710849764929875 2.6091181368870124 52 59 45
14.07641023156298 -0.3974933037314314 2.8652369401104187 42 51 35
12.495577806701613 -0.22349547097216307 2.5749021341376515 2 4 4
12.802855202845285 1.4729238612288813 2.6941138694655207 28 29 19
13.025558623308719 1.990286997233586 2.659716211961472 30 35 14
12.884141373527077 1.0206631072481054 2.910723356728934 44 50 29
13.115925882125637 1.157360736532959 2.844749821104922 60 64 55
12.803064384530838 1.3586470014565242 2.9394191393174376 47 53 30
12.644842617528342 1.227250984966399 3.014151409580772 45 54 29
12.644842617528342 1.227250984966399 3.014151409580772 45 54 29
13.787280243798694 -0.18925889023947473 2.952798412467864 42 52 29
13.787280243798694 -0.18925889023947473 2.952798412467864 42 52 29
13.025764228584501 2.3452278525428905 2.8682865919626765 45 51 25
13.106471220341605 1.9643361331336662 2.8471173377677035 44 50 26
12.874516497222789 2.096683651785976 2.913925594952497 46 52 27
13.033120468569026 1.7006206195327236 2.8662802673460126 45 51 32
12.717183737953963 2.3378489202072443 2.9755588670516406 43 53 25
12.717183737953963 2.3378489202072443 2.9755588670516406 43 53 25
13.9238083056531 -1.1370439928674303 2.6923601444542102 48 56 34
13.56093103532922 -1.0554490648518182 2.7515285332876096 46 55 36
13.177648601123314 -1.2435594666675118 2.4981141190146823 53 58 39
13.84385697999873 -1.3677611083292764 2.5566589109656372 51 60 31
14.20434382932218 -1.337513332584109 2.6529913709774737 52 58 36
14.20434382932218 -1.337513332584109 2.6529913709774737 52 58 36
14.20434382932218 -1.337513332584109 2.6529913709774737 52 58 36
10.77478589229409 2.4854122058663113 1.4350918789895402 42 48 25
11.221712060628484 2.4854122058663113 1.2575736360976748 56 60 41
10.220868800294339 2.6514594759451886 1.9247136316476032 32 38 13
10.961575907091717 2.6138619247442985 1.6202891029448183 36 42 17
11.071457292144235 2.563966437257227 1.9935474814196839 29 34 10
19.56612564648786 -2.3046938252014866 2.3352319200830642 64 74 50
20.271109183779572 -2.3046938252014866 2.370845447922031 63 73 50
19.66950689011697 -2.205525434028201 2.3302039670920003 62 72 46
20.271109183779572 -2.3046938252014866 2.370845447922031 63 73 50
19.665218428528366 -2.5041068041230607 2.330411009915065 62 72 48
19.86616690143125 -2.6004896450485897 2.3208477863200603 61 71 47
20.264209201030805 -2.5435991069669095 2.3026993302527585 62 72 48
20.426025651535582 -2.3545353911869187 2.514716110369878 62 73 49
20.56629880638339 -2.4599032309220754 2.4275442650808885 62 72 49
20.03119908366872 -2.41706975717866 2.5424627866352982 61 72 48
19.813038098270756 -2.099285261819925 2.1318621092081207 63 68 39
13.298879647578353 -1.0531321071651987 1.460964708450922 1 3 0
11.663040073515052 -0.3185272508437588 2.392672623895581 5 7 6
13.780290023162985 -0.8526948219782409 2.3356893668026997 5 5 6
11.491427960388519 -0.19465651653044502 2.408879833078127 7 8 7
11.964292863716894 -1.1621258841175381 1.8713744280957298 65 70 52
12.37157233928977 -1.013083820227846 1.6146445267961722 6 6 2
12.626109473505227 -0.8991555479916856 1.8551668951207316 5 5 4
11.888646095930898 -1.12433409271376 2.0557688654515043 97 101 89
13.10346484167372 -0.9141377383157631 2.184128703253379 4 4 4
11.578442687470305 2.2198205772623294 1.1755882981719115 70 72 65
11.83479144281837 2.290266222120743 1.2743073095321915 56 59 48
10.262528383668924 1.740491588127745 2.1412950326948206 43 44 43
12.152381399886057 1.5139556022185565 2.2403595452208607 30 30 30
11.087325569725815 2.009078061128944 1.8959882920867999 63 65 64
10.715397061151057 2.1409613086580435 1.907714525891644 58 58 56
10.25034689666001 1.956698076911185 2.029890174702194 57 59 57
10.81492074954175 2.1991161968889954 2.1088523804510286 32 33 21
12.863000187248446 -1.3911404686942321 2.4066075211927416 51 58 32
13.020730206702837 -1.279849569255025 2.393303889619426 53 58 35
12.417281807491074 0.5650462363764677 2.5848900288043435 3 3 3
12.005667905697157 0.2665773991347406 2.642693965298288 9 11 10
12.332144452756381 0.6171934773483517 2.7817497983156385 20 24 17
12.172200896890741 0.42579326709756254 2.618135556955729 26 27 27
12.417281807491074 0.5650462363764677 2.5848900288043435 3 3 3
13.997382354955194 -0.9600118945686418 2.5402981496836525 76 79 73
13.705621893669068 -1.0710849764929875 2.5720688891017436 57 62 49
12.884141373527077 1.0206631072481054 2.910723356728934 44 50 29
12.874516497222789 2.096683651785976 2.913925594952497 46 52 27
12.799836574575938 1.7513171335930056 2.9406531371923643 45 51 28
13.562825175318102 0.7587439540521931 3.086566894929479 44 54 26
12.717183737953963 2.3378489202072443 2.9755588670516406 43 53 25
13.63841835486988 -0.30591471540430215 3.022797830830004 44 54 30
13.255072483809833 2.181414323437727 2.812160622938656 45 51 25
13.106471220341605 1.9643361331336662 2.8471173377677035 44 50 26
13.115925882125637 1.157360736532959 2.844749821104922 60 64 55
12.641574408414122 1.8651107580708677 3.0161851669659305 42 52 26
12.717183737953963 2.3378489202072443 2.9755588670516406 43 53 25
13.858668179470232 -0.5293525462963176 2.927509682674735 41 53 30
13.177648601123314 -1.2435594666675118 2.4981141190146823 53 58 39
13.481892678464353 -1.1974062493561437 2.598536320541597 51 58 38
11.577470756197066 2.415321565566691 1.3568854970348823 72 76 61
10.786556225434847 2.4854122058663113 1.7142713574946202 33 37 15
11.248065818512632 2.4854122058663113 1.8911739810043295 30 34 13
10.68949018793248 2.4854122058663113 1.621549940266918 50 54 35
20.11981262342592 -2.259667124799213 2.309165468777881 63 73 47
18.990424458530914 -2.5041068041230607 2.29221925095838 62 72 48
19.45789835266872 -2.450061594886093 2.2712785495417274 61 72 48
20.03119908366872 -2.41706975717866 2.5424627866352982 61 72 48
20.51898815925522 -2.3547105355531595 2.4302090166857466 62 73 50
10.730992788574131 1.956698076911185 2.1135264612979325 61 63 57
11.01460132068259 1.8519535691541105 2.206775929125294 56 57 54
10.83531649524705 1.740491588127745 2.219048218207213 40 40 38
12.228471215151917 -1.0794611514656682 2.2354438291439993 49 52 47
9.858294747583402 2.0589552548168855 2.2964622991530614 32 34 17
10.545728431104772 2.0022211337357274 2.2400159922412226 49 50 41
13.042814318195488 -0.4218328585226225 2.6571926446720964 4 8 5
13.264219319560558 1.487875662365513 2.6263698048594994 9 9 3
14.347335115630123 -1.1974062493561437 2.6345616045637676 47 55 36
12.94160500314806 -1.4986185262139544 2.5228443426174314 50 59 30
13.776421757262808 -1.296939679520385 2.715088813525177 48 58 33
15.611247931902774 -1.830638715483671 2.769385400152938 57 67 41
11.22062218360667 2.6138619247442985 1.34997156194629 34 40 16
20.426025651535582 -2.3545353911869187 2.514716110369878 62 73 49
20.756570676345415 -2.354852232307074 2.347050808686034 63 73 50
20.260153932903332 -2.1492196980238005 2.118052823041702 64 69 42
13.780290023162985 -0.8526948219782409 2.3356893668026997 5 5 6
12.858684469190854 -1.4097335176857304 2.2973816894134123 53 59 35
12.858684469190854 -1.4097335176857304 2.2973816894134123 53 59 35
13.630239622089167 -0.8443182946937788 2.157177448492813 7 7 7
10.92609830487371 1.8870598286594285 2.332701415699636 52 52 45
12.88932164345401 0.9054809150447338 2.68033398512789 0 2 0
13.491030526091267 -0.7776399000014933 2.764330687918142 44 53 36
13.267792486631203 -0.6122157447777294 2.809367873029619 45 53 35
13.63841835486988 -0.30591471540430215 3.022797830830004 44 54 30
13.036290517122692 1.417916952765093 2.8654207493939725 45 50 33
10.411915151337373 2.563966437257227 1.817462005657412 33 38 13
20.756570676345415 -2.354852232307074 2.347050808686034 63 73 50
19.821403882341038 -2.4599032309220754 2.3944982821020457 62 73 49
11.107133185229554 1.5193521708562816 1.8953870847870697 49 50 51
10.251991710474622 2.1710844109209204 2.262887908441976 32 34 15
12.641574408414122 1.8651107580708677 3.0161851669659305 42 52 26
11.58034078773532 0.5650462363764677 2.539246025415349 9 9 9
9.939482952636103 2.1991161968889954 1.935193893079561 65 66 60
10.338177600153047 2.1991161968889954 2.025694881254786 65 65 61
9.957522422794622 1.8519535691541105 2.0444799702992045 56 59 56
13.562825175318102 0.7587439540521931 3.086566894929479 44 54 26
12.4987480637253 0.22733159017741608 2.574503638334448 11 11 9
12.495577806701613 -0.22349547097216307 2.5749021341376515 2 4 4
19.198437244446747 -2.6004896450485897 2.2827284850521448 61 71 46
19.824870042908447 -2.5864303299467717 2.4718473211915795 59 70 45
12.95110460637644 -1.025554450121974 2.399112708101692 81 84 77
