15.664336530227887 -1.0722373511289258 0.9423060668834145 44 54 29
5.347267250212541 1.170920831138055 1.7191836211059188 37 46 18
5.047335761906517 1.3567635094380663 1.728072663290351 37 46 16
4.502258350408199 0.9487247146662915 2.239300603571808 42 51 21
4.736221980598879 1.0820171696929566 1.9584920410661213 37 46 18
4.736221980598879 1.0820171696929566 1.9584920410661213 37 46 18
5.038650514333724 0.7537833518100452 2.157753936710077 40 47 17
5.887975570175404 -0.12096280495008863 2.9594332611947967 53 66 39
5.21582297860091 -0.062433707985013014 2.734981409128885 52 62 35
5.950700835475283 0.6885364105371141 2.9090708465875226 48 58 30
5.286529434557716 0.40034230505496254 2.7049628182756678 50 60 30
5.181838088601053 0.9487247146662915 2.3913278693345967 41 51 22
5.684618979963187 1.2175024078577033 2.573117350229926 42 52 22
5.950700835475283 0.6885364105371141 2.9090708465875226 48 58 30
5.023968629467162 1.7616512895293315 1.7288103110381599 37 46 18
5.618213038250641 2.511968788288853 2.090587009405259 46 55 29
4.772585972888695 1.5555998895302694 2.195313468415848 37 48 15
5.618213038250641 2.511968788288853 2.090587009405259 46 55 29
4.686269693733749 2.0355839058036636 1.9628487971328843 41 50 20
4.968096868514607 2.3682152571665886 2.167230083695239 44 53 25
12.634123812810264 2.419744562951312 1.2311216470729287 14 24 0
5.856037199467836 1.5033732428199444 2.991910256574013 53 64 36
6.264294130370498 2.924017481872797 2.441434434721817 52 65 38
5.537171229891489 2.924017481872797 2.3248041610944963 51 61 33
5.497208616533342 2.374520134358774 2.628952906024125 46 56 28
5.591341718907985 2.3682152571665886 2.3157442112436035 47 53 28
5.66388165870434 1.887544832094685 2.5788747204789204 44 53 25
4.847518924269526 1.887544832094685 2.4685977208395196 40 50 20
6.856678097598599 -3.0056819548466143 3.0026054128954818 57 70 43
6.2289655930193595 -3.1155504496077406 2.225012309883968 53 65 41
6.15776640090543 2.03680084408905 2.7945027549450616 46 56 28
6.264294130370498 2.924017481872797 2.441434434721817 52 65 38
5.779519819801805 2.698301999912668 2.286118090985065 48 57 29
6.708647961107315 -1.246708027351131 1.8409742810176077 50 69 41
6.4721162469700895 -1.3997187762324157 1.8511101606868634 51 67 42
5.933969038956498 -1.3672042459786562 2.0603911576080556 51 67 42
6.421379583736393 -0.21952069989680473 2.2022301545190115 45 55 32
5.632019274417794 -0.8020826708967975 2.587908917335624 56 69 42
5.993802815962376 -0.8173288902980691 2.880431502343347 54 68 43
5.3480811844659195 -1.109225213943019 2.680917688588756 56 70 45
5.786527254453883 -2.1897758198804596 2.0740186280653714 55 71 47
5.754025810952391 -2.4706108591369222 2.077130747158593 56 70 45
5.83903414988465 -1.559325251436592 2.0690750768569117 51 67 43
5.768697129969005 -1.9326233698543067 1.8864017757817877 53 69 44
5.754025810952391 -2.4706108591369222 2.077130747158593 56 70 45
6.453909761589784 -1.7231726784046646 1.8519224053793195 51 67 43
6.116373807958023 -2.5771239368813403 1.8678960963298339 54 70 44
5.583466395748281 -2.8626689712580125 2.3170457354788616 54 68 43
6.30525278756582 -2.8626689712580125 2.4337595177935203 54 68 43
6.210689651022106 -2.614917920823417 2.771664821113647 55 69 44
5.899830797985936 -1.5187180389030197 2.9488294544643154 56 70 45
6.010931487593069 -2.5150955111488678 2.493065516119287 57 71 46
5.3260336885986845 -1.9870863098532192 2.6893301235300933 57 71 46
5.798624900245251 -1.8630016402558964 2.5430437949439493 56 72 48
5.727791678084819 -2.3253070803552833 2.293991526764102 56 72 47
5.867922364355755 -2.6463653938493468 2.273102134627533 57 71 46
6.558477612736258 -2.6463653938493468 2.3897586047434167 55 69 44
5.242547434583997 -1.543164822891326 2.72330138908623 57 71 46
11.983295175018128 2.6081106330469312 1.2996600816842108 21 34 3
12.288948186437947 2.6081106330469312 1.2211784283283593 22 35 4
15.526436275161895 -1.0055440386190906 1.0136813642971718 31 41 13
4.502258350408199 0.9487247146662915 2.239300603571808 42 51 21
4.502258350408199 0.9487247146662915 2.239300603571808 42 51 21
5.286529434557716 0.40034230505496254 2.7049628182756678 50 60 30
5.286529434557716 0.40034230505496254 2.7049628182756678 50 60 30
5.21582297860091 -0.062433707985013014 2.734981409128885 52 62 35
5.023968629467162 1.7616512895293315 1.7288103110381599 37 46 18
4.864145157870887 1.8092837018507482 2.1818118601705665 40 49 19
5.194535784891009 2.511968788288853 1.9227157888453927 45 54 26
5.178970324767814 2.698301999912668 2.1398378291981874 48 58 30
5.66388165870434 1.887544832094685 2.5788747204789204 44 53 25
9.585063295169615 -0.5667609058176344 1.6533682311258098 0 3 0
5.3480811844659195 -1.109225213943019 2.680917688588756 56 70 45
5.632019274417794 -0.8020826708967975 2.587908917335624 56 69 42
5.632019274417794 -0.8020826708967975 2.587908917335624 56 69 42
5.632019274417794 -0.8020826708967975 2.587908917335624 56 69 42
5.341132586863021 -2.4706108591369222 1.9126556054707187 55 71 47
5.914106107582449 -1.7522863442092858 2.0621816858984983 52 68 44
6.4800574288605794 -2.5771239368813403 2.015995700689662 54 70 45
5.3260336885986845 -1.9870863098532192 2.6893301235300933 57 71 46
4.915343707500335 -1.5519938551228556 2.451470767441157 54 70 45
5.004291659274867 -1.8630016402558964 2.4302123402715377 57 73 49
5.9741388243903595 -2.2658355280334384 2.893045031108589 56 70 45
6.8346479844388535 -2.5150955111488678 2.5815561372214546 55 69 44
5.242547434583997 -1.543164822891326 2.72330138908623 57 71 46
4.702006152498393 0.7377151786381202 2.508425541676088 46 54 23
5.741208997650811 2.9670535959603392 2.0783691770653454 49 61 34
4.864145157870887 1.8092837018507482 2.1818118601705665 40 49 19
5.792286902701491 -1.142041048940033 3.1171581532877206 55 68 41
6.856678097598599 -3.0056819548466143 3.0026054128954818 57 70 43
5.924663182149115 2.574950268977868 2.512529237910883 48 57 29
5.912857743260215 2.16527382472425 2.515278177332921 45 53 26
6.708647961107315 -1.246708027351131 1.8409742810176077 50 69 41
5.982065963536862 -2.332958864134336 1.8747772566074676 53 71 46
5.914106107582449 -1.7522863442092858 2.0621816858984983 52 68 44
5.348043232651802 -2.0102906964189127 2.119744750565598 56 72 48
6.453909761589784 -1.7231726784046646 1.8519224053793195 51 67 43
6.060835618928717 -2.7348104468957315 2.0492697899143266 56 70 44
5.3260336885986845 -1.9870863098532192 2.6893301235300933 57 71 46
5.683339765731425 -1.7949229771911417 2.3009170267213523 57 71 47
6.240813294334671 -1.9870863098532192 2.759410672118229 57 71 45
8.310928179259813 0.22816046508041782 1.6660630562371956 45 48 42
4.888276344519515 1.3038165365935546 2.1783583198225793 38 47 15
4.871732466453947 1.2175024078577033 2.462386825944646 38 49 16
6.15776640090543 2.03680084408905 2.7945027549450616 46 56 28
5.469705760897396 -3.1089469272653 2.336451478358054 52 65 38
5.867922364355755 -2.6463653938493468 2.273102134627533 57 71 46
5.9741388243903595 -2.2658355280334384 2.893045031108589 56 70 45
15.09809771643064 -1.0722373511289258 0.9959090811034418 31 41 14
5.347267250212541 1.170920831138055 1.7191836211059188 37 46 18
5.856037199467836 1.5033732428199444 2.991910256574013 53 64 36
4.935375319228042 1.558719137694499 1.7316712699404877 38 47 17
6.1761989496636 2.511968788288853 2.2315807606067692 48 54 29
5.13622146810046 2.16527382472425 2.4009056457961293 43 52 22
5.284436229089424 -2.1261075268936187 2.3707244456992846 57 73 49
6.385187543253451 -1.5611968207915974 1.8550318096631404 52 68 43
14.74970102734802 2.1125845669322496 0.8964567105035635 36 47 33
5.286529434557716 0.40034230505496254 2.7049628182756678 50 60 30
4.847518924269526 1.887544832094685 2.4685977208395196 40 50 20
6.176845841663049 1.05588037018778 2.7860620841788357 45 55 27
6.204739868314418 -3.1089469272653 2.4529044703490306 54 66 42
