11.678382408268032 0.5938614888893337 1.3312250908238492 53 60 30
13.43134771888381 1.3621731469657459 1.0424243780086047 31 41 11
12.739608561297059 1.016738184428291 1.2702781182978644 48 57 25
12.743005688651161 1.2007268082752331 1.2703607338414407 43 53 23
12.640106705701411 1.1685597052901704 1.0966580539522033 44 54 22
12.826130872158604 1.2531341599770547 1.0146515749494998 39 48 17
13.288950328587378 1.4478361095727375 1.0361579098344824 27 37 8
12.542592590422258 1.3621731469657459 1.1805747996577898 31 41 13
12.389984995124593 1.4478361095727375 1.1755033302275355 25 38 11
11.869624278765004 0.7821585481503818 1.5057848655124162 55 58 31
11.958114906757768 0.6633694178859485 1.5062666248491614 53 58 31
12.296875767398129 1.016738184428291 1.42626371489882 46 55 21
6.954625720051111 0.9068181554584384 2.224420404058297 38 43 18
14.59632532055112 0.02597332901219268 1.1643130825714685 24 22 0
16.087031675012195 0.16161857888029435 1.1363531398417503 36 34 11
15.861357958505682 0.2140498827868626 1.4589005164634947 44 42 19
7.638407993848763 0.24455562327801225 2.3247842657073874 40 45 13
7.227499227002243 0.48999464492930395 2.379612486440204 38 43 16
10.648296590729712 -0.8079526062674092 2.3170281989662764 56 63 31
10.013770201592346 -0.7232071580170014 2.120188735673783 51 58 26
9.996422190577539 -0.8079526062674092 2.243510494896814 53 62 32
9.405886079492777 -0.8079526062674092 2.160260764210978 50 59 29
10.887623848285223 -0.7108780620555237 2.4276735353459546 55 62 30
10.071232617108091 -0.6283351916891307 2.2376064920068535 50 57 24
20.336680596848982 -0.9842146097807337 1.178703523051024 40 29 11
12.225545519517285 -0.9165358002068673 1.6714839150262237 45 52 22
12.165779859010854 -0.9165358002068673 1.589611013801244 46 51 22
12.225545519517285 -0.9165358002068673 1.6714839150262237 45 52 22
11.402006620605208 -1.2616155521419101 1.7675447679032692 50 59 29
10.972508990951862 -1.4398862745694878 1.7753531967942093 52 61 33
12.430001197195569 -1.0295929404815471 1.5892110291351909 49 55 28
11.283258638436799 -1.060510439004788 1.7696429788736177 49 58 28
11.591069493983408 -1.1788728585758559 1.6770156624213455 51 58 28
11.761219895706668 -1.451009324472963 1.5051847907514824 49 58 31
12.58106640523766 -1.209543498071538 1.4295506716522886 48 54 29
10.588622254166685 -1.1000961907652764 1.9816365788013874 48 57 29
10.928158452611237 -1.2999387241406288 2.177283418251999 48 57 29
10.154873749717211 -0.8044980325142823 2.0003209368798016 48 58 30
9.555969870337229 -0.8886744677060656 2.0292234894938863 50 59 31
10.12063173900919 -0.9861413695599707 2.2337705342386682 53 62 34
10.113117672048991 -1.2242034833582534 2.3671379837253803 55 64 36
10.752662296169989 -1.4100951617762099 2.188650527975221 49 58 30
11.522573027485382 -1.060510439004788 1.8548219991161974 49 58 30
11.420269354779066 -1.1428591624001567 1.9501241463111794 49 58 30
10.731257510372588 -1.2318789877329346 1.8764175734292756 50 59 31
10.807994759246524 -1.326842153000813 1.9728113292033518 50 59 31
9.965747115053832 -1.389524912532916 2.2459651234408637 51 60 32
10.260265786958788 -1.0487011794317331 2.1055445225084304 52 59 32
10.277168435764047 -0.9560314270954626 1.9948771137361185 49 58 28
11.237015368316237 -1.326842153000813 2.0547998516840185 50 59 31
14.885180619294443 -0.9889026389594713 2.843536908053215 53 62 32
13.571271262349807 1.5319250026171525 0.8680701198684887 29 39 12
12.324849969050618 1.623403710262956 1.1732971772721088 26 38 15
11.790358492999873 1.7106530638639676 1.3335442583568615 27 41 17
13.228242491572983 1.623403710262956 1.0334381182934664 25 37 13
11.68741871561353 1.8167300647031046 1.1502854747563953 28 40 19
8.498895293637014 -2.506387697987489 2.5878593414435898 50 57 27
8.183431849195522 -2.61841503257779 2.4358925276720886 50 57 27
8.724831781073531 -2.7966731083297343 2.547293477106826 48 54 27
10.898906006417063 -1.6268359750259258 1.776754419524976 51 61 33
10.999147759113484 -1.7196658297377236 1.7748507803181892 51 61 33
11.245262231858163 -1.896508087483391 1.5911513560784365 52 62 34
11.786076162381528 -1.7070541136398834 1.505323360588776 49 59 32
11.684236933803748 -1.5362703397285546 1.5047518739131336 50 60 34
10.984567035981426 -1.529123611123992 2.0669206837404985 50 59 31
10.73021338250488 -1.9648610544223326 2.0797966641234518 51 60 32
10.554527397576456 -1.6326280045324009 1.9830442516306483 52 61 33
10.658008626206364 -1.7348272208070519 1.9788022580976343 51 61 33
10.794701607020396 -1.9275779665674275 1.8745637784176656 52 62 34
11.280337354807324 -1.8336929001368008 2.05278193787741 52 61 33
11.494280170582446 -1.529123611123992 2.1435061087459317 51 60 32
9.831853722920417 -1.510367655402065 2.3968334851761117 54 64 35
11.159860677856969 -2.0963410988775886 1.5913071460178136 52 61 33
11.579586422104018 -2.2914048678914094 1.6771213949683264 48 58 31
11.755651973036223 -2.1704001111764453 1.6755230615355288 51 60 32
11.138667520956279 -2.1450454381348565 1.9602226835214096 50 59 31
11.496888524578333 -2.015337742245836 1.9474689192765455 51 60 32
19.945498381364708 -1.3993591685971396 1.5822719417533773 35 29 11
13.022181009393954 1.0896510089082654 1.111657812828513 50 57 25
12.26754765978802 1.0896510089082654 1.2583304611202606 45 54 22
12.542592590422258 1.3621731469657459 1.1805747996577898 31 41 13
11.482263685598726 0.5938614888893337 1.4159298552417137 56 61 32
15.574144685310735 0.09333601510120626 1.1911870058459646 34 29 6
8.354821383630394 0.24455562327801225 2.4121461339833665 40 45 14
9.650186295281038 -0.5183536238102098 2.2724315618403015 51 58 26
10.570400054973028 -0.7232071580170014 2.200958615516484 53 60 28
10.177490828993326 -0.909026633488986 2.360694134566342 56 65 35
10.32394591256197 -0.5183536238102098 2.34648136734559 51 58 27
20.453885192310825 -0.9534058002919669 1.072744974015589 41 35 15
20.453885192310825 -0.9534058002919669 1.072744974015589 41 35 15
12.366152470419575 -0.9165358002068673 1.752027304180515 46 55 25
13.091764706426558 -0.963469493767865 1.4350953199594962 42 47 20
11.794779616922115 -0.9850992514726777 1.760911397205998 48 57 27
11.92187880097215 -1.367459075392755 1.5060702152843164 50 57 31
11.402006620605208 -1.2616155521419101 1.7675447679032692 50 59 29
12.451793689682153 -1.0295929404815471 1.5088283948434857 46 51 24
11.14454369933656 -1.3489643997234368 1.7721517837157126 52 61 33
10.731257510372588 -1.2318789877329346 1.8764175734292756 50 59 31
11.066418285871565 -1.4265018772684623 2.062921492266728 50 59 31
11.088948934133969 -1.1428591624001567 1.8662565396654447 49 58 28
9.727398731764694 -1.0979855288985472 2.265742430598997 55 64 36
10.038641533328498 -0.8886744677060656 2.1186725046628183 52 61 33
11.420269354779066 -1.1428591624001567 1.9501241463111794 49 58 30
11.49240684529042 -1.2318789877329346 2.043152586286183 49 58 30
14.885180619294443 -0.9889026389594713 2.843536908053215 53 62 32
11.966939988299076 1.795815560664276 1.3371107657243955 28 42 18
12.064608975079933 1.7106530638639676 1.252891659478749 26 40 16
12.316932551147213 1.5353473294948607 1.1730272802081916 25 37 13
13.220866088337775 1.5353473294948607 1.0331056421153644 25 37 10
9.370032896860879 -2.1890684141113663 2.642908587719236 52 59 29
8.86198917323178 -2.3487090362453227 2.5247652476384843 52 59 29
9.027396390653463 -2.345857264984178 2.717823193315556 51 58 28
7.769253184308246 -3.0007567185122674 2.5009887328430707 48 53 24
10.999147759113484 -1.7196658297377236 1.7748507803181892 51 61 33
11.684236933803748 -1.5362703397285546 1.5047518739131336 50 60 34
11.881053957976073 -1.6268359750259258 2.0265091730500564 51 61 33
11.106281379865788 -2.2222890476641575 1.772855054779869 49 58 30
10.76128034812568 -2.015337742245836 1.6852407472226205 52 62 34
11.615325280197847 -2.0963410988775886 1.8524917272705481 51 60 32
20.059462843598695 -1.499552184661343 1.3816739766337491 36 31 11
19.799444562187077 -1.4491491366909839 1.582356597248641 37 31 11
19.73556880881734 -1.5503201469318848 1.4809329849845578 34 32 8
13.132812405076013 1.3786379362806833 1.2795436537167428 29 42 13
15.824934233994417 0.15129030938774832 1.3947779393508501 41 39 18
19.13654272155013 -0.19589684652846606 1.372434329719834 41 31 8
7.876651940146955 0.4100172888881696 2.29674568795819 39 46 14
10.013770201592346 -0.7232071580170014 2.120188735673783 51 58 26
8.252676611054113 0.06436036254975859 2.426101443001269 42 47 16
10.718558209935555 -0.6283351916891307 2.310984282922904 52 59 26
10.154851858648975 -1.266571629534069 2.2311417912570284 50 60 32
10.113117672048991 -1.2242034833582534 2.3671379837253803 55 64 36
10.63051503954524 -1.4265018772684623 1.9799204844339324 51 60 32
12.266960959548902 -1.286685536123971 1.4259087664924224 48 55 29
11.794779616922115 -0.9850992514726777 1.760911397205998 48 57 27
10.619504660438675 -1.389524912532916 2.3195378705132113 50 60 32
10.666385714167953 -1.1961100191512897 2.0831391417915937 49 58 30
11.94951277350548 1.9053763561375896 1.1600725335984718 29 41 22
13.220866088337775 1.5353473294948607 1.0331056421153644 25 37 10
10.109880265695615 -1.8462711670136487 2.521706395366129 55 64 34
10.000728958261213 -1.6761320290632804 2.5371662511601913 57 66 36
8.724831781073531 -2.7966731083297343 2.547293477106826 48 54 27
10.88995192122613 -1.5330319643763548 1.7769262041025493 51 61 33
12.327505701544617 1.2531341599770547 1.0836006373519123 39 50 19
13.63760625572481 1.4360908318771402 0.8721826838782889 30 40 11
12.241892074802937 0.9010387464334139 1.3424536294865494 56 58 34
13.126863062424427 1.1685597052901704 1.0288300403402242 45 54 22
7.526546855946928 0.06436036254975859 2.338834118050591 40 45 14
10.853029400420256 -1.8336929001368008 1.9710477449083121 51 61 33
11.502763838745105 -1.6326280045324009 2.1430306215926938 51 60 32
11.032614696663407 -1.8099876868035503 1.6824142220476974 52 62 34
10.752662296169989 -1.4100951617762099 2.188650527975221 49 58 30
10.109880265695615 -1.8462711670136487 2.521706395366129 55 64 34
11.551671313206532 -1.9275779665674275 2.0405330520683367 52 61 33
11.692582777785276 -1.6220352616138536 1.5047990832137055 50 60 33
15.872829643464607 0.22841611109618518 1.198683241815259 39 39 13
9.92321764040308 -1.3630023984446467 2.3868992813880485 55 64 36
9.788528507756519 -1.0487011794317331 2.0175324401203047 52 58 29
11.955872752421763 1.7239668249000395 1.0670595226403945 25 37 14
11.105520182512121 -2.0592449937790036 2.061034794089727 49 58 30
10.545280901715932 -1.529123611123992 1.9834277303582315 52 61 33
12.432992128650813 1.2795016330457503 1.26262626532907 38 48 18
12.006572896720176 -1.1014165557198825 1.6733266313211261 50 57 27
11.59778751400625 -1.7348272208070519 2.1377620515432016 52 61 32
