11.064931338552082 1.2284762513895435 2.480819132743554 45 50 23
10.119375805281118 1.3733794157102144 2.4410151658723067 48 53 26
19.093986123034313 -0.871620618651102 1.6093499264210251 44 41 28
10.745153568517095 -0.2480237104302744 1.7330649525429915 40 45 17
11.030169849792625 -0.33713687408433757 1.7288362373649975 41 44 18
18.613867353001314 -1.2238851811627183 0.9867320488948785 52 50 41
18.93264690941985 -1.285724432875705 0.9335888010824528 52 53 45
10.655911911004246 -1.1515778020025644 1.7344361369303942 57 59 38
10.870364380891456 -1.3590354652052066 1.6385514565476376 55 59 40
10.820245889833975 -1.450704505170874 1.7319289270396876 56 60 41
9.572739096507751 0.3180785644603737 2.2132944539998887 48 52 25
9.572739096507751 0.3180785644603737 2.2132944539998887 48 52 25
8.859298726427 0.4365972140890493 2.006114851637037 38 40 17
9.774760239366323 0.14940766790179166 1.8544867136240588 27 32 3
9.870714873075277 0.4365972140890493 2.1908868430507424 46 48 27
9.372494625982274 0.18958201566424096 2.229382383761151 51 56 29
8.933584562149354 0.5433570154490586 1.8820533657476997 28 30 5
10.248031627764552 0.36462474733651046 2.4262563674974746 51 56 29
10.061236203763489 0.21888025489234944 2.447895821113874 54 60 31
10.29536230944464 -0.6325610540547238 2.2840149186157634 60 65 38
10.253821795888598 -0.343430300708774 2.2875251331014996 56 61 34
9.936207426041534 -0.08266850643039676 2.315726642107597 55 61 34
10.435632195851497 -0.06490790743233414 2.041850431387844 42 47 18
10.348023276917093 -0.5638636055924976 2.1583238649197862 58 61 35
10.011202651634544 0.042739056064976105 1.9532283415472114 39 42 12
10.19909997864842 -0.19126304933982335 2.168080106183438 55 60 31
10.046618322479535 -0.21676894163573562 2.305638860940445 57 62 33
10.540813110540897 -0.1710748289654493 2.0367750204439403 53 58 29
10.046618322479535 -0.21676894163573562 2.305638860940445 57 62 33
10.253821795888598 -0.343430300708774 2.2875251331014996 56 61 34
10.55211747120447 -0.4596179291394028 2.263151009317494 56 61 33
9.925819679455413 0.05446063549462872 2.3166921593922227 58 61 30
10.196193637443539 -0.41047000919295473 2.053847155394317 55 60 32
9.982039739273645 -0.09575844910900143 2.45749220078942 54 63 33
10.091949220081164 -0.24996094054619614 2.4442441055775634 56 63 31
9.982039739273645 -0.09575844910900143 2.45749220078942 54 63 33
10.117917191424517 0.7963873649295781 2.2992890161921378 43 48 20
9.62177582345288 0.6944305219088187 2.3462980981777197 47 53 24
9.66763324170082 0.4261661843664921 2.4984110554030394 48 53 24
9.986297005798257 1.0247544902647818 2.4569695862841554 46 51 24
10.779519793513737 1.0247544902647818 2.5156683382026754 46 52 25
11.204995607952993 1.3380093576877201 2.6237609932856936 49 55 28
10.303868697479382 0.6709152036878209 2.5826814544276586 46 53 25
10.215071952526571 0.07502482460275187 2.5967385904245464 55 64 32
10.225165851933825 -0.1137524246155229 2.5951119185675915 57 64 34
10.00274673862542 -0.8323875877584275 2.632846799154852 60 69 41
9.58067559886049 -0.9517651770976928 2.5106206767468437 61 67 42
11.257583360210097 -0.9517651770976928 2.6156192732705463 61 70 44
10.034991914375917 -0.5988706687835543 2.4510467832486587 58 65 37
9.967364981690231 -0.8218182757830815 2.459299652062306 61 67 40
10.070136064644151 -0.5464890133517103 2.6209739051863554 60 66 39
12.062298140618068 -0.6129318845825283 2.908451890366922 63 73 47
11.913858178001542 -0.8972046317447276 2.9685644156055866 65 75 49
10.134211576324827 -1.1109917906178044 2.6100507474086463 61 69 43
11.279780097443277 -0.8515869818529466 2.8298092670042463 64 73 47
11.551612906903348 -1.0067207062296288 2.7635544585019156 62 72 44
13.01353105083788 0.5497639481646832 2.9346834366613894 58 68 40
10.335182066762894 -0.6560008880197984 2.0468066455171 60 63 39
10.335182066762894 -0.6560008880197984 2.0468066455171 60 63 39
10.184737978772581 -0.7285405722326332 2.1690395417403843 62 65 41
10.514294601477392 -0.7367177125640872 1.9340547856568073 60 63 41
10.545031670094277 -0.880456364851846 1.9329470081047284 61 63 42
10.410445293310627 -1.2795131028992233 2.274490259710836 60 65 43
9.737410841967353 -0.9957578012956082 2.200696559382999 60 64 42
10.216466593342693 -0.8963342127132042 2.1669243856078158 61 65 43
10.510059847507884 -1.2417110282807275 1.8341480462870212 58 62 41
9.92731446660086 -1.0581339604591864 2.068106789179425 60 64 42
10.072957453593162 -1.1635720830972855 2.1766225528184533 60 64 42
10.22945683012387 -0.8151294322433738 2.289602307127381 61 66 39
10.22945683012387 -0.8151294322433738 2.289602307127381 61 66 39
9.355412740447113 -1.041258458452954 2.3746082527185703 62 66 43
10.588284743929616 -1.3117861935448492 2.1432866545570257 61 65 44
10.353688930782948 -1.2066026771733247 2.0458853356997664 60 64 43
10.458158336398752 -1.0203852557331947 1.8354863207329952 60 62 40
10.09929040254113 -1.041258458452954 2.443376888569671 61 67 43
10.686533036449095 -1.1098262290141216 2.3802320158599777 61 66 43
17.26405777479001 -1.134272596615651 1.4975127106524175 52 53 45
18.69942748523702 -0.9882530761538032 1.6101638250067156 52 50 41
17.735250690756544 -1.303107073048814 1.1488004455942638 60 61 53
17.947954636948676 -1.1881786855120902 1.2142803856895843 53 52 45
18.431468585979648 -1.082945802250805 1.281163142729596 54 52 43
18.901800284194582 -1.0342683167715405 1.2885704725459448 55 52 42
19.385867294269914 -0.944866629591667 1.4537410002612046 54 51 40
9.810366402436918 1.852602803850826 1.6458854287507492 37 44 14
10.695275336788738 2.3776004896803458 1.546106239372964 24 28 9
10.143558175454203 2.3083219607104346 1.7427820498870457 33 37 16
10.840116954032155 2.508708632025475 1.638740806296958 24 26 14
10.990804083032705 2.2457564483663157 1.3633168721402562 22 26 5
10.00822192728994 1.533026551971832 2.3091112569602834 47 54 24
10.013760998773252 2.082938604148147 1.8475351122568524 36 41 18
10.030228631405333 1.6678951528360444 2.3071164819894303 40 47 16
9.747590872224597 1.923231759391659 2.199935469039776 43 49 22
10.483200289846057 2.138814933332104 2.149760602162649 43 49 25
9.350100944597507 1.7728964157379437 1.9818370185558396 38 45 16
9.584642295179266 1.8841142515300506 1.9711955466240587 34 40 13
10.419967807629074 2.2065349237148655 2.2737149823379554 46 50 29
11.092684445289404 2.2065349237148655 2.34254967515965 48 53 30
10.063981676914016 1.6829558443072 2.4475678294418097 41 48 17
10.831189502156455 1.5271291052428089 2.5090990036473895 47 53 24
11.092684445289404 2.2065349237148655 2.34254967515965 48 53 30
10.416998196951942 2.380863027340749 2.0427616692928616 41 45 24
10.909477960214337 2.300435673397966 2.236281755123482 47 52 27
11.088499974643826 2.449681899424385 2.012085530297484 39 43 25
10.089896489449158 -2.8799311642857925 1.643801406537667 46 51 33
10.694005762013996 2.7168053629015314 1.639670586015753 38 41 25
11.189798896863676 2.634764077348037 1.4575910422204603 29 30 16
10.88120682064252 -1.7316563492768242 1.7310183694189856 65 66 54
10.76845771785455 -1.6386425378242626 1.7327106802946888 59 60 48
10.63234603829775 -1.544441435013758 1.640070643955144 59 60 47
11.370251640942232 -1.9082593497938507 1.7240713371281928 61 65 53
11.843915187239517 -1.6328110030830758 1.3784561671639062 50 51 41
12.17568840452809 -1.7180014596458868 1.2993983405947733 39 40 32
11.311863735867895 -2.108039394324242 1.724868792966084 61 64 53
10.963134484829446 -2.493499029952396 1.63797724444933 56 60 44
11.222880966571593 -2.618685997452511 1.5472671795075525 56 61 45
10.29497926285926 -2.2946490104728774 1.7402277655946896 55 59 40
10.35760688498291 -2.157594883449126 1.6419112331102181 56 59 44
11.069774248471438 -2.363851084659768 1.364818374688286 61 65 46
10.842912460458988 -2.9931509025400267 1.5464424866050062 44 49 33
12.246428397396505 3.022972911243674 1.3010053386366753 39 43 30
11.009785778973256 2.921634465325418 1.6376921553236574 45 49 34
11.261937406501463 -2.9033819622330728 1.3683822333355893 45 49 33
10.740690337260368 -3.0853894741068246 1.5462106578746329 44 49 32
12.11494772855974 -2.7360182157790525 1.2980029389562124 47 54 37
11.316590609063525 2.8347453230059303 1.4588647547702562 34 35 22
10.753047303318203 3.1045926623741957 1.6392918253385016 42 47 29
12.320217801422567 2.037710207618988 2.628865403955364 51 57 32
11.301587897183442 2.289443259436792 2.454329365818753 51 57 32
12.77158210348749 2.401636840076459 2.736109606134248 52 61 35
10.793382422650632 -1.7260573419170784 2.6952466372953126 60 70 44
10.223768432698515 -2.154812330959884 2.831439318371986 59 70 44
9.900766891046594 -1.7260573419170784 2.6516329147201354 60 69 43
10.772934784412628 -1.5101494982144794 2.699229434113652 62 72 47
10.023281163532255 -1.9284818566058755 2.629185465023413 57 67 41
11.34736539942485 -1.768153980473257 2.811829717356705 63 74 46
10.058336886760811 -2.814197090209803 2.623023449934002 59 69 43
10.16450623245466 -2.3687778742729315 2.4357662951528187 53 62 37
10.16450623245466 -2.3687778742729315 2.4357662951528187 53 62 37
10.265303825597746 -2.6376293152581036 2.588717355130885 56 65 39
10.438698253030344 -2.3782301727240434 2.7725676306115457 59 69 43
10.15587534798031 -2.372213718587762 2.606434034793375 54 64 38
9.40400055534119 -2.1045754492634896 2.5368075757674253 57 65 40
9.752479953599035 -2.489632304934076 2.48689158065621 53 63 37
10.552162138063116 -2.250545628655887 2.5461198030584344 53 63 38
10.20887353027191 2.87336457585981 2.0531958198955875 43 49 27
11.276743188463808 2.87336457585981 2.210966588008584 48 54 29
11.028738481017395 2.5315193034183414 2.1177550830111036 42 46 27
10.20887353027191 2.87336457585981 2.0531958198955875 43 49 27
10.378739847784225 2.8998392071408814 1.8375609878977976 42 46 28
10.953713444054705 2.8054066240334112 1.9188489594604494 45 49 31
10.9766432092679 2.7701499092302813 2.120647616130402 46 50 30
10.021348235708857 2.9827628911363115 2.063020364921091 49 55 32
11.303871748662322 2.7168053629015314 1.9076324283792925 42 46 29
11.296111439088708 2.587414454392511 2.003421701437883 40 43 24
11.150885709935098 2.5622398609988832 2.3374832400912564 46 50 28
11.54373221508773 2.744821888819238 2.5743726650391716 53 59 34
11.018266537036874 2.962602701566825 2.349143077225381 54 60 35
11.91239083518875 2.936662637332458 2.5275004190846313 55 63 38
10.795766476739544 2.673598418289317 2.3696736208469504 48 54 32
11.279486451753517 2.799009008182926 2.45672023737528 53 58 33
10.052183124780441 -2.959784291239748 2.0613761570312317 50 57 35
10.939165904532958 -2.6559095776832913 2.018543715036662 51 57 38
9.864815505375937 -2.7720415053227754 2.3224211338134118 54 61 36
11.035574387014957 -3.0725366981261595 2.2273440716123565 52 60 37
10.116185345314694 -3.0796216501547393 1.8446605679574997 47 53 33
9.931452168016698 3.096117508106836 2.067880652042038 51 57 33
9.964117929688626 -2.8163880588268158 2.184209290759415 51 59 35
10.7217615648519 -2.7866175013149777 1.8288283008012733 49 56 36
10.557415828820886 -2.7497732795498586 2.035984283895316 48 56 35
10.174522429056022 -2.6494484450560525 2.29433620993016 52 61 37
10.052183124780441 -2.959784291239748 2.0613761570312317 50 57 35
10.372086691769702 -2.9074208509789625 2.4125974414573736 54 64 38
11.029027972754818 3.0826120033746722 2.4850182686568 56 65 39
9.753932647358708 -2.868353195080802 2.4866975917920415 58 67 41
10.372086691769702 -2.9074208509789625 2.4125974414573736 54 64 38
13.809629611492594 1.3733029902419687 3.0382540067738457 58 69 41
13.4589839239255 2.2460789310205196 2.8123250671502023 55 64 38
13.913584387617925 2.4596469999804436 2.981633001880891 58 68 44
13.09797280776694 2.6672420162458215 2.9059355215030314 57 67 43
14.20642421791926 2.4193564350369963 2.8835200038489326 54 63 37
14.049252962599354 2.1933797087065328 2.930012763244939 55 64 38
13.962110462058758 1.8628035955498206 2.961362856421446 55 65 39
10.950188750263633 -1.6543484985531245 2.233366852315198 58 63 41
11.189283088185027 -1.5416985132452685 2.109041142516478 59 63 42
10.500228445309508 -2.0726351706900235 1.9345640556509247 57 61 42
10.501701587935646 -1.9789654415042655 2.0386489209887686 59 63 42
11.061085566922277 -1.7681760109179498 2.225568009421639 57 63 41
11.061085566922277 -1.7681760109179498 2.225568009421639 57 63 41
10.657352326126471 -1.8468542629152824 1.9289571048788288 60 64 49
10.629784281955436 -2.1264122327585535 2.1407725568412106 55 59 39
10.22503465170318 -2.0258753172655157 2.16635597386374 58 63 41
10.731687527559695 -1.645682379030876 2.027850016347777 58 60 41
11.33406895637862 -2.0276658444547886 1.9066995979353754 55 59 46
10.547886578238671 -2.191441470332339 2.2634836991029683 55 61 40
10.870705177350771 -1.6652761177047397 2.362617111023603 60 66 43
10.870705177350771 -1.6652761177047397 2.362617111023603 60 66 43
10.315371520260355 -1.8256846761642282 2.4187750011389095 61 67 44
10.19636745849336 -1.6794792892951425 2.4321078573526718 62 68 45
10.382221654478721 -1.5209533223954594 2.570728814142594 61 68 44
10.40343725578729 -1.6986809458330414 2.567561090759689 61 68 44
9.93184515329936 -2.0227992556510155 2.4637135386641074 59 65 41
10.654741135000332 -2.270902061013926 2.383368016937038 54 60 38
10.654741135000332 -2.270902061013926 2.383368016937038 54 60 38
11.592176359818696 -1.6543484985531245 2.301431956186526 58 64 41
10.17472009915979 -1.5284918733685382 2.4345892941317158 62 68 45
11.031722055951356 -2.2846924665688024 2.2276131925996 53 58 37
10.244938899185275 -2.513791749974782 1.9440681665934856 54 59 40
10.521082437732295 -2.434042744630265 1.8338655917098756 58 63 45
10.650384600509918 -2.513791749974782 2.0316076832062158 54 59 41
11.04235256038681 -2.446612721191917 2.2268711445266716 51 58 36
10.902920974640148 1.3733794157102144 2.500176879027669 45 50 23
9.116049335661613 0.3893288325877992 1.7623953828722954 26 28 2
11.1018882371531 -1.2708335235479011 1.5470107015291577 57 59 40
11.170497005035145 -1.2708335235479011 1.4573945887403101 56 58 38
10.983422021936827 -1.0681313052176256 1.6378529677169356 56 58 36
10.75462523030214 -1.450704505170874 1.4529894305011037 57 58 43
9.815493438878395 0.49586088958410135 2.3271279751403977 45 51 25
9.574219062339603 0.6108523081571823 2.2131787674023817 46 51 23
10.015766301427256 0.18958201566424096 2.3084260099786897 55 59 30
10.203394185296737 0.3180785644603737 2.291839412459822 51 56 29
9.394280993027275 0.2817873488408543 1.9797880981277265 39 44 17
9.640059967186474 0.16713648102646175 2.0843539584242565 44 49 21
10.540813110540897 -0.1710748289654493 2.0367750204439403 53 58 29
9.888789783308912 -0.5209293550137742 2.3201576045386183 58 64 36
10.632472212478563 -0.3703728385831409 1.929833125675191 56 58 32
9.936207426041534 -0.08266850643039676 2.315726642107597 55 61 34
10.046618322479535 -0.21676894163573562 2.305638860940445 57 62 33
10.713723347307793 -0.46048780607727946 1.8290263145376662 55 57 32
10.738485122940267 -0.27349810094858085 2.0275387343872073 55 60 33
10.090357707742953 -0.07272136093125628 2.1754284823231043 52 58 30
10.590971928794007 -0.5074153080191495 2.034394628055519 55 57 31
10.934052534644106 -0.5638636055924976 2.234518818172017 59 62 35
10.018783950118598 0.5105441086566552 2.629984004427845 50 55 28
11.362699781384254 1.1711480420847733 2.599895850837211 47 53 26
10.357854393436853 0.9003591585073472 2.4141372799667393 45 50 23
9.873776852851075 0.7989202246481077 2.4710512600761803 45 51 24
10.302493547245563 0.2586508458877764 2.582894906594748 54 61 31
10.332489458199904 -0.2948085795698086 2.5782681216647076 57 64 34
10.225165851933825 -0.1137524246155229 2.5951119185675915 57 64 34
10.404867323581787 -0.9517651770976928 2.567348587691849 60 68 42
11.120900111908817 -1.113954386809007 2.8777149943620737 64 74 50
12.876061923721 0.8292094134359459 2.9939401544678548 59 69 41
10.353688930782948 -1.2066026771733247 2.0458853356997664 60 64 43
10.251046231671678 -1.3793960180403666 2.4259179657413643 61 67 44
10.309508966594969 -1.10920314339281 1.9416164886140979 60 63 42
10.457033337919068 -1.3462908376143026 2.5596832317957583 61 68 44
10.625844247775078 -1.184419604285784 2.5359609261027174 61 67 43
10.423193780770557 -1.2383906978041612 2.4071241447466503 61 67 44
9.751039292903297 -0.9185423444800876 2.3333829431843376 61 67 40
10.672539014218781 -0.5949511348518621 1.9284245343777902 55 57 34
10.829954175520621 -0.6560008880197984 2.128970526530897 60 62 36
10.397624356861842 -0.9638497418286771 2.04371300219726 60 64 42
9.986494342279412 -1.1098262290141216 2.3110929386556585 61 65 43
10.92200854001354 -1.4040719407969136 2.357870529546085 60 65 43
10.269532136848882 -0.8105158520136366 2.050105209205009 62 65 43
18.004444298237328 -1.134272596615651 1.2740874277527543 54 52 44
17.62299792607216 -1.2445272137459789 1.2074041511177667 54 55 47
17.219744769944377 -1.134272596615651 1.5554621388571865 54 55 48
17.665747357234867 -1.082945802250805 1.5558493063692178 51 52 44
18.155926014314847 -1.0342683167715405 1.5562528789641172 52 51 42
19.331309503342002 -0.944866629591667 1.6607178716965139 51 49 40
10.163691864706974 2.1688389163625885 1.544814609991641 30 34 13
10.307495840512823 2.1688389163625885 1.7400200340052243 35 39 17
11.854676653424747 2.5595597543906137 1.3786329525998307 17 18 6
10.5191886742313 2.036321146669734 1.5456928518775541 30 35 12
10.15118055452859 1.7993307982393134 2.296369234432731 41 48 19
9.971237096082374 2.138814933332104 2.0657172712877068 42 46 25
10.042048941370728 1.5271291052428089 2.4501966980562866 44 49 21
10.392833757267441 2.449681899424385 1.8371904093024707 34 38 23
10.069490075864127 2.2290869542164513 1.950901081515211 38 42 21
11.155804487287046 2.508708632025475 1.8185737473039416 37 39 22
10.908059888267905 2.380863027340749 2.1245057377781436 44 48 26
10.836129595161749 3.0120263811226877 1.638765846318678 43 47 32
10.003579786970217 -2.978138144718646 1.7452131446882293 47 53 33
11.462763454568563 -1.9082593497938507 1.3719764217830004 51 52 43
11.675095089912885 -1.9896484882478123 1.462315575841095 62 65 56
12.167154391127088 -2.1814019018903967 1.299203161731044 54 57 49
11.249111249633257 -2.108039394324242 1.4581904738573255 65 68 59
10.003579786970217 -2.978138144718646 1.7452131446882293 47 53 33
11.17025337493465 -2.493499029952396 1.3666974839458013 61 66 50
10.894520350481466 -2.6993261397338832 1.730820882136792 50 57 39
13.073139933537902 2.273064891295759 2.685352730380429 53 59 34
12.578900863225913 2.1743613121896943 2.5934415887426105 51 57 32
10.16450623245466 -2.3687778742729315 2.4357662951528187 53 62 37
9.833657703588125 -2.2175080909435203 2.664586324680016 57 67 41
9.878471783553787 -1.5101494982144794 2.6558815862853384 62 71 46
10.023281163532255 -1.9284818566058755 2.629185465023413 57 67 41
9.74044181221948 -2.250545628655887 2.488503244476985 55 63 38
10.16450623245466 -2.3687778742729315 2.4357662951528187 53 62 37
10.793382422650632 -1.7260573419170784 2.6952466372953126 60 70 44
10.058336886760811 -2.814197090209803 2.623023449934002 59 69 43
9.752479953599035 -2.489632304934076 2.48689158065621 53 63 37
9.428920592575404 -2.6376293152581036 2.532994307743805 55 64 38
9.845581871045287 -2.5310799851761367 2.6622481689276727 58 68 42
12.024446708359136 -1.4638328691764853 2.9221010925714945 65 75 49
11.149498341973583 2.62389963514282 2.2194939780318266 43 47 26
10.654197253839707 2.8054066240334112 1.8305023083323937 42 45 29
10.709482613451765 2.87336457585981 2.1360100670899875 47 52 29
10.794333466311397 2.7271049331828703 2.2446825192357944 46 50 28
11.031543416920414 2.3852985656971257 2.34795708726347 48 54 29
11.189096289554756 2.840574954915409 2.3341989101775624 53 59 33
10.980870305155985 2.605742883711911 2.490730390037763 50 56 34
11.135089750675524 -2.959784291239748 2.220475376629748 51 59 36
10.259274208167907 -2.8515026182402887 2.050624943985385 48 55 34
10.10598259628925 3.100790297459959 1.8449441919758136 46 52 31
10.259274208167907 -2.8515026182402887 2.050624943985385 48 55 34
11.026222396953637 3.096117508106836 2.227997817487154 54 60 33
10.93656798019585 3.0902370782110333 2.3565356907884056 53 62 34
11.038377585862282 -3.0520829392072426 2.4839199384188366 57 66 40
10.945996569052252 -3.0636263337516816 2.3556741008311426 55 63 38
11.04631896126317 -2.9368521283741416 2.3466421954369845 53 62 36
10.273842781439043 -2.579499511980248 2.4233696164465424 53 62 38
13.946309486826776 1.454704653679948 2.967690913286418 56 66 39
13.696175689471172 2.401636840076459 2.7649145256852954 55 62 37
10.974133255613422 -1.6386425378242626 1.822763866378767 62 63 49
10.844818921566022 -1.7480742798139146 2.022726232430065 61 63 44
10.30806566946801 -1.5416985132452685 1.9416709285055267 57 61 42
11.335433734370671 -1.9404140955415472 2.0018203134371335 58 62 46
10.950188750263633 -1.6543484985531245 2.233366852315198 58 63 41
11.592176359818696 -1.6543484985531245 2.301431956186526 58 64 41
10.930034465363049 -1.5383185438687688 2.234806359153323 60 65 44
10.222008410865476 -2.21582090889166 1.944946845161346 55 59 41
10.850403255202304 -1.534050548955905 2.364514200368432 60 66 44
10.139868392391067 -2.083900160511445 2.2973591908977076 57 63 40
11.133934116306072 -2.3665555544600636 2.3389508578247074 53 59 37
10.250976948637241 -2.1569494285450035 2.425925739335442 56 62 38
10.295117236217287 -1.2417110282807275 1.7402254729239912 59 61 40
10.29824066357722 -0.3929848606813304 2.4206629078753097 57 64 34
10.046618322479535 -0.21676894163573562 2.305638860940445 57 62 33
10.403266894525236 -0.30462400889223656 2.1547915097231307 55 60 32
10.080128816932305 0.047893617433724806 2.1761298081181377 49 54 26
9.515788624855187 0.36462474733651046 2.357277143362716 49 54 26
9.043262480168 0.2817873488408543 1.8781540094572562 32 36 8
10.755149359582482 -0.35843150742160323 2.7027335747719494 59 66 36
10.19909997864842 -0.19126304933982335 2.168080106183438 55 60 31
9.28874868966819 0.5433570154490586 1.9847177494305195 38 40 13
10.484991730410565 0.4261661843664921 2.5556425636843 51 56 29
10.404867323581787 -0.9517651770976928 2.567348587691849 60 68 42
9.971699737365727 0.06311195142605658 2.4587647798318533 54 62 30
13.02254387434495 1.0804507034807789 2.9314118793138206 57 67 39
10.55340027390759 -1.3377388410109141 1.9326465977404224 59 63 42
11.001121450181705 -1.4231530124378315 2.2297596232851644 61 65 44
18.004444298237328 -1.134272596615651 1.2740874277527543 54 52 44
19.165307010897102 -0.9882530761538032 1.3464311874012724 55 52 41
9.914955783003544 1.9878825534070264 1.9571360192713263 35 41 16
10.063981676914016 1.6829558443072 2.4475678294418097 41 48 17
10.030228631405333 1.6678951528360444 2.3071164819894303 40 47 16
10.443586294495708 -2.7866175013149777 1.4494637498023581 46 53 35
10.989866352906347 -2.233946676686289 1.4555224734918701 68 69 55
11.94651862321819 -1.7180014596458868 1.3801284982093245 43 44 35
11.33018936092411 2.486285690290853 2.451259412557376 48 54 31
10.793382422650632 -1.7260573419170784 2.6952466372953126 60 70 44
10.270830921644116 -2.7049372592632817 2.163337558967438 52 60 37
10.378739847784225 2.8998392071408814 1.8375609878977976 42 46 28
11.10726152761442 2.9827628911363115 2.2223801096336433 51 57 32
10.570110139616455 -2.5410428703024004 2.26174017772924 51 60 36
10.939104685532405 2.4649992838473382 2.2341576676603023 46 51 27
11.135210228218503 1.5190511564797768 2.634870497557308 50 58 30
10.662846220651383 -2.6039524009829935 2.138786493349526 51 58 38
11.279486451753517 2.799009008182926 2.45672023737528 53 58 33
9.967222471354225 -2.714539584591289 2.459317250513454 55 64 38
11.327917781114419 -1.4933778499008914 2.816883074919817 65 75 47
13.48300968705132 2.5692866908873997 2.8071494500097125 54 63 37
13.962110462058758 1.8628035955498206 2.961362856421446 55 65 39
10.687556248522103 -2.157594883449126 1.8296730510013866 56 60 43
11.260044146056995 -1.8770664881570942 2.212071620237069 57 63 41
10.125235542453698 -2.1264122327585535 2.0575263958158394 56 60 41
10.515810594856388 -1.914412182663271 2.266017669537274 58 64 42
9.705697702728015 -1.8687148520624752 2.493196532291426 62 68 44
10.731687527559695 -1.645682379030876 2.027850016347777 58 60 41
10.40343725578729 -1.6986809458330414 2.567561090759689 61 68 44
10.98240462308947 -1.7933346236798948 2.3523678772900833 59 65 43
10.547886578238671 -2.191441470332339 2.2634836991029683 55 61 40
18.985664334901927 -0.246691624376755 1.4512618699296462 51 53 27
19.81442012537813 -0.8328347236840824 1.658519712924303 37 35 19
10.887004243951624 -0.8323875877584275 2.6776015310222596 61 71 43
9.962771240562544 0.5717218347442663 2.459867373999382 45 54 26
10.652085056113142 -0.14001929450874925 2.7238218850475335 57 66 36
9.009185019693447 0.3180785644603737 2.1243120576259438 45 48 19
10.373714959680807 -0.6998057822072522 2.5720070085557207 59 68 40
11.396523198033343 -1.2295785556596917 2.7994505600432555 64 74 46
11.007913669921987 -1.1109917906178044 2.656112371786129 61 70 44
10.652085056113142 -0.14001929450874925 2.7238218850475335 57 66 36
10.435870084753288 -0.7170668337799746 2.405779973428078 60 66 39
10.909734646516196 -0.7367177125640872 2.0198397726448984 58 60 38
10.184737978772581 -0.7285405722326332 2.1690395417403843 62 65 41
10.67409906983429 -1.1635720830972855 2.2537107094796687 61 65 43
19.976523273959277 -1.4257297484571765 0.9097758929294936 6 6 4
10.133324686520174 1.9477891300069234 1.643487976603892 32 37 11
11.659721944775159 2.5595597543906137 1.633958134419497 25 26 11
11.811840131558872 2.2065349237148655 2.403262440594767 50 55 30
10.673726020251392 2.036828110977781 2.2537391416056414 42 48 22
11.449859200671789 2.634764077348037 1.812082120936216 35 36 21
10.544952991391725 -2.365000352905015 2.0365775881561006 55 60 39
10.528431500151129 -1.9616029649002018 2.3961216207334872 59 65 42
10.506973000012033 2.9988692212106187 1.9343196842696933 44 50 31
11.511863306375373 -1.8468542629152824 2.092392950607114 57 63 44
9.925819679455413 0.05446063549462872 2.3166921593922227 58 61 30
10.672539014218781 -0.5949511348518621 1.9284245343777902 55 57 34
10.783652288739104 -1.4383380618726738 2.0254815593234503 59 63 42
10.335182066762894 -0.6560008880197984 2.0468066455171 60 63 39
10.534071392774528 -0.4580871766157671 2.5486593654124947 58 65 35
9.943604177327224 -0.4596179291394028 2.1856624164922 57 62 35
9.751039292903297 -0.9185423444800876 2.3333829431843376 61 67 40
19.294656510075093 -0.944866629591667 1.5052369119226932 49 46 35
10.322053588005788 2.300435673397966 2.1600003704399886 44 48 27
10.462391264770304 -2.446612721191917 2.1510613012710733 53 59 36
10.522545161993309 2.840574954915409 2.2654839199708356 53 58 33
10.988333076865779 2.921634465325418 1.5467648500538898 42 45 30
10.522916072539076 -2.0162781266851844 2.7523980872537206 58 68 42
10.37059513736907 -2.9368521283741416 2.2777557164176914 52 61 35
10.720440019405755 -2.570487960082716 1.8288608346914041 54 59 42
9.957069073080302 -1.2996772332940536 2.641133945719071 61 70 44
10.560222756403384 -2.959784291239748 2.145000217355925 50 58 35
14.819540119373759 2.047004171377775 3.035336366834414 56 68 44
10.974416997697944 -1.6794792892951425 2.491502917273632 61 67 45
10.242418929901111 -2.1045754492634896 2.5923489211136066 55 65 39
11.326092637768268 2.674593615849997 2.1018447299785494 43 47 28
12.258748162848638 -2.0655485905710584 1.3850422029313265 61 64 58
19.349785015818703 -1.3498861147538606 0.8843303882010445 55 56 48
9.941834029486818 -3.0725366981261595 2.067314204242654 50 56 34
12.196049426838012 -2.544892570331287 1.2998628655384183 61 65 50
12.516881767187298 2.2460789310205196 2.786489077906046 53 62 36
12.8244301031074 2.124879733150772 2.726614751227792 54 60 34
10.9713136421868 -1.8219521835854733 1.637927085412944 60 61 51
13.825586796190214 2.047004171377775 3.027665264308169 57 69 45
