10.209117514793004 1.2344436237283027 2.209529060766016 27 30 10
10.66242337040768 1.322897990094315 2.4316618506499355 26 32 11
10.226075424736322 0.9611460288355771 2.2082982086674674 31 29 9
15.475203670575652 1.307344204951217 1.9750185588167206 32 31 9
10.252659178197874 1.378052448675471 2.0899101848125357 27 29 8
12.272316138718772 2.447397441166032 1.7416394372768418 26 40 16
10.529315790902752 1.614526691193898 2.446500164530944 27 33 13
10.60453207227566 1.7606707376128943 2.438037716117887 28 35 16
12.128280815192003 -0.10747470043519941 1.3281963640954042 30 36 36
13.891293653985354 -0.8769424086121903 1.0498640435457127 29 40 45
17.88085019680196 -1.3953778810483484 1.0489326163565273 32 41 51
9.510547152560234 1.1301872264766264 2.411504363164566 24 30 8
10.769194548856577 1.4484918619434393 2.5750193957269643 28 34 14
10.060468636504806 1.281890651996684 2.504427096688387 27 33 11
10.07767668401997 0.907027396436464 2.502123650442372 29 33 12
10.589434619008346 1.0136447711416272 2.8321448339351845 31 41 17
11.165761097437983 1.4230158262960446 2.6982853350447633 29 38 16
10.890838741528194 1.1427274793523585 2.7548468515555187 30 42 19
14.657193296663772 -0.8133196507029843 1.3005124826193681 29 40 45
14.990160025408631 -0.8595502875248189 1.4427937461285494 30 41 46
10.763816520030408 2.1785152224613618 2.575805299601251 29 43 19
11.239839368095904 2.092101215111007 2.5122509047409043 30 40 19
11.885162404643618 2.4483876493193257 2.772896512959637 29 45 20
11.492513497491135 2.0126552459581064 2.874975444669944 28 44 19
11.423145671952486 1.6780888327592358 2.8981989343215755 28 44 19
12.848000682687614 2.971617772430135 2.795562690261254 32 47 20
11.607673034512453 1.622136648132428 2.6238676095273736 29 38 18
11.377304128270753 2.021910695660666 2.6606124395538564 28 42 18
11.218441949744966 1.837610726275623 2.6884963467145653 28 41 18
11.582228851917314 2.425516546631909 2.627737935365193 30 44 20
10.998582012398131 2.1214876199447725 2.7314621375415182 30 44 20
12.549163800627209 2.921494624433643 2.8691943401039697 32 46 19
12.549163800627209 2.921494624433643 2.8691943401039697 32 46 19
12.829531503473632 -3.0804604272533025 2.799577957926823 32 49 19
12.004294718072508 2.8552089911259104 2.2022599211182565 28 45 16
11.744356294197205 2.4025116293297715 2.3302698812193894 26 39 16
11.534251816724728 2.4117281759960143 2.4779933006323542 28 42 18
11.969532070173749 2.782633345179142 2.4327751298662124 29 43 17
12.342103483141024 3.062453608742901 2.2852340156466724 25 46 15
12.44193559428278 2.956832448967445 2.278295961412593 28 44 15
12.236990680826592 2.668154292096953 2.4076510745105497 27 42 16
12.049066159424472 2.5885933300808226 2.0066068156874666 28 42 18
12.026162081852496 2.496464971780976 2.427300983632401 28 42 18
11.903209433956485 2.822862932479719 2.3176740711821777 28 43 18
12.770177283006815 3.02502355894545 2.622263079079918 30 47 17
12.463035106783742 2.6058306106696247 2.5137724238659285 28 42 18
12.408144959492262 2.82457719641662 2.6758363610324256 32 46 19
13.039398518599748 2.7314319319365215 2.5872137975923772 28 44 19
12.469728332611586 3.040887022167037 2.513033241579399 28 46 17
12.568546758987496 2.9078153276139695 2.5022962029314386 29 46 17
11.587219942569215 -3.109911308465049 2.3432255849405013 27 47 14
11.900020103960092 -2.7115850381404676 2.1076863456754626 34 48 20
12.134975649585359 -2.8039887313441714 2.1944064291569707 34 50 23
11.870066691485896 -2.840800764380134 2.4426039344991244 31 51 18
12.526164199682393 -2.902782210246449 2.2725595178564433 28 47 15
11.579495732473557 -2.8039887313441714 2.124244309224894 35 49 20
12.34369046203759 -2.6668699685536192 2.285122519028756 38 52 21
11.905119779311276 -2.902782210246449 2.2083661373634604 29 48 18
12.034988041801983 -2.7668199233170783 2.3075840665342273 35 51 24
12.100588428527098 -2.7209963262253627 2.4202357024024828 33 52 22
11.368875393764664 -2.7209963262253627 2.362114193313834 36 53 23
12.38462888023391 -3.0065502924531597 2.2822598658938418 28 46 14
11.691037714727747 -3.113317883073944 2.2220001819115147 25 46 14
11.892446018294473 -3.099855716606614 2.5832602918450123 28 49 18
11.956422096694691 -2.9435987501766547 2.5747518174170625 28 49 16
12.28875809218878 -3.0919849975019553 2.6955525710364348 31 48 19
12.102966017080693 -2.796494376495391 2.5560044668163457 30 49 19
9.057042960552224 -1.8416938180430598 1.243284422556044 38 41 19
8.579821113495068 -1.7262336911553053 1.3458763129674831 34 33 13
10.304507231249643 -1.9125399328196502 1.874990959403147 38 45 22
9.768333902659696 -1.8136487552496192 1.7860485891194828 39 43 21
10.666418270733866 -2.0049497520501722 1.864356600866667 34 45 19
9.267971900248737 -1.6026120571818068 1.580124964573054 36 33 14
10.26774822105279 -2.0049497520501722 1.6768072980808073 34 44 16
10.794878759875862 -1.6962971451135318 1.8607612053766678 38 37 16
11.012692893756581 -2.358387568844197 1.2074900429537363 30 44 18
9.856200116003546 -2.1406727445032208 1.4779758885781082 33 43 17
11.18994367344529 -2.422426513757835 1.39894605328345 32 45 16
11.375724572719438 -2.6263839122291888 1.2195951804744072 31 45 18
10.243401450680448 -2.2007363641979043 1.070507582329813 33 43 16
11.162385639385455 -2.2218177776708075 1.9456019584528308 34 46 22
10.351037037924169 -2.358387568844197 1.6759511180228273 32 46 19
11.162385639385455 -2.2218177776708075 1.9456019584528308 34 46 22
11.220806112107244 -2.422426513757835 1.7578301929684421 32 46 19
11.436363510120813 -2.6263839122291888 1.9361945992640504 33 47 19
10.842215887302673 -2.494876107728755 1.8594587544996186 34 46 20
11.92963400075224 -2.548664940304613 1.9204225432128286 34 47 19
10.033116092205704 -2.1406727445032208 1.7802821154374568 33 46 19
11.069268018897576 -1.9125399328196502 2.0482414761708934 37 47 22
11.069268018897576 -1.9125399328196502 2.0482414761708934 37 47 22
12.333340369025963 -2.0501353521122234 2.2858503983388463 39 50 26
11.062265296308437 -2.5762060744389492 2.0485690122092772 35 49 22
10.87703365329086 -2.4321617716705033 2.0574069938600816 35 48 21
11.379049771069559 -2.4321617716705033 2.135165180269606 36 48 24
12.090291024178597 -2.2007363641979043 2.303442079970823 38 50 26
12.242799719908714 -2.445243230832408 2.4071252137960077 41 55 28
12.095571165989215 -2.516611548482418 2.3030494014893708 37 51 25
12.704798386360874 -2.3587368482147517 2.3677048009097073 37 51 26
11.830609575726818 -2.6263839122291888 2.015223023160978 35 49 22
11.556237540115132 -2.5762060744389492 2.1254882971637863 36 50 23
12.009953765124228 -2.3587368482147517 2.3094767493564863 38 50 26
12.240191689295916 -2.2726293553793115 2.407361204984176 39 50 26
12.039297253480834 -2.2218177776708075 2.1008146307058753 37 48 23
12.71616664351386 -2.1406727445032208 2.2599954951596106 38 49 25
10.87409806391932 -2.2849113995328967 2.0575498204059426 35 48 21
11.56597448380442 -2.2218177776708075 2.026147333747907 35 48 21
20.916938847723365 -1.7796595620788733 1.431050813413948 29 40 47
12.478986734198708 2.5621168154920286 1.7387828681148625 28 41 20
12.464357243387813 3.001232650860648 1.65807213030961 23 42 14
11.882001930563899 -2.943863608050746 1.3230636723847011 32 46 21
12.024585655333686 2.903841437372975 1.8303806324532097 23 43 15
12.850516518046113 2.8465073517628876 1.5775242237588114 22 42 14
12.04667793294823 2.710332755790421 1.9168823668967288 27 43 16
12.297918645270833 -3.120214641822538 1.5778265417031487 29 47 19
11.745192064096933 2.710332755790421 1.836703493068451 25 44 14
11.706687527486393 -2.943863608050746 1.7499813722300894 32 46 19
12.296069326194536 2.744468750597615 1.6592697198494126 24 43 15
11.519579318312495 -2.943863608050746 1.5783015583752698 32 46 22
11.925579460297168 -2.943863608050746 1.8325860968258714 32 46 17
12.56167701188168 -3.019531047508808 2.17017914162019 25 44 14
12.390066849965429 -3.1183225676029576 1.9938282010278532 26 45 15
11.804527772443931 2.881730398399448 2.016275438082969 25 44 14
12.171629874813865 -2.925225669044534 2.094455948261392 30 47 20
12.084930516322276 2.9744296147677187 2.09860351835517 23 43 15
12.451486401345552 -3.030244558940021 1.991608533917761 27 46 16
11.982124295825777 3.070113332335738 2.103612760829204 23 44 14
12.24855809164357 -2.749007099943009 1.9990356942207363 34 48 21
11.74879545262745 -2.6690118158315768 1.7493322448849535 33 46 18
11.5623686756809 -2.6690118158315768 1.578273782921832 34 44 20
9.502139011200148 1.124182549254107 2.0153516453045515 28 31 10
9.990780243715822 1.3538726917343638 2.2258569308990124 27 30 10
9.973141851283776 1.124182549254107 2.1059990634429804 26 31 9
10.5156175245797 1.4799030665246051 2.310268798660493 26 30 9
10.772451434993439 1.8990913355335333 2.419857907908622 29 39 18
11.385473774489112 1.7606707376128943 2.494889210596211 29 37 19
13.808892712515144 -0.17625830944180285 1.2070000622933645 32 39 45
11.441094685181035 1.3186389709333481 2.8919594650122207 29 43 19
10.388055585143649 1.2252722270229297 2.635617595069446 28 36 14
15.53901905962221 -0.8107787908878776 1.5763601751022287 30 41 46
11.249818475460694 2.2933760297351458 2.6828011666668528 30 44 20
11.647638212847486 2.2685177723081913 2.8299139041805765 30 46 21
11.675944618039116 1.7927663921117847 2.613691894145341 30 40 19
11.147368762736278 1.6329490541848384 2.7017729432553086 28 39 16
11.147368762736278 1.6329490541848384 2.7017729432553086 28 39 16
12.026162081852496 2.496464971780976 2.427300983632401 28 42 18
11.816465153954653 2.956832448967445 2.2139354058953358 27 45 14
12.770177283006815 3.02502355894545 2.622263079079918 30 47 17
13.215927171020219 3.0032657353214662 2.725158503319098 31 48 19
12.200532821528945 2.7314319319365215 2.544053489208783 28 43 18
11.912368162618508 3.02502355894545 2.5805885858791644 30 47 20
12.866688415561415 2.8723331005637553 2.6092890321804783 31 45 18
12.034988041801983 -2.7668199233170783 2.3075840665342273 35 51 24
11.75610989670765 -3.0065502924531597 2.2177885363885297 27 46 14
11.720611170243721 -2.970171445989944 2.457914201611743 26 48 15
11.691037714727747 -3.113317883073944 2.2220001819115147 25 46 14
11.691037714727747 -3.113317883073944 2.2220001819115147 25 46 14
12.509520083028445 -2.8752666522969563 2.383812176133339 30 49 17
12.441197332745373 -2.7115850381404676 2.1768105752495694 36 50 21
11.905119779311276 -2.902782210246449 2.2083661373634604 29 48 18
11.900020103960092 -2.7115850381404676 2.1076863456754626 34 48 20
11.695173567554638 -2.612743703947917 2.33427029316435 36 53 23
11.652871880088389 -2.990503593602367 2.3377504615572002 29 48 14
13.197972876392477 -3.0919849975019553 2.728244962214581 32 49 19
12.329133930122225 -2.6633772369946396 2.528894474948831 31 52 19
10.594952947844844 -2.2218177776708075 1.7690211887226022 32 45 18
10.746617744936797 -2.358387568844197 1.8621014170049683 33 45 21
11.0756365422832 -2.2940498092255024 1.6690485838193558 32 45 17
11.446202427533398 -2.2940498092255024 1.8438247709320477 33 46 19
9.36053612976616 -1.9502227645391166 1.2542796049584743 39 43 21
11.075319659199309 -2.358387568844197 1.948696483732968 34 47 20
10.630580591622904 -2.1406727445032208 1.965360352414872 36 46 20
10.666418270733866 -2.0049497520501722 1.864356600866667 34 45 19
11.400453596089559 -2.548664940304613 1.7548489095295505 35 45 21
12.399937104663907 -2.1048212069904957 2.393198380167129 40 51 28
11.830609575726818 -2.6263839122291888 2.015223023160978 35 49 22
11.05360377038393 -2.1406727445032208 2.0489747860488055 35 48 21
10.813837664160655 -1.8136487552496192 2.060501251269476 41 47 25
11.376243725474158 -2.2849113995328967 2.135321335651481 36 49 22
12.009953765124228 -2.3587368482147517 2.3094767493564863 38 50 26
11.520122932683513 -2.445243230832408 2.3489165812118618 38 52 27
17.67964957817082 -1.359370320906935 1.519101257083228 31 40 50
13.196280034995473 2.603765646771453 1.6532201193103517 26 42 16
12.222616661808468 -2.943863608050746 1.9116965374117632 29 46 19
12.500798866254733 -3.116063134400611 2.173510233325365 24 45 14
12.171629874813865 -2.925225669044534 2.094455948261392 30 47 20
12.390916605987991 -2.8603657680480863 1.249454775008558 33 44 20
12.44560074124136 -3.120214641822538 1.416431390062012 32 46 17
9.806234141594071 1.0679783618773566 2.240395980041585 26 29 8
14.376361162684647 -0.7593364779912584 0.9878868703296391 29 40 45
11.441094685181035 1.3186389709333481 2.8919594650122207 29 43 19
10.19057635509131 0.9442283069990529 2.6717793726394885 26 36 13
14.513912559693704 -1.070422458615634 1.2977762803560304 32 41 48
11.720611170243721 -2.970171445989944 2.457914201611743 26 48 15
12.866688415561415 2.8723331005637553 2.6092890321804783 31 45 18
11.239839368095904 2.092101215111007 2.5122509047409043 30 40 19
10.750123751775664 1.622136648132428 2.5778142244869864 28 36 16
11.711302480548675 3.062453608742901 2.22068212650509 23 43 14
11.876248198345284 2.5656513665855782 2.31977781286718 27 41 16
11.89377854671981 2.6226980399067736 2.209072681706231 28 42 16
11.423145671952486 1.6780888327592358 2.8981989343215755 28 44 19
11.295591435016535 2.536491113463068 2.0379027336861606 26 40 14
10.433695172672696 -2.494876107728755 1.4831270042760816 31 45 18
10.794878759875862 -1.6962971451135318 1.8607612053766678 38 37 16
9.312786042693963 -2.0501353521122234 1.5800800728574944 34 44 16
10.38104871528707 -1.8136487552496192 1.9753905820501094 39 44 21
8.786520345787906 -1.8416938180430598 1.351255246717835 37 38 17
9.891260995624556 -1.9125399328196502 1.680858420776259 37 42 18
11.208234339149001 -2.548664940304613 1.5785100445489197 32 45 17
9.301106193893792 -2.1048212069904957 1.1365121851043196 36 43 19
11.124992560129332 -2.0501353521122234 2.1496892362804987 37 48 24
11.40694104138168 -2.0049497520501722 2.032985750074858 36 46 21
11.830609575726818 -2.6263839122291888 2.015223023160978 35 49 22
11.360725190002853 -2.3587368482147517 2.2443505719952292 36 48 24
12.268650640068628 2.881730398399448 2.089895596309834 26 44 14
11.195334962998748 -2.749007099943009 1.6679947502394625 32 46 19
10.01770922812495 1.2705365707595209 1.9909746037887486 29 30 9
9.990780243715822 1.3538726917343638 2.2258569308990124 27 30 10
12.560443722126326 -2.2849113995328967 2.2702547787885674 37 49 25
12.325210811132155 3.0529600367917302 2.399750587751409 28 45 16
11.941182265548347 -2.2849113995328967 2.2061308436537277 37 49 25
9.799776554602667 -2.2849113995328967 1.374269688553553 31 44 17
12.587148377591019 2.66448132429404 2.6482944640299357 29 45 20
12.015508806888043 2.7572384164304684 2.7457679232577745 32 46 19
12.112784101156203 -2.5762060744389492 2.195725001645993 37 51 23
11.249818475460694 2.2933760297351458 2.6828011666668528 30 44 20
11.885162404643618 2.4483876493193257 2.772896512959637 29 45 20
11.168104492013619 -2.494876107728755 1.9454005169674624 35 48 20
10.763816520030408 2.1785152224613618 2.575805299601251 29 43 19
12.305957036944747 -3.109911308465049 2.4014593673087075 27 46 16
12.10699422589268 -2.7807025462903217 1.495268677002098 33 46 19
11.937395790878602 -2.83466412552469 2.010967468557977 34 48 19
11.56206513253816 -2.749007099943009 1.8410197936634596 34 48 22
11.847378947493654 -2.5463291454025576 2.4448852737145583 38 54 27
11.110776549109815 2.3072610022761397 2.528384040058244 29 43 19
10.988374746668837 1.951296112656555 2.5443962520765635 29 40 19
11.338384556985723 -2.902782210246449 2.13743726410833 32 48 21
12.270995665473219 2.759306834491192 2.1864550674275747 27 43 17
12.324443299703368 2.8307896271709363 2.9447544895010758 33 47 20
12.49235250642294 3.0817104349375586 1.7386014294101062 25 44 14
12.42517864992564 2.935153316256872 2.391013269083245 29 45 18
11.655340799297157 -3.1055718369453875 2.4648167036633635 28 48 17
12.530254153497978 -3.0619755402739006 2.874650053337276 32 47 20
12.409190122257423 3.0764230771448626 1.9931345037530313 24 44 14
11.451197720494282 -2.516611548482418 2.238061112901944 36 50 23
12.409190122257423 3.0764230771448626 1.9931345037530313 24 44 14
11.757303983342295 -2.6263839122291888 1.1396481838371706 31 45 16
11.547946523529717 -2.1406727445032208 2.125933194674004 38 48 24
9.971833126176708 1.1427274793523585 2.717013630799931 30 41 17
11.809782468168535 -2.749007099943009 1.2330288691809286 32 45 17
12.364706165011576 3.0817104349375586 1.6587773267973245 27 46 16
