11.173316304722196 2.0317319805109757 1.8512501402461257 37 38 26
11.814167340726208 2.184600158907745 1.6634178145300225 34 34 29
11.814167340726208 2.184600158907745 1.6634178145300225 34 34 29
11.199199750675382 1.736512738092599 1.8505844764448656 42 43 28
11.32049591514605 1.912487387568402 1.6674692749179245 33 34 24
11.692081418166106 1.9935137864865016 1.6643877649499765 30 31 21
11.793157154285826 2.3049528859688344 1.7491898544422408 58 56 55
11.010529510499902 1.8265178363941537 1.488298194024907 26 27 17
12.548201663942168 0.15677988111359245 2.171514339982439 31 33 11
11.435083974614525 0.4640942292945636 2.357042810903824 36 41 16
11.831209033720198 0.3079848790222489 2.324043938445188 33 38 13
11.904369411829439 0.34744803295896454 2.4399926540094214 39 43 17
11.171040391568333 0.3079848790222489 2.2586972282701323 33 37 15
11.831209033720198 0.3079848790222489 2.324043938445188 33 38 13
12.377151081435457 0.17345328141057234 2.2834454005173463 39 41 18
12.286633823385563 0.06670707626349773 2.289829326074253 44 46 22
12.4271629303473 0.08509473202850756 2.5186187245881366 49 51 30
12.516663959702475 0.22009573711534836 2.50873325210297 45 47 26
12.4271629303473 0.08509473202850756 2.5186187245881366 49 51 30
11.462971013009719 1.2464616135867073 2.4868786208182443 41 43 19
11.49195048779844 0.9259015118432243 2.483600710866912 46 48 25
11.991723391895295 1.0496197570250319 2.571104248245484 41 41 17
11.325420575744069 0.39789952617566987 2.5028667681399037 37 42 17
11.204676872332794 0.6381253556524143 2.377859741061874 41 46 21
11.092735889959275 0.6054587495661335 2.5316780920912465 37 41 19
11.523250123906386 0.7079858012575111 2.63799847133646 37 41 19
11.967373011831024 0.25405160984049474 2.5742831806017 46 48 27
11.875091224947509 0.8296892080713723 2.5865985065043113 41 43 21
11.664338855948628 0.46464799748302904 2.827221611795933 47 49 28
11.88583874362636 0.1448557015622199 2.7742047868872417 49 51 29
12.154758697930742 0.5545001372011489 2.720445299500542 40 45 20
11.88583874362636 0.1448557015622199 2.7742047868872417 49 51 29
11.311535906732018 1.3878026183802425 2.5045216374829713 46 48 27
12.267117512892849 1.8517926452262181 2.187300590637009 40 41 26
11.180249504482147 1.4113947814053827 2.3801441190831207 47 50 29
11.115265138837671 1.5413375984744853 2.3862973917852406 41 43 21
11.253950388864943 1.7998346586238605 2.3732983111452315 43 45 24
11.454367703161102 1.9202658294741755 2.3553578470659553 44 46 25
11.40422284510751 1.6437217743130033 1.9378578440540224 50 51 35
11.186929589660974 1.6605668937141285 2.2575305364407234 40 42 21
11.410281681764818 1.651274167744466 2.134078531020545 44 46 27
11.499985821400202 1.8824320886722012 2.2354107968752204 42 44 25
10.909132150986462 1.651274167744466 2.0564962027311524 47 49 31
10.813236368753284 1.8517926452262181 1.9589587202008478 36 37 25
13.037445780554963 1.8329836808208786 2.5883638869096983 45 47 25
12.129971489612785 1.3878026183802425 2.553580469446777 39 41 19
12.148099738472595 2.370179138499948 2.416572327257398 40 43 19
11.781375726823772 1.9837873146081781 2.2168310065916104 42 43 28
12.02986826592189 2.1613179701268344 2.1018740249404013 38 39 27
11.363208886386698 2.516060316706352 2.136696856263922 37 41 19
12.086501017668017 2.237171596989738 2.005732887582117 34 35 27
11.889281491258183 2.436575092215519 2.10883370786439 38 39 25
11.942506506971787 2.2884568289639744 2.315340679507286 39 41 21
12.217106257801314 2.195999997649103 2.4102198665142307 41 43 22
11.861978974446941 2.0893561782979915 2.4442323254932035 43 45 23
12.095652926882185 2.1308496934222285 2.303735639388053 41 43 25
11.151098733146076 2.1613179701268344 1.9466002901665374 36 37 27
11.363208886386698 2.516060316706352 2.136696856263922 37 41 19
11.883338116221106 2.0317319805109757 2.0136908567279805 41 42 30
11.902545781564926 2.2196023433697682 2.209177502080814 38 39 23
11.861978974446941 2.0893561782979915 2.4442323254932035 43 45 23
11.395218675715407 2.297847119594553 2.0341089200981677 39 38 26
11.942506506971787 2.2884568289639744 2.315340679507286 39 41 21
12.498421936437515 2.2754721219442233 2.510725788526189 41 43 20
10.647905297959865 2.9366485967140044 2.299778101582584 38 40 16
11.085072517026111 2.716258816581129 2.532668106489107 43 45 20
10.647905297959865 2.9366485967140044 2.299778101582584 38 40 16
11.719378356942025 2.467296019042568 2.4588848978041287 41 43 22
10.647905297959865 2.9366485967140044 2.299778101582584 38 40 16
10.51938780681766 2.706270583525648 2.1885260987757778 37 39 17
10.218856180977754 2.8170214102684357 2.2095802064139893 37 39 17
11.156930906172175 2.651335275182497 2.3823392920730693 40 42 20
10.844832198657503 2.8170214102684357 2.283676005121247 39 41 17
10.903669933235362 2.605828544856657 2.1637024748492832 39 41 20
9.897475702525048 3.0625034485623006 2.2339172571284123 41 43 21
10.78952437979979 3.03529555735533 2.5731352547065756 46 48 27
17.382669023116982 2.1670630346719877 2.9586766298729397 51 54 33
17.561027320460145 2.027216211534051 2.9101234893044152 50 53 32
12.68128777212318 2.365354918604902 1.8171584942111636 48 45 47
12.319412532512068 2.426802500472421 1.9094463017784384 26 27 20
11.147008314682298 2.6573353363636114 2.0452644098755326 35 37 17
11.328810093136411 2.880089832868366 2.037039575477529 34 35 18
11.140441640421292 2.977739411689634 2.045567172040454 34 36 16
11.639382126998328 2.992710549318231 1.9301012603550654 33 33 19
11.631629452194732 2.977739411689634 2.12210558521501 36 35 16
10.700988991969874 3.0714844893559308 2.1765196919539056 38 38 17
11.934323687796581 3.0844654147328923 2.0116654420609237 25 23 12
9.525851301294736 -0.6404314329006902 1.9014506693122952 42 40 25
10.501424040887997 -1.1477880303948667 1.7714153842867755 45 42 35
10.498798076511067 -0.9321513618170928 1.6750619968521712 43 39 29
10.275752182927109 -2.45417674789411 1.7758834196101494 34 31 23
10.734997345329003 -2.0415537299606723 1.7669927456597099 51 49 40
10.487745629426707 -2.3132681914226048 1.870131792359981 43 37 29
11.410516360050401 -1.6388207791254015 1.5789189130990777 57 55 48
11.521763047692161 -1.7255237120755986 1.5788404849623736 58 55 49
11.449786170693514 -1.463648811760664 1.5788910541154808 61 59 51
10.803704263057153 -1.8319893223140633 1.672109114021339 43 41 34
12.277168750458934 -0.04157761032022469 2.2905043824644924 45 47 25
12.266432913482358 -0.0466260617523903 2.405749923589565 48 50 29
12.417804971680031 -0.05306862885498515 2.5196684663917077 50 52 31
9.159487368862115 -0.6135936841440363 2.1603628223340037 45 44 27
9.953628615632253 -0.9892464608758181 2.7226122926496266 51 51 32
9.735865580421114 -0.6753478815414434 2.5521014869143825 50 49 29
9.75221618615474 -0.9366131723647627 2.549599351598861 48 47 32
10.126923541595037 -0.8039041387653939 2.4966353010590914 48 47 31
9.436661205442878 -0.5747414980949671 2.421294736115689 48 48 27
10.606252145323591 -0.8199579042776236 2.829127093409227 53 55 34
11.558192098289394 -0.11845638288744409 2.856816809349313 53 55 36
10.860084918912676 -0.6366037983994333 2.7634102630104147 52 54 33
11.876054246119486 -0.09059222924904557 2.7763515078258436 52 54 33
11.86393781334292 -0.061574441983282345 2.5881166783256213 50 52 31
11.63440184961146 -0.40537702011792015 2.835234042040467 53 55 34
9.208528050104778 -0.8849391206063384 2.0313506520156097 45 44 30
10.435718484241848 -0.9862071744536354 2.318087700682259 46 45 30
10.241246633507059 -1.1040471090832484 1.9819065752286429 46 44 34
10.853801189978046 -1.2036318075153345 2.1668014236590043 49 47 36
9.9711765846849 -1.1789842521193568 2.5176948493836746 48 47 32
10.07250517034038 -1.103077376793941 2.3520394732975265 48 46 32
10.380262734458169 -0.9550160579601579 2.0835883235893427 44 43 29
10.73320895863812 -1.2398179034874643 1.9620094721057248 53 50 43
10.47730892681912 -1.2781838288215133 2.314415931121714 49 46 33
10.692613921961877 -1.013520244779187 1.9635759557785957 45 42 31
8.545729169139594 -0.8004157235044299 2.070215196696148 44 43 29
9.855796186258305 -0.905477450917911 2.37408832183329 47 46 30
9.9711765846849 -1.1789842521193568 2.5176948493836746 48 47 32
10.168252778103186 -1.2984266288422877 2.6774878727300653 48 49 32
9.77884772057117 -1.2235988243569242 2.764751352385224 50 52 33
10.791878746734106 -2.0540349918199547 2.7796503364359295 53 55 36
11.348272504028145 -2.135234563792424 2.6667363622524984 51 51 35
10.647176463074043 -1.5045675432465062 2.817440071626022 52 55 34
11.030911502559878 -1.7459036347244086 2.726168969954027 51 52 34
11.348272504028145 -2.135234563792424 2.6667363622524984 51 51 35
10.311408365116296 -1.4064641170960035 2.3293164533599704 50 48 36
10.310385773488933 -1.4410453346631058 1.978985036212587 54 52 43
10.36621534814558 -1.544033085190209 2.1990639883888963 51 49 38
10.729018641827832 -1.890504377342345 2.1747114729319086 53 50 41
10.435865106446244 -1.4257736520640671 2.1942239969297552 51 50 37
10.982385282355331 -1.6754499850720819 2.399237328227861 50 48 37
11.097924428210966 -1.8067855960783985 2.3879583986769743 50 48 37
10.266758741030998 -1.6532592224896991 1.9808235238843748 52 50 41
10.39025866717105 -1.7578029470400895 1.9756628234209705 47 45 36
10.379932775525974 -1.3812936653126278 2.4648980051341383 50 49 35
10.309905166810463 -1.5356543630252928 2.4733995085436 49 49 36
11.451328686694676 -1.9809271175307337 2.4882041363355833 49 47 34
10.595430459639656 -1.7138695997266047 2.6024908399495654 49 49 34
10.56939007232078 -1.529133910619835 2.6066236775996874 48 50 33
9.722481305270884 -1.529133910619835 2.554162967740462 47 49 33
10.595430459639656 -1.7138695997266047 2.6024908399495654 49 49 34
11.473153806734478 -2.8441199473656433 2.353724518886427 37 36 21
11.290874351060102 -2.6116253737134834 2.5069986660596237 46 45 28
10.791102561993126 -2.8441199473656433 2.2879887033252837 43 42 24
11.833637806507921 -2.678421471876535 2.447095908796531 39 38 23
10.441744708199227 -2.7311334918688805 2.1938191426565705 28 25 15
10.778744739512911 -3.075246358703767 2.5747027576911243 48 50 29
11.401004260065033 -2.6282274754746555 2.2422315090485156 38 35 23
11.307774160094578 -2.965475090153507 2.3683852153393326 52 53 32
11.166924612646197 -2.3989466123836274 2.5222344763966884 48 46 32
11.166924612646197 -2.3989466123836274 2.5222344763966884 48 46 32
10.531518925059585 -3.0922792546745517 2.3096918556714967 46 48 27
10.561586742257658 -3.0850156628496634 2.4437610643854573 48 50 29
11.307774160094578 -2.965475090153507 2.3683852153393326 52 53 32
11.250913901643948 -2.859560157496757 2.6838546330079116 54 55 35
12.890700246858742 -2.5784315978991845 2.7878808702162683 55 57 38
11.633332667377305 -2.281793905864633 2.6210829949495102 51 52 35
12.196404835119077 -2.410868482695999 2.712886217130552 53 55 36
11.172088515802308 -3.061407859771736 2.6983917293706616 53 55 35
11.870202423028637 -2.7501605536626528 2.5872631473637036 50 49 31
11.417117212304 -2.6786210661428385 2.6551375775122867 51 51 32
11.221255143593337 -2.1823874621275228 2.5154752242093026 49 49 34
11.189247509601241 -2.4701636691714066 2.2573607092350554 37 34 22
10.041341160027134 -2.4701636691714066 2.102696003730556 38 35 25
11.154175071434645 -2.3062184732424296 2.259940460602343 43 40 29
10.912416922621857 -2.0434707394526415 2.2783338419816253 51 48 39
11.221255143593337 -2.1823874621275228 2.5154752242093026 49 49 34
10.161754557075666 -2.144895776994107 2.095737003679517 49 46 37
10.51083333382014 -1.9939361026216595 2.076607756350615 54 51 42
10.977190216324573 -2.104893805213874 2.399753334345876 50 49 36
10.668289263159055 -2.2345889894753035 2.0684513487482925 48 43 33
10.35322932530249 -2.591310851005972 1.6765334452823741 32 29 23
10.629108474073167 -2.678312871556269 1.9660525833634708 37 34 27
11.150951677245734 -2.720037269824865 1.8518279000678253 34 31 24
10.94594312328134 -2.876357652938427 2.161102640831455 41 39 25
11.76285726268481 -2.902412658701342 2.1152599535361 39 37 26
11.60938076514582 -3.0138760678302488 1.9310721005753286 37 36 26
10.772472744956325 -2.985198182110705 2.1719312110661915 41 40 21
11.533005676442484 -3.1059946486531964 1.9335680165160154 24 23 14
11.029253990102825 -3.1023566844574457 2.050755651154538 37 36 20
11.427927916129182 1.912487387568402 1.4031118706874637 27 28 20
11.389151825795787 2.237171596989738 1.8457956509517308 38 39 33
11.4005795984114 1.8265178363941537 1.8455128413575423 31 32 19
11.36026582155247 0.27636399600030365 2.136861423930551 29 34 9
11.747702120974454 0.17345328141057234 2.2189939402871315 32 34 12
12.366502043277917 0.1940453186267143 2.396856980716028 43 45 22
12.458927193632851 0.060199394298237306 2.1764323867122934 43 45 21
12.786256798708768 0.05484742024136838 2.0674684322109744 36 38 16
11.6982291104643 1.1173197194646798 2.4611112793831884 47 49 25
11.49195048779844 0.9259015118432243 2.483600710866912 46 48 25
11.457804663508075 0.7236739385586962 2.48746621073098 43 45 23
11.926196094896389 0.6054587495661335 2.579725086156622 38 43 18
12.367478348395016 0.3000250730485705 2.683558486572042 45 47 26
12.142920364847097 0.39789952617566987 2.5519828575902643 43 45 21
12.734633186359002 0.09868331262721772 2.628160979874499 50 52 31
11.523250123906386 0.7079858012575111 2.63799847133646 37 41 19
12.734633186359002 0.09868331262721772 2.628160979874499 50 52 31
12.276889773688723 0.11741274615568045 2.6987604812703987 49 51 30
11.300377594054941 1.7740237373980607 2.2493271963201975 40 42 23
11.140029588418818 1.6722774941206866 2.3839392925026246 42 44 23
11.229935197322375 1.8517926452262181 2.0414754367572727 36 37 23
11.115265138837671 1.5413375984744853 2.3862973917852406 41 43 21
11.025438966856296 1.753382581404426 2.050935783516742 38 39 24
11.521530635354162 1.753382581404426 2.1279922853246465 38 39 23
12.64594190425223 1.5413375984744853 2.4949257095507575 42 44 22
11.993662844593302 1.944927944591698 2.10364803806799 41 42 28
11.11203045760384 1.944927944591698 1.9479878695883008 36 37 25
12.086501017668017 2.237171596989738 2.005732887582117 34 35 27
11.302952704537082 2.4494783131643816 2.249143528472655 39 44 20
10.859887311852106 2.516060316706352 2.0588914116055275 37 38 24
12.016744517195992 2.366545136821023 2.00843161386807 31 32 21
11.409191496720666 2.436575092215519 2.0334971770130994 37 38 26
11.861978974446941 2.0893561782979915 2.4442323254932035 43 45 23
11.73685134963406 2.0310186159948813 2.3316092722229755 44 46 25
12.64483724528523 2.0893561782979915 2.495041434031428 45 47 25
10.677645380872427 2.907427970054495 2.4308979252759073 42 44 20
11.519965513308476 2.5435222197122602 2.349689105896675 40 42 21
11.362716703783668 2.5821822352633514 2.4984595814050397 42 44 22
10.572587795660507 3.050890583455312 2.4425211739229806 45 47 25
10.874033707064875 2.773100284985283 2.4101638008055657 41 43 17
10.647905297959865 2.9366485967140044 2.299778101582584 38 40 16
10.579506941295191 2.5821822352633514 2.4417435958166225 41 43 21
11.12847175490666 2.706270583525648 2.261844905165712 39 41 18
10.378085287923277 2.605828544856657 2.083706457957219 37 38 21
17.382669023116982 2.1670630346719877 2.9586766298729397 51 54 33
11.934323687796581 3.0844654147328923 2.0116654420609237 25 23 12
11.039789027011153 3.0786362528117657 2.0502589567767906 38 37 18
11.543080962878642 3.0844654147328923 1.9332367322068302 25 24 13
11.934323687796581 3.0844654147328923 2.0116654420609237 25 23 12
11.398641469864225 2.959457769598632 2.242396228594104 36 38 16
10.804798174374993 2.959457769598632 2.1698808854544707 36 38 16
11.819801795335016 2.9034070549799673 1.9243740152712485 21 19 12
11.819801795335016 2.9034070549799673 1.9243740152712485 21 19 12
10.998916390794776 2.8518535523239454 2.1578792475569752 36 38 17
12.475163156843667 2.365354918604902 1.7393410349623788 72 69 71
10.649418989826804 -0.9321513618170928 1.7685901735670597 47 44 34
10.021812065637892 -2.3132681914226048 1.5800444752659533 38 33 25
9.950323857904287 -2.535990269812174 1.8868437460112297 38 35 27
10.262711704290371 -1.858381412260098 1.8769058821775664 44 42 35
11.182569161435241 -2.1225250550458536 1.3993966229052577 48 46 38
11.678197471703502 -1.7255237120755986 1.4067383909874496 58 55 49
9.344199848707895 -0.49793500819594544 2.281052746129145 46 46 25
9.735865580421114 -0.6753478815414434 2.5521014869143825 50 49 29
10.223677542535588 -0.8095031501405996 2.666772307575372 51 51 32
10.599817941632562 -1.3114456951046887 2.1831452669935083 50 48 36
10.73419127013381 -1.1590637094119631 2.292621909147092 48 46 33
9.14509227695722 -0.6981242508812707 2.2999305236350076 45 44 27
9.347150188575155 -0.8039041387653939 2.4322756227032984 47 46 29
10.685220757135125 -0.40537702011792015 2.8070054383042327 52 54 33
9.66437864383147 -0.8004157235044299 2.2528990504957607 46 45 29
10.255131222399303 -0.8849391206063384 2.2069557979225665 46 45 30
12.266432913482358 -0.0466260617523903 2.405749923589565 48 50 29
9.19121030703229 -0.7131031236836014 2.0322856766986397 45 43 29
9.704483647588194 -1.5045675432465062 2.7846137167431935 50 54 34
10.096757137001457 -1.5196451158503477 2.6918400396988718 49 52 32
11.000717567886108 -2.2577719909533718 2.732436059672694 53 55 36
10.435865106446244 -1.4257736520640671 2.1942239969297552 51 50 37
10.392764827913489 -1.6630425008675669 2.1972094010785175 51 49 38
10.63770963961164 -1.347169569990979 2.5958833504622656 48 48 32
10.240912195521306 -1.5404105696359864 2.3358601234145357 50 48 37
10.56939007232078 -1.529133910619835 2.6066236775996874 48 50 33
10.715142871154193 -1.889365027355039 2.5840964226692438 50 49 34
10.56939007232078 -1.529133910619835 2.6066236775996874 48 50 33
10.860425404967362 -2.9064383138220244 2.562995700275555 53 53 32
11.423658787842326 -2.940136481368544 2.4913745885569885 52 51 31
11.346033592571633 -3.0850156628496634 2.5004241836878296 52 54 33
11.428784790316318 -2.5673337534198803 2.357595067950232 39 37 22
10.807290796887525 -2.6282274754746555 2.169723412541235 39 36 27
10.615102104368633 -2.965475090153507 2.302541361611029 47 47 25
11.58738460215809 -2.8033013341349418 2.4730168562177655 45 44 27
11.721807031779234 -2.7311334918688805 2.332831825479902 32 30 17
11.6669647833861 -2.52514856197435 2.6160760820568485 50 49 32
11.633332667377305 -2.281793905864633 2.6210829949495102 51 52 35
11.633332667377305 -2.281793905864633 2.6210829949495102 51 52 35
10.829697288118233 -2.2964015289832624 2.414737021343047 46 44 31
11.125708870848165 -2.3859607240644802 2.150315768973514 40 36 26
10.169103713691145 -2.3859607240644802 1.9850014516084193 38 35 26
10.690120075263122 -3.097891039334261 2.177224019424469 40 39 19
10.94594312328134 -2.876357652938427 2.161102640831455 41 39 25
11.124818437193369 -2.8083575118736883 1.9475325248434532 38 35 26
10.695597641359834 -2.7735721748193956 2.06706479591325 38 35 26
11.389151825795787 2.237171596989738 1.8457956509517308 38 39 33
11.170848285165409 1.8265178363941537 1.7592439182340136 31 32 21
12.275906264047478 0.0747893388534267 2.404898080097863 47 49 28
11.97938482653455 0.3654133030417034 2.754421701800514 46 48 27
10.831079615194074 0.5263143670500984 2.41459351536094 36 41 16
12.516663959702475 0.22009573711534836 2.50873325210297 45 47 26
11.446599565494022 0.4142521691690982 2.2390703677165162 38 43 18
11.56824544879975 0.18884151650180972 2.8538629637469057 51 53 32
11.762336929025436 1.193682132671133 2.60225832743796 40 40 14
10.939067627151005 1.1173197194646798 2.403563901561131 44 48 26
12.276889773688723 0.11741274615568045 2.6987604812703987 49 51 30
11.557202590809423 0.9610807028703684 2.632692075310393 36 40 18
11.462971013009719 1.2464616135867073 2.4868786208182443 41 43 19
12.138861319777035 2.07689788004549 2.1948079952291892 39 40 27
10.892489822121057 2.8687301464738377 2.5585042756516376 45 47 25
13.210833910283526 1.968006101805895 2.567463410467884 45 47 25
11.993662844593302 1.944927944591698 2.10364803806799 41 42 28
11.875873544161054 2.297847119594553 2.10950759534514 39 38 24
10.874033707064875 2.773100284985283 2.4101638008055657 41 43 17
12.217106257801314 2.195999997649103 2.4102198665142307 41 43 22
17.561027320460145 2.027216211534051 2.9101234893044152 50 53 32
11.675226113874867 -1.10464375465391 1.6645232779082908 30 27 20
10.761156695895693 -2.382035485115227 1.4863819281171693 30 26 20
11.599416503877157 -1.3778239226371858 1.5787866313894405 26 22 21
10.443495843396462 -1.5491861203813904 1.6756161483533654 58 56 47
10.639979797004104 -2.174034043347429 1.8657192923967651 50 46 39
10.463572923724426 -1.051125222171419 2.1923211115593944 46 44 31
11.558192098289394 -0.11845638288744409 2.856816809349313 53 55 36
12.44959311116341 -0.037515134400037134 2.1769516391529917 44 46 24
9.389339964375912 -0.5454011473032936 2.0218188168671456 43 42 24
12.267417182625932 -0.07332148766154802 2.7003915058671044 51 53 32
10.240762782077404 -1.0311721641657743 2.4820002985217284 48 47 31
9.914685802412889 -1.051125222171419 2.110230220797692 46 43 30
11.301109093291172 -1.9303579519030045 2.368989731303615 50 47 37
10.977190216324573 -2.104893805213874 2.399753334345876 50 49 36
10.459274582732709 -1.842078487954254 2.455508403160262 50 49 36
11.124120848949532 -1.77949949575097 2.2621684469618377 51 49 39
10.729018641827832 -1.890504377342345 2.1747114729319086 53 50 41
10.442400332029413 -1.096283039162866 2.88205901079473 52 56 36
11.95762472587398 -2.5784315978991845 2.7589093433460192 53 55 36
10.309905166810463 -1.5356543630252928 2.4733995085436 49 49 36
10.912416922621857 -2.0434707394526415 2.2783338419816253 51 48 39
10.778744739512911 -3.075246358703767 2.5747027576911243 48 50 29
10.336599279879808 -1.6916951017832216 2.470134460412164 49 49 36
11.145947635867241 -1.9556351836523076 2.7033584145626 51 52 35
10.957264547591624 -1.5404105696359864 2.4017397248641448 51 48 37
10.670730124973987 -2.213068876948366 2.297869406026533 47 45 33
12.196404835119077 -2.410868482695999 2.712886217130552 53 55 36
11.629761193967404 -2.492346141816593 2.4684174592809462 42 41 26
11.924578973799695 -3.1059946486531964 2.0120510649549717 36 35 23
11.60938076514582 -3.0138760678302488 1.9310721005753286 37 36 26
11.34709804646591 -2.837323075966402 1.6672419287252462 35 32 25
11.21340704632139 -2.63818513546297 1.6683954373337466 30 26 21
10.5425513539942 3.0625034485623006 2.3087388687230916 42 44 22
10.903669933235362 2.605828544856657 2.1637024748492832 39 41 20
11.260722634635297 2.3680908168227957 2.1424886336288673 38 40 21
11.639382126998328 2.992710549318231 1.9301012603550654 33 33 19
10.771411058207718 2.750714867536352 2.06325765271598 36 38 17
11.17649902840263 -1.0627833838804805 1.8511681146379084 46 43 34
11.049244415717066 -1.9195384651657768 1.5791844996110007 45 42 35
10.096757137001457 -1.5196451158503477 2.6918400396988718 49 52 32
10.925448589116751 -2.046803073673998 2.553946423562644 49 48 33
9.885723397878222 -3.0922792546745517 2.2348461995789712 44 44 22
10.678977417893577 -1.5468840168645055 2.0679077005823236 54 52 41
10.476302528753944 -1.3380413526330057 1.9721457739688375 51 48 40
10.336451249593182 -1.1012254454187493 2.6459674154063832 48 47 32
10.791102561993126 -2.8441199473656433 2.2879887033252837 43 42 24
11.39782639464338 -0.5564895017305882 2.909676784163844 54 56 37
11.601608042207491 -3.0009749306829283 2.123697558928356 38 37 24
12.119619650556256 2.069045370161859 1.4958626403260151 23 24 14
11.159240445647237 0.34744803295896454 2.382121239954645 35 40 15
11.302952704537082 2.4494783131643816 2.249143528472655 39 44 20
11.66197475178218 0.464265150255516 2.6168144061974585 40 45 20
11.73685134963406 2.0310186159948813 2.3316092722229755 44 46 25
12.548201663942168 0.15677988111359245 2.171514339982439 31 33 11
11.26085694337267 -0.9851142053452048 1.5790268665882734 42 39 30
9.43718628383739 -0.7980338079481938 1.9046774498630283 43 41 28
10.544755298263286 -1.2355013535374775 2.4456666568817313 49 46 33
11.633332667377305 -2.281793905864633 2.6210829949495102 51 52 35
11.145947635867241 -1.9556351836523076 2.7033584145626 51 52 35
10.310385773488933 -1.4410453346631058 1.978985036212587 54 52 43
10.240762782077404 -1.0311721641657743 2.4820002985217284 48 47 31
11.770523504390999 -2.9238808004206467 1.9259196757624406 40 37 29
11.410905906194579 2.111660773466647 1.755233357811823 34 35 26
12.306473223663449 2.3049528859688344 1.9098166567267072 34 32 30
11.781375726823772 1.9837873146081781 2.2168310065916104 42 43 28
10.675407494923356 -1.359763722609496 1.6733309476537637 62 58 55
10.779806069510176 -2.250504506284518 1.5793941648322603 48 42 36
10.860084918912676 -0.6366037983994333 2.7634102630104147 52 54 33
11.904369411829439 0.34744803295896454 2.4399926540094214 39 43 17
10.97347364653146 1.8265178363941537 1.579242420501753 33 34 22
11.306347043871513 -2.391291451804127 2.3685145621106596 41 40 27
10.63770963961164 -1.347169569990979 2.5958833504622656 48 48 32
