8.380861515869308 0.9626670521967082 1.5493690343028945 33 35 15
5.624987256447495 0.18113793648617613 2.096025991979459 39 45 15
6.766708157401269 0.5411024757910669 2.170736118159951 39 44 18
6.405844599397592 0.3736231969997908 2.2098028205220426 40 45 18
6.775025048117937 0.6807008226688811 2.000167091344474 40 42 18
14.972640028028112 1.6521420031198715 1.4919332130339302 41 51 28
15.37499339360002 1.7834932996290567 1.428556763679567 44 52 30
15.265362458647003 1.7834932996290567 1.4934485130366193 43 56 32
7.474231086872643 1.4568248021331915 1.9577342320878994 40 42 18
7.538807843865262 0.9983452217721113 1.9542462669772154 36 39 17
6.202400095409746 1.4376432400644275 1.8686874455253908 35 39 17
7.012644010447745 1.6069970362185177 2.1469377571796326 39 43 21
7.2244553127622995 0.9983452217721113 1.8255243931222755 36 38 14
6.759065415549995 1.275575187870061 2.0012484661087884 37 39 15
7.053474691582074 1.4376432400644275 2.1431815798279557 37 41 17
6.754141348726662 1.1279438089886857 1.843699856305316 34 37 14
7.086127949531003 1.2195279613151642 2.3189184701814365 39 41 14
6.438921886567258 1.1388359105739045 2.4168046897709132 39 44 17
6.4110361849498325 0.4600850300618839 2.42173006443955 40 46 19
6.860360843431201 1.614411551345773 2.3499117618996994 39 44 19
7.710654213146123 2.0711047427396987 2.0891776436039677 42 48 26
7.350409349296694 1.9309172000355168 2.117364065564017 39 45 22
7.267277293050201 2.0711047427396987 1.9693660640329116 41 48 25
6.671338044543579 2.7225012966523514 2.3782930243924723 43 52 26
6.729899921724643 2.7960156098131583 2.17448223276143 42 52 25
7.484232747329128 2.3977164226856154 2.2706145632419434 41 50 24
6.671338044543579 2.7225012966523514 2.3782930243924723 43 52 26
6.879161311706143 3.0013997060483515 1.993246951596837 42 52 26
7.572421229667793 2.153337902435637 2.2608488771961675 40 47 25
6.729899921724643 2.7960156098131583 2.17448223276143 42 52 25
7.205268384109205 1.9967663121208352 2.3036794225153123 41 47 24
8.386705990775692 2.476097941212064 1.9137797634885572 43 49 26
6.461676024745049 2.9364081425373456 2.41283716780465 44 54 26
7.01856435180188 2.542467706053115 2.3278901675496613 41 51 27
7.0374892535917715 1.3704720071339702 2.5446556481442397 39 45 20
6.720708660389982 0.5926176951122363 2.6180326070459303 40 46 21
7.065509122041418 0.8012132148308231 2.538845494340616 40 46 21
7.634117450644132 1.4107647942059345 2.4378473335433 38 43 18
7.596408364662149 1.614411551345773 2.4437166104797132 40 46 22
7.9092832562545565 1.9967663121208352 2.3977899636300255 40 48 26
7.243993643600837 2.4113292463597262 2.5039212653974445 41 51 26
7.335071054315636 2.0894661582677863 2.4873476122763134 40 48 26
8.151327285325015 2.0894661582677863 2.562074964529193 40 48 25
15.512471932787916 -1.3088086447511385 1.230361660225714 21 23 27
5.668641206107295 -0.2304693024125755 2.0915688237574477 41 46 15
5.774492733626774 -0.5780761732026136 1.7133578064854416 39 46 19
6.4823505002732595 -0.41746076864792914 2.2010620600336575 41 48 18
5.998802836511082 -0.5780761732026136 1.8791247491824712 40 46 18
6.125998410056285 -0.02574084223389844 2.244190411581752 40 47 17
5.948108848009422 -0.41746076864792914 2.0648211817542417 40 47 17
5.557606263436368 -0.02574084223389844 2.1030666572750705 40 45 15
5.544288027072817 -0.41746076864792914 1.9053463305825484 40 46 18
5.797493084353584 -1.3239046233757592 2.5525425541765867 44 54 28
5.667337588104578 -0.8422007032858703 2.310561555995184 41 49 24
5.870457192424389 -1.9411972160603037 2.534192193346917 48 60 34
5.959285085811686 -0.6510083627950128 2.5130662210709844 42 51 22
6.232246962156376 -0.28832972664285456 2.4550885286967423 41 48 18
6.39443032672679 -1.6123154728283189 2.2111297562313217 44 54 30
5.7205202509132365 -0.9763856798686117 2.0863747033835702 40 47 24
6.423663177001815 -0.9342360462658111 1.6988668137217546 41 46 24
5.852167979709595 -1.6123154728283189 2.073671734130073 45 52 29
5.901033745900669 -1.4183430464849622 2.0691225773769615 45 50 28
5.901033745900669 -1.4183430464849622 2.0691225773769615 45 50 28
6.115270106690192 -1.235160670431249 2.0501567427523892 42 48 26
5.723256008353434 -1.235160670431249 1.8944964977127956 43 47 26
5.675963589267734 -1.3821575443195437 2.309175425783101 44 54 30
5.750469915724511 -1.8568732069173688 2.2974457178347922 45 56 30
5.408055963092657 -2.1872065268173553 2.355243476591029 47 60 33
6.464098115345265 -3.1179529445833465 2.203123529722633 45 55 29
6.403105714647806 -3.1123444839553454 2.423143727209707 46 56 29
6.1871924792931505 0.18113793648617613 2.2363244804799316 40 47 17
5.8646377459316525 0.3736231969997908 2.072502575607609 38 43 17
8.087518340890771 0.8872195676796306 1.9270218238104628 37 39 18
7.795324481612013 0.8872195676796306 1.8065018209737607 35 37 17
7.624054999342188 0.8872195676796306 1.6786164231396288 35 37 14
15.084398571646291 1.6521420031198715 1.425797396776261 41 49 27
15.614611511200785 1.8467537753700887 1.4307540350958345 44 52 30
15.197524504364665 1.7184582471959504 1.4268842687685788 42 50 28
6.565869027338562 1.4376432400644275 2.0148017814678036 36 40 18
7.113567797508395 1.7743176550726274 2.137747899534631 39 44 21
7.5432197130820215 1.1279438089886857 2.101885354780726 36 38 15
7.053474691582074 1.4376432400644275 2.1431815798279557 37 41 17
6.9634920617865195 1.8145488438731119 2.335390038631976 41 46 22
6.4110361849498325 0.4600850300618839 2.42173006443955 40 46 19
7.761378102280732 2.1927517554009888 1.9427041923098944 41 48 25
7.074252413664566 2.637323749155551 2.141290249183223 40 50 26
6.5221207211013645 2.9749621172247527 2.1966208032061996 43 53 26
7.689674299681936 1.8145488438731119 2.429376754447146 41 47 24
7.696033924323547 2.2628207079254268 2.4284201827096403 41 49 25
7.218073441157264 1.1388359105739045 2.5087838672583276 39 44 17
7.9092832562545565 1.9967663121208352 2.3977899636300255 40 48 26
10.923436250332381 2.515668591409619 3.0041570144669443 45 55 29
5.243340918055258 -0.2304693024125755 1.9253691751881565 40 47 17
6.487480862514955 -0.5109787966879751 2.408392376429618 41 47 19
5.625142972331713 -1.6223688775492922 2.317429055480234 46 57 32
5.747747111313044 -1.6388365607838147 2.5656238537380878 50 60 36
5.493753737621798 -1.4183430464849622 1.9085456667033887 44 49 27
6.109827210705214 -1.0725539827509145 1.8733427017570101 42 48 25
5.675963589267734 -1.3821575443195437 2.309175425783101 44 54 30
6.499712958057904 -2.881027913953061 2.4063053630844564 46 58 32
10.888891828798098 -3.0403165949830635 3.0294009609321138 50 60 32
6.945161307971324 -0.032533411500418066 2.564506706634066 41 48 18
7.67210246673876 2.887041506687042 1.8103609974155896 41 50 25
7.4905047896873675 3.020632325193329 1.8162869784689073 41 51 25
7.975879294218823 2.76208908552103 1.8010684707776252 41 49 26
6.256793919158268 0.5411024757910669 2.0384347547463104 39 44 19
5.8646377459316525 0.3736231969997908 2.072502575607609 38 43 17
6.406566642988975 1.275575187870061 1.8589175045325264 34 38 16
7.536480708397555 2.5021405149011793 2.102410662723573 41 50 24
7.076464838341541 2.84823255911077 1.9807485114699954 41 51 25
7.848107729097791 1.6256417788672244 2.624084548211007 40 46 23
10.923436250332381 2.515668591409619 3.0041570144669443 45 55 29
6.226906315675752 -0.2304693024125755 2.2313276952234364 41 48 18
5.661464068987652 -0.6896180909921812 2.0922961231090498 41 48 21
5.797493084353584 -1.3239046233757592 2.5525425541765867 44 54 28
5.408055963092657 -2.1872065268173553 2.355243476591029 47 60 33
6.015418129327988 -1.051059385525371 2.5003391660979095 44 52 27
5.424595316540344 -2.5576168290078933 2.3522049170648374 48 60 36
5.898380445021603 -1.1618023975715688 2.2753700059728876 42 50 26
5.901033745900669 -1.4183430464849622 2.0691225773769615 45 50 28
5.887088585031113 -0.8278594191664533 1.8851742390029909 41 47 23
7.205268384109205 1.9967663121208352 2.3036794225153123 41 47 24
6.902092444295734 1.4107647942059345 2.343958501712001 38 43 16
7.3928653889026705 0.7946676973963734 1.9622230665887306 38 40 18
6.405844599397592 0.3736231969997908 2.2098028205220426 40 45 18
7.076464838341541 2.84823255911077 1.9807485114699954 41 51 25
7.938417078990263 1.8739988632948106 2.604437958788459 40 48 25
5.889746972837531 -1.0725539827509145 1.7105495826729864 41 46 25
5.783298263177578 -0.5109787966879751 2.292411196140759 40 48 19
7.67210246673876 2.887041506687042 1.8103609974155896 41 50 25
7.350409349296694 1.9309172000355168 2.117364065564017 39 45 22
5.972733114347074 -1.8032485464061752 2.0626021033469293 44 54 29
5.972733114347074 -1.8032485464061752 2.0626021033469293 44 54 29
7.725971929581062 2.2264816864765242 2.6525714480413813 42 51 25
6.1698422338397565 -0.19171014215744456 1.8703080115697341 40 45 15
6.824175122068968 -3.1217568300421386 1.9968719072348038 43 53 27
6.192567376212109 0.22749719908178404 2.462945437166663 40 47 17
