14.155037656415908 0.2927281439055029 1.7277420365767422 38 41 34
13.750865361041566 0.3860567302766098 1.8065943470085588 47 47 25
13.496797062181281 0.41630623672298184 1.9673047567858526 47 46 26
13.610318280551626 0.4513489157638211 2.1293097907320093 45 46 27
13.55756266075998 0.48733842533330324 1.886735703027888 46 46 25
14.56609207607356 0.003316907802390272 2.3477522633997396 43 48 46
14.467332074883728 -0.1573750110202379 2.0927036513240154 34 41 49
13.081545234975133 -0.4459632110875439 2.065649985259427 35 41 47
14.021708503950562 -0.18703242028241931 2.2876478001457254 55 60 60
14.069274442301202 0.3405223165683145 2.1090522804724605 41 44 31
14.602737397118164 0.09927012296342622 2.3452877814318205 46 49 53
14.682902760925492 0.09060165161584302 2.249041994725397 49 53 60
14.70744167453109 0.19342905419744175 2.338345788513922 70 72 64
14.185612706172455 0.1768093573166272 2.188210971947958 85 87 92
14.793853275065997 0.07712347437796978 2.0041705164712793 21 27 34
14.70744167453109 0.19342905419744175 2.338345788513922 70 72 64
14.185612706172455 0.1768093573166272 2.188210971947958 85 87 92
14.180167217952558 0.15082574815506114 1.872416110700984 44 47 54
13.995669709133145 -0.1573750110202379 2.030725543851627 50 57 65
13.30553451505027 -0.25478827676424715 2.056587580388761 49 55 62
14.021708503950562 -0.18703242028241931 2.2876478001457254 55 60 60
14.211010343126974 0.28424747364601083 2.2760964523205525 48 49 37
14.789195126277157 -0.0720049168255391 2.00431626142735 57 64 72
14.650877208128593 0.2402523842829552 2.085513678098518 44 48 46
14.678209401889335 -0.08459676170899938 2.2492996645819017 105 110 118
12.215905109536687 1.033178000933662 2.104302417243532 44 46 22
13.671218875751865 0.7639737006899242 2.12652857489806 48 48 24
12.771535432563823 0.571367172338061 2.078795914781905 47 47 25
13.718546056847353 0.8854324401441522 2.1243875588711214 50 50 26
14.24496012026914 0.7570773751268787 2.4769186784141937 44 44 20
14.339547010381123 0.5982645198097191 2.468545695991517 43 44 21
13.791549497917705 0.8991938133495168 2.302285851385715 44 44 20
14.290387300321363 0.9173198735655472 2.472872483315199 43 43 18
14.141085618174094 0.5406530707187912 2.377750652222262 42 44 23
14.648248865665074 0.842088405829316 2.556597754830258 43 44 20
14.69652305644429 0.8336545182087591 2.43863437028946 43 43 17
14.24496012026914 0.7570773751268787 2.4769186784141937 44 44 20
13.095252209506071 0.7610034716883676 2.2486631456716304 46 46 22
13.842480876752482 0.6237329832037484 2.2989881254169005 42 44 21
13.260530007048953 0.6850077817642677 2.3388381966139313 44 44 22
12.813154335007928 1.2453288044765662 2.1686808391705155 39 39 11
13.112953319833979 1.158700584193681 2.1531915245526156 40 40 14
11.80368885124932 1.2453288044765662 2.0281732137138055 40 40 14
14.036593365900186 1.0594230908779356 2.6260892732476675 50 50 26
13.627475593571818 1.506866075486483 2.681845588508315 52 52 26
13.449806947571721 1.2437464450908196 2.5564845125825806 48 48 24
13.714463999752288 1.0710772252025929 2.4108052976007155 40 42 18
13.69235961435457 1.3449818620577134 2.6723656483539933 52 52 26
13.340085322358961 1.2121817641430555 2.333093972772319 41 41 13
13.067848351364658 1.3999329609714908 2.467855375960494 46 46 24
13.69235961435457 1.3449818620577134 2.6723656483539933 52 52 26
13.211407241080586 1.2820851079084818 2.45435822148784 45 45 21
13.628297661968993 1.1188082802042905 2.3130907483703362 39 41 15
13.24205669131965 1.5159345118073286 2.580607241411901 50 50 26
13.69235961435457 1.3449818620577134 2.6723656483539933 52 52 26
13.449806947571721 1.2437464450908196 2.5564845125825806 48 48 24
15.173117703124106 0.9422581508708773 2.6275849837299674 49 49 25
14.803871105637121 0.8540890539559678 2.6736553739719273 50 50 24
15.130341055895936 0.7516457154500035 2.632614576883695 48 48 23
13.426768146513437 0.004664075661635853 2.5590796388214643 49 51 25
14.622699626643943 0.0036702819520829694 2.4446134896914153 50 54 41
13.466514173340046 0.13914468678624156 2.55461445469126 48 50 24
13.820249997129876 0.1605846313375222 2.654429571099194 48 49 23
14.359875115919 0.563427223176656 2.5876506947704563 47 47 22
13.75678361164374 0.4059485318746655 2.304556574377922 44 45 29
14.111594956781081 0.44357010066376457 2.6167853089459117 45 47 23
13.765348024000312 0.3897997801547891 2.5227367314610776 46 49 20
13.579981778386479 0.26877085393565825 2.542169430765285 47 50 21
13.347576113557672 0.006395860634916564 2.7261986424554965 52 52 27
13.765348024000312 0.3897997801547891 2.5227367314610776 46 49 20
13.255573567996223 -0.566155948127153 2.1461219014382587 54 60 65
12.56732309846244 -0.6182987139714163 2.182064065954116 70 75 76
14.03502128587983 -0.11462927346518506 2.496246807796598 47 51 31
13.382409610629727 -0.17737596894592025 2.7203360263765903 51 52 29
13.461396723211429 -0.12998443017380248 2.555186204214009 47 51 29
13.924158273484737 -0.6346282374152834 2.6405248620631006 53 56 35
13.79674571685896 -0.4417007156652881 2.4041761790695477 52 56 52
13.7367349240373 -0.3997361512646206 2.305873400414583 65 71 72
13.543230541351885 -0.33989424735973567 2.425024276927954 49 52 42
13.028278848117296 -0.6608889151766876 2.471668815443688 50 54 43
13.750323614322918 -0.381792494789497 2.5242726262684294 46 50 34
13.920941297970728 -0.29857486561176316 2.640946958729038 51 53 33
14.009304599877877 -0.2064231875988568 2.387622912457203 50 54 45
13.815263578451457 -0.1500540439827885 2.6551113420646213 49 51 29
13.411053817553379 -0.534591756580618 2.3280532982517914 45 51 51
13.546537214347918 -0.5918675717683459 2.4247440772541826 48 52 46
13.16672079976484 -0.6182987139714163 2.2443005202136144 54 59 62
12.698118831777704 -0.7513467486566567 2.3825544543769075 57 61 54
13.67300569536903 -0.5032819415425712 2.6751652972976947 54 56 35
13.826097659936915 -0.6608889151766876 2.516593653640919 51 55 35
13.815263578451457 -0.1500540439827885 2.6551113420646213 49 51 29
13.144360506138554 -1.0545075905794243 2.5925502207405975 54 58 40
12.614353218177103 -0.9367869937962714 2.5142508699892394 52 56 39
13.568697906197226 -0.735061410384535 2.6906732622461167 52 56 35
13.61132032514436 -0.9722800387229888 2.684248550551397 53 57 40
13.893907360749909 -0.8472575207743778 2.6445147933801687 51 55 35
13.023660583387759 -0.8472575207743778 2.6078917803986394 51 55 36
14.827620151163494 0.642873180928945 2.6704959535121806 49 50 23
14.402948053226703 -0.34990049953558616 2.7321538460105264 53 53 33
15.411379735428937 0.7436376555957166 2.744542667606477 50 53 24
14.741933315238349 -0.525912850628332 2.872769349800683 60 64 40
14.18265582465694 -1.2985428868540672 2.7695672996506637 59 63 43
14.501937952036702 -1.5061297366265944 2.7166990641232323 59 65 42
14.562926392732162 -1.3424629683415272 2.7075357216043248 58 64 42
14.713363857221141 -0.8932098598286964 2.8799102099236067 60 64 42
14.908242577527169 -0.7192526361156091 2.834873282232353 58 61 38
14.90523799698909 -0.21667232920419824 2.8355103926287843 57 61 34
12.104499009636548 -1.538522318661838 1.4225788478296868 59 60 46
12.400155031948882 -1.3739472278115594 1.7501790498252199 57 58 50
13.236933282985419 -0.638423743479374 2.0593259256247185 70 76 79
13.160002469175344 -0.9518518779352095 2.150838753247484 56 59 56
12.563517962526387 -1.0008883259493653 1.9127128593087221 92 94 98
12.689806912174676 -0.8187677302632861 1.8267344184234724 53 56 60
13.039447337393336 -0.8231111461630393 2.156908727645371 52 55 52
13.282521917037544 -1.1142110813924722 1.9740686363473654 80 82 82
13.316598622375539 -0.9762222269303058 2.334779386369448 52 55 49
13.298043878371779 -1.0298045119388008 2.236444777449865 56 59 53
12.743653321947932 -0.9125626047864179 2.378795262602542 52 55 48
13.197474028972632 -0.8287536279750349 2.3434633873537365 60 63 58
12.75926728311321 -1.2432356063284784 2.171559928423316 85 88 83
12.535812522510184 -1.156165991993474 2.089295624547433 81 81 79
12.225187941620577 -1.2712734376568917 1.9225796688848291 50 50 47
11.25305228904854 -1.5320511424619914 2.0524038057867298 56 60 45
11.824920013821894 -1.4325731079494184 2.123946740571878 56 60 48
12.929517188482468 -1.417384910041177 2.3638711428503383 56 58 48
14.005091324082864 -1.209658454942167 2.3879433360070372 83 86 80
14.064578788089229 -1.5153929396409498 2.6225883312804568 59 63 43
14.260351257847562 -1.2407402451978073 2.5990388561746123 55 59 43
13.95936209569913 -1.2797259259405818 2.5034805301667955 50 53 43
14.774597012326735 -1.2797259259405818 2.5438093202202063 57 61 45
14.585728482521159 -1.5223366521386488 2.56310143343009 57 61 43
13.627373627915048 -1.1182889928895912 2.5370985953241956 54 58 44
13.95936209569913 -1.2797259259405818 2.5034805301667955 50 53 43
13.293519332294537 -1.209658454942167 2.336444034758388 87 90 86
14.005091324082864 -1.209658454942167 2.3879433360070372 83 86 80
15.333217302344796 1.8625088242456802 0.9605070378480907 29 22 2
15.40304147633443 1.9109956775298238 1.1144602118680238 29 23 4
15.394389825125035 2.0072605769777407 1.0404078511533257 26 24 4
14.463083108297353 1.9774689375931218 1.3768480822229197 21 19 1
14.774879869119298 1.8884074797336377 1.5851768634803856 20 19 0
9.437843201559183 1.8524102879198663 1.4872546303208707 26 24 0
9.34390684785954 2.0920580170363934 1.7009230432375557 37 35 10
15.380451837526708 2.0403469697660306 1.254262860422199 25 23 4
14.63755463722437 2.0403469697660306 1.5169678640338826 22 21 3
9.723436228200368 1.7475475400387948 1.907506241953746 34 31 5
10.457740092868939 2.151287473751198 2.2068855934090177 45 45 21
9.555989055097772 2.2443337692259973 1.913646530878958 40 38 15
13.008590201226225 1.6470305763996447 2.4735818113929713 48 46 23
13.128258048879903 2.312611531395901 2.5945583765738873 51 51 25
13.172305702572613 2.518438999111525 2.5890922659493247 53 53 27
13.66408376127913 2.4230730555797777 2.6764638429273147 51 53 27
12.901191278385362 2.646037707753889 2.624182171185965 52 54 28
12.901191278385362 2.646037707753889 2.624182171185965 52 54 28
13.764165664363977 -2.6555848704972944 2.6621779913883916 64 69 47
14.013684573141918 -2.5265796440185158 2.628981810510134 63 69 46
13.512706874347376 -2.2290990552071386 2.5494950377503693 62 68 46
13.204766860018673 -2.1154401637188465 2.585117898256911 62 68 46
14.328798072238135 -2.417383303728649 2.59116709088511 63 67 48
13.687075512909429 -1.834975456767795 2.673127699928379 60 66 42
14.013684573141918 -2.5265796440185158 2.628981810510134 63 69 46
12.818427751046615 2.593841632278939 2.492614376065308 51 51 25
13.553183815216265 3.137067866414479 2.5450692991638277 60 62 35
13.094677091583778 2.7623352507708767 2.4652931737573365 53 55 29
13.40000541553456 3.022071278281862 2.437383524682359 54 54 29
13.59256019481174 3.0065523624035677 2.5408164558219113 58 60 32
13.175705465952614 2.843167048778131 2.5886738977640267 57 58 31
14.28474616556796 2.909655117280713 2.473372413207245 55 55 29
14.693774699689362 -2.770168666744682 2.551936256924129 62 66 44
14.423758773853372 -3.0154484766821312 2.5805311297993248 61 64 39
14.525010018783865 -2.888948940819163 2.56953466630007 62 67 43
14.927763188257334 -2.6614087290514683 2.5289026531031458 63 67 45
14.443362993434155 -2.6014694201772857 2.5783749709768906 63 69 46
14.443362993434155 -2.6014694201772857 2.5783749709768906 63 69 46
14.749299421991635 -2.497580585391984 2.54633302424868 64 68 49
14.319497392059885 -2.4076735608976865 2.4703039292056808 63 67 46
14.434136133705326 -2.5636815307429126 2.460367601229223 62 66 45
14.058795188061532 -3.0414934787555965 2.383881568859717 54 56 30
14.363647600298336 -2.8691330268763062 2.2670835052910316 59 60 38
14.17205947112441 -3.029963888017328 2.483510809033467 56 58 32
14.275096095387472 -2.9172449318930878 2.4742292761915263 60 61 38
14.17205947112441 -3.029963888017328 2.483510809033467 56 58 32
14.446780520656018 -2.8100197176157287 2.4592886959366607 63 64 40
14.392803329304218 2.959364069938525 2.7337811031242207 58 60 33
14.392803329304218 2.959364069938525 2.7337811031242207 58 60 33
14.35562212359639 3.1354558469415554 2.739818273220136 59 63 36
20.24821915028037 2.1062391151973094 3.082155420077666 61 65 40
20.24821915028037 2.1062391151973094 3.082155420077666 61 65 40
14.489516358885455 -2.8047975364877793 2.718597782431453 65 69 46
14.388015340377896 -2.9712602129294825 2.7345520495914553 63 68 43
15.067428828027126 -1.6937622513065616 2.803103315840718 60 66 45
14.806835066263728 -2.996624253857165 2.6732594356673323 62 67 42
14.234570488566845 -2.8125507222372925 2.1021332631440863 59 58 40
23.553322211500696 -2.8722896324517078 1.8820144990962588 56 51 28
22.937779709072277 -2.94209919237903 2.0815338466261664 58 56 35
23.3534036377957 -2.8598911176090223 1.9762988102168288 58 54 31
23.13164146491527 -2.893635010791419 2.07684399742529 58 52 32
23.6325572805653 -2.893635010791419 2.1138635601371556 59 53 33
11.203342522241748 -1.6267032480975905 1.7695854408171625 57 61 43
11.572477743810744 -1.8891374334150464 1.5026911400322314 58 62 41
12.030157672190752 -1.9690566261065783 1.4216560955825086 59 61 40
11.649921931676108 -2.0838005785269726 1.7618691390571888 60 62 43
21.701388453877104 -2.3773867490710487 1.4883332089368968 46 40 21
21.28777368422978 -2.4118564262564544 1.3919232454351191 48 41 23
21.48823821706129 -2.4118564262564544 1.3461126451412757 49 40 22
23.035769960064364 -2.788495897874659 1.5800196517226623 46 38 16
21.52096236098464 -2.276850919561543 1.3464601463781243 49 44 24
22.740723944750673 -2.8298274945263637 1.624138452567743 46 38 16
21.766548344963358 -2.2470180738099557 1.5346073760645451 51 45 25
21.725197052511955 -2.1446664028269473 1.3955624634523995 55 52 30
21.467045453114856 -2.1446664028269473 1.4874309281605105 58 52 29
12.316997141360108 -1.632299772731105 2.1963793061830295 58 62 45
11.361599548885515 -1.7313297362907831 2.047416898643405 59 62 44
11.076590146917304 -1.9186677844440558 1.865046959178342 60 64 45
12.397049515072666 -2.0460571755459287 2.191722501242746 62 64 43
13.212712044995397 -1.8878513673780608 2.4542379013110036 61 65 44
13.748836971654782 -2.095785367887234 2.4080204176735376 62 66 45
13.848223969057964 -1.7706748715065075 2.51438247312718 59 63 44
13.983002036454632 -2.1558102946316553 2.5012043704200164 63 67 46
12.684020821190277 -1.9539412319958402 2.275050084736548 60 64 43
12.869622108532889 -1.6391394727311914 2.368608553029639 57 62 45
13.603385607055731 -1.6391394727311914 2.419962052887705 57 62 47
14.151577119725719 -1.798447612350187 2.611925785725562 61 66 44
13.68564820192697 -2.049366336824325 2.5309614330712216 61 67 45
13.41018160055696 -2.184700472530739 2.3281147800360236 63 65 44
23.628638563177294 -2.8157297462134925 1.9713035680368318 59 53 31
14.47432491311878 0.07178166026594175 1.6546610888977418 39 44 50
13.9136069261539 0.41630623672298184 2.033649313921448 45 47 28
14.602737397118164 0.09927012296342622 2.3452877814318205 46 49 53
14.175895152242045 -0.1709392573242129 2.188697769007194 53 59 66
14.365674313637353 -0.07779562578322034 2.0967780741405444 99 106 114
14.363165005320445 0.260446688889208 2.1794611111084587 47 48 39
14.370469746204574 0.08332227226755295 2.096584361245113 37 43 49
12.69677404298175 -0.5213581081115606 1.9089801189177507 53 60 65
14.33323060604414 0.0027813344236663124 2.0980926280044407 26 32 40
13.198081302425958 0.6237329832037484 2.242405853203917 46 46 24
13.344594080032167 1.033178000933662 2.2337087003275635 44 44 18
14.082542258347043 0.49231152066726536 2.28388918746386 45 46 25
14.648248865665074 0.842088405829316 2.556597754830258 43 44 20
14.648248865665074 0.842088405829316 2.556597754830258 43 44 20
11.556576038848831 1.3373214303320196 2.038725161394954 38 37 12
11.809137008680695 1.1188082802042905 2.124772175508222 44 44 16
14.310785236144298 0.9422581508708773 2.593221546728001 47 47 23
13.121937953381904 1.3125594472812603 2.349090586516434 41 41 15
12.999847682909653 1.5227515862924228 2.474434605558595 48 46 23
13.211407241080586 1.2820851079084818 2.45435822148784 45 45 21
13.340085322358961 1.2121817641430555 2.333093972772319 41 41 13
14.91478729574933 1.0594230908779356 2.65914791963786 50 50 25
14.538981358984719 0.9786782717142588 2.711102440064443 52 52 26
14.326807982843276 0.3471780383440824 2.469661813166338 46 48 27
13.06305034614413 0.3084000712267727 2.6028106076869157 48 49 22
13.61132032514436 -0.9722800387229888 2.684248550551397 53 57 40
14.00181144051156 0.00410792886658252 2.4994037408840972 49 52 30
13.904298489772865 -0.10250728076909774 2.395700067468321 53 58 48
13.799511553592575 -1.1902768570740272 2.6572740972881195 55 59 40
14.934190561683424 0.3126796899752876 2.420055859163808 50 52 33
14.198771812197764 0.3126796899752876 2.3735181895406767 47 48 32
12.995942746424653 -0.8363798654606582 2.474816184416172 51 54 44
13.924158273484737 -0.6346282374152834 2.6405248620631006 53 56 35
13.393593832377496 -0.7447745978770098 2.562850315712482 50 54 36
13.229317541784235 -0.6793878616189905 2.3411195430573932 68 72 66
13.212780616518746 -0.4927131513645246 2.4542315792546634 46 51 39
14.111594956781081 0.44357010066376457 2.6167853089459117 45 47 23
14.058057662875251 -0.4865934755614649 2.2853965834283 41 48 52
13.028278848117296 -0.6608889151766876 2.471668815443688 50 54 43
13.24004451439624 -0.4347316287476578 2.580849164486421 49 52 33
15.003240270899713 -0.42128106975292967 2.8154739643602134 56 60 36
14.204290509280671 -0.8640238399077694 2.765683165947656 54 59 36
12.106456843484066 -1.4554521073885383 1.6711146480629802 60 61 50
11.973669019557754 -1.538522318661838 1.5885414748703108 61 62 50
13.823572959384597 -1.398483972784035 2.5168468396628123 54 58 44
13.582719793675386 -1.1157932641360806 2.316173201568703 53 54 46
13.67326902185844 -0.8816781157999295 2.1264354629186593 57 59 58
12.539052634204774 -1.1902828269395929 1.9134073421849351 52 52 50
13.132067910436769 -1.3357658034254913 2.2464079862350275 70 73 66
13.071675819901866 -0.6931145268393918 2.1552726584135424 73 77 76
13.058369528505736 -0.7560890386521059 2.2509393071275055 71 74 71
14.260351257847562 -1.2407402451978073 2.5990388561746123 55 59 43
12.860785122684037 -1.5277346526240336 2.369313209475278 56 57 43
13.102652131040271 -0.8949944861030031 2.248208514227258 55 58 53
15.599196520510704 1.9368878765540376 0.9723824931530144 27 22 3
14.712281748080537 1.841245174411868 1.1664897846899018 28 22 2
15.058547700337034 1.9368878765540376 1.0272779140589365 28 22 3
14.336264052922443 1.9109956775298238 1.303429518021996 26 20 1
15.731530947948652 1.9774689375931218 1.1246850624501414 29 24 5
14.78284409708559 1.8625088242456802 1.0159701508621903 28 22 2
15.276593465400563 1.951297138660093 1.7161344654020043 25 27 6
9.89319648970907 1.9512940586352612 1.3891150588233536 25 23 0
10.146554565181441 2.042949314843172 1.591737317823596 29 27 2
15.096698704025615 2.099457881134963 1.584870290727866 26 25 7
9.93689355779566 2.2443337692259973 2.0085671488730963 43 41 18
11.108708171483146 1.8853088672898943 2.277410182833266 45 44 16
13.172305702572613 2.518438999111525 2.5890922659493247 53 53 27
13.359633445220888 2.301235088110207 2.724157111195356 51 53 27
14.013684573141918 -2.5265796440185158 2.628981810510134 63 69 46
13.643898858864658 -2.4315987670110717 2.679420449680481 64 68 47
12.966822609369649 -1.9837359175847906 2.6153570887413102 61 67 44
13.885986688623259 -2.325816710124406 2.5106403377655178 63 67 46
14.13917150237692 3.1375931623042836 2.4865256315911917 58 59 33
13.366679305125638 2.7114335779368153 2.565939408769834 53 55 29
13.36186623392816 2.654316615491614 2.440750177595524 51 50 25
14.17205947112441 -3.029963888017328 2.483510809033467 56 58 32
13.921833137978801 -2.996624253857165 2.640829888987204 61 65 40
14.275096095387472 -2.9172449318930878 2.4742292761915263 60 61 38
13.993589407553845 -2.784027209166071 2.1979880291373086 60 60 39
14.446780520656018 -2.8100197176157287 2.4592886959366607 63 64 40
14.335686935015747 -2.8423820580531767 2.3636807021758495 61 61 40
14.423758773853372 -3.0154484766821312 2.5805311297993248 61 64 39
14.17205947112441 -3.029963888017328 2.483510809033467 56 58 32
14.388015340377896 -2.9712602129294825 2.7345520495914553 63 68 43
14.489516358885455 -2.8047975364877793 2.718597782431453 65 69 46
14.54582080285402 -2.4315987670110717 2.710079656622194 63 69 46
14.658689682023722 -2.6555848704972944 2.6936498397041677 64 68 46
14.388015340377896 -2.9712602129294825 2.7345520495914553 63 68 43
14.388015340377896 -2.9712602129294825 2.7345520495914553 63 68 43
23.553322211500696 -2.8722896324517078 1.8820144990962588 56 51 28
23.53455521883009 -2.9052100863944634 2.019651992271754 58 56 35
11.2747411785912 -1.8047849816684896 1.589641633482373 57 61 40
11.572477743810744 -1.8891374334150464 1.5026911400322314 58 62 41
21.99086737244396 -2.34429955193136 1.2570202691224424 39 35 14
21.82267292755702 -2.312014837408004 1.4427105840909276 39 34 15
20.90581469570164 -2.171074629710518 1.3886188508653239 53 49 29
21.216274905157764 -2.2101169852583364 1.486443242069155 56 50 30
21.57334266469354 -2.1446664028269473 1.4412219626241134 55 50 29
13.023271144966955 -2.095785367887234 2.3565876721410053 63 65 44
13.446305768818211 -1.996693744128183 2.433339796560571 61 65 44
12.264975568798068 -1.748877458987051 2.3044483919743177 59 63 43
13.29820319508361 -1.798447612350187 2.573923093892133 60 66 44
13.05175774903055 -1.7706748715065075 2.4694010854683124 59 65 43
14.344048424210017 -2.249137835348264 2.4681521560810733 62 66 45
13.456209996218082 -1.9297694444023896 2.5557666405760067 61 67 45
23.61718297007639 -2.788495897874659 1.7933349957745222 57 50 29
20.31064586943454 1.1133158401845733 1.933825423192569 49 49 27
20.305252720137783 1.0889041391007275 2.041707570665089 48 50 28
20.31381259208283 1.0411932327636457 1.9869875642564812 48 50 27
13.107854017347968 0.4513489157638211 2.064567191772714 46 45 25
14.018246143341374 0.3860567302766098 1.8760117014880189 45 46 32
13.135578436172542 -0.3351358505376704 1.9788463852786653 71 79 87
14.175895152242045 -0.1709392573242129 2.188697769007194 53 59 66
13.916795985078604 -0.09269723657986399 2.294236711150509 79 84 84
14.646458014354629 0.0030256030271522878 2.251048598737468 33 40 48
13.56887915383605 -0.27812448726733513 2.220866887510692 50 56 59
14.030939048138487 0.3148816294613294 1.951418112251006 40 45 36
14.09684775727625 0.22291587863543405 1.8007015370982125 28 32 36
14.78703941319336 0.1768093573166272 2.2433803444860065 91 94 92
13.65849667976363 0.8274038031667988 2.215887630718429 46 46 22
13.471969494852846 0.7570773751268787 2.431118527348217 41 43 19
13.97378198003884 0.6850077817642677 2.390333948527039 41 43 19
13.286724354145596 0.571367172338061 2.144602219960628 45 45 23
13.42810120773183 1.1719161928706885 2.434924115670935 42 43 19
13.948579253486217 0.8336545182087591 2.3922705691600332 43 43 19
13.627475593571818 1.506866075486483 2.681845588508315 52 52 26
13.69235961435457 1.3449818620577134 2.6723656483539933 52 52 26
13.207039227564577 0.9554650196046804 2.1485069396397427 46 46 22
13.94393748513587 0.642873180928945 2.6379410187593133 48 48 22
13.028278848117296 -0.6608889151766876 2.471668815443688 50 54 43
13.393593832377496 -0.7447745978770098 2.562850315712482 50 54 36
13.3975900906945 -1.1228105266529298 2.717814388022022 56 60 42
13.816707326276756 0.4483939178769668 2.4025870764518396 43 45 27
13.904298489772865 -0.10250728076909774 2.395700067468321 53 58 48
12.56732309846244 -0.6182987139714163 2.182064065954116 70 75 76
14.13905659422012 -0.23022048531769485 2.486536210521623 46 50 34
13.799511553592575 -1.1902768570740272 2.6572740972881195 55 59 40
13.67300569536903 -0.5032819415425712 2.6751652972976947 54 56 35
14.659203439873306 0.10976546341749344 2.4416441344743216 48 52 36
14.005091324082864 -1.209658454942167 2.3879433360070372 83 86 80
13.386989359689563 -1.1688244679766338 2.43852883003164 51 54 44
12.3795662319444 -1.4325731079494184 2.192733074510526 62 65 55
13.116897727450441 -1.008813692732334 2.463185134946787 52 56 43
14.127455441153653 -1.374339560979323 2.614849436987037 57 61 42
11.67294618743358 -1.3565183657876607 1.8496001675843292 51 51 46
15.350424472524894 2.099457881134963 1.3881897206357448 22 21 3
10.703358134866994 2.0453541599875495 2.3102041829555184 45 45 21
9.987129697621056 1.6386198576604523 2.00621405891885 37 34 7
10.236255319604865 1.9934625701997817 2.105069737264524 42 41 14
14.176920395282187 3.022071278281862 2.48306739163216 57 57 31
14.201395553981436 -2.72007373431716 2.6059643370907386 64 68 46
13.926781399979163 2.9864392317772346 2.640181068635742 58 60 32
14.684705182313525 -2.710142333786387 2.4395846486003716 62 64 44
13.687075512909429 -1.834975456767795 2.673127699928379 60 66 42
14.434136133705326 -2.5636815307429126 2.460367601229223 62 66 45
13.88835263961371 3.136383723226369 2.64525252053768 61 63 36
14.058795188061532 -3.0414934787555965 2.383881568859717 54 56 30
12.539664624233836 2.7114335779368153 2.522512887260842 51 53 27
13.360061527396311 3.1375931623042836 2.4409102940896625 55 56 31
14.20668377822347 -1.8850074707520657 2.765256564873675 60 67 46
14.569990475755736 -2.199906155059913 2.7064909536951833 62 68 47
18.598822324762317 -1.942505320797207 1.3657179499145697 57 54 33
23.430807141246238 -2.748385580793905 1.6225659960126606 49 39 18
12.060657421325587 -1.9539412319958402 2.2118194528008366 62 64 43
11.130516465825409 -1.827291816297694 1.9589290901704617 59 63 44
11.546138902413352 -1.827291816297694 2.039182037261685 60 64 45
13.194673894935104 -2.1558102946316553 2.455904938126999 62 66 45
22.93448013465711 -2.8298274945263637 1.7113297920789905 53 47 25
23.542836688054802 -2.8298274945263637 1.83783801090563 56 48 26
14.78703941319336 0.1768093573166272 2.2433803444860065 91 94 92
14.56609207607356 0.003316907802390272 2.3477522633997396 43 48 46
13.841849202154666 0.3705006540112622 2.205956936290768 45 46 30
13.252194294268914 -0.36472366302923476 2.1462872780679083 72 79 84
13.850992300464169 0.6675777588849474 2.5141067925391116 44 44 20
14.26542301195158 0.7516457154500035 2.598449454377106 47 47 23
12.688615306668298 0.9554650196046804 2.082437881629116 48 50 26
13.829313777129874 0.7079528655536832 2.0366932043411863 51 51 27
13.308819863967505 1.3762153852195667 2.5726733618814106 50 50 26
13.482091362018227 -0.30601947528688717 2.3230844273218834 53 57 53
13.781524185032216 0.005394386440446659 2.6597607775749528 50 50 24
14.763507259866602 0.21344495946026637 2.4332966938591607 42 46 28
14.019761315457183 0.4999260516549006 2.4976939171408965 44 45 23
14.233881787762392 -0.5944994932140524 2.7604504081755574 54 57 35
14.402948053226703 -0.34990049953558616 2.7321538460105264 53 53 33
13.42922719715279 -1.0752813932880647 2.1377586138991416 93 95 96
13.823572959384597 -1.398483972784035 2.5168468396628123 54 58 44
13.060303302654791 -1.156165991993474 2.155848856561814 87 91 88
12.798104390119446 -0.638423743479374 1.9902746037118595 69 75 78
12.944465153649322 -1.0674464503055676 2.3626991962111252 49 52 42
9.25717875857728 1.7475475400387948 1.702149193180767 29 27 3
14.570693200879319 1.7846590136455798 1.0069208000769343 31 23 3
11.401175471022096 2.0453541599875495 2.3750559059879586 47 47 23
13.69484234707377 2.193363862972332 2.672008196794424 50 52 26
10.177591829844323 2.0920580170363934 1.9975259139552726 39 37 12
13.094677091583778 2.7623352507708767 2.4652931737573365 53 55 29
14.162655860371727 -2.9399188773099842 2.376161813988165 58 59 36
14.509775449996113 -1.6733079963990967 2.7155068076692697 59 65 41
23.53455521883009 -2.9052100863944634 2.019651992271754 58 56 35
11.649921931676108 -2.0838005785269726 1.7618691390571888 60 62 43
11.441950381266867 -2.0043785814039787 1.8553841419408497 61 63 44
14.072659866953261 -1.6586729708898198 2.6215839638643965 60 64 43
11.442893446523156 -1.6267032480975905 1.8553600333437634 57 61 45
13.27331979671151 0.6431408462537431 2.0578694709412653 49 49 27
14.18265582465694 -1.2985428868540672 2.7695672996506637 59 63 43
14.066241273201383 0.9802122952236927 2.383322220218777 43 43 18
13.499254706192245 -0.5556782641433378 2.550978260103437 49 53 36
14.326807982843276 0.3471780383440824 2.469661813166338 46 48 27
14.76033452180492 1.0132425647446557 2.5452299378724645 45 45 21
12.686605302619045 -0.7596721533383903 1.9941973498235666 49 53 54
13.282521917037544 -1.1142110813924722 1.9740686363473654 80 82 82
13.250639405730993 1.6578165956861866 2.579577213420346 50 50 26
14.013684573141918 -2.5265796440185158 2.628981810510134 63 69 46
14.026707981603673 -2.8527120763481713 2.62733445834823 63 68 44
14.328798072238135 -2.417383303728649 2.59116709088511 63 67 48
13.885986688623259 -2.325816710124406 2.5106403377655178 63 67 46
14.684705182313525 -2.710142333786387 2.4395846486003716 62 64 44
21.323822220545136 -2.2101169852583364 1.4396970548289323 54 49 29
21.467045453114856 -2.1446664028269473 1.4874309281605105 58 52 29
12.436116956180534 -1.8544606751309731 2.2921103547546458 59 63 42
23.693203767661817 -2.842791136324195 1.6219921549240652 48 44 21
13.461396723211429 -0.12998443017380248 2.555186204214009 47 51 29
13.24978851670046 -0.11462927346518506 2.450836155662435 48 52 33
13.569830530229439 -0.2600798773923185 2.543265121854162 48 52 32
12.809517701377384 -0.5918675717683459 2.3734306262999167 54 57 54
15.157110694132216 0.8725185505408285 2.786678410657929 51 53 26
13.999615998898983 -1.029083464316084 2.8046603668523566 57 61 41
12.16449206559972 -1.5277346526240336 2.311920506510712 58 59 44
13.7974621666627 -1.310662884570019 2.404119016285715 63 66 57
13.094266352218181 0.5263320523008788 1.9802107307076229 48 47 27
14.35562212359639 3.1354558469415554 2.739818273220136 59 63 36
13.767567971599195 -1.647687409259631 2.5225103584059676 58 62 43
13.116767626762629 -0.4112332418579711 1.8977409724742493 34 43 50
15.059881548109049 -1.4931546048852675 2.8045297777004596 60 66 45
13.595025587679618 -1.5277346526240336 2.420661151443201 55 59 44
13.704984267416036 2.880483491244291 2.5289483798372396 57 58 32
13.96735747915073 -2.319479496476482 2.6349065312361213 62 68 46
13.512162619009864 2.4105390716013564 2.549554926004909 51 51 25
13.108521061819813 0.697956783070784 2.1534142260035396 49 49 27
23.366727108023646 -2.8463307471538952 2.071277104770912 56 52 29
11.149768435149005 -1.7169075612543245 1.6797551611832224 58 62 41
