10.298281273002607 0.42730232474095353 1.5022711722370836 33 38 7
10.355387029814539 0.42730232474095353 1.6961667368200248 30 35 2
9.92668423503749 0.33525936225768965 1.4997017389251288 32 35 4
10.430646140485846 0.1209266797356288 1.5990687963535923 29 34 1
11.341782801151043 0.13371323956125755 2.1591774585183092 37 42 8
10.434201613539265 0.024899227179745947 1.6952148174131987 35 40 7
11.755865577628331 -0.16676279535499933 2.0380114390931343 37 42 9
11.202919032294991 -0.258990872660919 1.8693177554413574 39 46 14
12.213488483140186 -0.34693282870630465 2.0191978942317528 43 50 18
11.649717282191919 -0.07158830234693958 2.042613333520889 37 42 8
11.202919032294991 -0.258990872660919 1.8693177554413574 39 46 14
11.600598605483604 -0.2852768489254361 2.14436421387491 43 50 19
11.488683891918297 -0.34693282870630465 1.8616726474666507 44 51 19
11.40567513483014 -0.1842157171935283 2.1554445003543297 44 49 17
11.755865577628331 -0.16676279535499933 2.0380114390931343 37 42 9
12.55602499408406 -0.4296287252239666 2.0061143803694295 43 50 17
11.882536944470418 -0.07921407836740064 2.2318063192806425 44 50 18
11.86213393586663 0.02756086723599063 2.233144711506781 44 50 17
12.591604532252502 -0.5065109861684177 1.9188717105889603 44 51 17
17.052580364446133 1.619759679945566 0.8921082188976899 38 52 25
16.64268232618282 1.7680548321542753 0.9481984737255684 29 42 14
15.76911288184526 1.6163304507187852 1.131605609822122 40 55 28
16.372828349375936 1.6784975709442567 1.2148776030521355 40 54 27
10.573328623096216 0.6431190599593117 1.4088210292646937 32 39 9
9.648259690314713 0.8519828414651264 1.601362124927383 36 43 11
10.353736777112692 0.7790615396736893 1.502638769789003 33 40 8
9.872141827163261 0.5619344013103155 1.6006687398228623 33 38 7
10.60295058217078 1.3455568477749746 1.693224626937758 32 42 12
10.274336732407246 1.085925702763866 2.0020591209283496 34 43 11
9.884855289724735 0.963306091776381 2.261161417602423 35 44 10
9.504869426513965 0.7780564065750242 1.924793372642827 32 39 7
9.981792408923656 1.0308151379013553 2.1299298941326423 36 45 13
10.191078455728533 0.8519828414651264 1.9000198573490508 33 40 6
10.103624290777516 0.9958879105583548 1.7999284755355476 33 42 12
10.41041392561291 0.37197431910326806 2.104368193475864 37 42 10
10.009574591392877 0.5250312178335761 2.1281940477424452 38 43 10
10.005868233027293 0.6209273860714442 2.014441051434054 37 40 11
9.619130803613038 0.6209273860714442 1.920407018214378 32 37 6
10.372857396995682 0.6915535512617097 2.2228989122163716 36 43 11
11.31550370890469 0.26406651725745744 2.2713988444560567 40 46 10
11.008446405287875 0.6915535512617097 2.2951617651856715 38 43 11
11.31550370890469 0.26406651725745744 2.2713988444560567 40 46 10
10.749856035518663 0.6721714300867611 2.452188718567178 40 46 10
10.856126822412241 0.41719601722998667 2.3076457413356213 40 46 10
11.439214665817703 1.322171921182391 2.153505265919498 34 43 13
10.3658595925716 1.1853692808195944 2.1069091465049237 37 46 13
9.679569098943514 1.747137848211938 1.8101584194289788 16 29 2
9.832859369290958 1.5329720017579345 1.9124936230451215 23 34 1
9.918961399961422 1.4259579494336616 1.9094080937747822 26 37 4
10.382058515018493 1.2235645805148714 1.8937416902149735 24 37 4
11.213991998286954 1.6408564887871142 2.1668002538909237 39 48 18
10.3658595925716 1.1853692808195944 2.1069091465049237 37 46 13
12.917286285692901 1.514870543161751 2.6349918935604237 40 51 18
12.274685619689237 1.2115112112357445 2.565700310732667 37 46 12
12.982948696818514 1.3582694623524099 2.6259510764966336 39 48 14
13.017485979681583 1.8285508378740196 2.621289220540154 45 56 23
12.542191691379154 1.7679718433200589 2.4054848932766975 40 50 22
13.017485979681583 1.8285508378740196 2.621289220540154 45 56 23
13.017485979681583 1.8285508378740196 2.621289220540154 45 56 23
12.438163698016023 1.5283967400374494 2.4147641374910473 42 51 21
12.982948696818514 1.3582694623524099 2.6259510764966336 39 48 14
11.269605182905261 1.2576164417841709 2.397995519386664 38 46 12
11.86983785822624 1.3868457585782177 2.470375945420504 37 46 15
12.600876976726532 1.5225632902652924 2.526977771923066 40 49 20
12.703572600936063 1.7942953563153379 2.5156154871096597 40 51 26
11.266313353294056 1.2935075569898127 2.275086639648078 38 47 17
11.791692418605694 1.5329720017579345 2.2378120585346357 38 47 17
12.035490919116805 1.0034604394872795 2.59707110781921 40 47 11
16.421749469692543 1.7545401960851512 1.0824079300190264 32 46 19
9.899160876738517 1.849554037889064 1.8047484417253528 14 27 1
10.404611880884735 2.0836152099131326 1.9963052084081507 38 50 19
10.73960275619029 2.3124971744438527 1.9822135852891023 38 51 22
10.67332443409683 2.1405680226112027 2.201576631711439 41 54 27
9.997830778199813 1.98695024825028 2.0148231415930735 33 42 10
10.555247593719592 2.386547161862764 2.0962817924666615 42 55 24
10.033256037406815 2.0836152099131326 1.9053990755276822 28 39 8
13.181588271279562 1.9713278937576015 2.5999567497710303 45 56 23
12.086784653905863 1.9208415183745642 2.448087643469783 39 50 26
11.607143718787235 1.98695024825028 2.250394176206886 44 53 25
11.383486309524384 2.2098169789111055 2.387181443602063 43 56 25
10.868314851017535 2.8142743995260737 2.4390705810013342 47 56 26
12.421383839784284 2.6895501013674323 2.7124138357203873 47 56 26
12.935294780047451 2.400162585986315 2.6324886396390075 48 57 25
11.329940485533145 2.392108250189903 2.392223392579345 45 56 23
10.749959096323554 2.5720678661461105 2.3166434648938683 48 57 25
12.279056935266642 2.87740793528834 2.738488088737189 47 56 26
10.868314851017535 2.8142743995260737 2.4390705810013342 47 56 26
11.497584620467093 2.954653443115683 2.5122567232215904 47 56 26
12.18671080372507 2.618533869750996 2.576915161991384 47 56 26
12.081277791914667 2.392108250189903 2.448636179564759 48 57 27
12.982220927103686 2.1775832583139176 2.626049991345902 46 55 25
10.417923810802062 2.4559451662028606 1.89258978884487 37 50 19
11.215469864923392 2.539427409530255 2.1667108785533515 46 55 25
10.443641303175623 2.9117534024438627 1.891768949510571 45 54 24
10.686301633929169 2.539427409530255 2.0891849767085726 43 53 23
10.771441097197515 2.997192321957836 2.194940292815539 46 55 25
10.6369087649255 3.0119801124924326 1.9864298989128273 44 53 23
10.191936739525483 2.7813890853086836 2.0057825525730433 49 58 28
10.771441097197515 2.997192321957836 2.194940292815539 46 55 25
11.078517488952953 3.0119801124924326 2.069103748823796 43 52 22
10.231398014718362 2.6336998210365525 2.114735880468507 48 57 25
9.751501610310862 2.6336998210365525 2.0268746973754777 44 53 23
10.808786895090917 2.8545948909646497 2.311626827103565 47 56 26
12.76364504120193 -0.5729737456500094 2.3865310751296054 45 52 22
13.04623591759572 -0.6103490718680477 2.617455906150603 48 55 25
11.772819174456668 0.030859454002135592 2.35262359470764 48 55 23
12.350591978181336 -0.4213172233576733 2.307184715061352 44 51 21
12.992293274853923 -0.6414297912348311 2.48550042857112 47 54 24
12.943393332853438 -0.35708250294375027 2.4904235412224898 45 51 20
13.367450555054628 -0.7252182040408339 2.577272686699962 48 55 25
12.059513392176953 -0.5164889152936678 2.2204429795093112 44 51 21
12.054912403585151 -0.5729737456500094 2.329649432333568 45 52 22
13.487214074642557 -0.5325121763592573 2.5633958999984463 47 54 23
11.22401332337495 -0.2056912634542061 2.278293092344948 45 52 22
13.244639699552822 -0.4076369262807 2.592095649002032 46 53 22
11.930071428984547 -0.6023991847068285 2.1266239700308254 44 50 22
11.559914518090697 -0.6792492109697906 1.9514533048877623 43 50 20
11.296436769134969 -0.9425726548272039 1.8667713106800794 46 53 23
11.617973358670765 -1.1090520755907687 2.143398397224879 46 53 21
11.501405319684821 -1.1508200433298073 1.953489878836343 47 54 24
11.853447799001042 -0.9931315886572327 1.7656294449156662 46 53 21
11.85438166713651 -0.7476282184178904 1.852450014174545 43 50 20
11.827687263106908 -0.8838469174334197 2.132009894167708 45 52 22
13.05248122898487 -0.9977768527786419 2.4795338360960795 48 55 25
12.279150807499471 -0.9977768527786419 2.429449013585618 47 54 24
12.152048617327576 -1.0588651123085138 2.322096497604416 47 54 23
12.482202361056993 -0.6631845251752658 2.297667749671863 45 51 23
12.637025978622999 -0.7351530218670201 2.3972390301513156 46 52 24
12.35718887235098 -0.7422741848129424 2.2022681103510333 45 52 22
12.855427152669044 -1.0588651123085138 2.378974902862531 47 54 22
12.565142399063241 -0.9224465610366754 2.531018684051704 47 56 25
10.454915576723959 -1.7069442556866856 2.6660450995254728 51 61 28
11.583236772581753 -1.2395677073965847 2.045544065973286 47 54 24
10.857038699837478 -1.4175461847795339 2.1892738498466136 48 55 23
11.21017460797698 -1.7385364309409483 2.062724551931291 50 57 25
10.792309557014446 -1.6449732806373807 2.193548412920687 51 56 27
11.465960680722004 -1.7807303437732653 2.3795591190802043 49 55 28
11.352074615998891 -1.5255771768814643 2.390130144467868 50 57 27
10.709083223379537 -1.6668571851055416 2.4568203953775702 49 58 28
12.126612580978403 -1.4175461847795339 2.324057454265548 46 55 23
13.10617615137049 -1.0426308020313446 2.609597649605593 48 57 26
11.404545903020988 -1.6449732806373807 2.2648326758582384 50 57 27
10.944849128274493 -1.6834551829053486 2.585350467534953 49 58 27
12.323175869971069 -1.2760643643940395 2.425320457133423 47 56 24
11.391415150532637 -1.5307437855978412 2.265792262643189 50 57 25
11.868713273341786 -1.2048248603365885 2.2327124663100912 47 54 22
11.941980742953222 -1.456301037180185 1.4275213569552867 47 54 20
11.870561578434017 -1.5409696242006512 1.4266533422536776 48 55 21
11.326824362335888 -1.268472255995372 1.685364881596103 48 53 22
11.233254200685643 -1.3553966216833024 1.7765364415866922 46 54 22
10.990207285664738 -1.5381949239876955 1.7811539006400046 48 55 23
11.10780412262185 -1.7231740190920501 1.7788939755333404 50 57 25
11.10780412262185 -1.7231740190920501 1.7788939755333404 50 57 25
9.91535144517805 -2.0803232837549928 2.561784018285267 48 57 27
9.91535144517805 -2.0803232837549928 2.561784018285267 48 57 27
10.765868100672698 -2.0803232837549928 2.612694970764434 49 58 28
10.228075205224235 -2.2267295506657363 2.516637615894318 49 58 28
9.477854797216974 -2.1869005005543687 2.6366110269836986 51 60 28
10.657094157116433 -3.030433392588615 2.462816536609452 47 56 24
10.023392485492293 -2.88534942147924 2.3858809220593233 47 56 24
10.880238357073743 3.0959987928175075 2.5949765303565155 47 56 26
10.41943958707358 -2.9832970256619995 2.6726998407246993 49 58 28
10.537987665249076 -2.783084600810427 2.650957489286513 50 59 28
10.77302736457635 -2.88534942147924 2.449583617984513 49 58 27
10.626045855634688 -2.3463387263056084 2.466447034999352 49 58 28
9.956806427988159 -2.5565627701199523 2.3930047282621016 49 58 28
10.950880562357543 -2.522093262357773 2.2998226606411536 49 57 27
11.100098136880568 -2.443294751322482 2.414752905142346 46 55 25
10.21902088273556 -2.4639080078409634 2.5178668401500235 51 60 30
10.404001787766482 -2.6897096719700895 2.4935651736701505 50 59 28
10.24465029381135 -2.7504541158654683 2.363231832853349 47 56 24
11.493309453398645 -2.096316357650195 1.7718167209818458 49 55 26
11.733339595517496 -2.0596077551217826 2.137072872293638 48 53 24
11.99105715039878 -2.280424369711568 2.1234679189343684 47 53 26
11.374178209497614 -1.9662761058535034 2.1572783337613464 49 56 26
11.61792913683972 -2.016094254759991 1.9494558126358437 50 57 27
11.40032205087471 -1.8363500271459963 2.053807932633074 50 57 25
11.678221804126666 -2.14453058611821 2.0413682871611343 49 54 26
10.430659471273142 -2.003118452058714 2.4901969944388975 47 56 26
10.962566340711643 -1.9005370481269659 2.2988709762943342 49 55 28
11.609328878930105 -2.111626502284212 2.2502421008182965 47 54 24
11.953690247766652 -2.3492824121147042 2.2271852688699347 47 53 26
11.01286155955507 -1.9452494714332351 2.423706056941968 49 55 28
10.983232289889035 -2.586649840685351 2.1811212169766665 47 55 25
11.031884480974577 -3.064825963719071 2.0714051920291006 45 52 19
10.589944702848806 -2.6866206571257303 2.2073388742642375 46 55 23
11.20562991065996 -2.7716393019206644 1.9641380273728564 45 53 21
11.578022474453173 -2.684816426495574 1.9508275124082364 47 54 24
11.143919325167127 -2.96296858121226 2.0659132391190287 46 53 20
10.83869602319359 -2.942830302070812 2.1904786524734625 46 53 21
10.700860060512017 3.11180047107191 2.199698671525896 45 54 22
11.043631386797468 -2.834583169285346 2.177301184577257 44 53 21
11.343341687972686 -2.8647130345650713 2.0564441714156807 42 51 19
11.343341687972686 -2.8647130345650713 2.0564441714156807 42 51 19
10.712969944910313 -2.917659736421264 2.3198380695170435 46 55 23
10.573495145505124 3.107908672251205 2.3321742147941227 46 55 23
10.596379679696554 -3.0448674643761184 2.330117908831701 47 55 23
11.45058314051851 -2.4976747519503184 2.1528510856254957 47 54 24
11.702364951731804 -2.604805597374147 1.8562107426198278 47 54 23
11.45058314051851 -2.4976747519503184 2.1528510856254957 47 54 24
11.777954055995707 -2.4794903753981727 1.9440559465064098 46 53 23
11.983334969122426 -2.419162781023787 2.123865431465429 47 53 26
12.510383041070405 -2.350872101537319 1.755277461104072 51 56 29
11.8332253046258 -2.411496663043115 1.765966695953272 48 54 27
12.05810674335181 -1.7927317572864205 1.5122845146068944 50 57 25
11.9281723995556 -1.979288476004449 1.7643933720118141 50 58 27
14.315695721529842 2.8392252263626205 1.5215200206207846 30 40 10
14.87532311944138 2.773914869827586 1.3879246174086486 34 44 17
14.787226691752688 0.19553267872117916 2.688453780249092 42 51 19
13.081116312931414 1.2636840686034467 2.7931156492093985 43 52 18
13.439908529010705 1.3194028245249318 2.725814796361781 43 53 16
13.015949143829992 1.4886996834364215 2.807168998662078 48 56 25
13.473274495651001 1.8748263585825156 2.7202409910816905 44 55 18
13.387673342027412 1.6937358790154942 2.7347422702577218 44 55 18
13.115395089719003 1.940435427638204 2.785991376562688 46 57 25
13.27828740771014 2.12746096283878 2.7543060176767833 47 56 27
13.232411243924806 2.4128690551554817 2.7628963811612346 48 57 27
12.99220455527157 2.253616898273956 2.812469111299574 46 55 25
13.568099403364515 -0.7103955282556083 2.7049093634494614 50 59 27
14.735892777756925 0.04056906732577725 2.695661357725831 46 53 21
14.735892777756925 0.04056906732577725 2.695661357725831 46 53 21
13.568099403364515 -0.7103955282556083 2.7049093634494614 50 59 27
13.568099403364515 -0.7103955282556083 2.7049093634494614 50 59 27
13.596952315360028 -0.9557283606671302 2.7003847738162134 50 60 28
17.455736454404096 0.10923652746756328 3.005722167334384 51 58 26
18.346437936766577 0.1886229476397523 3.066591254825656 52 61 29
10.264483257464393 0.33525936225768965 1.3041024615443861 31 36 5
11.063032635504406 0.5122435915752341 1.3237710936070577 32 39 7
10.980066152101838 0.2369286975119284 2.0739889236871503 30 37 2
10.435417893927001 0.33525936225768965 1.8920309562021167 28 33 1
11.276403044711655 0.1209266797356288 1.9615350102888027 30 35 3
11.62890579679513 0.024899227179745947 2.0435267141549587 36 41 8
10.604823666222504 0.024899227179745947 1.7889196861220829 38 43 10
11.945075897771948 -0.258990872660919 2.030036619456715 40 48 16
10.887445494496221 -0.07158830234693958 1.8782465153158496 39 44 11
12.183495167588715 -0.5507374487972756 2.0203825670638067 44 51 19
9.73029479160006 0.8519828414651264 1.7042674529822541 33 40 8
10.310594916277365 1.1315075763172313 1.696714271511873 31 42 10
10.35046701799472 1.4399086037150688 1.599287865988151 28 38 8
9.739803454555773 0.7052820302736379 1.7041363711637323 32 39 7
10.456426328938468 0.9355458066742488 2.1017707592979735 34 43 10
9.29605976847358 0.6915535512617097 2.0510551531875127 34 41 9
10.474116706261785 0.6209273860714442 2.100779244616641 39 43 13
10.31031200782217 0.4715297754016026 2.0004541325760625 33 38 3
10.211061056746797 0.41719601722998667 2.235053860790014 40 45 11
9.650030587478312 0.4715297754016026 1.810905490307966 34 37 6
10.463518546857165 0.7766722924462423 2.34223996880645 39 44 11
9.989221616460025 0.8795633560365783 2.389518101767981 35 44 10
11.837010120388888 0.14950105495670354 2.347253574398275 44 50 14
10.109273828004685 1.2235645805148714 1.7997981386846809 26 39 6
11.316048102582993 1.747137848211938 2.1606955898542406 36 45 13
12.928867433339946 1.6742429461886061 2.633379975958296 41 52 20
11.70974784096379 1.5283967400374494 2.3579857887812294 41 50 20
11.791692418605694 1.5329720017579345 2.2378120585346357 38 47 17
11.797981984344156 1.5225632902652924 2.4780818026926674 40 49 19
12.612748657803543 1.6600713133447156 2.525645463125566 40 50 22
11.782141841644405 1.4087078037805394 2.351838277653657 39 48 18
11.51975142337007 1.1383207908588475 2.3746786818641263 38 47 13
12.678410447140402 1.1504220325121277 2.6700609938143867 40 48 11
12.531616798661185 1.3194028245249318 2.6935786047326102 41 51 13
9.727381288875295 2.6841668960827456 1.7043076688718162 44 53 24
10.18901447177634 2.816003115020864 1.59973946083579 49 58 26
10.612702809281398 2.2322456849433876 2.093145337847763 41 54 25
12.086784653905863 1.9208415183745642 2.448087643469783 39 50 26
11.148693510980106 2.3051694912043943 2.2840850432231563 43 56 25
12.335499490245518 1.9713278937576015 2.558151500705814 43 55 24
11.810370259317047 2.922537863497163 2.629415841763107 47 56 26
10.705359892367651 2.954653443115683 2.45724642744641 47 56 26
12.459842159625046 2.2948927713677776 2.5432020493444094 48 57 27
11.18378995905967 2.472559396424244 2.2813728933508552 44 55 24
10.791614898787087 2.3824770292635966 1.785084787863355 33 46 16
10.188296722148221 2.6841668960827456 1.9001131423601612 49 58 26
10.645042384803855 2.5954151410156348 1.8854852522889858 42 52 22
10.389887338486519 2.886265811631142 2.1055356514908463 47 56 26
10.44008904490008 2.816003115020864 1.792418471210886 49 58 28
10.808786895090917 2.8545948909646497 2.311626827103565 47 56 26
12.661564745936767 -0.5325121763592573 2.5202192033711053 47 54 24
12.054912403585151 -0.5729737456500094 2.329649432333568 45 52 22
11.422037375510728 -0.317301953209305 2.263559021305307 43 50 20
12.76364504120193 -0.5729737456500094 2.3865310751296054 45 52 22
11.22401332337495 -0.2056912634542061 2.278293092344948 45 52 22
12.999540855897896 -0.8284721391353297 2.623703607691639 49 58 27
11.349165292917844 -1.068575217679872 1.774405493707058 47 54 23
11.930071428984547 -0.6023991847068285 2.1266239700308254 44 50 22
11.507189687849854 -0.8113584506026136 1.9532875409022714 44 51 21
11.841269108617086 -0.6631845251752658 2.2345196219481362 44 51 21
12.433389185132537 -0.8153218930770846 2.301164559752206 45 52 22
12.667999701254598 -0.8999972240256336 2.39458838020027 46 53 23
11.907276590214792 -0.9660965106926214 2.2301914610943987 46 53 23
11.093662988241311 -1.5348512717737757 2.068361063098746 50 57 25
11.026148974480634 -1.308158046357896 2.17840154068376 49 54 25
12.886860805994644 -1.1822924445083 2.639263075947225 50 58 27
10.222491324688505 -1.8505486984215505 2.5173951839996906 48 57 27
11.504911793509812 -1.7573038222545063 2.257594992284432 50 57 25
12.754081478308454 -1.109617378148616 2.51015836547035 49 57 27
11.661801833888168 -1.186008464221648 1.6820601239544954 48 53 22
11.941980742953222 -1.456301037180185 1.4275213569552867 47 54 20
11.781310707616948 -1.6260671149547274 1.5109081817822743 49 56 23
11.254941402952488 -1.631200326322736 1.867895742867303 49 56 24
11.067308980034396 -1.4457487283451516 1.779666650171674 47 55 23
10.24465029381135 -2.7504541158654683 2.363231832853349 47 56 24
10.902479049785162 -3.010964565505008 2.591633033118449 49 58 28
10.228075205224235 -2.2267295506657363 2.516637615894318 49 58 28
10.902479049785162 -3.010964565505008 2.591633033118449 49 58 28
10.55638775181902 -2.6289981224007266 2.3337198852990477 47 56 25
11.431487865937097 3.102847893117448 2.52024181863766 47 56 26
10.1862058920671 -2.8424675734853677 2.5223580002408115 50 59 28
10.023392485492293 -2.88534942147924 2.3858809220593233 47 56 24
10.634340278051083 3.102847893117448 2.465473477808869 46 55 24
9.804542808283166 -2.3436723348724624 2.579275872647255 50 61 29
11.61792913683972 -2.016094254759991 1.9494558126358437 50 57 27
11.466739879399086 -2.201191651472883 2.1519240865655656 47 53 25
11.793662321307167 -2.2210703885080862 1.943534394336924 50 55 28
11.374178209497614 -1.9662761058535034 2.1572783337613464 49 56 26
11.67333161466719 -1.929236446502565 2.041581397191948 50 57 26
11.42765865858896 -2.2682539981845453 2.2631508164244223 47 53 26
11.246207756254204 -2.0113007755099677 2.276606596156605 48 54 27
11.419555499899545 -2.4292919367769468 2.263739421448639 47 53 26
11.009905198379416 3.1148862987781594 2.0724976915357005 44 53 21
10.723472793779397 -3.055991921100072 2.198165573922462 46 53 20
11.195579394399468 -2.6400892906019697 2.0634232710946603 47 54 24
11.333413295725336 -2.7332647316028593 2.1596702638077447 45 53 22
10.712969944910313 -2.917659736421264 2.3198380695170435 46 55 23
11.8332253046258 -2.411496663043115 1.765966695953272 48 54 27
11.777954055995707 -2.4794903753981727 1.9440559465064098 46 53 23
11.654418076444983 -2.5555303984539415 2.0424075340997274 46 53 22
10.932800765505572 -2.4976747519503184 2.0763702497947767 47 52 24
12.05810674335181 -1.7927317572864205 1.5122845146068944 50 57 25
11.299674355876956 -1.8126277062165235 1.77530988817046 51 58 26
11.5750580418066 -1.8983099670500367 1.770377792161431 51 58 27
14.770578152271675 2.8392252263626205 1.3172423179305766 28 38 9
14.152064483683981 2.8169126751778393 1.2318748016491399 22 32 3
13.883997690673072 2.889532122053737 1.2250601696810037 27 35 12
13.473274495651001 1.8748263585825156 2.7202409910816905 44 55 18
13.081116312931414 1.2636840686034467 2.7931156492093985 43 52 18
13.115395089719003 1.940435427638204 2.785991376562688 46 57 25
13.631891055810563 2.0376006931706323 2.6949884170544047 44 54 22
13.568099403364515 -0.7103955282556083 2.7049093634494614 50 59 27
13.281289453283849 -0.8405964168167401 2.7537522305044684 52 62 29
13.920991103267474 -0.6103490718680477 2.653414099583357 49 56 26
11.876798841851866 -0.38069969714572793 2.129412525804188 43 50 19
11.783371029504677 -0.5507374487972756 1.9438759208513674 43 50 19
10.743891773477811 -0.16676279535499933 1.7860515763941363 40 45 13
11.852186308554579 -0.4296287252239666 1.8525036095423542 44 51 19
17.11986638990568 1.694590044538034 0.8952739371466196 33 47 20
15.945822919109478 1.694590044538034 0.9933098750843051 36 51 24
15.84185119241771 1.6859869462303525 1.1337615841538131 40 53 26
10.418799373050533 1.6340457067875125 1.406396933738219 18 30 0
10.376557497015904 0.9958879105583548 1.8939191125643458 34 41 9
10.103784792422903 1.322171921182391 1.902973169978089 26 37 4
10.666953439800004 0.915237186240917 1.7876288692335631 33 40 8
11.695249345789508 1.0792404999460816 2.489400543900375 37 46 13
12.982948696818514 1.3582694623524099 2.6259510764966336 39 48 14
12.297420631596877 1.0664103263701759 2.735000710731958 42 51 15
13.017485979681583 1.8285508378740196 2.621289220540154 45 56 23
12.917286285692901 1.514870543161751 2.6349918935604237 40 51 18
10.572667836470858 0.5250312178335761 2.2085473189681384 40 46 11
11.695249345789508 1.0792404999460816 2.489400543900375 37 46 13
10.363929562500449 0.8634118499802185 2.223556805467754 37 44 12
9.848068414596911 1.6408564887871142 1.9119444255869769 18 30 2
10.369280889939036 0.7780564065750242 2.106713118181174 35 42 10
11.276300824871035 1.4259579494336616 2.163057027996979 35 44 14
15.583751121110806 1.7545401960851512 1.1959867074876427 36 49 21
11.006182972715585 1.98695024825028 2.1796635277946366 41 51 21
12.58824355484814 2.09878719356197 2.528401103600487 44 57 24
12.195944569077236 2.5720678661461105 2.4373887068510793 48 57 25
12.131507830390111 2.2098169789111055 2.4436644505644614 44 57 24
11.06098600574214 2.73898465264101 2.290966644916519 49 58 28
10.815904567237888 -1.8107581838730364 2.444813712723963 50 57 27
11.107145745825228 -1.637383086408306 2.067701867903456 51 56 27
12.528604171162048 -1.2353700495901532 2.5351987930672966 49 57 27
11.29250519006212 -0.7422741848129424 2.0588217589469986 44 51 21
11.793376702146007 -0.08865341982478667 2.3508943414911894 47 54 24
11.391415150532637 -1.5307437855978412 2.265792262643189 50 57 25
11.868713273341786 -1.2048248603365885 2.2327124663100912 47 54 22
12.945403639377508 -0.8207130263167706 2.490219787894091 47 54 24
11.327156055876243 -0.8838469174334197 2.0571985224339198 45 52 22
12.552343820972593 -1.1623921918184332 2.4045926132208244 47 55 23
11.656833874366676 -2.1745305156639647 2.362551866922627 46 53 23
11.270627491246534 -2.6289981224007266 2.397896900338536 49 58 27
10.77302736457635 -2.88534942147924 2.449583617984513 49 58 27
10.355400457484926 -2.497218249986907 2.685058666550438 51 61 29
10.83869602319359 -2.942830302070812 2.1904786524734625 46 53 21
11.093809166336062 -1.865083593206289 2.174166820601208 49 56 24
10.657094157116433 -3.030433392588615 2.462816536609452 47 56 24
12.074770283183907 -2.2896400361589015 1.8471728847214282 51 56 29
14.513939564316471 2.9073053862981486 1.3126575667268896 14 23 1
10.839435388577288 0.21477053470470972 1.7841247672930143 26 31 0
9.892488231644307 1.1853692808195944 2.019894985857791 30 41 8
12.274685619689237 1.2115112112357445 2.565700310732667 37 46 12
12.928867433339946 1.6742429461886061 2.633379975958296 41 52 20
12.45019053271764 1.6493076886765476 2.4136784618780585 41 51 22
12.491255240741967 2.4957710000590403 2.5395233596377484 48 57 25
12.18671080372507 2.618533869750996 2.576915161991384 47 56 26
12.64145220182351 2.530433247554634 2.6758273214673154 47 56 26
12.64145220182351 2.530433247554634 2.6758273214673154 47 56 26
12.58824355484814 2.09878719356197 2.528401103600487 44 57 24
12.000674100480403 1.8812875826363806 2.333943999703278 42 52 24
9.750718180343066 2.0836152099131326 1.80837808804425 24 36 5
11.958276754528429 2.761406291683465 2.6078290937178714 47 56 26
11.35359231906106 2.9786293313724195 2.389987084191331 46 55 25
12.999540855897896 -0.8284721391353297 2.623703607691639 49 58 27
10.564307257873258 -1.9055693345470326 2.6463139526805257 49 58 27
11.536388306604795 -1.0215924709458546 2.0476323160127285 46 53 23
12.565142399063241 -0.9224465610366754 2.531018684051704 47 56 25
12.278249246811018 -1.308158046357896 2.3125387108203173 47 55 23
11.365250820353006 -1.6545119431478805 2.3888901432613423 50 57 27
11.161615136260641 -1.2395677073965847 1.965774965786664 47 54 24
13.19150839340295 -0.4709200226285145 2.466126781481244 45 52 21
11.352074615998891 -1.5255771768814643 2.390130144467868 50 57 27
11.627519312336231 -0.9425726548272039 1.9491276867186849 46 53 23
11.233254200685643 -1.3553966216833024 1.7765364415866922 46 54 22
11.640940974453388 -2.522093262357773 2.3639355661994017 48 55 25
11.246207756254204 -2.0113007755099677 2.276606596156605 48 54 27
9.89666232007134 -2.608729332432494 2.5646739558305267 51 60 29
10.228075205224235 -2.2267295506657363 2.516637615894318 49 58 28
11.993335086959718 -2.531738933640945 1.7633282822753027 47 54 24
10.279224974925388 -2.797385674572847 2.2298724278374378 46 55 23
13.027442582375754 1.7222116913818695 2.8046391790459144 46 56 25
13.942277464091253 2.253616898273956 2.8356534652126877 47 56 26
12.228769907643184 -0.4693689704104232 2.1115220351190276 44 51 20
11.40567513483014 -0.1842157171935283 2.1554445003543297 44 49 17
9.898094443437348 1.085925702763866 1.9101506404112014 31 42 9
11.51653109457373 1.1853692808195944 2.256767987198804 38 47 14
11.610338914628423 2.0367317943874568 2.3666161039079316 42 52 24
10.626045855634688 -2.3463387263056084 2.466447034999352 49 58 28
12.426832742639332 -0.4709200226285145 2.4157901353761186 44 51 21
10.364335638950347 -2.1869005005543687 2.683306467662874 51 61 30
11.419555499899545 -2.4292919367769468 2.263739421448639 47 53 26
11.878493596064194 -1.7103726475866223 1.5113987309846357 49 56 24
21.204730870052344 2.7877771867483085 1.726811770587947 45 58 29
13.376489426994777 1.5042626197639988 2.736687025716568 45 55 18
13.232411243924806 2.4128690551554817 2.7628963811612346 48 57 27
10.93469450634515 0.1209266797356288 1.8768748111099685 25 30 0
11.860306890129419 2.472559396424244 2.3453259487803 47 56 26
10.161053775415157 1.8812875826363806 2.1189281762672962 36 45 13
9.560059090763708 1.6408564887871142 1.8132103060255425 17 30 3
11.640940974453388 -2.522093262357773 2.3639355661994017 48 55 25
18.447017559630055 0.10923652746756328 3.013065036862374 51 60 28
10.818794546011034 0.13371323956125755 2.08221305491253 30 35 2
11.989269112983836 -0.6247263029308094 1.8491962049249537 43 50 20
12.610413273338608 2.2794426483139114 2.680748221869442 48 57 26
11.280960804029446 0.5906374592249964 2.3969016713650166 38 45 9
9.792624709480926 0.7766722924462423 2.268965754917044 36 43 9
11.50704487017447 -3.0720098884718112 1.9532926039593215 44 51 18
13.385680423067884 -1.1106603376208553 2.735087935156262 52 62 28
