10.239184729897772 0.9025114746925351 1.2532901696221066 20 24 7
9.777904285046567 1.1343713152598485 1.3442072084296384 21 22 8
10.179690464749635 0.7566704611962197 1.2513689493612767 20 24 7
9.901147832890489 0.9884767773859089 1.9650633769687809 23 26 9
10.063254143989463 1.0435457244963344 1.4516008092100416 23 24 9
9.392083656172831 0.8333304932708557 1.8738953598087806 19 24 7
9.075850188812227 1.085382802148729 1.884810961260186 21 25 8
9.432801475654468 1.085382802148729 1.985811727989353 34 40 22
9.610911753501759 0.9223631760650685 2.0941413317785904 34 39 22
10.321240916801028 1.025233446449478 2.2904967951315935 42 52 29
9.69130161708434 1.025233446449478 2.2128230284517105 38 48 25
9.878483219019776 1.085382802148729 2.0785814392881883 40 48 28
10.835533560696856 1.4744800888162826 1.7380030453208775 8 12 0
10.892369401860748 1.3824116785601794 1.4607122108368464 14 17 1
11.81391589568006 1.6541879033434155 1.7240411267422235 14 15 3
11.662628626964795 1.5684334079355282 1.6397327709397562 12 13 0
10.131252601254573 1.266343782918615 1.6501732578507955 11 12 1
10.101266863175201 1.266343782918615 1.5513265995836045 14 15 3
9.514696315637845 1.1932818125968851 2.0999861373627104 38 48 27
9.30420600568057 0.5236193740495889 1.6572459414566272 22 27 5
10.127527708181187 0.38278643986655064 1.851263220638915 22 28 5
10.17954979975958 0.4743258994680223 1.6497958641673625 22 29 6
10.144146775595468 0.28398569201237484 1.9551174393712905 21 29 7
9.593082719906976 0.17915998011726642 1.8673494312463101 38 47 21
10.847524609938416 0.3171540903000116 2.2487228024198425 19 29 9
10.989640338183325 0.4121134387632938 2.4998575960071103 48 59 36
11.382327916018282 0.22857693442302845 2.4550183381121022 47 58 34
10.627826765544444 0.22857693442302845 2.395338418121545 52 64 40
10.855749497801446 0.17915998011726642 2.134815410976236 27 36 9
9.70866743472799 0.950245241778787 2.347243825412892 45 55 32
10.224808057525108 0.5830508337014367 2.174353567731926 19 27 5
10.551392980946797 0.4251848059974789 2.153169345196417 14 22 2
10.89518651250541 0.6555249527511302 2.3691661173538243 45 53 32
11.271290319529793 0.5426610864800097 2.4671279171313554 48 58 35
10.769726121749018 0.6259984076479965 2.5277067506646844 46 56 33
11.147053038448462 0.744789031416436 2.4811915850056296 45 55 32
10.50882003070658 0.5426610864800097 2.407668581199787 47 57 35
10.859092739135109 0.8423035420688993 2.3725833148196793 43 53 30
10.715245704963106 0.6758593642412456 2.1431318662266374 25 31 9
10.375456829105739 0.744789031416436 2.422033554396523 45 54 33
10.087690805535596 0.7517473517787505 2.18375447537234 30 38 18
10.20832030690574 0.6758593642412456 2.0606901588210564 17 23 3
11.112618195880877 0.47734375549259644 2.349287074596656 49 59 38
10.627826765544444 0.22857693442302845 2.395338418121545 52 64 40
10.232352061997783 -0.04042161016362738 2.059438178520297 38 48 20
11.201165344689182 -0.04545045853328621 2.341520034221796 46 56 30
11.346718321799887 -0.19186260464733135 2.45885644964762 52 62 34
11.270217716564716 -0.05190709058221101 2.4672469576896208 49 61 37
11.386158793678522 -0.1500793411224461 2.2111885302359178 36 46 18
10.316551653346691 -0.1500793411224461 2.0551040843325836 38 48 20
11.794279573838448 -0.35680700376790137 2.1856440915517963 39 47 21
11.27813434813427 -0.16844233253240612 2.334913965499668 47 57 27
11.346718321799887 -0.19186260464733135 2.45885644964762 52 62 34
11.21320185244009 0.0789258289690818 2.3404781885224186 45 55 29
10.765298723545504 -0.35680700376790137 2.0332972405761796 38 46 20
10.495782358246117 -0.25623031024251336 2.0461412009794726 39 46 20
11.44231286366817 -0.2865188760021748 2.3212526427845663 49 58 30
10.245526800763844 0.07021348266193564 2.0587546597067976 39 48 20
11.321845851444127 0.07021348266193564 2.215428031667484 28 38 13
10.232352061997783 -0.04042161016362738 2.059438178520297 38 48 20
11.137957907885513 0.3144046572176076 2.6470254702955 50 61 38
11.328013818067552 0.48273911335856245 2.616758578852776 46 58 35
11.623643623557646 0.26486696039185426 2.5743705602400615 46 59 36
12.595102830021625 -0.37392554819371343 2.601656662654701 51 61 33
12.522584489418131 -0.44658373473228347 2.4700343891404115 51 61 34
13.045624461807952 -0.4397165158290412 2.70164540150885 54 62 38
11.035593126485296 0.12561972677614716 2.6645106510723173 51 62 38
11.525593276832755 0.1049462609027316 2.587867847846554 48 60 36
11.588775559737643 -0.22272239267958777 2.5791111565453995 52 62 34
12.546040155099897 -0.326793914957882 2.795785904256298 51 64 37
11.990001566512518 -0.509187622406803 2.5280728115294817 51 61 33
12.38191583983173 -0.5898514894175914 2.6311121758017375 54 62 37
11.513883344835158 -0.06049930370779533 2.589515074047936 49 61 37
18.023525873680803 1.9243736192662162 2.9851232236916694 54 67 46
18.023525873680803 1.9243736192662162 2.9851232236916694 54 67 46
18.196628138854223 1.83222101373198 2.9333074870156977 51 64 43
16.91392848053583 1.0097013755235789 3.0271790398671747 52 65 44
17.45796034188688 1.7776189884438078 2.8668802250364065 48 58 36
12.641540943838146 -0.8381621520499294 2.775393340481735 60 66 43
12.641540943838146 -0.8381621520499294 2.775393340481735 60 66 43
15.022598653651876 -1.9609119728028261 2.970533236955085 60 73 53
16.846696588357645 0.5534829057764102 3.069836236490858 53 68 46
15.212122784286327 -1.8521289915054142 2.909243083424142 59 72 50
16.807332046045804 -1.4956382051006702 3.119806492884086 57 73 52
16.815356113105015 1.5275211625251004 3.1037913914497617 55 70 50
13.373018581925749 2.4279570741136554 1.4057882146148466 36 43 21
12.981334907347694 1.8018563273627324 1.5556465745133308 11 14 2
13.601903306037142 1.9457330766274419 1.6298918276482064 25 28 14
13.132921383071968 2.045048720990898 1.4795509313795385 26 30 16
13.375364375273433 2.045048720990898 1.7819520229339132 35 39 23
12.398669207590444 1.7387333115208028 1.8825772373077567 32 36 19
13.199383155636925 1.8998165050433613 1.9432550438769407 37 41 25
14.12216902008468 1.8433460630689722 2.2438421646534548 37 44 23
14.67397997724386 2.008161130360236 2.214208465449384 37 44 22
13.220723840989892 2.125707521528418 2.1113337859797507 33 41 19
13.966241357933557 2.047235751099175 2.252774783235106 40 48 26
13.150679532934555 1.7387333115208028 2.0278388270729186 38 43 25
13.801886627474053 1.8209279320657885 2.0862487250734256 38 43 24
14.30805483842483 2.045048720990898 1.9884312108919273 34 39 19
14.05123089796777 1.8998165050433613 2.07622358239647 34 39 20
13.587936318035878 2.1106829302232586 1.6299526426085702 35 39 23
12.847689323062225 2.5977364489781203 1.6333653927657732 38 47 25
13.413199654750604 2.2140769096421695 1.7056501258946217 33 39 20
13.071247390069326 2.262059401342191 1.8660370891388522 34 43 20
12.301686052336986 2.5545238706139033 1.8006991136511623 39 49 26
12.567345255049235 2.5545238706139033 1.8782545014391854 41 51 28
12.635035982287576 2.262059401342191 1.7140110247736509 30 37 16
13.368852778644877 2.5336772583030935 1.5560857467964255 37 46 24
12.764248738915468 2.375366591656302 1.7922260250729596 39 49 26
13.21581200988308 2.4279570741136554 1.6316203658100115 38 47 24
13.017786426484944 2.2500817956160293 2.1207163863475995 39 49 26
13.017786426484944 2.2500817956160293 2.1207163863475995 39 49 26
11.786567865013792 2.3810003280726546 2.18610619245594 42 52 29
13.978399687561854 2.151115982415733 1.9989205865662538 28 36 13
13.107291546562417 2.316330532783066 2.0294673478047116 41 50 27
12.966803307347297 2.377822664913819 2.123128357843738 41 50 28
12.722799582760768 2.436564132523961 1.9579326853516823 39 49 26
13.286270035231555 2.7016971372157963 1.4806069572645082 35 45 22
12.06931547582996 2.6272735392667133 1.891384730098254 40 50 27
12.285315355915143 2.9249671686718828 1.6362335664379386 36 47 23
12.168558251348669 2.8216975578421497 1.8886779128921771 36 48 25
12.839854663271625 2.7722316641126517 1.5554796289035284 36 46 23
12.537893128384225 2.846833173411784 1.6349134951467152 35 45 22
12.236703542687449 2.7419179267525635 1.801942158922602 38 48 25
12.110292427921982 3.005877929277507 1.637180674069233 36 49 22
11.835217699742625 2.8832796894085244 2.083282249855348 41 53 29
12.179521205229554 2.8559595233440795 2.266197854684973 43 56 33
12.176766038989584 2.6647799838775406 2.163632094800541 49 59 36
12.148949530155612 2.5549260148827857 2.381275776723548 48 58 35
12.840628883111641 2.6272735392667133 2.039748309768618 45 55 32
12.080427759125246 2.5808261099479552 2.071898186693443 43 53 30
12.434248167586825 2.756684784849812 2.2492226321884274 48 60 40
11.7330947419161 2.7138193374298187 2.298385496545592 48 60 40
11.832321854301892 2.756684784849812 2.1833755230767062 45 57 35
11.653436716085139 2.9790978771809753 2.0920805108616762 40 52 29
11.835217699742625 2.8832796894085244 2.083282249855348 41 53 29
12.420751309178312 2.6272735392667133 1.9678677090980112 43 53 30
11.406935143351168 -3.017817280461302 1.8190977387494702 46 60 35
11.539143808716283 -2.844014076275932 1.4669054430786845 47 60 36
11.253221965349642 -2.9292925406958275 1.6422449682250944 46 60 35
12.051685506473294 -3.0280629982549447 1.5544778447428511 42 56 32
10.67940222241437 -3.1049978805815965 1.93492821933664 44 59 35
11.990942621659832 3.0886128402147652 1.5543951723148262 35 47 22
11.908029030013175 3.0709503190207625 2.2853773801504755 45 59 34
11.555639168445042 3.0780138954233798 2.096947471790515 42 54 30
11.075031325348707 -3.1049978805815965 2.0194016165072775 44 56 32
11.505872250150812 -2.883860552259267 2.2034577300173916 51 64 42
12.344377842589955 -2.7421905637505795 2.364772109027655 54 67 46
11.318866438316835 -2.908732374985789 2.0090580650961636 48 60 36
17.75400111120006 -3.120084438403238 1.273743484746941 33 43 17
17.117961810464806 -3.120084438403238 1.442116847871926 25 35 9
17.294891492801852 -2.9945873722357863 1.2043563541661237 42 52 26
16.962309948150814 -2.9945873722357863 1.259424374082512 37 49 21
16.366945841849077 -2.9339482664519894 1.4976168082245698 27 36 8
16.388210854510795 -2.9945873722357863 1.742700277049295 27 36 6
16.366945841849077 -2.9339482664519894 1.4976168082245698 27 36 8
16.97757316589223 -3.120084438403238 1.5592127582048574 27 37 9
17.122545779101202 -3.0613350740405196 1.6763118354427922 24 37 8
17.206337544383537 -3.120084438403238 1.734450927717663 29 39 10
17.046257270382558 -3.0613350740405196 1.6179410558540617 27 37 9
14.307954760448569 1.961864549870808 2.325629761957011 42 51 28
14.607921209971503 2.0505591142544577 2.511562598803204 43 53 29
14.307954760448569 1.961864549870808 2.325629761957011 42 51 28
14.063163021052047 1.8700464255975804 2.3421323791091577 40 48 26
14.146004753340497 1.9023337923625283 2.439825876895554 43 53 30
14.389387261168874 2.0019786311059025 2.4200467926579243 44 54 31
14.910948237690732 2.148075718790266 2.4842014869587783 44 54 31
17.26646542957213 2.41633021004264 2.909459873092964 53 66 45
16.997529892774196 2.4495114091681596 2.9902902584986015 54 70 48
17.542103481887576 1.9731561039640022 2.850345368362895 46 58 37
17.542103481887576 1.9731561039640022 2.850345368362895 46 58 37
18.277371006085595 2.067985766776953 2.9133467348947026 50 63 42
17.122669568739926 2.21340690758997 2.9481627132184567 54 67 48
17.039175846113068 2.0562150651506492 2.758387794373691 47 57 34
13.649677463879875 -2.628495140681494 2.615417303724314 60 69 49
14.324460639123425 -2.764540513711852 2.6765664501029347 57 69 50
14.861084898512132 -2.6976253611550773 2.7620245638349 58 70 49
14.193659264132565 -2.9168878427813056 2.695284297960874 55 68 47
14.132577755342306 -3.0805377516543198 2.704403597706001 50 68 48
14.752526508565518 -2.4387855628618174 2.78091993744407 60 70 49
15.308615054098142 -2.1009811540940593 2.883953849057112 61 72 49
16.930629986839012 2.830192347588162 3.018893369404398 54 70 50
17.076043072726467 2.9311654073997406 2.9626378926083237 55 69 50
14.996442120835201 -2.536211673997526 2.9809438253815843 59 72 51
15.387764841726506 -2.8105967289886484 2.8651058194902146 57 70 49
15.12030044605795 -2.265930499806137 2.936478089095369 60 73 52
15.50849819033985 -2.6045858625075375 2.838879154587275 59 71 51
15.387764841726506 -2.8105967289886484 2.8651058194902146 57 70 49
12.74124424349803 2.9393301052498395 2.4487259214899755 49 63 40
12.74124424349803 2.9393301052498395 2.4487259214899755 49 63 40
12.567174344740925 2.661036270509981 2.465582637819579 50 62 42
14.592620052124058 3.0507861108106065 2.641180381390072 49 65 43
13.441584772537722 3.0621247705914114 2.5043265536728345 49 63 39
13.431545350138158 -3.095829168659182 2.5053368988107128 48 64 42
13.71379168034162 -3.089276970719185 2.60742259190863 49 65 43
12.70944266122523 -2.9720106803356403 2.451745511299623 51 65 41
18.932737666371395 -0.7992380479652869 1.9956213800757194 59 49 31
18.614969596541094 -0.8809392530518455 1.9449415451964716 72 60 40
11.168947496018792 -0.5362231798482306 1.9182751256703463 39 45 20
10.7245129900301 -0.45038871232604544 1.9333255625837382 39 46 21
11.682277066750492 -0.6141272543350844 1.9024058183719146 34 38 16
11.983285014155273 -0.6843327943088116 1.806922251033105 33 37 15
12.308910103576997 -0.747332097311445 1.5548188884229213 43 46 25
11.547816901829133 -0.5362231798482306 1.9997863083022767 35 40 16
11.998281636447645 -0.5362231798482306 2.075652110916767 38 44 19
11.265157677452805 -0.58916106615842 2.111989077471376 51 56 33
11.774293473214176 -0.6704047588595771 2.086195866815285 52 56 34
11.39211372975709 -0.4980470533786568 2.2107990767400896 50 55 30
12.476732499187017 -0.652050591095552 2.3540388185723318 57 60 37
12.080506800659045 -0.5558237012357805 2.387251711032848 55 61 36
12.42352922571226 -0.8126344881352737 2.358311959203875 59 61 39
11.970342254609253 -0.9022737255831011 2.3970967293094243 60 62 40
13.186092467051706 -1.078118709587283 2.2040688579054346 62 64 43
12.530734335544098 -0.9718372557340506 2.349756922553361 61 63 42
13.598824187380343 -0.9989250108719436 2.1819648780816 58 60 39
13.143420874471145 -1.0296361947519106 2.3047234625433193 58 62 40
13.469400018164915 -1.1646534482926403 2.283102525077003 62 64 43
13.598824187380343 -0.9989250108719436 2.1819648780816 58 60 39
12.838148223945495 -1.1646534482926403 2.224114601664921 61 63 42
13.036164009636758 -1.2001884647774275 2.1198524519900603 60 64 43
13.012100806174814 -1.3575922682030557 2.3138645437916368 62 64 43
12.936846241280705 -1.5685729473490646 1.8691982184891984 60 66 41
12.977556603620792 -1.487890665244071 1.8682334694521279 61 66 42
13.285587197889301 -1.4806337961272482 2.108406229462501 61 65 43
12.798053395110058 -1.6561580036539834 2.041434505339974 60 66 43
13.322660184281967 -1.2866166561690655 2.196563961670143 60 64 43
13.13157605378003 -1.3776278555347272 2.2071200957644876 60 64 43
13.63781477935202 -1.4719891782779246 2.2724869567730455 60 64 43
13.010508655209465 -1.6643476157761812 2.2140129191818243 61 65 44
13.11526246869119 -1.3104570054676818 2.0291672617630585 63 65 44
21.23903657174118 -0.6475129800515933 2.0505627138440548 59 57 41
21.23903657174118 -0.6475129800515933 2.0505627138440548 59 57 41
12.72382728277266 -0.9022737255831011 2.450376443272889 62 64 43
12.690234401309377 -0.7149924092062487 2.5892764403922364 59 63 41
12.308141486856279 -0.6267830383567102 2.492268437422164 56 62 37
13.067986013754224 -0.8178725866370158 2.5440186774783573 59 63 42
12.362879761292959 -1.0066464756956954 2.486458198429067 62 64 43
12.436329402053897 -1.0570456751347475 2.6233525518545604 62 65 44
12.943676708348224 -0.9644008991722756 2.718687214802393 61 65 44
12.701870474943735 -1.2624251825347164 2.5877917826102403 63 65 44
12.701870474943735 -1.2624251825347164 2.5877917826102403 63 65 44
12.436329402053897 -1.0570456751347475 2.6233525518545604 62 65 44
12.231406471324028 -1.2094824671813615 2.653536933229014 63 67 46
13.123032854340245 -1.2094824671813615 2.6892763344314714 63 67 46
13.812962468393502 -1.3330068947616547 2.4688512190315457 62 64 43
12.62996518435598 -1.180792854060199 2.459408036378675 62 64 43
13.23131599115324 -1.3021664941620663 2.526115464423891 62 64 43
13.812962468393502 -1.3330068947616547 2.4688512190315457 62 64 43
13.045736664669471 -1.3330068947616547 2.421067820205774 63 65 44
13.006114199346806 -1.3815735895359504 2.7081439239029472 63 67 46
13.410228601045835 -1.5664771214744673 2.64702639634678 63 65 44
14.509727835847132 -1.790007569537202 2.8282758084500443 61 67 45
13.697918745718956 -1.6865344371998907 2.479463520028071 63 65 44
13.592516331808202 -1.6742692114445732 2.376374056335795 63 65 44
13.596560950834535 -1.4615184111294945 2.376064377837829 62 64 43
13.697918745718956 -1.6865344371998907 2.479463520028071 63 65 44
13.663380353849545 -1.5675097850247555 2.482713063919893 62 64 43
13.950606623278096 -1.4321827808349912 2.5793862197246584 62 64 43
13.663380353849545 -1.5675097850247555 2.482713063919893 62 64 43
13.912743813777633 -1.5670635574117995 2.5837207138247353 62 64 43
13.70193225146018 -1.4485777425070632 2.479087847894002 62 64 43
11.264831962165436 -2.0589050537861664 1.9151940722974767 64 66 45
13.003646737414993 -1.778385254912824 2.3144620033656533 64 66 45
12.109829176637941 -2.0141552105804537 2.2710098362290703 64 66 45
11.914447212141727 -2.409717476367641 2.4022026402375563 61 66 45
11.826359061951763 -2.16464504618099 2.2913839882113765 64 66 45
13.192416144961493 -1.8781412757094818 2.301378512718379 64 66 45
12.62584026734328 -1.9070572856077854 1.8767837538175172 63 67 46
12.495139012636034 -1.7426427398889806 1.9653725100466415 59 67 44
12.459267051503081 -2.0181012285974016 1.9665717247889294 65 67 46
13.102679162858346 -1.826612768712987 2.0296411800534724 63 67 46
11.03435974361072 -2.7290027376532526 1.7349625568046574 50 63 41
10.678270166078029 -2.6888050854537684 1.9349686248650453 54 66 45
11.325808147246029 -2.6480172753000915 1.5534318821662494 52 64 43
11.002622064635448 -2.395775993358542 1.7354404228940115 60 63 42
11.609880856790372 -2.4542655153865907 1.5538567997588617 60 64 43
11.226042126394654 -2.5492521693034265 2.1140846795765595 59 66 44
11.63683388547231 -2.4017036554823594 2.195230983442225 61 65 44
11.22197567787795 -2.328819016018425 2.0131083291158105 61 64 43
19.749826797030455 -2.7396208105690656 0.9680289930695426 48 57 34
17.96220465196676 -2.7623767875437415 1.2772897503302467 32 39 17
17.63265682373579 -2.8175372937386083 1.2716362179081613 33 41 15
16.891931055418766 -2.8175372937386083 1.499895038662533 30 39 13
16.60141938165291 -2.8748181896032277 1.4986521839619793 30 39 12
17.747644600714278 -2.889861480224504 1.7294164530913207 25 34 6
14.61085956200778 -1.9952133510090677 2.8075718624580803 63 69 47
13.225593426220495 -1.9122258913326045 2.405712655897364 63 65 44
13.408683723972795 -1.9543966200180654 2.507648482792735 63 65 44
13.88629173640656 -2.3182351995595756 2.586781010734825 64 69 47
14.098246722627682 -2.3091417818783446 2.7096434851092654 64 68 47
14.61085956200778 -1.9952133510090677 2.8075718624580803 63 69 47
14.196681114867134 -2.0767395462194935 2.6948396734779143 63 67 46
14.940128059565428 -1.9231120611752823 2.7489749091989095 62 66 45
14.43367412346448 -1.871305272449843 2.6617048683872784 62 65 44
14.43367412346448 -1.871305272449843 2.6617048683872784 62 65 44
14.051849378943755 -1.8324733112689202 2.5680520111634797 64 66 45
10.33548345179794 1.266343782918615 1.3566273789820853 16 19 5
9.97361666262569 1.1427169809790614 2.32147345206271 41 51 28
10.321240916801028 1.025233446449478 2.2904967951315935 42 52 29
9.73744948299579 0.8333304932708557 1.9720679759480086 21 26 9
9.127685358509865 1.025233446449478 2.1249677894280055 42 52 30
9.56177145175362 1.1343713152598485 1.6549116635181427 18 20 5
9.320211494577718 1.1427169809790614 2.2429366728613194 39 49 26
13.038226754723462 1.6541879033434155 2.0320847218970073 38 42 27
11.696304221069422 1.5684334079355282 1.4683063420265614 12 15 2
11.346718321799887 -0.19186260464733135 2.45885644964762 52 62 34
11.548801728766616 -0.25623031024251336 2.2007349801478715 39 45 20
11.509918590927102 -0.3246430227984566 2.4416023913618794 52 61 33
9.777684616464061 0.6758593642412456 1.970322657325886 18 24 2
11.568369785422188 0.35871898534511776 2.4356247040233368 49 59 35
9.88051952287682 0.6120332475251622 1.4493855601956542 22 26 7
11.112618195880877 0.47734375549259644 2.349287074596656 49 59 38
11.346718321799887 -0.19186260464733135 2.45885644964762 52 62 34
11.27813434813427 -0.16844233253240612 2.334913965499668 47 57 27
11.836256595595119 0.47734375549259644 2.4094753782200855 49 59 35
9.931461277189978 0.17915998011726642 1.963793812045159 40 46 19
11.309924967892698 -0.04042161016362738 2.2162206462249343 36 46 20
10.69430656084973 0.7517473517787505 2.260313847947788 42 50 28
11.382327916018282 0.22857693442302845 2.4550183381121022 47 58 34
11.313959805835701 0.20091424540539043 2.3318838577587964 34 45 22
10.507669596510114 -0.05190709058221101 2.4077899686002175 51 61 36
9.968967534711755 0.6259984076479965 2.4698904069368988 44 54 31
11.328013818067552 0.48273911335856245 2.616758578852776 46 58 35
13.045624461807952 -0.4397165158290412 2.70164540150885 54 62 38
12.69383050418112 -0.5309843169842123 2.7647981201486074 55 63 40
18.023525873680803 1.9243736192662162 2.9851232236916694 54 67 46
16.882712812668412 1.553981933250244 3.0445884754497436 52 67 45
17.45796034188688 1.7776189884438078 2.8668802250364065 48 58 36
17.45796034188688 1.7776189884438078 2.8668802250364065 48 58 36
17.45796034188688 1.7776189884438078 2.8668802250364065 48 58 36
16.84343244356373 2.5632210379334315 3.0725848665186244 55 71 51
14.3239643337151 2.474855307968261 1.345732664018283 38 46 24
12.068080967696465 1.8209279320657885 1.4714743027768546 20 22 7
13.593710707377996 2.151115982415733 1.9319464848815682 26 34 12
13.269014970088286 1.8754181716284932 1.631376188573737 20 24 11
13.220026038401754 2.3206114412071175 1.4801537902848965 34 40 19
12.149067392956448 2.5048652276688363 1.9772639834790078 40 50 27
13.97677007708845 2.012365919021606 1.5567256242252974 25 29 15
13.965632071643599 2.2716130910983243 1.4850053179356886 34 40 21
11.990942621659832 3.0886128402147652 1.5543951723148262 35 47 22
11.203062907211777 -2.782781503792113 2.115323853285192 51 64 43
12.002955722826625 2.9613583103889938 2.2785367023966825 44 57 34
12.420751309178312 2.6272735392667133 1.9678677090980112 43 53 30
11.96919270337965 -2.99060747860291 2.2809527217914 49 63 38
11.7330947419161 2.7138193374298187 2.298385496545592 48 60 40
12.080427759125246 2.5808261099479552 2.071898186693443 43 53 30
12.465954326355176 2.667166490561295 1.715967181157236 37 47 24
12.148949530155612 2.5549260148827857 2.381275776723548 48 58 35
12.165624050891326 2.8223963460522055 2.379835702382043 48 61 39
11.832321854301892 2.756684784849812 2.1833755230767062 45 57 35
11.191079470480457 -2.8161523138672093 1.9175589671898945 48 62 38
11.125703260458357 -3.108330431101855 1.7336026425924267 39 52 26
11.908029030013175 3.0709503190207625 2.2853773801504755 45 59 34
11.342613761443632 -2.99060747860291 2.2140522829104787 48 61 39
12.236703542687449 2.7419179267525635 1.801942158922602 38 48 25
11.26608528486228 -3.1009236065955297 2.2191540732617008 46 61 39
12.179521205229554 2.8559595233440795 2.266197854684973 43 56 33
16.295398732929936 -2.9945873722357863 1.4355824341974064 25 38 9
16.346348936087484 -3.0563339450192872 1.3739700988809127 27 37 9
17.13038727153114 -2.9339482664519894 1.2625805658008284 38 48 21
16.562115333115077 -2.9339482664519894 1.7408775567406274 25 34 5
14.063163021052047 1.8700464255975804 2.3421323791091577 40 48 26
14.063163021052047 1.8700464255975804 2.3421323791091577 40 48 26
14.063163021052047 1.8700464255975804 2.3421323791091577 40 48 26
14.146004753340497 1.9023337923625283 2.439825876895554 43 53 30
17.122669568739926 2.21340690758997 2.9481627132184567 54 67 48
17.14237549834064 2.6387452706182724 2.9423794087364055 55 69 47
17.26646542957213 2.41633021004264 2.909459873092964 53 66 45
17.44708053329007 2.2562789832318293 2.8691015590922415 51 64 43
17.682488790880353 2.1410540374490274 2.824935265869128 50 62 41
14.515234173638785 -2.294326398896781 2.827107045206082 59 70 50
14.735047847404001 -2.873663052716336 2.7840781477108716 57 70 49
14.735047847404001 -2.873663052716336 2.7840781477108716 57 70 49
14.142119526976714 3.0356874009804162 2.7029621391809173 52 65 44
14.861084898512132 -2.6976253611550773 2.7620245638349 58 70 49
14.996442120835201 -2.536211673997526 2.9809438253815843 59 72 51
15.282948041834642 -2.469503821113457 2.890406671809882 58 71 52
15.308615054098142 -2.1009811540940593 2.883953849057112 61 72 49
15.387764841726506 -2.8105967289886484 2.8651058194902146 57 70 49
12.8553546063293 -2.8532051333959254 2.438101300425783 53 67 45
13.776730074560767 -2.9482543157523184 2.599749198478551 51 67 43
18.54297356181829 -0.7992380479652869 1.9464664881458191 42 33 15
21.13889289475008 -0.9650377103751943 1.6088085828781222 50 45 22
11.192060730966041 -0.6141272543350844 1.7326288255294804 40 46 22
13.032504143977324 -0.8037519810879739 1.6324769615222068 42 41 23
13.801439112606479 -1.078118709587283 2.2625087204792447 60 63 42
13.801439112606479 -1.078118709587283 2.2625087204792447 60 63 42
11.37242091779157 -0.5558237012357805 2.3269986579759667 51 59 33
13.584854033646991 -1.2001884647774275 2.1826855921965853 61 65 44
13.20491393836772 -1.258126566137717 2.300530846818426 62 64 43
12.977556603620792 -1.487890665244071 1.8682334694521279 61 66 42
13.74936277379993 -1.3776278555347272 2.2656497285569266 60 64 43
21.03921046036335 -0.6809308882498479 2.1100388688699425 52 43 27
13.70193225146018 -1.4485777425070632 2.479087847894002 62 64 43
13.946664680064725 -1.7020794666261105 2.579835001502902 63 64 43
13.238059897641506 -1.2235427374371968 2.4046733304852452 62 64 43
12.254206274840074 -0.8178725866370158 2.498088619929113 59 62 40
13.708444638958914 -1.3575922682030557 2.367608850358528 62 64 43
12.72382728277266 -0.9022737255831011 2.450376443272889 62 64 43
13.44950615680556 -1.4107511250151343 2.6416378545545287 63 65 44
14.841240216567385 -1.7501146448093645 2.7653907173078625 61 66 44
12.72382728277266 -0.9022737255831011 2.450376443272889 62 64 43
13.23131599115324 -1.3021664941620663 2.526115464423891 62 64 43
14.509727835847132 -1.790007569537202 2.8282758084500443 61 67 45
12.697265696045458 -0.7273216046232347 2.452908671601058 59 62 39
13.123032854340245 -1.2094824671813615 2.6892763344314714 63 67 46
11.850542693515338 -0.7149924092062487 2.54498884807041 56 62 38
12.746912645836773 -1.1359684474789518 2.754410379599252 63 68 46
11.740590036543356 -2.1385050207637173 1.900696137070486 64 66 45
12.238116070437698 -1.9719738097110795 2.160258791386474 64 66 45
11.803585013434411 -2.1908425765901227 2.0847906869337547 64 66 45
11.94735311255404 -2.233976844022186 2.3991875237742852 64 67 46
11.670522563416753 -2.2521601799607156 2.193152348349109 63 66 45
12.495139012636034 -1.7426427398889806 1.9653725100466415 59 67 44
12.554348398395327 -1.758850432224218 2.1435059747852097 62 66 45
12.749771722609326 -1.8500812519011034 2.133653904885982 65 67 46
12.525773717406016 -1.9367870211060376 2.052525417330067 65 67 46
17.63265682373579 -2.8175372937386083 1.2716362179081613 33 41 15
17.747644600714278 -2.889861480224504 1.7294164530913207 25 34 6
14.61085956200778 -1.9952133510090677 2.8075718624580803 63 69 47
13.560386532773911 -2.208147241626192 2.6268678835444623 64 68 47
8.999881185096639 0.8333304932708557 1.660176856560899 21 25 8
12.624922569197823 1.6541879033434155 1.9610955864821795 37 39 25
9.729386672396684 0.9025114746925351 1.5505823210109937 23 24 8
9.432801475654468 1.085382802148729 1.985811727989353 34 40 22
9.666755352555127 0.7566704611962197 1.5504513355914304 21 25 7
10.73321045691084 0.8554031608302548 2.5325510469147856 45 55 32
10.826841296653555 0.35871898534511776 2.3756663472866864 48 58 34
9.684091256015442 0.5236193740495889 1.8644790805566447 16 24 1
11.282180555338988 0.09009990527751292 2.4659215686754803 46 58 32
10.520499562944858 0.09009990527751292 2.406438646035303 51 62 36
10.434730285832815 0.47734375549259644 2.28100282314345 31 39 17
9.433791890310692 0.6758593642412456 1.8725130085728434 20 26 6
10.495782358246117 -0.25623031024251336 2.0461412009794726 39 46 20
10.164310507249898 0.8423035420688993 2.304111637530667 44 52 30
10.090090468268906 1.0777747069314485 2.4549315622010255 43 53 30
11.023362687892908 -0.07249435760383525 2.6666615493849206 49 61 37
12.9175671921759 -0.6960353099449201 2.723200892361577 59 64 42
13.263428172762202 -0.5898514894175914 2.6679583887609684 57 63 39
16.91392848053583 1.0097013755235789 3.0271790398671747 52 65 44
18.023525873680803 1.9243736192662162 2.9851232236916694 54 67 46
18.196628138854223 1.83222101373198 2.9333074870156977 51 64 43
16.846696588357645 0.5534829057764102 3.069836236490858 53 68 46
16.84343244356373 2.5632210379334315 3.0725848665186244 55 71 51
14.555108340352517 2.5739112182190897 1.349366904709891 37 45 23
14.198541412281317 2.1106829302232586 1.270744676941817 25 29 15
15.171151351919171 2.3240623609856303 1.2905203881077778 34 39 21
13.740260629027086 2.635547743631363 1.483594602247899 37 46 24
14.36600518649361 1.974680114191331 2.0641387654253047 34 40 20
12.688364094926348 2.4881856452215674 1.7134049827958884 40 50 27
11.885348555157593 2.4475106712838754 2.08091074223122 41 51 28
13.273367461444629 2.151115982415733 1.8614092045632697 33 39 19
12.847689323062225 2.5977364489781203 1.6333653927657732 38 47 25
12.933626731081839 1.8209279320657885 1.9512956369069223 38 42 26
13.233513030209682 2.197233755023665 2.0247629723294844 33 42 20
13.190241184857564 2.3206114412071175 1.631738426373452 36 43 21
12.404362027405233 2.4475106712838754 2.151322276708247 43 53 30
13.107291546562417 2.316330532783066 2.0294673478047116 41 50 27
14.36595534944323 1.9282821603123912 2.2303852717593786 36 43 22
11.908149277363206 2.9059189753318084 1.8958820034535304 37 49 25
11.342740002910222 3.083794724568234 1.8205328926323865 38 51 25
11.459869802835152 2.614991959424077 2.2064041390612457 48 58 35
11.885288316293467 2.4618964258400218 2.287038457841014 45 55 32
12.67586814042662 2.9613583103889938 2.338515916831442 48 62 38
11.442357339207675 2.993681582975347 1.8183129514941903 36 48 25
12.537893128384225 2.846833173411784 1.6349134951467152 35 45 22
11.899512872484863 2.52632360509742 2.179412843627542 45 55 32
12.000219680487303 2.7065263353643263 1.9826092030013887 41 51 28
18.250170976344336 -2.945863059821993 1.89440337673154 35 44 14
14.132575501929797 2.148075718790266 2.4409507461298707 43 53 29
13.978297249411316 2.0932781401139295 2.348052310483851 45 55 31
15.053445842884022 3.0356874009804162 2.7311786941932095 52 65 46
13.911452147163041 -2.8145675583823007 2.583869530932663 53 69 47
12.315197128207675 2.7802838627702697 2.491514112654971 50 63 42
15.160418581091923 -2.7110785182769224 2.9241246913648387 59 72 51
16.735104505507667 2.1410540374490274 2.8063270848144866 47 59 38
19.22425753598282 -0.8380267737924507 1.9325272754169915 62 53 35
11.585704679993217 -0.45038871232604544 2.095441031524949 38 45 19
12.838148223945495 -1.1646534482926403 2.224114601664921 61 63 42
12.42352922571226 -0.8126344881352737 2.358311959203875 59 61 39
12.530734335544098 -0.9718372557340506 2.349756922553361 61 63 42
12.716144026848298 -1.6492841238248461 1.7930777317685018 59 66 41
13.20491393836772 -1.258126566137717 2.300530846818426 62 64 43
12.964346791012137 -0.8849450226985226 2.3172539644992947 58 61 40
12.761079712694025 -1.5683773159675765 2.042909155609791 59 65 42
11.678430788071914 -0.6843327943088116 1.639639344845768 41 46 23
12.921111596647435 -1.3942572141670617 2.0365950253355445 62 64 43
12.231406471324028 -1.2094824671813615 2.653536933229014 63 67 46
13.812962468393502 -1.3330068947616547 2.4688512190315457 62 64 43
13.663380353849545 -1.5675097850247555 2.482713063919893 62 64 43
12.906239006297966 -1.0703867898485568 2.4334661346300868 62 64 43
12.89932162138344 -1.1268267073390184 2.5635112237880784 63 65 44
13.663380353849545 -1.5675097850247555 2.482713063919893 62 64 43
13.912743813777633 -1.5670635574117995 2.5837207138247353 62 64 43
13.557709428960173 -1.5678607177567807 2.3790508673890503 62 64 43
12.71681067430168 -0.926858299399218 2.585894725271888 61 65 44
14.331292106157457 -1.7224111932250188 2.675617260818594 62 65 44
13.410228601045835 -1.5664771214744673 2.64702639634678 63 65 44
10.887646993744568 -2.4678392245497824 1.9276485414267914 61 65 44
12.14596395603073 -2.0654407629507903 2.3815342700704254 64 66 45
11.979448509292059 -2.640655730794519 2.2802168648243355 56 67 45
11.121406996534947 -2.485749522108493 2.2290471332221307 61 66 44
11.244979917798519 -2.265646563224501 1.8227509395531725 62 64 43
13.735693537036235 -2.0076976598297005 2.604733125277689 64 67 46
10.036194837139579 0.4251848059974789 2.0698582171597724 16 22 0
10.123291268606705 0.9025114746925351 1.8513837713070291 20 24 7
11.386158793678522 -0.1500793411224461 2.2111885302359178 36 46 18
10.375456829105739 0.744789031416436 2.422033554396523 45 54 33
9.929507524695977 0.8554031608302548 2.4749048223060246 45 55 32
11.313959805835701 0.20091424540539043 2.3318838577587964 34 45 22
11.513883344835158 -0.06049930370779533 2.589515074047936 49 61 37
11.623643623557646 0.26486696039185426 2.5743705602400615 46 59 36
12.003619285164554 1.7387333115208028 1.3867597007226113 8 9 0
14.274346484701741 2.171536412641265 1.41629396281442 35 40 24
13.199383155636925 1.8998165050433613 1.9432550438769407 37 41 25
13.346888024090015 2.375366591656302 1.9389408556140588 40 50 27
14.479779577519977 2.0824982994173467 2.1399426519306486 35 42 19
12.868615715560173 2.4881856452215674 1.7904006232592928 37 47 24
12.097196729193135 2.792066495009369 2.071139082909098 40 52 29
12.67586814042662 2.9613583103889938 2.338515916831442 48 62 38
12.586017734334506 3.0709503190207625 2.3454298975673455 48 62 38
12.434305746976829 2.7065263353643263 2.056375146649894 47 57 34
14.132575501929797 2.148075718790266 2.4409507461298707 43 53 29
14.324460639123425 -2.764540513711852 2.6765664501029347 57 69 50
15.052642746583917 -2.5466472323579223 2.731301326129259 60 69 47
14.617201671229687 2.047235751099175 2.305910301749206 43 52 29
13.143420874471145 -1.0296361947519106 2.3047234625433193 58 62 40
11.37242091779157 -0.5558237012357805 2.3269986579759667 51 59 33
12.794316220644266 -1.1220875994197421 2.329617822937319 61 63 42
11.39211372975709 -0.4980470533786568 2.2107990767400896 50 55 30
13.285587197889301 -1.4806337961272482 2.108406229462501 61 65 43
12.943676708348224 -0.9644008991722756 2.718687214802393 61 65 44
13.213392882219132 -0.8256038763771415 2.6754005210859475 60 64 43
11.711737613358629 -1.9719738097110795 2.089224148748016 64 66 45
10.608595051964222 -2.602682386235649 1.7416147426185904 57 66 44
11.330472359924643 -2.1071135717687097 2.1085278966496395 64 66 45
12.048603999873546 -2.582242116595734 2.3900735909480795 59 66 44
13.408683723972795 -1.9543966200180654 2.507648482792735 63 65 44
13.037304407174426 -1.8023680915016556 2.421804782760087 63 65 44
15.012236598236399 -2.3091417818783446 2.737533800704167 62 69 47
13.849748928472497 -2.168636342578902 2.750376196894868 64 68 47
14.021438564101333 -1.9231120611752823 2.7216841443360615 63 67 46
10.559848523258756 0.28398569201237484 2.043020987587643 24 32 9
11.690027072918442 -0.39694562141646605 2.301671348890385 49 58 31
11.756208371123293 -0.44658373473228347 2.4170838576072944 50 60 33
11.321845851444127 0.07021348266193564 2.215428031667484 28 38 13
12.291660302787232 -0.3246430227984566 2.4940367666126066 53 62 34
11.137957907885513 0.3144046572176076 2.6470254702955 50 61 38
11.990001566512518 -0.509187622406803 2.5280728115294817 51 61 33
14.12216902008468 1.8433460630689722 2.2438421646534548 37 44 23
11.908149277363206 2.9059189753318084 1.8958820034535304 37 49 25
11.832321854301892 2.756684784849812 2.1833755230767062 45 57 35
12.129316183936556 1.7387333115208028 1.8040263724151016 25 27 13
13.533984297303915 1.974680114191331 1.933613899949939 35 39 23
13.010508655209465 -1.6643476157761812 2.2140129191818243 61 65 44
13.006114199346806 -1.3815735895359504 2.7081439239029472 63 67 46
13.592516331808202 -1.6742692114445732 2.376374056335795 63 65 44
12.39694565876659 -2.3243840740981843 2.36046775924402 63 67 46
10.579894613418837 -2.4678392245497824 1.838968042899102 61 66 44
12.502385150295948 -1.9122258913326045 2.351997897386013 64 66 45
14.779114737056183 -2.168636342578902 2.7761798779951605 62 70 48
13.53140380348961 -2.4211520424719213 2.6306677306679918 61 68 46
13.12519589705086 2.7802838627702697 2.5376439872267738 51 63 43
13.431545350138158 -3.095829168659182 2.5053368988107128 48 64 42
9.523997115625587 0.8423035420688993 2.2260230963657377 43 51 31
11.601451968043884 0.6259984076479965 2.5773802885389836 46 56 33
12.69383050418112 -0.5309843169842123 2.7647981201486074 55 63 40
14.05123089796777 1.8998165050433613 2.07622358239647 34 39 20
11.756208371123293 -0.44658373473228347 2.4170838576072944 50 60 33
15.12030044605795 -2.265930499806137 2.936478089095369 60 73 52
12.71681067430168 -0.926858299399218 2.585894725271888 61 65 44
14.61085956200778 -1.9952133510090677 2.8075718624580803 63 69 47
13.80499884949926 -1.8023680915016556 2.469575592595269 63 65 44
12.974140441544607 -1.5681439367530643 2.2161156801214306 61 65 44
19.366343035611663 -0.7992380479652869 2.042684849191227 53 44 26
9.317690397843217 0.9884767773859089 1.7655651708387106 23 24 8
10.82374181337381 0.5830508337014367 2.2504933985043722 41 49 27
16.910677313029044 2.1074160002290383 3.0288644145205743 54 70 48
9.93180987304242 1.1343713152598485 1.8569444543349691 16 19 3
