15.226063960253056 1.0663130502803768 1.1910778341492716 42 48 25
15.369333033554069 1.0065257066307338 1.263860382360205 44 50 27
15.927606927949128 1.0410241059075271 1.339987534973265 42 51 25
8.644297534631601 1.0915049175621168 1.8468770150552871 1 10 0
8.830023925282385 0.9907634987604117 1.6111607357585105 9 17 5
8.588701495171664 1.203979436537859 1.9722788345912963 6 15 0
10.013380070239352 1.7088927651697046 2.1352052076648316 32 42 18
9.809220333778585 1.7273190915070615 2.275744834544467 38 48 25
9.741228561682655 1.593101443189141 2.2816982377711157 36 46 23
9.10904292546946 2.1814102028558793 1.7202504877001972 35 47 24
9.711021196749522 2.2667164240619773 1.7109227604171555 42 52 29
9.135319108135006 1.9759009047274054 2.0678819191518314 39 49 26
9.652289834423188 1.9759009047274054 2.1590722466 38 48 25
10.17826360912017 1.823585893184777 2.124982025857068 33 43 19
8.86691913886582 0.04296106107691177 1.4981392117071286 32 38 13
8.965593997604902 0.1549176950633401 1.498940258978545 30 39 12
9.250231571430978 0.263106401969107 1.7179525886913174 28 38 8
9.044731251418936 0.1549176950633401 1.7213212369006277 26 35 10
8.78196308873518 0.4592052892189233 2.089843829351728 28 35 9
8.624937497341024 1.0295152984142837 2.1002761522102413 17 25 4
8.34475820421782 0.922247718183601 1.8570616452069906 1 11 0
8.497750647805837 0.6438614598352084 2.10905786538323 24 33 5
8.453236582877937 0.5698502746775729 1.8532864096386872 28 37 10
8.751747024505143 0.8299398965787963 1.7264007788864637 26 35 7
8.84993454615779 0.2948723566161101 1.9597800113676276 26 35 9
8.333491584507364 0.45736212713664887 2.43834219221504 43 53 30
8.619489142874796 0.8515744967219777 2.4000626585754734 38 47 24
8.50544354860979 0.9514528872800749 2.2520305146497046 36 44 21
8.958159197607793 0.7223434391357951 2.534283911123898 40 50 26
9.381270538918978 0.8515744967219777 2.472121324647982 38 48 22
8.611898118175407 0.5249807090221478 2.242049338106152 35 45 21
8.98638543394493 -0.07898793299038791 2.076895473980734 31 35 26
9.110186740825544 -0.20390533247420842 2.0693791952681027 30 38 18
9.435513867458642 0.1991866896728896 2.3099454567152877 40 50 25
9.341803960065759 0.0555084007323598 2.319127797383315 44 52 29
9.473650816812501 -0.2327352697431023 2.3062821250583245 38 46 23
9.490565602161462 0.23219184046743904 2.457700446857054 44 54 31
9.397404680773638 0.06499599632684545 2.469954860689121 40 50 24
9.67437375365704 -0.12756470333721587 2.613477586588159 42 50 27
11.061105951559584 -0.16031520661690787 2.7826895805375402 45 55 31
9.661942260236927 0.07838748431802996 2.6156872450418307 40 50 26
9.18485831441005 -0.49658799254326524 2.4996237580772704 41 49 26
9.05158942986019 -0.7565450712515036 2.5195853716629593 37 47 23
10.240888648778004 -0.39969543615662345 2.7229068433978894 45 55 31
10.240888648778004 -0.39969543615662345 2.7229068433978894 45 55 31
12.946605528101184 -1.6628191532743561 1.3651513896925758 29 39 11
13.074550254824578 -1.7406649499935822 1.3671922098959235 30 39 9
9.851403475155971 0.9962710059609408 2.583443294549531 38 48 23
9.738817023462888 1.5965962006432477 2.4270010556186374 39 49 26
10.006340480301102 1.7839890601111772 2.5591157751145106 41 51 28
8.799514778609401 1.1525858850626134 2.225225572738169 34 44 14
9.738817023462888 1.5965962006432477 2.4270010556186374 39 49 26
10.332018354009433 1.6083681264254786 2.703507816949258 42 52 29
10.36442635180136 1.3823290420066636 2.696879676850857 39 49 26
9.973380092845446 1.4167487464912134 2.5641521510349534 38 49 28
9.544481510525678 1.0857529189548607 2.450799441447712 39 49 28
9.939697185630918 1.601389127851148 2.5693743940388747 40 50 26
11.052515238980314 -0.7459770489917511 2.7847672023059733 47 57 33
9.962524401011109 2.4975259627407067 2.023358150359798 41 51 30
9.269445656298354 2.4240729146362243 2.0600482950175087 42 52 31
9.600048843335909 2.4140741498580587 1.6079215322031453 41 51 27
9.04061120784063 2.700811479475252 2.0735741310165086 39 49 27
9.975123876315381 1.8979023401395843 2.4001080919342224 40 50 27
9.602710200810238 2.5621205631607755 2.443496454847666 43 53 30
10.43929075895023 2.3233272216864154 2.682060964611197 44 54 31
9.929522514971419 2.459848461326172 2.5709672424354935 43 53 30
9.647421691768557 2.102525987613624 2.4379908464443183 42 52 29
9.96016644270016 2.5928987153080376 2.138591317032036 41 51 30
9.998583095391519 2.438238311003861 2.3975497335545057 43 53 30
9.869058616561912 2.8208978105296283 2.270597596352253 43 51 31
10.107673635723188 2.7098023539654386 2.544067491047647 42 52 29
9.287573422331388 2.438238311003861 2.3245630002657385 42 52 29
9.127602345857449 2.196497178229365 2.5080620157002107 42 52 29
9.95116919886076 2.196497178229365 2.5675870484261565 44 54 31
9.95116919886076 2.196497178229365 2.5675870484261565 44 54 31
10.555052941550526 2.0298175032786934 2.6603720239098925 42 52 29
9.181829716872763 2.3357907932848527 2.193657049480197 41 51 30
9.313235098432687 2.1491258143453225 2.1835595117354565 40 50 27
10.514201848018372 2.622443095735456 2.667866703959514 43 53 30
8.334403570913556 -2.79099005223746 1.985268565591333 49 59 35
8.39367552787344 3.08863040539024 2.116477564141771 46 56 33
8.784926108005081 -2.79099005223746 2.0896511500826196 48 58 34
8.700727680381254 -2.6737251958703854 1.9668189486719556 49 58 34
9.195946309768411 -2.426017532968916 2.49801268671422 51 59 37
9.696497895478046 2.9213951802126497 2.4320464690656483 44 54 32
9.676709009907803 2.951335728935345 2.287453912742271 43 53 29
9.585357403233685 3.08863040539024 2.2957868065516522 45 55 32
9.597888092336914 -3.055245262706094 2.2946307489679123 49 58 32
8.933010700933062 -2.6105999613760233 2.213809937056578 50 58 36
9.23422680780266 -2.7396918011225124 2.3299995691433906 48 60 37
9.733612345521987 -2.884584927322465 2.4276176259152287 49 59 35
9.689927667316026 -2.5302243449644397 2.4328364163774396 48 60 39
9.32135025430125 -2.79099005223746 2.1829475777602485 49 59 35
9.956233397599584 -2.837607218049853 2.56680092090304 49 59 35
13.371726704322004 -1.830270755469095 3.0935871794057115 49 59 35
13.371726704322004 -1.830270755469095 3.0935871794057115 49 59 35
13.36273534010841 1.979815747044048 3.1106092213271603 47 57 34
8.779062335459054 -1.5923980495427346 2.090032606146335 36 45 17
9.323569091318644 -1.7050886423115585 1.939045486750484 34 43 15
8.854445502432611 -1.7224581346013106 2.085173404638667 37 46 18
9.215615780804441 -1.4452752485731368 2.3319177017999264 34 43 17
8.517288303493812 -1.5956597997458963 2.250903604830161 39 48 22
9.437720546228059 -1.2551483144935915 2.4645990517099134 36 46 20
9.295151358335621 -1.4232401677390727 2.4839166342149355 39 49 23
9.179152677948284 -1.5956597997458963 2.3357085997437723 41 50 25
9.330507923243793 -1.7751277220352266 2.479026076931296 49 59 35
9.251276320095432 -1.744936137896581 2.328252188261795 44 54 30
9.54994099432026 -1.606415038581493 2.636258867046095 48 58 34
9.58499365306651 -1.3919212928883606 2.6296877296206143 43 53 29
9.405890542553204 -2.47641494481558 1.8240090848427148 44 53 27
9.330581144114 -1.9644190352092732 2.056562968881953 36 45 17
9.704814307277829 -2.47641494481558 1.9239311884085217 45 54 30
9.459276110408577 -2.233305909620815 2.0493934607451356 42 52 28
9.08471293117468 -2.0167121932685452 2.201356458702999 41 50 24
8.786508941336095 -1.8868132788300949 2.2263617068470305 41 50 24
9.382913165338392 -2.4984328280712726 2.178348219522769 44 56 33
9.78350230935026 -2.0836287637523347 2.421752150081255 49 59 35
9.507241859308541 -1.9384387105459289 2.4555513740632517 49 59 35
9.790807542095045 -2.008941389132746 2.5934358442755245 51 61 38
9.32470745320748 -2.313979231179026 2.1826948119921945 46 56 33
9.959445184004935 -2.233305909620815 2.1386375114031 44 54 31
9.707968524985292 -2.0167121932685452 2.2846521686440564 45 55 32
9.40332035202778 -2.411778968366882 2.313070658789117 45 57 34
10.059283373681177 -2.171355340242109 2.5511736301158536 50 60 37
9.953557247087913 -1.792119887686369 1.707486632782079 32 41 13
8.65092650662236 -2.9456976009119966 1.846659924545873 46 56 32
9.363952684147492 2.649222269288449 1.7161526664009408 37 47 24
9.774487965191303 2.7882789227549645 1.6072586856271123 37 47 20
8.506337099621051 3.095107201557853 1.851474995185807 44 54 30
9.366643870272542 2.992156894333108 1.7161106066985021 40 50 26
9.142737889825467 2.8579725496914596 1.94668843664686 40 50 25
8.849338618108026 -3.065777759545385 1.9598076126219295 46 55 29
9.142737889825467 2.8579725496914596 1.94668843664686 40 50 25
8.934765548538259 2.9741761081101803 1.9558916202323766 42 52 28
9.478766978811986 -2.626640596487621 1.714379719234098 45 55 29
10.422968181756925 2.2050521182649883 1.509001268751856 34 46 23
8.76400062066919 1.3270407588919297 2.0910151385869575 16 24 9
8.6803014537004 0.922247718183601 1.9678030416667331 2 9 0
7.913907133542522 0.9514528872800749 2.153716388277914 19 29 9
9.0705217378509 0.17431309608884457 2.0717616598061355 17 27 4
8.973000829272316 0.04843594216283103 2.077722410052821 20 24 15
9.0705217378509 0.17431309608884457 2.0717616598061355 17 27 4
9.354660897841045 -0.0904847224876956 2.317852453499808 43 50 27
9.05158942986019 -0.7565450712515036 2.5195853716629593 37 47 23
9.397404680773638 0.06499599632684545 2.469954860689121 40 50 24
12.779954559407198 -1.6628191532743561 1.4418253181193197 28 40 13
9.806825515025944 1.7513582038178823 2.4190438510543006 41 51 28
9.939697185630918 1.601389127851148 2.5693743940388747 40 50 26
9.018730874688659 0.9962710059609408 2.524685337942101 37 47 24
9.773192280458685 1.4405981657622031 2.4229561552481846 38 48 25
9.190939769408308 1.2906771675841044 2.3344783544780587 39 49 23
10.396147023453501 1.8306920390218429 2.690519414033236 41 51 28
10.755339815054668 -0.21534205271902568 2.868348411415095 47 57 33
8.867938316420931 2.2513200558700115 1.9589480365983263 41 51 28
9.264264933616504 2.4975259627407067 1.8279669705878347 40 50 28
9.88846257775769 2.773176302533734 2.4097282490239147 43 53 30
9.779328536015194 2.4240729146362243 2.1504315552581814 43 53 30
10.23876779761659 2.03127012827748 2.3724069162859323 40 50 27
9.545665098528119 2.03127012827748 2.299476701383365 41 51 28
9.95116919886076 2.196497178229365 2.5675870484261565 44 54 31
9.520629929252356 2.331016722673918 2.453835554676373 43 53 30
9.553331759635013 2.3233272216864154 2.635617700094589 44 54 31
8.497847349883706 2.951335728935345 2.109051070992859 44 54 31
10.013893966504536 -2.426017532968916 2.557971658028631 48 60 39
9.617839154799901 -3.0413255803350983 2.441623768524712 48 58 33
9.585357403233685 3.08863040539024 2.2957868065516522 45 55 32
9.605334492994304 3.080059265058564 2.4431708932019642 45 55 32
9.362388526039744 -2.6720958746086643 2.4746738512189785 48 60 37
8.954443274574022 -2.5302243449644397 2.3600831947085026 50 58 36
9.23422680780266 -2.7396918011225124 2.3299995691433906 48 60 37
13.36273534010841 1.979815747044048 3.1106092213271603 47 57 34
13.421339155268802 -2.6522698953853197 3.043122004986625 50 60 36
9.215615780804441 -1.4452752485731368 2.3319177017999264 34 43 17
9.179152677948284 -1.5956597997458963 2.3357085997437723 41 50 25
9.723313923948561 -1.1926638512659928 2.604912677280544 39 48 25
9.137883789900481 -1.0203712607706241 2.5065318329937716 37 45 22
9.259001481803633 -1.6000814178845162 2.488988143888249 46 56 32
9.259001481803633 -1.6000814178845162 2.488988143888249 46 56 32
9.78488795057884 -1.691271577473005 1.7098580382123196 31 40 12
9.410993301098657 -2.402360501763132 2.052057140850748 45 55 32
10.040277595695239 -2.3205770943012194 2.019596242944642 42 52 28
10.040277595695239 -2.3205770943012194 2.019596242944642 42 52 28
9.330581144114 -1.9644190352092732 2.056562968881953 36 45 17
9.08471293117468 -2.0167121932685452 2.201356458702999 41 50 24
9.707968524985292 -2.0167121932685452 2.2846521686440564 45 55 32
10.059283373681177 -2.171355340242109 2.5511736301158536 50 60 37
9.451642357944067 -2.208521043999424 2.308391101566211 47 57 34
9.78350230935026 -2.0836287637523347 2.421752150081255 49 59 35
8.65092650662236 -2.9456976009119966 1.846659924545873 46 56 32
9.17942007087362 3.1001733124614628 1.6096235579495504 40 50 26
9.565230687611159 2.8875306955253706 1.7130729447032405 38 48 24
8.89263227105885 -2.831055940885553 1.8389739355741157 47 57 33
9.538495200682615 -2.8631192326277555 1.6081612190966637 43 53 29
9.860186102642345 -2.765389042284792 1.6069416405216872 44 52 29
9.03363958509086 -2.7242417934137135 1.721507465358283 48 56 33
8.830023925282385 0.9907634987604117 1.6111607357585105 9 17 5
9.741228561682655 1.593101443189141 2.2816982377711157 36 46 23
9.114311879285085 2.084573456194575 1.9479196059264172 37 49 26
8.852588228632827 0.40723959045488206 1.8402171732703436 35 41 16
7.968315936476569 0.6100392404233157 2.307975991038714 38 48 24
7.974209215490225 0.8386454659957108 2.005230440368406 17 25 4
8.279257159098469 0.744800982375886 1.8593911857460526 20 28 6
8.960352782172489 -0.07007905532287363 1.7227496690075217 8 12 1
9.00421561366984 0.3350359369900117 2.207898052429095 32 41 17
9.748453856387387 -0.4220377992960139 2.4258623219784443 40 48 25
8.619489142874796 0.8515744967219777 2.4000626585754734 38 47 24
9.168163054769508 0.9514528872800749 2.3368597758667176 36 46 22
9.05158942986019 -0.7565450712515036 2.5195853716629593 37 47 23
9.661942260236927 0.07838748431802996 2.6156872450418307 40 50 26
9.560519638686667 -0.5993381511708079 2.6342624753778945 41 51 27
12.909551045880182 -1.7406649499935822 1.4431271502466654 31 41 13
10.858992302354585 -0.5191410561894896 2.836134584534303 48 58 34
9.051301200500301 2.951335728935345 2.2040537200326504 43 53 29
9.32135025430125 -2.79099005223746 2.1829475777602485 49 59 35
9.605334492994304 3.080059265058564 2.4431708932019642 45 55 32
9.7138990687735 -2.9191961804255295 2.2841234221484257 49 59 33
9.647421691768557 2.102525987613624 2.4379908464443183 42 52 29
10.15666966538929 2.700811479475252 2.246988198860447 42 50 30
8.540172564873227 -2.9191961804255295 2.1060946395064786 48 58 32
9.878678542237807 2.52387195361735 2.2697779835560006 42 52 31
10.693851912998335 3.068184197130027 2.636077928300958 45 55 32
9.310712707640974 2.229558239778997 2.322232765942055 42 52 31
12.559815705103803 -2.8625574391160975 2.961337762541795 49 59 35
13.412381050188499 2.8263483615485714 3.0501315123899913 47 57 34
8.779062335459054 -1.5923980495427346 2.090032606146335 36 45 17
8.594967696885533 -1.744936137896581 2.2436149208020066 41 50 24
9.619284934997607 -1.817727083178357 2.623378413301385 51 61 38
9.54994099432026 -1.606415038581493 2.636258867046095 48 58 34
9.16204351951291 -2.5688389626758314 1.9458569782320874 46 56 30
9.040490850679648 -1.847571198618775 2.073581452114416 37 46 18
9.715400874517172 -2.0709687572475803 2.035763466331077 39 48 21
9.500432109449848 -1.8168214973033727 1.931872242382147 34 43 15
9.704814307277829 -2.47641494481558 1.9239311884085217 45 54 30
9.206418036252705 -2.47641494481558 1.718658044656925 41 51 26
9.57369757688748 -2.5688389626758314 2.043202501640682 47 57 34
9.633577103933886 -2.30438388010134 2.439686328719271 46 58 35
9.479518906965994 -2.132324838256009 2.1712799219017445 40 50 26
9.313565987748696 -2.966613473247737 1.609064043245853 42 52 28
9.192504126888027 -3.0740236204617504 1.609568265881499 42 52 26
9.145306610305727 2.7491123079187463 1.8313894364697805 38 48 23
9.387991244050234 -2.626640596487621 1.6087605215344165 44 53 27
10.305722423434784 2.341401225472602 1.5082973294166255 43 53 30
9.977478299765355 1.8561120798780992 2.261483452866849 38 48 25
9.881493563576782 -0.7565450712515036 2.578585142064314 40 50 26
9.435513867458642 0.1991866896728896 2.3099454567152877 40 50 25
9.410185652765955 -0.10588372228804567 2.4682480921635808 39 47 24
10.171338135829808 1.9533378232727394 2.5349308788546425 41 51 28
9.25665566697186 2.8208978105296283 2.187863224100534 41 51 28
8.407982406767834 -3.055245262706094 2.115444722949526 48 57 31
9.520629929252356 2.331016722673918 2.453835554676373 43 53 30
8.517288303493812 -1.5956597997458963 2.250903604830161 39 48 22
9.479518906965994 -2.132324838256009 2.1712799219017445 40 50 26
9.429495385036878 -1.8868132788300949 2.310527405768794 45 55 31
9.192504126888027 -3.0740236204617504 1.609568265881499 42 52 26
9.861706689104189 2.7882789227549645 1.7087678492036855 38 48 21
7.844809477479861 0.7360030922252956 2.159535185932966 34 43 17
9.528482214120892 -0.2708283019740452 2.452833107017457 41 49 26
9.789478372760428 -0.32331345248718035 2.5936582587090227 42 50 27
8.95085539618319 0.38723418838192064 2.360487248641402 41 51 28
8.910673662221262 0.2779702746206136 2.5419953670469777 41 51 28
9.133198016489363 -2.6737251958703854 2.068007919166055 48 58 35
9.296579853389087 1.2420202092318917 2.4837177207363395 35 47 30
9.919951895628806 2.8805249455234496 2.572472135591638 44 54 33
9.878574060811633 2.4140741498580587 1.8116467073435145 41 51 28
10.332018354009433 1.6083681264254786 2.703507816949258 42 52 29
9.043208937417349 2.5928987153080376 1.9510357512153513 39 49 27
9.611421335889322 1.1739750627632202 2.624815091298557 38 48 25
10.180840922253443 2.140436096360581 2.736365021185863 42 52 29
9.15694383432682 1.4580800956763256 2.1956103769363273 29 39 17
10.839158766876949 -0.9597547581687808 2.8419919005433476 46 57 33
10.755339815054668 -0.21534205271902568 2.868348411415095 47 57 33
9.640995939565716 -2.2891519191594294 2.6194425420610545 52 60 39
8.94692923274183 0.04296106107691177 1.7229794277178831 18 24 5
9.477798743704449 2.640087855254307 2.3058861933145094 42 52 29
