7.94485050497226 0.08537270912592329 2.2298246377081217 57 57 25
7.780291875551231 0.38494688709477803 2.0906701817718862 49 52 19
6.629525258009575 1.1834579491269839 2.017683806428547 46 49 16
7.418670036891521 1.5139247073565965 2.482544989968236 50 52 20
6.372556773959317 1.1088376456043787 2.2224602765198824 47 50 17
6.801384618367337 1.5313063269014557 1.8485664442409824 48 48 15
6.276614310109085 0.9478479831547286 2.0448083046645715 46 49 16
7.246055692258215 1.380604208661923 1.9772891577039828 48 49 16
6.144257942473202 1.2288976015455007 2.484546053428847 48 51 18
6.882769157113272 0.4404206803236052 2.5908401736887194 52 55 24
7.172424839847967 0.6613125293212755 2.5282316459311005 51 54 22
6.839941768211208 0.8262007653069979 2.3620945176894703 48 51 18
6.750645210130039 0.6929426122642826 2.180398015576256 47 50 17
7.613160916971296 -0.14158301705169637 2.6945527085787404 54 57 26
7.752583619285637 0.4404206803236052 2.658395311222974 53 56 25
7.617833416454944 0.1629219373251925 2.6932749967488943 54 57 26
7.983015078019621 0.4024346507214202 2.9694460451074485 56 61 31
8.111701211770994 0.8843502545440476 2.8943444308075534 56 59 28
8.111701211770994 0.8843502545440476 2.8943444308075534 56 59 28
7.38824092119216 0.5971738700383429 2.762990011497952 53 56 25
13.384392050743383 2.2045123594463463 1.7865225207087003 55 52 27
5.618465316021287 2.1145205690611855 1.9091609336130644 49 52 19
6.45277609409257 2.0306770320125307 1.8640056972121386 51 52 20
6.875589129921199 1.937455399330145 2.3568621757614485 50 53 20
7.194253054977489 2.1145205690611855 2.313439005801188 50 53 20
6.471847471073189 1.8756394117481223 2.029392517265043 51 52 20
6.095471120834729 1.8756394117481223 1.8817516355663608 49 51 17
5.947138221396261 2.546030341744718 2.27824378713715 48 51 17
6.814668886860472 3.0291193674839105 2.365854300393007 53 56 23
6.140820021270604 3.0291193674839105 2.251574794330926 56 59 28
6.140820021270604 3.0291193674839105 2.251574794330926 56 59 28
5.89148354267789 2.3845202898157 2.078645153249248 50 53 20
11.871690069225638 2.186213101952821 1.3899747129186317 57 56 28
12.218553251736864 2.3681281643896477 1.559749029226561 41 35 9
12.313029714372972 2.2527409599533 1.6411067130758172 54 49 24
12.142657722387483 2.5506773089253425 1.3096595019798312 42 33 7
6.968343785018237 2.917641959293505 1.695253148102186 54 57 28
6.81811178355444 3.062316661648418 1.6980101874814415 55 58 27
7.010386792737743 -3.0728149155652718 1.8400756324969274 56 59 28
6.054913033911337 -3.060884555897638 1.8839051144284789 58 61 28
13.3544027204897 2.701050124299646 1.3338323953121833 61 51 30
12.753733931775628 2.5950000549969663 1.402604131943583 59 47 24
14.484177424266287 2.4156091556464956 1.699917446206667 41 35 11
14.64655035022006 2.4156091556464956 1.7676763838974072 50 41 18
7.655344073385195 -0.5246425197613012 2.443600569738794 54 57 27
7.394285610866827 -0.33123299337643275 2.4868142225310326 54 57 26
7.655344073385195 -0.5246425197613012 2.443600569738794 54 57 27
8.351450096134448 -0.8160598542292614 2.5357375021291544 62 64 40
7.988609736454927 -0.6475641667093094 2.604795784682781 62 64 40
8.988870271009615 -1.3962579207453614 2.975400883288585 68 71 42
8.312800068208634 -0.5753069388163251 2.811874869851977 63 68 39
7.738801737642646 -0.42239839781327787 2.6618005803363824 61 64 35
8.49465143667638 -1.1024976381633873 2.511814227875268 65 67 41
7.738801737642646 -0.42239839781327787 2.6618005803363824 61 64 35
5.730383530219847 -2.842052053293103 2.094360642741605 58 63 30
5.66004302866597 -2.6622903037778447 1.9065771232338062 60 65 32
5.31813665250284 -2.5591799671507487 2.1397210092543437 61 66 33
5.849052114790544 -2.3946644795805874 2.082687064763516 60 65 34
5.583291283575718 -1.942779370566413 2.1096377317238333 64 68 41
5.429674864817366 -2.3946644795805874 1.9214232298324878 60 65 34
5.870085264276797 -2.2402777621937786 2.289522783048975 63 68 37
12.290230136698046 2.0322588976186924 1.048149577575102 57 57 28
6.7115750824597935 1.380604208661923 1.7000407557406274 45 46 15
6.769274146967562 1.3001892546912606 2.3727151723601416 51 51 20
5.596849147932055 0.8262007653069979 2.1081901056357197 46 49 16
6.424045028491212 1.0023964234719296 2.4299869329918464 49 52 20
6.867619513780269 1.347296141812665 2.168552332449157 49 50 18
8.195963139690653 -0.20282771469181846 2.856449143301871 58 61 32
8.200303567571522 0.23286753096944213 2.854648992163458 56 59 29
7.174428574209408 1.6838106948343985 1.981590802042164 51 51 18
7.174428574209408 1.6838106948343985 1.981590802042164 51 51 18
7.451188915323139 1.7329069466144427 2.476930957280773 51 54 21
6.024715263914174 2.1145205690611855 2.066379324573708 50 53 20
6.208356012632032 1.937455399330145 2.242795070191566 50 53 20
5.912365744944091 2.230406446323221 2.283283780298498 50 53 20
6.307205193015071 2.8284089930996856 2.2303883668120403 52 55 24
5.351486851379347 2.546030341744718 2.1357410272671618 51 54 21
6.814668886860472 3.0291193674839105 2.365854300393007 53 56 23
12.965116732316533 2.3127905557384207 1.637565012566071 41 35 10
13.758918726486568 2.3668901616689904 1.706764841732655 47 38 14
7.973787257881424 2.9457838582116964 1.4279724603667727 53 56 27
7.499884960193386 -0.22986288400327787 2.112205341385471 57 57 26
7.575665003314573 -0.4382779157650537 2.268148923821848 55 57 28
8.033251276336092 -0.6829682162054003 2.38925440372246 56 57 33
8.49465143667638 -1.1024976381633873 2.511814227875268 65 67 41
7.738801737642646 -0.42239839781327787 2.6618005803363824 61 64 35
7.738801737642646 -0.42239839781327787 2.6618005803363824 61 64 35
8.24612517683159 -1.4663961265389998 2.836382479469209 67 74 44
6.221285347757606 -2.036650760209173 2.4686582648194646 66 71 42
5.341260883259493 -2.4094189988165455 2.379823105881436 64 69 39
6.2902573005657825 -2.842052053293103 2.2324793688065787 59 64 31
7.418670036891521 1.5139247073565965 2.482544989968236 50 52 20
7.94037044055248 -0.07407322858186066 2.2302617227944945 57 57 26
6.424045028491212 1.0023964234719296 2.4299869329918464 49 52 20
7.94485050497226 0.08537270912592329 2.2298246377081217 57 57 25
8.325631832689014 0.5971738700383429 2.807400329636134 55 58 27
6.97243509777916 1.8756394117481223 2.158352491177542 51 52 20
5.89148354267789 2.3845202898157 2.078645153249248 50 53 20
6.43736124802319 2.3845202898157 2.2148031741000165 50 53 19
7.006977386747426 2.917641959293505 1.4081010885996257 54 57 27
7.655344073385195 -0.5246425197613012 2.443600569738794 54 57 27
7.311762240089839 -0.2716174046967963 2.2987844836561666 56 58 28
8.337567348838236 -1.0987390588577202 2.8033016140461373 68 71 42
5.4135058494882955 -2.6622903037778447 1.731273616223373 59 64 31
5.474883548927522 -2.036650760209173 2.354566778148153 65 70 41
5.917146183642953 -2.5591799671507487 2.2825860789630394 61 66 33
5.849052114790544 -2.3946644795805874 2.082687064763516 60 65 34
5.988385719972015 -2.891870530289773 1.7157531830758064 58 63 30
5.429674864817366 -2.3946644795805874 1.9214232298324878 60 65 34
6.7115750824597935 1.380604208661923 1.7000407557406274 45 46 15
7.780291875551231 0.38494688709477803 2.0906701817718862 49 52 19
7.6588034785295775 0.8431914908630527 2.682278625776824 52 55 24
7.978556443538532 -0.3535922267243949 2.9726904190075683 58 63 34
13.929748239863097 2.3668901616689904 1.7779511818660714 47 42 17
8.098530490747802 -0.8609862825250161 2.9008719361655912 65 70 39
8.312800068208634 -0.5753069388163251 2.811874869851977 63 68 39
5.9713225246016455 -2.121547859495597 2.071219294659426 63 65 39
12.48722912877128 2.2219048432022164 0.8612839208718912 32 29 2
8.111701211770994 0.8843502545440476 2.8943444308075534 56 59 28
6.759100530098607 -3.0728149155652718 1.5508249976663346 56 59 28
6.262632325362928 1.1834579491269839 1.8731850673952792 46 47 16
6.135022715563449 -3.0439625363975407 2.25234039587896 58 61 28
6.688573278892763 1.0388040296656476 1.8533790425857888 45 48 15
6.6563220784729005 1.5139247073565965 2.3904173363299934 52 52 21
