10.735064627999899 0.7430572922624964 1.6151613093103643 30 32 6
11.554938466852658 0.930353257574134 1.525441267210561 30 30 7
10.88694513897412 0.6127812974809356 1.6145419888158603 31 34 5
11.80746709397015 0.5636404277727741 1.4413733212156299 32 35 8
10.438707877985566 0.5335357959895453 1.7126787218278283 32 35 4
10.88694513897412 0.6127812974809356 1.6145419888158603 31 34 5
10.858630675563711 0.8747790117299867 1.7071569069954147 27 29 3
10.657723922842662 0.6698992151213826 1.9030330641896556 32 37 8
10.255984239925809 0.6511038435838022 2.1340527406836722 36 43 9
10.597316515223802 0.8106888515625772 1.9050004691170022 31 36 7
9.972735852921572 0.44612614987741317 1.7193561989479575 31 36 3
10.709417899984166 0.3177801333991125 1.8041156276211396 34 37 4
10.212236056348043 0.24827522876624544 2.0245116735471163 36 42 6
9.781311310853777 0.5528032600062968 2.165005725306143 37 44 8
10.459400582940656 0.2781983535619469 2.238476457226969 40 47 11
10.092012562798825 0.3507651522223468 1.9224398047762143 31 38 6
10.719618571767835 0.39100146053607865 2.2194771993860964 39 46 10
10.565108503447393 0.12618359052733483 1.906059200850413 34 39 6
10.510431704801864 0.4942404741123714 2.118837356782498 37 44 10
11.076236835952768 0.14018949922128493 2.195287511537723 39 45 11
10.4508205995362 0.028716926046581534 2.122322846074882 38 45 13
10.865659915187026 0.025816873311430635 1.995388985912396 35 42 9
11.007809077030108 0.028716926046581534 2.1997749336141803 39 46 14
10.366301323761682 0.8882803619454724 2.017276922245963 33 38 8
10.83570083601792 0.8882803619454724 2.1006141469923945 36 41 12
10.443512146757971 0.9504892265736341 1.8101708405630297 29 31 5
11.193102185148224 1.1297066752050267 2.1877829096757746 37 43 10
10.888962228737299 0.9770424245388595 2.2077389023589657 38 45 13
10.214807807335125 0.7279010649440152 2.257500497022857 39 46 10
10.19319630135263 0.8148486150015777 2.137947417323376 38 45 11
10.930966668082132 0.037036857068353406 2.4581784004363287 43 51 17
10.419028091218845 0.3160500035628635 2.3710651988436773 41 48 12
10.877910943169857 0.032350708128346825 2.3285258426899893 41 49 15
10.2491455544273 0.18006101664648796 2.388294695966503 42 50 15
12.710307534524974 1.3448685013821602 2.4121483771355603 40 48 18
11.23243659821596 1.0135979358556506 2.4258553121017705 37 47 10
11.110877275203743 0.8206454545728131 2.438529834882913 38 48 11
13.207346933732516 1.276279025231231 2.6238088797670365 42 51 17
11.123245220260841 1.0778480245583892 2.307858388027347 39 46 12
11.983309565789664 1.3448685013821602 2.3565043614995567 40 47 17
12.883825725501259 1.314994422700329 2.5202896053243737 41 49 17
11.799904491131535 1.1297066752050267 2.256959447413325 38 43 13
11.508371836987108 1.2332467763080674 2.2778849672571266 38 45 14
10.827021471603631 0.504393895734536 2.470054860845969 40 51 13
10.429925514771442 0.625064874096266 2.369989426045822 40 48 12
10.827021471603631 0.504393895734536 2.470054860845969 40 51 13
10.674288362924642 0.7153750727661754 2.488268104331226 40 50 13
10.429925514771442 0.625064874096266 2.369989426045822 40 48 12
12.907119286965338 -0.6486062789910682 2.0964132152637065 42 44 15
10.592323997317543 -0.19360025472966033 2.1141248386828684 40 45 12
10.888131319135143 -0.07507102973910565 1.99445613418514 37 42 11
13.4566922576903 -0.716217547135588 2.0728825417370462 39 43 16
12.266171612051807 -0.44699343514507694 2.033578768474988 39 42 12
12.907119286965338 -0.6486062789910682 2.0964132152637065 42 44 15
13.669390008037945 -0.5258735478063121 2.149480794335053 42 45 15
13.280187685481637 -0.44699343514507694 2.1687492157823156 42 45 14
10.900357091295861 -0.09398167834205659 2.3265793324760433 42 49 17
11.013928588291892 -0.21739020718114296 2.3169050217345712 43 49 15
12.345811503505928 -0.6944345359052323 2.327539479895073 44 49 18
11.551683220190919 -0.4973458973342631 2.394628654311224 43 48 17
12.79651570151581 -0.7068044654210959 2.194726953400523 43 46 17
12.841647087127443 -0.7741727934366457 2.2916791122292532 43 48 18
12.598813033544625 -0.34217074769786554 2.716226676988163 49 57 28
12.49965006006106 -0.15084330938690568 2.734091650832913 47 57 26
13.186628669428815 -0.4208285991482099 2.811825739799648 51 60 32
12.598813033544625 -0.34217074769786554 2.716226676988163 49 57 28
12.552933820079168 -0.7722445700243725 2.4262852022402095 44 49 18
12.552933820079168 -0.7722445700243725 2.4262852022402095 44 49 18
12.552933820079168 -0.7722445700243725 2.4262852022402095 44 49 18
12.127955691750277 -0.6774613921623795 2.467612660200218 46 51 20
12.5916909310658 -0.565693663560513 2.553473316639087 47 54 22
12.567342982548352 -0.974649258981811 2.5563850402541757 51 57 28
12.685134711669585 -0.7653611832548123 2.701446095309679 52 61 33
12.49977580087923 -0.7695165887688501 2.5645934892999995 51 59 29
12.567342982548352 -0.974649258981811 2.5563850402541757 51 57 28
13.098888893114685 -0.7582613964354703 2.8319915865598886 65 74 46
11.2425821253578 -1.2517499690315743 2.5734023857609283 51 57 29
11.859770138974433 -1.022524033215468 2.6537181506603926 56 63 36
12.219754307279189 -1.1017468541578999 2.790925260588355 60 69 42
12.29402236778261 -1.1036242546768071 2.59083823734613 51 57 28
12.333400838733029 -0.8522859377023643 2.3284900938069617 44 49 19
12.384398625119978 -1.3305072315618593 2.442093439134676 49 56 27
12.124824417539156 -1.1045332538308705 2.344892822961826 46 52 21
12.907424781074265 -0.9199604959768071 2.2872102680633297 44 49 20
11.986643180520238 -1.1650159494428352 2.4825116283838526 49 55 25
12.427654115762154 -1.3784700972498518 2.216261468871099 47 52 23
12.266814517167058 -1.0467895722672216 2.453563805466283 47 53 23
11.784926434884698 -1.2965335274652725 2.504934281272406 51 57 29
13.226315626479261 -1.3959898348690862 2.171526177277781 45 50 23
12.325175782253446 -1.3571068206191006 2.3291216318263643 47 54 24
12.518190033903263 -1.2508216774359142 2.3146151333702716 47 53 23
13.53109207378767 -0.9774333764702773 2.2477442648279595 44 49 20
14.4776423234591 1.5779820323075044 1.3955704661625936 5 5 5
13.382999652746037 1.653773214857282 1.6813181968272026 4 4 3
13.885780128450959 1.8709344710487867 1.5330584661881086 13 13 16
13.959322343975987 1.8709344710487867 1.4614114736957462 17 17 20
14.379124210368389 1.647976507272445 1.4646172291359991 4 4 4
13.032398226310486 1.6684308209261831 2.090846276309845 36 42 18
12.18181135087207 1.8397533025835677 1.8601700481102408 25 27 17
12.47402918574297 1.9203125553943967 1.8532025460073804 33 37 20
11.966271409662399 1.7554590072069798 1.8655371765377968 28 31 19
12.986089757529356 1.5798971757102405 2.0928894681992065 36 42 20
12.786631177950762 1.6605088417788094 1.8461160348401648 1 2 0
12.294057951805824 1.7554590072069798 1.9434484905936364 35 40 19
12.882370903112125 1.818732727042243 1.7642087220225784 6 7 4
12.517440541818148 1.5798971757102405 2.023588445597512 24 29 15
12.54916098308651 1.4912210017817231 2.022359081199426 18 22 10
13.283855382271408 1.965305567781527 1.6066448596935596 15 15 17
13.080554644987313 2.2394416703047852 1.5307341548022655 21 26 13
11.943339843447971 2.1075577129317957 1.6106705102146626 22 26 15
12.603732423081782 1.9964120272071988 1.7685405883011496 16 17 14
12.691712843170325 1.5807845238403035 2.2006840616557293 39 46 19
12.722998803543241 1.4834994053057862 2.198892753778192 39 44 19
10.93456186771206 2.419506681523857 2.095327155567314 38 44 22
11.172166759617323 2.4841210196741557 1.9830201583810125 35 40 22
10.954710901785969 2.504542645379401 2.203305964705287 39 48 22
11.424142185453555 2.617970333171318 1.9733954923393162 34 42 21
11.954257896205915 2.7042641823597893 2.1433026452408366 39 46 27
11.174060800350036 3.113521740493893 2.1889922441771774 49 57 40
10.731793236140954 2.345528888755373 1.9006527193074285 33 39 16
10.247932878884017 2.031984178924396 2.0228137502535333 42 48 21
10.83871170824833 2.2073426968548304 1.897277409297117 36 41 17
11.168273741290326 2.281251034326104 1.7943628769788607 34 38 19
12.545080457062737 2.4049435054332298 1.3682277424289608 28 32 18
10.948558291851095 2.270082097018621 2.0945876507959684 38 44 16
10.555253927104454 2.085399887166664 2.231336182044422 44 51 21
10.98263455661645 2.1836956437039703 2.201443649266303 40 49 17
11.926504103473304 2.225320716360864 1.779931120897438 33 38 15
11.900795320804745 2.468620665201886 1.780389632174028 34 39 24
11.096107224425012 2.345528888755373 1.9860194996653473 38 44 20
11.30516000068977 2.151241231235187 2.418488679878422 44 55 20
12.118591552097095 1.8528401154885683 2.4685806407690536 46 55 25
11.88336388255201 1.7035494701136562 2.364955967669699 42 49 19
13.700166644423955 1.9513364631816081 2.7156593173289414 46 59 26
12.582358533194341 1.4741234115147677 2.3099327194738857 40 47 17
11.88336388255201 1.7035494701136562 2.364955967669699 42 49 19
12.743732498846313 1.584913923341408 2.535814689155351 43 52 20
11.561655606769687 1.930267213619054 2.273953554917041 46 52 25
12.616122488221086 1.7035494701136562 2.420539246005756 42 52 22
12.251384924608033 1.7452378530113728 2.5965314313983114 45 56 23
13.07072169794145 1.5871703480307753 2.642465825325252 44 55 21
13.338436181648966 1.5832040439265633 2.4741501483596067 40 50 20
11.580713625352915 1.9748615165711658 2.391925310976965 46 55 25
12.550721995024043 1.5818635940087442 2.312232763769146 41 48 18
11.948777739260859 1.6893484264647227 2.2467985615285464 40 47 15
12.251835054811664 2.8445880682206326 2.783835484729881 53 64 40
12.917228624764538 2.757034439518664 2.879500296866211 51 64 37
12.02866318619685 2.3378736919215877 2.6278848135596746 46 58 30
12.908948350645128 2.3378736919215877 2.6659613966113884 46 59 29
13.261867096452802 2.3321126010417608 2.7956323469592563 49 61 32
13.135772147582253 3.0793733138479102 2.8233311060862403 55 68 42
13.325570661429055 2.638891704896014 2.7826049272968203 50 62 36
12.614665502891983 2.4707834090714322 2.713461157049302 50 60 33
12.394298043055223 2.638891704896014 2.7542552996952185 52 62 36
13.641516290676424 3.0206221731069856 2.985706904215048 54 68 41
11.002695556411235 2.2550144376130037 2.3178491389840623 42 51 22
11.202694194253327 2.3414106249028075 2.4289139076900064 45 55 25
12.12657592418193 3.0997353502884732 2.613751354738376 54 64 41
12.561893837279204 3.0915445302176674 2.722761328687835 56 66 42
12.169332877607204 2.759533260303112 2.3413233650391687 43 52 29
12.856167528584159 2.8340879208395093 2.5233011438951443 49 57 34
12.760231201612857 2.725361699732612 2.6891111284935576 52 62 36
11.278034925407816 2.532642397207174 2.421218026361113 44 52 29
12.718878950334073 2.966618783393094 2.538641597036146 50 60 37
12.188724519600866 2.938673745350765 2.605070288478028 51 61 37
12.621899165689916 2.900311799422967 2.7122070679131 52 62 38
12.55337918467615 2.651514492400615 2.558065850207261 48 58 34
12.52423615721365 2.7042641823597893 2.2104666715362518 41 49 30
11.973739364283539 2.58716418445083 1.6943892468922346 37 42 31
12.294703330590858 2.699473639088556 1.5281719606842854 35 42 29
11.899612501679524 2.775563917997868 1.6108171134605154 39 47 31
11.49401155540549 3.11629911805381 2.0673873664903617 49 56 43
11.270292891201729 3.0289805561337957 1.7021467569074369 51 56 43
11.71044940108346 2.9219245618386096 2.057398879345023 46 54 38
11.579707074030718 2.856357309296646 1.611923358445711 41 49 33
11.425001690294964 2.9411596610973745 1.7003580182898743 44 52 36
11.94344116848685 2.829843748844211 2.0471064018961362 45 53 36
11.764507457567408 -1.9355330579153611 1.7828545393998683 47 51 34
11.827861260067605 -1.764031942734369 1.9589038564580057 47 51 30
11.629049709642025 -2.009460210726004 2.1614333986757526 50 55 34
11.315030747231464 -1.9117325972758963 2.1801594218634692 50 55 33
12.241344348561732 -1.764031942734369 2.034590906009718 47 52 27
12.545635426540054 -1.5803301195951507 2.1132089304510324 47 52 27
11.887551585692114 -1.7832970589024768 2.1469235103278344 49 54 31
11.906780669303457 -1.9692773540304178 2.0486955811402185 48 52 33
10.864235674359 -2.578629025916522 1.707086117860572 50 54 39
10.518195419930473 -2.929533991420566 2.2340765838776666 53 60 40
11.027697463763925 -2.7086933259435386 2.198463424120183 51 56 40
10.837305823086188 -2.6611095145130883 1.8973213347148998 49 53 39
10.471766893874646 -2.7086933259435386 2.1210927340084265 53 58 39
10.64876816948761 -3.059991869000051 2.1109265939162265 50 58 38
10.71886529647625 -2.5526684739278616 2.219530478195192 53 58 37
10.81251907492073 -2.7513279221876012 1.9976120267969237 49 53 36
11.197451115063302 -2.46151164232646 2.187507427615994 53 58 39
10.522887407684046 -2.524869136054432 1.9074574947247571 51 55 39
12.067518699352103 -2.2006380912215007 1.61025997710764 51 55 41
11.218387024759203 -2.3787830800465457 1.6132487552975738 59 63 52
11.7611457845736 -2.1302936965147583 1.7829160773282025 51 55 40
11.221387625058034 -2.382044349019938 2.080600146264295 53 58 42
11.278453002229659 -2.238164172998167 2.0777735023177524 52 57 40
10.79591358079835 -2.3129812178569766 1.8022120522308394 56 61 47
11.66016071439004 -2.1343993019108476 2.9636784449624693 56 66 40
12.774800164768086 -1.6081049999230204 2.9249210049744288 57 66 42
11.135990385278273 -1.760405559533668 2.5885763214965953 52 58 33
11.948121818726765 -1.588627078822605 2.6399613183775408 54 61 34
11.553079810311923 -1.7991099727070614 2.7063796550203123 53 62 37
11.50081635210758 -1.592384271047056 2.716258653570579 54 63 37
11.535332696822113 -1.3838233599672267 2.7097005102085445 55 64 38
12.071957091016019 -1.5981470643718962 2.826093488659887 57 65 41
11.998437037117226 -1.760405559533668 2.632367380046875 53 59 33
11.948121818726765 -1.588627078822605 2.6399613183775408 54 61 34
11.98134961749313 -1.4158002061473982 2.634927543677673 53 60 33
12.121758302567486 -1.8571275726540564 2.813739957697068 56 64 41
12.877595730760277 -2.9060982795471353 2.891229528062315 57 70 43
11.796788725069916 -2.448995103617141 2.9078916928896077 56 66 40
12.311538364518071 -2.7395397339256404 2.771081057959057 56 66 42
11.580613354161061 -2.551995268115514 2.7012938300184364 53 61 39
12.200735174271179 -2.4173508657975864 2.795212053316793 55 63 40
12.973870279724734 -2.629375184261666 2.863691052666564 58 68 42
12.210042533536518 -2.962088093880441 2.7931062446978565 59 69 45
11.816298526890968 -2.1909630042804684 2.5013520416639534 53 60 35
11.85746363641074 -2.401788658672083 2.6540848372533183 54 60 34
12.253240415677626 -2.0824150237704564 2.7835288171108314 55 61 36
11.91148209839987 -2.1499175445755343 2.645599140509571 53 61 33
11.51946910199216 -2.057942785829978 2.277062095221149 50 56 34
11.202378856886613 -1.951822494425118 2.301464785049344 49 55 31
11.534112399695646 -1.7121988910606973 2.3962753404079793 50 56 31
12.271031156524923 -1.45541322067044 2.453145889832814 50 56 29
11.58281225066602 -2.117275650256573 2.3917307134344785 52 58 35
12.282358873526032 -1.5813084358018388 2.2252002205544645 49 54 29
11.819644513680242 -1.8729796006639896 2.500972114207358 51 57 33
11.683283788868591 -1.7328227297996028 2.516796383038902 51 57 32
12.178658002444704 -1.5825104821097007 2.3405803803243255 49 55 30
12.037810131759981 -2.001935725445072 2.4770437619724994 52 58 36
11.6951808000098 -1.806749738663125 2.2643145006870267 50 56 31
12.946183709194308 -1.4789451589747 2.2846063430476273 49 54 27
11.106902021916332 -2.64811443018648 2.5928338513819904 55 61 39
11.04969710599676 -3.049973927147831 2.3139169550275747 51 59 37
11.295595265523726 -3.020205237138455 2.566092782395207 56 64 42
10.670923402227206 -2.772860577358556 2.3470416662470437 54 62 42
11.60035123877639 -2.7189674263015613 2.526778825499517 54 62 42
12.23945751360471 -2.5085085728706202 2.5981407854349294 55 61 36
11.76184292468268 -2.3925371939627236 2.5075934823477315 53 59 33
11.782471886954617 -2.8121703508257774 2.6662287242096423 57 65 43
12.199581436063184 -2.297077560072686 2.460295693887855 53 59 33
11.405231722010363 -2.8631618973324553 2.551440394916132 56 64 42
11.973571562934373 -2.2184713588344933 2.357318488790471 52 58 35
12.701126936038666 -2.2184713588344933 2.412957338961209 52 58 35
11.973571562934373 -2.2184713588344933 2.357318488790471 52 58 35
11.074697756298727 -3.068038514485023 1.986871915814054 50 55 42
10.479397356871338 -2.876335109512748 1.616244424716843 46 51 36
10.214807807335125 0.7279010649440152 2.257500497022857 39 46 10
10.478593752996895 0.3507651522223468 2.012153026968291 34 39 6
11.492803259263882 0.6840952586799725 1.525195887933872 31 32 6
11.46885111706108 0.29030407541775105 1.699859884320689 30 35 6
10.888962228737299 0.9770424245388595 2.2077389023589657 38 45 13
10.489429294218942 0.587172843079936 2.0116650554985585 34 41 7
10.763524530123261 0.8148486150015777 2.2163883106514546 38 46 12
10.331706781878822 0.7366286865309795 2.018880483727489 35 42 10
9.73812799109891 0.625064874096266 2.2983244677713595 40 47 11
11.051174178157806 1.0353603579153188 2.089232526339318 37 42 13
11.400683911423862 0.20409831232108036 1.7897302731020295 31 36 3
10.591328587260694 1.0353603579153188 2.0071302919713765 34 37 10
11.007809077030108 0.028716926046581534 2.1997749336141803 39 46 14
10.729989723172476 0.22406592864423466 1.900710265005904 33 38 5
10.02581493688408 0.4942404741123714 2.0335992714134115 35 42 8
10.999872456919359 0.18006101664648796 2.4505217620115642 40 51 16
10.68022977914698 0.4409896634611298 2.3461864669968193 39 48 11
10.947150691266886 0.15766383781875565 2.322558407532483 41 48 14
11.983309565789664 1.3448685013821602 2.3565043614995567 40 47 17
12.181741739628789 1.2332467763080674 2.340335049626603 39 46 15
11.298119253968327 1.3448685013821602 2.293896627259591 40 47 16
10.909195484624577 0.906562837585966 2.325816048736655 36 45 10
10.402022419079136 0.20976645292969975 2.5232694884690083 42 52 15
10.569448054501025 0.3652947595636801 2.5013384661933213 43 50 14
11.168507318184314 0.625064874096266 2.4324632272152016 39 49 12
11.142241118231347 -0.19360025472966033 2.1910247068234754 41 46 13
11.02999088424718 -0.0834711160554601 2.19831257223672 40 45 12
10.953304091868903 -0.10750883933570249 2.4556779117135408 43 50 17
11.267322085988798 -0.37867961050135335 2.4223019303305007 45 50 19
11.267322085988798 -0.37867961050135335 2.4223019303305007 45 50 19
12.931132407549136 -0.6288573848872169 2.285614975907 44 48 18
13.43673836020516 -0.6486062789910682 2.160834592628853 41 44 16
13.43673836020516 -0.6486062789910682 2.160834592628853 41 44 16
13.186628669428815 -0.4208285991482099 2.811825739799648 51 60 32
11.655857930150036 -1.1903273472316689 2.6877853294422582 55 64 37
12.29402236778261 -1.1036242546768071 2.59083823734613 51 57 28
12.775716343299242 -0.5107656562020898 2.686624115957173 48 56 26
13.098888893114685 -0.7582613964354703 2.8319915865598886 65 74 46
12.552933820079168 -0.7722445700243725 2.4262852022402095 44 49 18
12.115321862411218 -0.8648078592218589 2.468919261642971 47 53 22
12.0974320546995 -1.2517499690315743 2.6178982055135047 53 61 32
12.912522344703822 -0.8648078592218589 2.517191881437549 49 56 24
12.482247025981414 -1.0068941654825414 2.317267877924246 46 51 20
12.786719883785018 -1.1515074096918922 2.2954596866020194 47 51 20
11.637058040295981 -1.3305072315618593 2.3867389416587805 49 56 26
13.040896660947698 -0.8522859377023643 2.3842223878324127 46 51 20
15.008815635783973 1.7850846621303418 1.3337954868637911 6 6 6
12.485833311476144 2.1765005296367823 1.5288248301044451 15 19 9
14.490137659654382 1.7172225435438109 1.4654337356488778 7 7 7
12.503948866693747 1.8397533025835677 1.9368949095954506 35 40 21
12.294057951805824 1.7554590072069798 1.9434484905936364 35 40 19
13.622122555233746 1.800705630944155 1.6057542945867422 10 10 10
12.911344361431706 1.7406920267516752 1.8433884197666544 3 4 0
12.882370903112125 1.818732727042243 1.7642087220225784 6 7 4
13.008003188469223 1.8938127151093707 1.6845179463969613 16 16 15
12.739091460226918 1.6778815306345012 2.19797568281848 38 44 16
11.477637666280218 2.07462351679911 1.971411460366011 37 42 13
11.154553013418166 2.411279755029892 1.7946425604780916 32 38 18
11.650086279610791 2.468620665201886 1.6116747674901166 31 36 19
11.102178065928502 2.5661727534815744 2.0866136366250045 34 42 18
12.312178850663624 2.289859109839038 1.528232496959071 30 33 22
11.661175122013672 2.346832828414059 1.6977196779593586 33 37 22
11.418242526843285 2.411279755029892 1.8801408157052908 33 39 18
10.948558291851095 2.270082097018621 2.0945876507959684 38 44 16
10.83871170824833 2.2073426968548304 1.897277409297117 36 41 17
10.687609865102855 2.1243889681370134 2.0029335506246264 39 45 17
10.877130888839533 2.343802951022431 2.208543844444913 40 47 21
11.578859053057593 2.5394802929213998 1.8757105280081965 35 40 26
10.38111079915037 1.930267213619054 2.1264592774712 43 50 23
11.334328565513582 1.8201642240294833 2.2910806190839157 42 50 22
12.568280323865553 1.5832040439265633 2.424880891301828 41 49 19
12.599872775577307 1.4624998675392729 2.422007789108714 40 48 17
11.770895283508404 2.031196486885189 2.506548271032047 46 57 22
12.616122488221086 1.7035494701136562 2.420539246005756 42 52 22
11.196677852752138 2.085399887166664 2.3019211561883863 43 52 20
13.368208684539242 1.4624998675392729 2.4713292663666375 41 50 20
13.101102601174665 1.4282871891572508 2.6382286316462586 42 53 18
12.381490577044623 1.895025824537636 2.5794408478364494 45 56 23
13.193167613691877 2.8445880682206326 2.810380695786004 52 64 38
13.348535661832582 2.0296666537320722 2.77804784051823 47 61 28
12.190008221512462 3.0793733138479102 2.7976584194480507 55 67 43
13.052431080615095 2.5129519238569626 2.843319176164501 48 61 33
12.251835054811664 2.8445880682206326 2.783835484729881 53 64 40
13.052431080615095 2.5129519238569626 2.843319176164501 48 61 33
11.202694194253327 2.3414106249028075 2.4289139076900064 45 55 25
12.974384844314773 2.5736682077203232 2.656260704402837 50 60 34
12.621899165689916 2.900311799422967 2.7122070679131 52 62 38
12.2816935241088 2.7117958499448376 2.452091355160065 45 55 31
12.474126200090415 2.657971431984751 2.317870251167438 40 48 26
12.670189832393882 2.8700840411209 2.415697487652344 46 54 31
12.331916606289953 2.787547351248867 2.585854949317711 51 60 36
12.718878950334073 2.966618783393094 2.538641597036146 50 60 37
12.501008578710852 3.0045186984660814 2.3158804838395017 49 57 41
11.115580534144199 3.1185764702503502 1.6136416313571704 50 57 44
11.519269832435139 2.829843748844211 1.9698813036557847 41 49 33
11.59667508796806 2.9411596610973745 1.7859714392250188 47 54 39
11.906455876512334 2.661893153141432 1.8670626684066132 36 44 28
11.510319891957861 -2.099001057572506 2.0666197600537677 51 55 36
10.508174461593942 -2.8487568563680328 2.010823519510917 51 56 38
10.292370586267563 -2.952245372737552 2.0207184523840054 51 57 39
10.7762330079997 -2.578629025916522 1.522161348888497 49 53 37
11.53432218529965 -2.252947374477384 1.7871530891945047 54 58 44
11.932679338474609 -2.318106052795228 1.5268779658354183 54 58 45
10.40165999430967 -2.611862565163629 2.0156502217895746 52 56 39
11.535678709990055 -2.053166161295236 1.8768888398274346 49 53 35
11.903952835607948 -2.014156502248616 1.610802513576974 48 52 37
11.711147204833674 -1.8518992294993089 1.872157355297366 47 51 33
12.311538364518071 -2.7395397339256404 2.771081057959057 56 66 42
12.774800164768086 -1.6081049999230204 2.9249210049744288 57 66 42
12.121758302567486 -1.8571275726540564 2.813739957697068 56 64 41
12.104844966739561 -1.3355288215636312 2.8178730624462647 59 68 42
12.131255815957317 -1.9216503833931244 2.6130900528988366 53 60 36
11.998437037117226 -1.760405559533668 2.632367380046875 53 59 33
11.98134961749313 -1.4158002061473982 2.634927543677673 53 60 33
13.154366124729352 -2.962088093880441 2.8190682674525736 57 69 43
12.311538364518071 -2.7395397339256404 2.771081057959057 56 66 42
12.311538364518071 -2.7395397339256404 2.771081057959057 56 66 42
11.851083752789629 -1.9527689336144107 2.8893658299625566 56 65 41
11.985535551412216 -2.2245079817480917 2.848989316851796 54 64 40
12.343915262619477 -2.0659904882683047 2.5842917201141757 53 60 35
11.683283788868591 -1.7328227297996028 2.516796383038902 51 57 32
11.534112399695646 -1.7121988910606973 2.3962753404079793 50 56 31
12.331310386030168 -1.6834526442906366 2.222158309413288 49 54 29
13.120224898597634 -1.4874523472097232 2.1770773925577824 47 52 25
11.672215950167502 -1.8358850734744934 2.383542400383056 50 56 32
12.333440278642252 -2.117275650256573 2.4470182127365305 52 58 36
10.798886025434507 -2.7189674263015613 2.473339880483921 54 60 40
12.199581436063184 -2.297077560072686 2.460295693887855 53 59 33
11.195176528247648 -2.9007514278218323 2.429691289987389 55 63 42
11.67637810010649 -2.9967199847874735 2.6841955084707694 57 67 43
10.97075405277275 -2.656421058347338 2.3205488894430824 54 60 40
11.876741434131265 -2.5912375211237286 2.494551163339847 53 59 37
11.971444440714134 -2.64811443018648 2.6364203941838076 55 63 41
11.139692965635033 -3.074642805357636 1.5237493766207963 50 55 42
11.518558011033134 -2.9857464043483475 1.3498884191174703 48 53 39
11.154819290528408 0.6127812974809356 1.7946371259655924 31 36 5
10.98276629605309 0.6127812974809356 1.4315938824954382 31 33 5
10.626327288135547 0.5335357959895453 1.8059742791089233 32 37 6
10.37430770858915 0.5528032600062968 2.244960445351254 39 46 12
10.4508205995362 0.028716926046581534 2.122322846074882 38 45 13
11.700262643169015 0.8075585846041866 1.3533746703856486 31 31 9
11.525986091948603 0.8075585846041866 1.4381941973765464 32 32 8
10.31265765218544 0.8106888515625772 1.8132687493434878 29 34 5
10.45752740075109 0.44612614987741317 1.9096457540625418 33 40 6
13.169534634024261 -0.598148578308544 1.9996363198854779 39 40 12
10.474182041282251 -0.0834711160554601 2.12095127567682 39 44 11
11.913447169055221 -0.6025182030746065 2.362389522167844 44 49 18
11.066332218001657 -0.2477097127780356 2.443292613953032 44 51 17
12.963683871893029 -0.5732880057758099 2.1854749590785234 43 46 17
12.79651570151581 -0.7068044654210959 2.194726953400523 43 46 17
12.4267374810517 -0.6134973594503844 2.7479056484329853 53 62 32
12.751719775072141 -1.022524033215468 2.6904861373634223 55 62 34
12.29402236778261 -1.1036242546768071 2.59083823734613 51 57 28
12.127955691750277 -0.6774613921623795 2.467612660200218 46 51 20
12.414407718120767 -0.9122146326183842 2.750303641463331 60 69 42
12.15547435693139 -0.6527467429535893 2.60968777675033 50 58 28
12.325175782253446 -1.3571068206191006 2.3291216318263643 47 54 24
12.907424781074265 -0.9199604959768071 2.2872102680633297 44 49 20
11.986643180520238 -1.1650159494428352 2.4825116283838526 49 55 25
13.226315626479261 -1.3959898348690862 2.171526177277781 45 50 23
13.53109207378767 -0.9774333764702773 2.2477442648279595 44 49 20
12.23311876236437 1.9203125553943967 1.7746144943348547 21 22 15
12.163017083924045 1.6684308209261831 1.9476636087576065 28 32 18
12.561865005932832 2.1765005296367823 1.6885752545594517 28 32 13
10.98263455661645 2.1836956437039703 2.201443649266303 40 49 17
11.781843838829962 3.113521740493893 2.258215412910605 50 58 40
12.64066363980835 2.8986859890129386 2.305736402503225 47 55 36
12.858601540395668 3.059397605307417 2.89707258398019 54 67 40
11.002695556411235 2.2550144376130037 2.3178491389840623 42 51 22
13.116731378036572 1.7452378530113728 2.6360691434605643 45 56 23
12.790918432258236 1.7215864389389839 2.530509057747508 45 54 22
11.985632435046023 1.7215864389389839 2.4826205001136588 45 54 22
11.8174284420565 2.657971431984751 2.2557457025546372 39 45 23
12.40538650689688 2.446444020442385 2.5763904450783754 46 56 30
11.840808217441104 2.742908557845037 1.958456859307094 39 47 31
11.165432072514257 -2.306264195999812 2.1895419636975597 53 58 38
11.215521450580002 -2.180089053769284 1.885923064074985 51 55 39
11.278453002229659 -2.238164172998167 2.0777735023177524 52 57 40
12.593563617744927 -1.6730441653787802 2.1109167222119583 47 52 27
11.230772217811062 -2.3864058883876704 2.29920152457911 52 57 35
11.76184292468268 -2.3925371939627236 2.5075934823477315 53 59 33
12.210171256744617 -2.283755473762086 2.6021241115677767 53 61 33
11.631605381576001 -1.5859837419524945 2.522983648599602 51 57 31
11.690959303751287 -1.9879301959308366 2.6816680813378313 53 61 35
11.267504750194119 -2.001935725445072 2.4222834202063352 51 57 34
11.287790151311922 -2.2184713588344933 2.2947045257309857 50 55 35
11.665734756721326 -1.4384915934552922 2.5188853441125394 51 57 30
11.557351669235734 -1.6962080135060713 2.274269279136 49 55 30
10.97075405277275 -2.656421058347338 2.3205488894430824 54 60 40
12.492510361461774 -2.551995268115514 2.735417678774255 54 62 40
12.749574634530331 -2.401788658672083 2.690833588165888 54 60 34
12.238589869055064 -1.5840229089410895 2.456374116081082 50 56 31
10.546722224382561 -2.9706056512538512 1.8077832262410956 48 53 38
10.70965549962798 -3.068038514485023 1.9013605004627063 47 52 37
10.784172410572788 0.4060664485505109 1.6149591531709504 31 36 5
11.484452164884692 0.7153750727661754 2.541219155076062 39 50 14
10.688403750945755 0.24827522876624544 2.1087045634629527 38 44 8
13.149144980537379 -0.5258735478063121 2.085769464693895 39 42 13
12.29402236778261 -1.1036242546768071 2.59083823734613 51 57 28
11.772785185793058 -0.565693663560513 2.5063304471643284 45 52 20
12.619101017207534 -1.281766950007444 2.2048849305205636 47 51 22
10.484212855403362 2.270082097018621 2.0118998344487844 35 41 16
10.424301047625667 2.1836956437039703 2.1238886965233945 41 48 18
12.81414526658747 2.067608144352151 1.5299007920362595 13 15 14
12.017454535119882 1.8201642240294833 2.353665347432448 46 52 27
10.98876808727133 2.430617080994677 2.3190235510153308 42 51 25
13.606985380174262 1.4477152274716851 2.574372910938505 42 51 19
13.325570661429055 2.638891704896014 2.7826049272968203 50 62 36
12.104493340946695 -1.8790299928286158 2.1353237091954163 49 53 32
12.015369347734113 -2.629375184261666 2.8408567812048235 56 66 42
10.729458193314136 -2.815006248073779 2.2187821317679246 53 60 40
11.311535495131844 -2.153370339709963 2.180375110456316 51 56 37
10.644979036133064 -2.447409125607601 1.7099113666389074 53 57 44
11.135990385278273 -1.760405559533668 2.5885763214965953 52 58 33
11.4714260600321 -2.4807457242030946 2.4022156508895796 53 59 35
12.211258510160967 -1.468510580386302 2.3379960002761617 48 54 27
11.278969731298245 -1.9216503833931244 2.5683688648430736 52 58 36
11.083462422383972 -3.0371621770894284 2.441453325778557 55 63 41
10.786769568354336 -2.7866454413173076 1.5222088931700075 47 51 36
11.006635794494478 0.7430572922624964 1.7977031543861073 30 35 6
10.877910943169857 0.032350708128346825 2.3285258426899893 41 49 15
10.366301323761682 0.8882803619454724 2.017276922245963 33 38 8
11.152644518577382 0.5866641205112973 2.586161829718157 41 51 14
11.218615194313138 0.48813703076014636 1.5240805906901855 30 35 4
10.478593752996895 0.3507651522223468 2.012153026968291 34 39 6
12.427654115762154 -1.3784700972498518 2.216261468871099 47 52 23
14.291741647729683 1.5079171916900609 1.604115767738107 6 6 5
12.603732423081782 1.9964120272071988 1.7685405883011496 16 17 14
13.154781635119319 1.7554590072069798 2.08552699783614 36 42 18
12.220692678890472 2.7981098682595764 2.2290772061738306 43 51 32
11.979724785896561 2.58716418445083 1.443244541924289 34 39 28
13.016668193208163 1.4912210017817231 2.091538407796733 39 43 24
11.676347082236509 2.225320716360864 1.611582778360924 33 38 21
12.614665502891983 2.4707834090714322 2.713461157049302 50 60 33
13.047807096024485 1.5791546236993825 1.920962794442784 1 2 0
11.6951808000098 -1.806749738663125 2.2643145006870267 50 56 31
10.943177624118226 0.3507651522223468 2.0948716785810246 36 43 9
10.52287094729669 0.14018949922128493 2.118115937145001 37 42 9
12.414407718120767 -0.9122146326183842 2.750303641463331 60 69 42
12.576504004187402 -1.2127724952313408 2.424130706637339 47 54 24
12.142869158925244 -0.8830797126763981 2.6114544255323278 53 59 32
13.350642393883904 -0.7756079825163394 2.1651590724275502 42 45 17
12.463818717508989 -2.2627049574933134 2.74080377159518 54 61 34
13.058224032669052 2.938673745350765 2.6442242128200864 53 63 40
11.559561557670145 3.0179417835621907 2.064317089817267 50 56 43
12.460581534388647 -1.7832970589024768 2.214272940136122 49 54 29
11.442850038591441 -2.70253396619877 1.3484023553822588 47 50 39
12.626799720479127 2.200739782273283 2.71136022823614 46 60 29
11.553079810311923 -1.7991099727070614 2.7063796550203123 53 62 37
10.523280015463097 0.3177801333991125 1.7115308400686977 31 36 5
12.841647087127443 -0.7741727934366457 2.2916791122292532 43 48 18
14.263896931203023 1.5779820323075044 1.6041808351516134 5 5 5
13.502205599232015 1.7280938196786746 1.6803385009921363 6 6 5
12.59863083572624 1.6893484264647227 2.3087560540127154 40 47 16
10.83570083601792 0.8882803619454724 2.1006141469923945 36 41 12
10.865659915187026 0.025816873311430635 1.995388985912396 35 42 9
12.620216403059365 -0.9427248654410723 2.420170247245098 47 52 21
