17.965074623089343 1.3380206972174833 1.425799315117204 36 33 24
13.475205833192527 1.4141110938979264 1.5265700324054623 40 37 13
13.132202294148756 1.0359357974945385 1.9949235364970104 56 58 37
13.155297277274693 1.1108753814333325 2.0792395930519545 55 57 35
13.177490300668001 1.222601017914644 1.993372267418255 54 54 22
12.516354174125391 1.278311199013187 2.1079230434756933 54 59 34
13.618176173918693 1.222601017914644 2.0603943632151425 53 56 27
23.073649793831816 1.7969084826999038 1.8974714156480397 51 46 27
11.55055783512152 1.5618844534102798 1.7804783458514697 45 45 17
12.530348138562047 1.562609131886665 1.763866606790159 40 42 16
13.34871835068562 1.4882086973579913 1.60108370259032 40 40 14
13.30364308320351 1.563224819332599 1.601186353517105 38 38 15
11.681092649711061 1.4643085261172524 2.0517762543740776 50 53 22
11.833110143217302 1.6502348390564658 1.862607528497434 45 47 21
11.56866476862376 1.845256608635959 1.9613537305941997 47 49 22
11.629555587831867 1.5610190336264143 2.0540902937588927 51 54 25
12.17605835937153 1.4643085261172524 2.1246510012283792 55 57 33
12.274050277265205 1.7531976714397053 2.1197212256526026 51 55 33
11.985093917382715 1.845256608635959 2.0385844041206815 49 53 31
13.500126634423125 0.5815302694848464 1.7498412779627337 56 58 40
14.417263142716434 0.743996412568912 1.8812424755724961 61 62 42
13.713565941254965 0.5815302694848464 1.821657798934277 58 59 42
14.010208547468102 0.6256270425244271 2.04554181764448 61 63 43
13.064527781848037 0.4452325651588238 1.914646146718739 60 61 46
13.50096753324581 0.516008007519323 1.9030944706841486 59 61 45
12.38059676719638 0.3693400206085551 1.8493500500368414 67 69 61
13.598012313609635 0.48300152176193467 2.14659956640904 65 67 48
13.463403119742512 0.8540595550748278 1.9838433027002693 60 62 40
13.448804694629057 0.7392433976779418 1.9843190737865735 61 63 40
14.08774594764382 0.7960750083577757 1.9645012643052646 63 62 42
13.24679044422843 0.7973771194887488 2.0753944188876248 61 63 41
13.816405209119099 0.6758504436845918 2.136371791109225 64 66 44
13.758122282963951 0.7973771194887488 2.139063030359755 64 66 42
13.880879633292844 0.7392433976779418 2.050336246329235 63 65 41
13.315360105212893 0.605295597419745 2.1604428408035754 65 66 44
13.111781346141573 0.4411413132586401 2.26655541121628 66 70 51
13.315360105212893 0.605295597419745 2.1604428408035754 65 66 44
13.472677842214752 0.5271219502956519 2.244389617546326 66 69 48
13.896304775413592 0.605295597419745 2.2202885072635876 66 68 46
13.896304775413592 0.605295597419745 2.2202885072635876 66 68 46
12.778962457891884 0.2887201790038993 2.0074406156072344 61 63 51
12.39120080479342 0.032636412827283155 2.3161642820516266 62 66 52
12.598822711938986 0.24724727774528363 2.3010587620081164 67 71 53
12.598822711938986 0.24724727774528363 2.3010587620081164 67 71 53
12.590829448323342 0.12771993777260182 2.1994616426534734 57 61 51
12.407562984471804 -0.0770808585004596 2.3149478046818714 49 52 43
12.572776846879044 1.1553932820706554 2.2005060052343017 57 59 36
12.676930297586154 0.7254927614847941 2.2955554395499065 65 68 45
12.683974302704351 0.9367846919813159 2.194132679030375 64 66 42
12.069465315418615 1.348578141415246 2.231241433250015 58 60 38
12.864303847106902 1.0195993957396872 2.2827299297530645 60 62 38
12.21014286686952 1.2131608187413274 2.329938695708301 59 61 37
11.995258501120441 1.3228250946182059 2.347076133576496 59 61 39
12.70749639700049 1.348578141415246 2.2934274408774704 59 61 39
12.910531631208796 1.248886880125768 2.2796443234651047 59 61 39
13.530874016181205 1.0690053231481507 2.240961594807103 59 61 39
12.692416539819106 0.8744629823230039 2.294475513033648 63 68 43
12.069465315418615 1.348578141415246 2.231241433250015 58 60 38
12.388204401057996 1.0690053231481507 2.114094891240084 58 60 38
13.35954498786327 0.9900815680247814 2.158231702881046 61 63 41
12.692416539819106 0.8744629823230039 2.294475513033648 63 68 43
12.679082887633411 -0.2887000735806423 2.2954051099229367 85 88 79
12.245960247352501 -0.42874865917846816 2.327167195587845 64 67 60
12.504134557919498 -0.18497673836272466 2.3078599080712427 43 46 38
12.302700232904671 -0.38642290562601483 2.2165972601209933 105 108 104
11.34690974888249 -0.5259980616853557 2.170506836650844 85 86 89
11.821819353527633 -0.6912540529513849 2.0455740762718913 87 87 90
10.997108688214508 -1.3769874602819505 1.6988372678011279 87 87 88
11.319526820758524 -0.8864351340571525 1.6951710269098146 85 85 91
11.7034025627375 -0.8323972939486007 2.255775241531501 83 86 79
11.1600747526432 -0.9594024922133404 1.8807736185391708 87 87 85
10.860757464861454 -1.3575861508705958 1.98834209360721 87 87 88
11.241378766043756 -1.2285359327022152 2.176939526800913 82 83 81
10.703134479879013 -0.9859074427600328 2.100086601034043 87 89 85
11.919224221320183 1.6672272251948388 2.241070866623587 57 59 35
11.44805974992076 1.7723145349064464 2.164478247939817 52 57 32
11.492212285965772 1.9069693313454448 2.2708815907052253 58 60 38
10.874855012643394 1.9069693313454448 2.2004972891950496 56 58 36
11.281502805316544 1.7958321311380137 2.286722453122546 56 58 36
12.564886697371895 1.6672272251948388 2.303479713082112 59 61 39
11.844076137323459 1.678764122010197 2.359688265439186 58 60 38
11.290993714238544 1.825429806061646 2.4103287207625534 57 62 35
10.894537097244363 2.0022815656818915 2.4518619950405633 57 62 35
10.884840019137688 2.2319937889903834 2.318877848336543 55 60 35
11.370065079917481 2.3235899480315365 2.2799666480337932 54 59 34
11.07673127555375 2.3172006173332136 2.4321558608963025 55 61 34
11.961069500698782 2.4685782275326296 2.135805241008343 57 61 44
11.130964704781428 2.512053347014229 2.426499426321577 54 60 33
11.07673127555375 2.3172006173332136 2.4321558608963025 55 61 34
11.102942976254628 2.0615558486688195 2.3007987815610598 59 61 37
11.492344426325708 2.162071823815614 2.270871904335511 58 60 36
11.456819450478353 2.4685782275326296 2.0620194328282446 48 52 35
12.035487114859013 2.3958014580564244 2.0364702905213745 36 40 24
10.3966294335906 2.512053347014229 2.3633901986207184 54 60 33
10.462641686222199 2.0615558486688195 2.2295161910898744 56 58 36
11.44201639162355 -2.11707495984933 1.6938327687826844 63 66 60
11.151319929382279 -2.1372931669375426 2.18254873999886 50 55 44
11.84689281620811 -2.5432925146076304 2.359448870361198 55 59 43
11.99665471352839 -2.307831292621933 1.7725715516724554 53 56 49
11.399096118391261 -2.1665069194166744 1.9674859025139402 54 57 48
11.59971050059189 -2.2925170609954884 2.2630999128830736 53 57 44
11.813683494062792 -2.2019787672822804 2.3622823607535803 55 59 45
12.521078051756492 -1.4683168787697418 2.1076983802604055 87 87 88
13.495190165356302 0.5791192241529184 2.3418040520080257 66 70 49
13.868467511146958 0.48772069306599314 2.4191729899492085 67 71 50
13.189292567208664 0.03666184970698485 2.4797149164234713 66 71 53
13.249591563308808 0.1587768405575968 2.4738953876211016 67 72 52
13.495667585474806 0.34758460093966326 2.341769680547225 67 71 53
13.20466585159759 -0.08655135263006307 2.4782220524093423 65 71 52
13.591914984161004 0.38654127891330603 2.4425714894361423 67 72 51
13.090085143512269 0.032636412827283155 2.372330830013983 67 71 55
13.150839031616153 0.1415763322107376 2.3675711868529565 67 71 53
13.384540140235757 0.27631710545304883 2.461210449949201 67 73 53
13.693539303590807 0.9607422864002801 2.433788815172559 61 66 40
13.605886329400608 0.8012414166490848 2.441350819124547 64 69 43
13.309133284593564 0.5442122880632201 2.4682419707427834 66 70 48
13.360876971574331 0.7254927614847941 2.351618485958751 65 70 46
13.172923162210129 0.715013119300908 2.4813115043821568 65 70 46
14.083580777100916 0.7001002984232204 2.6482581817837523 65 72 45
14.1046623662803 0.5442122880632201 2.51246934513831 66 72 49
13.976207508375783 0.715013119300908 2.525210106366963 65 71 46
12.087202323834555 1.2904972572829136 2.462324143970267 60 62 38
13.657448145496765 0.993578294396411 2.5589645937770733 60 66 38
16.129741956466685 1.1161019602877922 2.8405255679909134 65 71 44
13.819199688486103 0.39621061689754006 2.8959117120765288 74 84 58
14.077345003619 0.30635935853501123 2.831105790342713 73 82 57
13.47458841641895 0.24902453110124512 2.740321144213157 68 77 53
13.347130776875723 0.4954823581326365 2.595255868051301 67 73 48
13.49662127917684 0.18068306818134802 2.5773048093358906 66 73 50
12.61593587220881 -0.09866638921080123 2.5404501583570376 67 73 51
13.607305801038278 0.42314940211163254 2.717923030019278 68 77 51
12.952565278380579 -0.11470774882144257 2.6476311643050843 67 74 49
13.08337473013262 -0.16975624248704435 2.8179757643088497 69 77 55
13.761396798987237 0.0955321251118124 2.9132644649225363 71 79 56
13.49662127917684 0.18068306818134802 2.5773048093358906 66 73 50
12.599844288830052 0.04181934835314983 2.542314894878611 67 73 50
12.936892419038987 0.04866415649000482 2.649885679216591 67 73 48
13.629124114359195 0.31288081532153983 2.562126077505172 67 73 50
13.135892120596335 0.36011561557007243 2.6223065568428505 67 73 50
14.020606412699793 0.07232963486836866 2.8439764606261644 70 78 54
15.892587498929288 1.0035244863181436 2.893049137668279 67 76 50
13.29544892364561 -0.20719765791962533 2.4695332537379078 65 70 53
12.703001701586262 -0.322045374063758 2.4043366710562637 62 67 54
12.616566929945241 -0.5455228118154425 2.540377229802501 67 72 54
12.616566929945241 -0.5455228118154425 2.540377229802501 67 72 54
12.710924425886844 -0.23537418562546605 2.529638667633132 69 75 53
12.88306491443432 -0.3637156861854314 2.5108506056071906 69 74 56
13.519682632320071 -0.32221874715566534 2.7325313762608436 67 75 52
13.212890332873942 -0.4170557489707084 2.6122008897278803 66 72 52
12.781983751667472 -0.4872850933234414 2.6730154052094246 66 74 53
12.576995391425724 -0.751709202555033 2.4154378124539964 66 69 59
12.945405475561964 -0.656729682387131 2.504285561019546 64 68 56
12.687648070768851 -0.5849831987227986 2.4056702835345636 65 69 59
12.914639849216432 -0.8410813929957226 2.5075102236360705 64 68 58
13.06846799231853 -0.7169610559783076 2.821394012609795 66 74 51
12.695579211547212 -0.6811907740057628 2.926945390021206 67 75 52
13.174993592332202 -0.3935986089476587 2.7978455354151737 67 76 53
13.579100847104645 -0.7344654995858901 2.7225525109154027 66 72 54
12.384754572275067 -0.8736805167397738 2.740996224532215 66 72 53
13.114467399574917 -1.0547605330379313 2.8109800609944284 65 71 51
12.695579211547212 -0.6811907740057628 2.926945390021206 67 75 52
13.174993592332202 -0.3935986089476587 2.7978455354151737 67 76 53
13.06846799231853 -0.7169610559783076 2.821394012609795 66 74 51
12.263164265133375 -1.0727994742677645 2.5837774858158733 66 71 55
12.049225513408809 -1.2178646451597244 2.6129204586869834 67 73 52
12.513454571929667 -1.1507070418088214 2.717367422326576 65 71 51
12.999587299798112 -0.85369587311766 2.640955176780424 66 71 58
11.957528504790547 -1.1375225757936382 2.4758687147942124 66 69 58
11.903685789535384 1.5569998173693633 2.4816497288495265 58 63 36
12.75568772651387 1.4210871464234585 2.5246561550644495 58 63 37
11.937184469351399 1.6934209786060985 2.4780418738172956 59 61 37
11.937184469351399 1.6934209786060985 2.4780418738172956 59 61 37
12.58941364272885 1.4389081608486058 2.4143277112193866 59 61 39
11.17609824902425 2.071594099470351 2.5707753681791665 55 63 34
11.353507602685875 1.712651424008711 2.546882727916685 57 64 32
11.476095702092396 1.863736044380445 2.5312697643765905 57 64 32
13.600127515098611 2.5424089674840156 2.9716610460362594 60 70 44
13.54138952456003 2.9864157662347446 2.9991453061009263 64 74 48
13.452745236770385 -2.478190777906081 3.056644671795042 66 76 52
13.423029342369428 -1.4285233978496876 3.0886696754264547 68 76 53
13.73221139380411 -2.9037515982257216 2.9225979137254314 64 74 49
13.423029342369428 -1.4285233978496876 3.0886696754264547 68 76 53
13.423029342369428 -1.4285233978496876 3.0886696754264547 68 76 53
13.556363527317561 -2.787151168883135 2.9916398819519996 65 75 51
15.791547583769649 1.2485977758631024 2.9196582415411143 65 74 48
11.85337282930551 2.3172006173332136 2.487138935610018 56 62 35
11.050319976367302 2.307699234927178 2.588754118210116 56 62 35
11.441512542467445 2.4215829860500753 2.5356049258192 55 61 34
11.589814713303726 2.4396802403762634 2.6853292779800126 54 63 36
10.84987248391811 2.7031618215369484 2.6194650126450707 53 62 35
11.727241985947542 2.7031618215369484 2.662004927063945 54 63 33
10.701183738681623 2.4396802403762634 2.644144920023139 54 63 37
11.104682394754098 2.549235450032113 2.5808703495975927 54 63 35
11.980990266379223 -3.023005577088215 2.6227533398916494 55 65 37
11.57298433533428 2.882775874897108 2.688301343841382 55 66 33
12.415643355642182 3.0810218584628264 2.73516173458181 56 66 42
13.021666397346138 -2.9632504446606176 2.8324158383241778 64 74 48
12.836590048098516 -2.183333169106821 2.881315184470701 66 75 49
13.296275043840202 -1.7597424664768395 2.773208916780198 65 71 51
12.672005907528431 -2.123258803312707 2.6904627538792676 64 70 49
12.727113041990483 -1.8920002097921838 2.9158616660423697 65 74 49
12.742924743752083 -1.184076907902125 2.9105205298910115 65 73 50
12.568865071915098 -0.9969813178994933 2.979562582213041 68 76 53
13.54186531591457 -2.0566830029329806 2.998900534064343 66 75 49
13.819529354976066 -2.610535273475338 2.895816593651582 64 74 48
13.26583746211302 -2.2350789359678584 2.7791994901187556 66 73 50
12.976331076715253 -1.8090532647614441 2.843547651201217 66 72 50
13.906653163607553 -1.5436130706552125 2.871972565264903 66 72 50
12.798083639045608 -1.3801362563533377 2.6705361948122106 64 70 48
12.78234016879077 -1.7272038384837622 2.672960321665554 62 68 46
12.213804643503584 -2.0411377347963136 2.5902888817567833 62 68 46
12.384877189665028 -1.3408905069135415 2.7409728470027406 64 70 50
11.906901948823798 -1.979042926664031 2.4813017345262693 54 59 43
12.608434064976162 -2.3820283579494688 2.7009849285314957 62 67 51
13.113716391347468 -2.729843465165485 2.8111469644208498 63 71 49
12.702971519344091 -2.637456665806253 2.6854567675057837 59 67 46
12.95215662627977 -2.8605742983680544 2.6476897591834727 55 65 39
13.113716391347468 -2.729843465165485 2.8111469644208498 63 71 49
12.773186333106349 -2.7682093721572 2.522727351614993 54 62 42
12.480563498015423 -2.373123965824047 2.424181899050656 56 62 49
12.065235170525503 -2.263051231455076 2.610653249662164 59 66 46
12.52043981854627 -2.581068897952203 2.551663441504854 57 65 49
13.280637011138323 -2.535467024556004 2.77627156684905 63 71 49
12.167881886351326 2.5257871234563907 2.0310098295685064 25 29 14
19.233551007631885 -2.9258874014941374 2.023009215571997 70 73 83
19.06629808154314 -2.98299567162028 2.027275059800537 55 60 72
17.992823593795997 -3.0910662437512455 2.2572800723769073 153 159 176
17.898205861171952 3.1185630223128618 2.336498736797668 147 156 172
17.266486021778746 3.0413723713586975 2.2922593687017203 72 81 98
18.95657833615136 -2.962134595624027 2.216296186184935 157 162 175
18.252058204652805 -3.027793914039539 2.1773397016130644 76 82 99
18.840013279871147 -3.027793914039539 2.220964085226462 133 139 154
13.52211569780638 1.1466933547962934 1.9819411901349975 53 55 31
11.58507764245992 1.6502348390564658 1.7798442830758847 47 47 20
11.985093917382715 1.845256608635959 2.0385844041206815 49 53 31
12.125688832468946 1.5618844534102798 1.9425129047327556 46 49 20
11.681092649711061 1.4643085261172524 2.0517762543740776 50 53 22
12.126625039563105 1.5610190336264143 2.1271739228585558 53 57 35
12.159509551355123 1.6579122133052924 2.125492877597314 50 54 32
12.98688496038917 0.516008007519323 1.7569984234002114 59 60 49
12.532555318182489 0.4452325651588238 1.7638321753079897 61 62 52
13.793594105788799 0.6876789994900275 1.8957825604993532 61 63 41
13.262953068246912 0.6607807753916656 2.25707469637093 65 68 47
13.262953068246912 0.6607807753916656 2.25707469637093 65 68 47
13.516349557941671 0.5574731964779338 2.0644131149533544 63 65 45
13.240532493446063 0.40223365640335146 2.1642286819600773 64 67 51
13.179214338567794 0.7332586524840999 2.167370400344449 65 67 44
12.543544549074229 -0.06947547802561727 2.202205198659433 74 77 72
12.45536412778813 0.1415763322107376 2.3114199485207423 66 70 54
12.732761851532626 0.22361872350868756 2.191380599967656 68 71 54
12.95057769132029 0.3155206016358408 2.179409450088409 65 68 51
13.35954498786327 0.9900815680247814 2.158231702881046 61 63 41
11.995258501120441 1.3228250946182059 2.347076133576496 59 61 39
12.283051547590093 1.248886880125768 2.2178033104885753 56 60 38
12.933525426660752 1.0690053231481507 2.18032851812586 57 59 37
12.832340807625673 0.9900815680247814 2.0933215195837955 59 61 40
13.202227082615115 0.7990409237061088 2.260848125689762 65 68 45
11.939884108691004 -0.5259980616853557 2.239699979991334 78 80 77
11.839511436446607 -0.9859074427600328 2.2464193096197316 82 84 80
12.022936967279716 -0.5597801447059355 2.0369949316063463 84 84 88
10.234825509127376 -1.2285359327022152 2.0156420301984364 85 87 86
11.737343482970553 -0.6766560571946206 2.2534151962347635 80 82 78
11.476896078415798 -1.0095053111406638 1.5188631174894152 86 86 89
12.130566063008448 -1.3931865772165453 1.7703139114118467 87 87 87
10.785638497018986 -0.6912540529513849 1.795595763273297 84 83 90
11.160378600512534 -0.7565874714807638 2.0762839015159313 88 89 89
11.468681374161564 -1.2049100667055062 1.6060505616653218 86 87 88
12.639077168983958 -0.16702012444984327 2.1966889471760735 117 119 116
12.081130872974885 -0.47696665321108733 2.129517590186633 85 87 89
11.885674922307446 1.5599674642257422 2.2433103874725138 58 60 36
12.03605183261701 1.7723145349064464 2.2333997826610017 53 58 33
10.348753567080212 2.071594099470351 2.518540504789281 56 63 32
10.672033587086206 1.863736044380445 2.4775398039812013 57 62 35
11.655758650430842 1.8730901159265374 2.152500023845465 52 57 32
11.281502805316544 1.7958321311380137 2.286722453122546 56 58 36
11.844076137323459 1.678764122010197 2.359688265439186 58 60 38
12.533065867474551 1.5599674642257422 2.3057665176540345 59 61 39
11.810313368720466 1.5586624501906472 2.3625712531634173 59 61 39
11.07673127555375 2.3172006173332136 2.4321558608963025 55 61 34
11.202213006480962 2.1252303601374636 2.4192061444305253 57 62 37
11.910616444680235 2.328180689719685 2.138492926506789 53 57 39
11.919606436493469 2.4017963615991804 2.2410454480538133 52 56 35
11.183072441210095 2.0101249201972093 2.180558246877654 54 58 36
10.784439581545797 2.6319434370491317 2.464332786969104 54 60 35
11.912594390217107 -2.1889058079702655 1.6047363271983952 60 63 56
11.556100107613807 -2.370635115536753 2.158181792656972 55 58 50
11.556100107613807 -2.370635115536753 2.158181792656972 55 58 50
13.774152668992514 0.4411413132586401 2.3223094893607565 66 70 49
13.134912235262602 0.48772069306599314 2.368812438148449 66 70 48
13.105574802095571 -0.0770808585004596 2.3711109119731075 64 68 54
12.589804790330797 1.0588179896539534 2.41429280352373 58 64 38
12.950079033708585 0.9607422864002801 2.3835620822498065 59 64 39
13.569562041441028 0.8042881742518213 2.568868295542957 63 69 42
13.628651369306553 0.6136508934247857 2.5621790858464597 66 72 47
13.187826981269808 0.8899860882033047 2.47985756732754 62 67 40
15.34801180033351 0.9457386918402908 2.789080273342371 67 73 46
15.657448846930809 1.041216777728677 2.73877626081875 64 70 43
13.415300772655582 0.05818511310331181 2.7508683626933674 68 76 53
12.952565278380579 -0.11470774882144257 2.6476311643050843 67 74 49
13.49662127917684 0.18068306818134802 2.5773048093358906 66 73 50
13.761396798987237 0.0955321251118124 2.9132644649225363 71 79 56
13.832832764682928 0.4347135751315104 2.5399949374492694 67 73 50
12.99836234426732 0.20949899124892069 2.641127446572974 67 75 50
14.077345003619 0.30635935853501123 2.831105790342713 73 82 57
13.49662127917684 0.18068306818134802 2.5773048093358906 66 73 50
13.832832764682928 0.4347135751315104 2.5399949374492694 67 73 50
12.936892419038987 0.04866415649000482 2.649885679216591 67 73 48
13.629124114359195 0.31288081532153983 2.562126077505172 67 73 50
12.360097057420955 -0.4170557489707084 2.571331544725175 68 75 53
12.92255033469281 -1.2178646451597244 2.6519619327191446 64 70 49
12.384754572275067 -0.8736805167397738 2.740996224532215 66 72 53
13.045102878844302 -0.27220143298197613 2.63461479512199 66 75 51
12.898802031093126 -0.5022255346062787 2.863781278424754 66 74 52
12.719587557952103 -0.9879004401580933 2.6828014666025104 66 71 55
12.898802031093126 -0.5022255346062787 2.863781278424754 66 74 52
12.781983751667472 -0.4872850933234414 2.6730154052094246 66 74 53
12.898802031093126 -0.5022255346062787 2.863781278424754 66 74 52
11.937184469351399 1.6934209786060985 2.4780418738172956 59 61 37
12.194695837286533 1.712651424008711 2.5928425292301585 57 64 33
15.791547583769649 1.2485977758631024 2.9196582415411143 65 74 48
11.476228028022993 2.2053553268240376 2.5312532783765045 56 62 35
12.431973365617528 -2.9990999223211365 2.7321205086576374 58 68 46
13.512345412807964 -1.5117410578241766 3.0150107306681413 67 76 50
13.296275043840202 -1.7597424664768395 2.773208916780198 65 71 51
12.6956988269361 -1.5335639676278403 2.9269021765068137 65 73 50
12.99183947152407 -1.2818644212555907 2.8396861035464043 65 71 50
12.481229748750636 -1.954628295898432 2.7231206086835447 65 71 51
12.6956988269361 -1.5335639676278403 2.9269021765068137 65 73 50
13.644806847797723 -2.4106732979898386 2.953534094670874 65 74 48
13.113716391347468 -2.729843465165485 2.8111469644208498 63 71 49
13.121132691220096 -2.7119667620976777 2.6242778215763582 55 64 44
12.424513567919798 -2.376649233184447 2.563297680284725 56 64 49
12.85173821234936 -2.4685671726335694 2.514196228077759 61 66 50
13.113716391347468 -2.729843465165485 2.8111469644208498 63 71 49
12.237302776735119 -2.649016029087833 2.4472730921622174 53 61 45
12.52835677941626 -2.8070797911835217 2.7147414251696667 58 68 46
12.531860021554932 2.575039428251059 1.9299084232196932 6 10 0
18.186034941050565 -3.0944522310649303 2.1798606559436364 70 76 93
18.707109193728225 -3.0196847560985116 2.2957169640926143 158 164 179
19.192238749408396 -2.973202697452184 2.143738133419056 106 111 125
19.358403602653162 -2.9127759212340547 2.1382104486478424 109 114 124
12.901352188958212 1.3029261392408924 2.0030178961632386 55 55 23
13.155297277274693 1.1108753814333325 2.0792395930519545 55 57 35
13.351155754586356 1.3029261392408924 2.0710823331953607 54 57 28
12.800800136429306 1.1918117611925987 2.0947411440543586 54 59 34
13.425001109680684 1.3237980210261746 1.9050478756040885 53 52 22
13.52211569780638 1.1466933547962934 1.9819411901349975 53 55 31
11.783201539867955 1.7531976714397053 2.047259341771667 50 52 24
11.663841599139152 1.6579122133052924 2.052548246703569 48 50 24
13.392907672566611 1.563224819332599 1.45136264644177 36 32 10
12.029983978255283 0.12771993777260182 2.1321777875990895 61 65 52
12.527359978291038 0.029407267451330252 2.2031502869791773 47 51 43
13.816405209119099 0.6758504436845918 2.136371791109225 64 66 44
13.336803699676977 0.9185527011291714 2.0716707167889585 59 61 39
13.292542111701277 0.9367846919813159 2.2552527511485914 62 64 40
13.072724263568341 0.3693400206085551 1.9969788633212944 63 64 50
13.582248409739117 0.6256270425244271 1.9800117278657967 61 63 42
13.880879633292844 0.7392433976779418 2.050336246329235 63 65 41
13.434669993802107 0.4452325651588238 1.9847808120235546 61 62 47
12.660019539978572 0.8629442237193461 2.1011784810131404 62 64 42
13.186477517559618 1.1553932820706554 2.261834389996439 59 61 39
12.70749639700049 1.348578141415246 2.2934274408774704 59 61 39
13.080423051315725 0.48300152176193467 2.082432600468735 64 65 45
11.898602476951474 -0.9203122636253154 2.3550842052068166 74 77 68
12.679082887633411 -0.2887000735806423 2.2954051099229367 85 88 79
11.281502805316544 1.7958321311380137 2.286722453122546 56 58 36
10.672175882709814 2.2053553268240376 2.4775227673708837 56 62 37
11.370065079917481 2.3235899480315365 2.2799666480337932 54 59 34
12.580902287161999 1.4529553526747474 2.302334898663367 59 61 39
11.166373689593087 1.6934209786060985 2.4228555769744533 57 62 35
13.81133626171082 0.5738456631868081 2.6862716037595193 69 75 50
13.309133284593564 0.5442122880632201 2.4682419707427834 66 70 48
13.81133626171082 0.5738456631868081 2.6862716037595193 69 75 50
13.105574802095571 -0.0770808585004596 2.3711109119731075 64 68 54
14.020606412699793 0.07232963486836866 2.8439764606261644 70 78 54
12.857358637328387 0.8012414166490848 2.3912104487889594 64 69 44
13.375571363495508 0.8744629823230039 2.3505304816936294 63 68 42
13.375571363495508 0.8744629823230039 2.3505304816936294 63 68 42
12.803580220641955 0.6136508934247857 2.519401962022732 67 71 48
12.512696950300032 -0.13693894045269978 2.7175015022894056 67 75 51
13.569562041441028 0.8042881742518213 2.568868295542957 63 69 42
13.045102878844302 -0.27220143298197613 2.63461479512199 66 75 51
13.212890332873942 -0.4170557489707084 2.6122008897278803 66 72 52
12.553348561810374 -0.947396366365491 2.5477589184772795 64 68 58
12.616566929945241 -0.5455228118154425 2.540377229802501 67 72 54
12.719587557952103 -0.9879004401580933 2.6828014666025104 66 71 55
13.348806399290341 -0.744843298547755 2.5950494717211043 64 69 56
13.467705040086566 -0.5683102871266474 3.0444700271290013 71 79 55
13.021666397346138 -2.9632504446606176 2.8324158383241778 64 74 48
11.104682394754098 2.549235450032113 2.5808703495975927 54 63 35
13.556363527317561 -2.787151168883135 2.9916398819519996 65 75 51
13.423029342369428 -1.4285233978496876 3.0886696754264547 68 76 53
11.954041061358668 1.4210871464234585 2.4762402926706804 59 61 37
12.161906465871043 1.554809241078082 2.597268326780254 58 63 34
13.467705040086566 -0.5683102871266474 3.0444700271290013 71 79 55
13.717429348649903 3.039470224486065 2.92749357469522 62 72 46
12.945521640057168 -1.5436130706552125 2.8513952509143725 66 72 51
12.608434064976162 -2.3820283579494688 2.7009849285314957 62 67 51
13.022161177864428 -2.3912445572079846 2.832296909684256 65 74 50
12.78234016879077 -1.7272038384837622 2.672960321665554 62 68 46
13.266208665708156 -1.5493911955558899 2.7791256952281578 64 70 50
12.520982664126045 -1.5117410578241766 3.0049279520696115 67 76 51
19.077113680674323 -3.034895380484497 2.147636205367614 46 52 67
18.55068178546772 -3.034895380484497 2.1024370170317157 39 45 62
14.681909516769581 1.424909794597736 1.3930618713088192 37 32 13
17.936947126331695 1.3934202801685336 1.3689618564549142 52 51 37
12.85559143607058 1.3695511675655767 2.1845676151185005 56 58 36
11.56866476862376 1.845256608635959 1.9613537305941997 47 49 22
12.302700232904671 -0.38642290562601483 2.2165972601209933 105 108 104
11.936106177452952 1.4529553526747474 2.2399501990598862 59 61 37
11.659173450446977 -2.516289230918008 2.152307432886573 53 58 46
12.501557948912888 1.1117757511241624 2.308047007662908 60 62 37
11.47930065814212 -1.4449910651526479 2.2718295180154495 87 87 89
12.898802031093126 -0.5022255346062787 2.863781278424754 66 74 52
11.589814713303726 2.4396802403762634 2.6853292779800126 54 63 36
12.608434064976162 -2.3820283579494688 2.7009849285314957 62 67 51
13.73221139380411 -2.9037515982257216 2.9225979137254314 64 74 49
12.99836234426732 0.20949899124892069 2.641127446572974 67 75 50
13.495667585474806 0.34758460093966326 2.341769680547225 67 71 53
12.351949309269482 -0.48068553365931493 2.4361990350426193 62 65 53
12.919705696279117 0.6409371795928702 2.386048614638446 66 70 48
12.8679249821248 -0.9101127712473772 2.872323233636883 65 73 51
12.75106201503798 -1.5531437221337752 2.677829188388591 62 68 47
12.95265406201327 -2.49439301929965 2.6476184353313434 58 66 49
11.441512542467445 2.4215829860500753 2.5356049258192 55 61 34
12.254952071042172 -1.0217608532966485 2.445545200245947 70 73 66
11.903685789535384 1.5569998173693633 2.4816497288495265 58 63 36
17.992823593795997 -3.0910662437512455 2.2572800723769073 153 159 176
17.220258458257895 3.1185630223128618 2.294623263913398 86 95 110
13.437683514897797 1.4882086973579913 1.4517625061531132 39 35 12
12.81891461466016 0.34758460093966326 2.2857893176886157 68 71 52
13.880879633292844 0.7392433976779418 2.050336246329235 63 65 41
11.492344426325708 2.162071823815614 2.270871904335511 58 60 36
11.745466936154878 -2.373123965824047 2.368179048043328 55 60 44
11.592170451276598 -1.304556910101134 2.381819732130995 77 78 73
12.015755747781 -1.8922878110475463 2.6177086757535233 64 70 46
13.030152357390646 -0.6279359255065623 2.6366845221045145 65 71 54
13.172923162210129 0.715013119300908 2.4813115043821568 65 70 46
13.1970395438615 -0.18497673836272466 2.3639963164035223 59 63 50
13.067858757277378 0.07232963486836866 2.821534631957843 71 79 56
12.415643355642182 3.0810218584628264 2.73516173458181 56 66 42
13.341147551350907 -0.5827665662002226 2.764591466845935 66 74 53
13.189292567208664 0.03666184970698485 2.4797149164234713 66 71 53
10.848232194716367 2.409927657724687 2.3220140585419036 54 59 34
12.38059676719638 0.3693400206085551 1.8493500500368414 67 69 61
13.194111051235197 0.8629442237193461 2.1666038453959633 64 66 42
13.472677842214752 0.5271219502956519 2.244389617546326 66 69 48
13.286790636062461 0.24724727774528363 2.3571588624916084 67 71 54
13.083722936987913 -2.044734376928577 2.817896426396155 66 72 50
13.452745236770385 -2.478190777906081 3.056644671795042 66 76 52
12.18905048386631 -2.0976794589736727 2.4520411998354934 59 64 45
12.812183011198885 -0.2614678891205765 2.1869566752582674 134 135 134
11.501529321542936 1.9489934791207018 2.390151764716022 56 61 34
12.424513567919798 -2.376649233184447 2.563297680284725 56 64 49
