9.8482956342316 -0.27174166893939566 2.0628056220339785 74 74 59
10.701396497467256 -0.17871674159325412 2.3675293379892226 64 67 50
13.544257778783372 1.7931371350428242 1.0830201452434702 28 32 17
12.9412053649013 1.7102747411064185 1.1447987379569589 38 41 22
13.501371027703536 1.2392587371905732 1.6934850349459503 44 31 8
13.501371027703536 1.2392587371905732 1.6934850349459503 44 31 8
11.759983646386248 1.8994181697358883 1.282136623015059 50 54 40
11.278789596308783 1.8994181697358883 1.5399648395357353 75 79 64
12.080225898597924 1.5369180188406062 2.057707161342244 45 47 18
11.657786249659052 1.6305530774366246 1.9813024704839313 42 44 21
10.920936305767738 1.7231536351710008 1.7226773445464603 35 37 16
11.331103005718438 1.9306601324720014 1.9938853167237878 43 47 31
11.219103125997322 1.636715522167921 2.0988018696590247 47 49 25
10.368601325641105 1.83715006359936 1.8294739671750755 46 50 33
11.010857018244291 1.8132006253167356 1.6300737659611584 31 35 19
10.465933831651277 1.7386282470577874 1.9272697715690954 37 39 18
11.971067854507616 2.6903903776033284 1.1077031746137063 88 89 84
11.235374161721488 2.0180384787007273 1.2682419526726774 82 82 78
10.605407875670291 2.1473958382668172 1.3475803554171693 83 83 80
11.212889340383292 2.0986735702456887 1.6290044940696193 82 83 77
11.32987280633746 2.0180384787007273 1.899019286519457 78 79 65
10.473451296908028 2.1473958382668172 1.729220244701761 94 95 84
11.341734390367815 2.0620356021936357 2.0925071536174604 48 52 31
10.968246669290034 2.1473958382668172 1.9102687877668107 57 59 43
10.473451296908028 2.1473958382668172 1.729220244701761 94 95 84
11.330631751209637 2.354117782794711 1.2708650465237175 86 85 83
10.229962710361503 2.423757979462009 1.4386730923882123 91 92 84
10.919409895532727 2.484062332680939 1.538949775683039 94 95 88
10.861827715274543 2.5607365680139162 1.2574890642025176 89 89 85
10.497768662816968 2.3538056974782653 2.029929957810337 47 52 33
10.484952347252467 2.284208910810786 1.8265387813914697 37 39 28
10.589596974796953 2.5030208617392784 2.025647517732933 38 42 29
10.40341407502548 2.2725627425900212 2.145175032070786 48 54 32
10.596914986251019 2.114686040359747 2.13340232307218 51 57 38
10.668039187468741 2.5607365680139162 1.8220540370514335 37 40 29
10.587910974203172 2.5928268684148286 2.1339386670981186 48 52 37
10.099008899936056 2.114686040359747 2.049546558989752 41 45 30
11.330516658302894 2.6459716183339026 2.0930763605656484 44 48 35
9.777212995958227 2.3538056974782653 1.84551376048878 31 34 23
9.875743574989242 2.5030208617392784 1.8427029086624054 33 36 25
11.76082586108162 2.777758291960991 2.072140957382618 39 43 30
11.314256425847988 2.777758291960991 1.994555875092504 34 35 25
11.315834205255012 2.6903903776033284 1.899441796859384 48 49 39
15.172771694990939 1.1577373747384203 2.5569018653932254 66 66 39
14.9829820080899 1.272109885242782 2.576325626999056 65 64 35
15.172771694990939 1.1577373747384203 2.5569018653932254 66 66 39
12.288333827492192 1.9306601324720014 2.1428405218678104 40 44 24
12.030228564306727 1.83715006359936 2.1567167154147118 45 50 28
12.348179132222304 1.636715522167921 2.23917185768667 54 56 29
11.242155823223626 1.8661979305722685 2.203998678643664 49 54 29
11.742919248218442 1.533417744089294 2.1730434750471352 52 53 24
12.178129133784331 1.8520816831539975 2.6356303786924085 62 67 40
11.151249358823613 1.9020970124232817 2.327088607481878 53 58 33
10.783634797843948 2.0701548542884023 2.3597590535384434 56 61 36
11.429221811177324 2.0137175179954476 2.3043847076648643 51 56 32
11.514834168068363 2.0701548542884023 2.420986351319679 60 65 40
12.746932573963987 2.3518446196769434 2.7241453257905137 67 73 53
12.49830152855806 2.1940751947979784 2.7715494979232225 63 71 48
12.746932573963987 2.3518446196769434 2.7241453257905137 67 73 53
13.069989357340912 2.232642592092583 2.671512445684516 61 70 42
12.233316933926867 1.7430095563172743 2.832159852938269 66 72 47
13.061832017905086 1.8520816831539975 2.672743139575492 62 68 41
12.569581335976247 1.7066464291948669 2.7571957669738105 64 70 43
12.659823217886965 1.9081989700995037 2.7399414798131825 64 70 43
11.781535216394717 2.3533832236665204 2.395572782006244 58 64 40
11.418090031678629 2.693674156197359 2.3052638539614225 56 62 41
11.506548461199612 2.6365477605145324 2.421806746535635 58 64 42
12.184269060012086 2.4722029920251822 2.6347216307836687 62 71 43
11.337011207047539 2.256435807463392 2.4390345843853636 59 65 39
10.975976861851015 2.4346943752256065 2.221918512407275 54 58 39
11.160803214809333 2.1784224166221624 2.326281330442745 53 59 37
11.60813581150377 2.5030208617392784 2.1810475372585105 53 57 39
12.111044811921166 2.693674156197359 2.366584166120798 58 64 43
11.682984114418057 2.3527792091825646 2.5430996637319767 61 70 42
11.334206646224883 2.4498427190127536 2.439326887992175 61 67 41
11.777653065332645 2.5928268684148286 2.2780276129655914 54 59 40
11.506548461199612 2.6365477605145324 2.421806746535635 58 64 42
12.11482012925376 2.4498427190127536 2.4926710922494575 60 69 41
10.0412178538991 -0.697374492486954 2.1687000769256617 35 41 20
10.605928730367815 -0.7828932239277561 2.1328664926480334 89 94 78
11.231446588833554 -0.8559968804378395 2.098161002194476 137 141 134
13.055709918318438 -1.1287925559198955 1.8543283045957697 83 83 85
11.72334642701321 -1.0492060774143062 1.9788698127446427 89 91 93
11.467363875675897 -0.9185747711197096 1.9885412401971174 137 141 142
11.868254970150085 -0.9723499963806698 1.8836110874943874 76 78 83
12.556985908378412 -1.171269329725774 2.0377105577598233 75 74 72
12.198028251610957 -1.092030831550158 1.8748792820114957 80 82 83
10.993110283187232 -1.425876285125188 2.11083446276649 70 73 65
11.161170402421488 -1.3228775220244273 2.1018318989522435 68 70 64
11.467467123133842 -1.627081370263131 1.7153866357669025 74 77 70
10.754108192648186 -1.846389392696221 2.0181797952054596 65 68 58
11.222988438202483 -1.846389392696221 2.098599968006198 66 69 61
10.928792353985584 -2.3067324801548965 2.0105242184762138 59 67 50
11.448935357266079 -2.4379583920342975 1.715622324976284 57 62 51
10.787401784312385 -2.5887704412342547 1.916195280638043 58 64 50
10.973863646693928 2.895678882102059 1.5391078554958775 64 66 58
11.172785705904243 3.078680646519423 1.2664929229917206 73 74 69
12.09923636325316 -2.9440187091941556 1.3755217042087073 41 44 34
11.61584350759718 -3.110598397987592 1.982874558145015 53 58 45
10.770976789430767 -3.110598397987592 1.7248086766002741 40 44 30
11.193570907767748 3.0721733738306773 2.1001327427444734 50 58 40
10.786763775770604 3.078680646519423 1.724581476309549 38 43 29
11.914227447067196 2.895678882102059 1.9719534209317975 39 43 30
11.687065013816214 -3.0172342056134664 1.9802123706719965 54 61 49
10.74099542769626 -3.0172342056134664 1.63156489232684 44 48 36
11.297626362340235 2.9700135078329652 2.0947528703407734 48 53 36
10.786763775770604 3.078680646519423 1.724581476309549 38 43 29
12.637676094212354 -2.7854276283885264 1.3839420350226035 38 42 29
12.360790828063333 -2.6771447251205096 1.2965400173170327 39 43 30
12.07918975451275 -2.838250372526266 1.966167876066827 56 61 49
11.659103852524092 -2.8089531403593893 2.076928818347082 55 64 48
11.545117774335512 -2.71938035326782 1.9855538438792906 59 64 51
11.54948375695908 -2.5604990927118076 1.6273062587876994 50 55 44
12.075757105229698 -2.374375923497141 1.4589606744690542 50 55 44
14.34337649706986 -2.4216321108163856 1.406379131755494 81 86 77
14.316381629749591 -2.520393130642027 1.5465080000619333 83 86 81
11.082482646694546 -2.16584269531487 2.004010045915105 60 65 50
10.701252036534882 -2.16584269531487 1.9190935287408581 61 66 52
12.78606968183284 -2.3177310773314392 1.4651974392957126 61 64 56
11.083740304279148 -2.078874856103611 2.105939757724239 55 63 47
11.219261870942207 -2.114399521923608 1.8094627958227099 54 60 46
13.713962997343861 -2.4773046267456973 1.3987594395017455 65 68 60
12.01803488904043 -2.374375923497141 1.6251008748341227 54 59 47
10.220386694573317 -0.3510620413303438 2.416940888621678 64 70 50
10.220386694573317 -0.3510620413303438 2.416940888621678 64 70 50
10.675176193626701 -0.2959407733178241 2.700259547885344 65 73 51
10.675176193626701 -0.2959407733178241 2.700259547885344 65 73 51
10.845231902045878 -0.490605739624461 2.668152990810338 63 71 49
11.04640075202631 -0.06144013355330969 2.633753049441533 69 74 55
10.597156152515392 -0.07547817482640769 2.7161108145080055 68 74 52
11.156934138321883 -0.7786218250151306 2.839683811515564 62 72 48
10.988809230907583 -1.0419038479477143 2.893482724990661 64 74 48
10.483119953314525 -0.6060582561301501 2.7407900357196824 64 72 50
10.99170192111635 -0.5128460261226958 2.8924460003957746 65 75 51
9.942495482204139 -0.1387664079359104 2.8993979202784588 66 74 51
10.988809230907583 -1.0419038479477143 2.893482724990661 64 74 48
10.633301446160202 -0.8680229465927061 2.246711158976812 66 72 51
11.527133585073061 -1.0080953233212882 2.5632246205877136 64 70 48
11.988867045964684 -1.3206738361705712 2.6648994665066836 65 73 51
10.17207030108062 -0.5975988373840259 2.2836276181529236 56 63 40
10.612905588606202 -0.7817404046089828 2.52398018497375 60 67 45
10.749673120600482 -0.780647157314283 2.685810227140074 63 71 49
11.243380121540813 -1.1826266597659338 2.8159014318975912 65 75 49
11.103095210495724 -0.6520466023989013 2.624652226388827 63 71 49
10.49361579393827 -0.4822115470977646 2.3879998034272614 62 67 47
11.57900102779331 -1.2661129854112683 2.738795790344613 63 71 48
11.235205848913273 -1.0825977739026482 2.4498055529301683 58 62 47
11.100231549113737 -0.9106205051285399 2.625106197024477 61 69 47
10.612905588606202 -0.7817404046089828 2.52398018497375 60 67 45
10.977549790999923 -1.2136973843169785 2.478646638002855 64 69 52
12.19621429253082 -1.3871251238357474 2.483922895752108 66 71 54
11.45897653808416 -1.0340237030305444 2.3020465652384727 109 112 105
11.116874212061171 -1.1407952559856063 2.330009839201475 69 73 59
11.27646524017516 2.9594405583095984 2.807322565123083 69 74 58
11.218775516917585 -2.4182177735720534 2.8224592215602815 64 76 50
11.054467687537471 -2.674721941661378 2.871029902677524 68 76 54
11.054467687537471 -2.674721941661378 2.871029902677524 68 76 54
11.776953372915816 1.3575670865530827 2.9959759296553856 71 77 57
11.959806123163277 1.4361834946043734 2.9143418749303986 71 77 57
11.689013984868017 2.3319039501320087 3.0623284244791003 71 76 59
11.971370491722377 1.8054681198584355 2.9102015369506358 69 75 55
11.959806123163277 1.4361834946043734 2.9143418749303986 71 77 57
11.662588359201917 -0.7394532817738021 3.0996125979696894 69 75 53
11.888452537002067 -1.4168099421036768 2.9419478693425547 66 76 50
11.662588359201917 -0.7394532817738021 3.0996125979696894 69 75 53
11.662588359201917 -0.7394532817738021 3.0996125979696894 69 75 53
11.67444714676543 -2.6646917465686664 3.0800048681054775 68 76 54
11.745313296238585 -2.018349361987342 3.0156678450506154 67 77 53
12.063452142198582 2.577240952008633 2.8797654840944955 69 75 55
11.966058074039879 2.892846162134161 2.912093412298772 70 76 56
11.884869735957905 2.3465858945776312 2.9434432574999305 70 76 56
12.495757611660189 2.5084820569741084 2.772074668404348 67 73 53
12.242026357712849 2.350205833699752 2.829942232693417 68 74 54
13.034380954282119 2.1211451624531263 2.898872095332211 69 75 55
11.951828900861758 -3.0172237342460724 2.9172464402874225 68 76 54
11.841838259882895 -2.45977084098301 2.9624414806930837 67 77 53
11.951828900861758 -3.0172237342460724 2.9172464402874225 68 76 54
12.172327245183363 -2.4182177735720534 2.848237251468837 67 77 51
10.545971193158975 -2.031542804371403 2.253369671493937 63 68 51
12.199997083258983 -2.0304520029368587 2.632404690161909 63 73 50
11.9167815282586 -1.5030508531994 2.676749292558292 66 74 54
12.02344292975603 -1.8690253747571297 2.6593605477551225 65 73 51
12.02344292975603 -1.8690253747571297 2.6593605477551225 65 73 51
11.468242774861755 -2.240851582045485 2.7621011657977834 63 76 49
11.9167815282586 -1.5030508531994 2.676749292558292 66 74 54
11.658397045238935 -1.824071637925084 2.5461993594926087 64 72 52
11.166483130506514 -1.462618627482045 2.8369499244385348 66 76 50
12.136768143216212 -1.6576697428482081 2.490290671642147 66 72 54
11.51636933649201 -1.717177993907369 2.751756878348756 65 75 51
11.187152589865391 -2.2696340283682415 2.6115853826249342 62 74 50
11.61479709856874 -1.932537459690333 2.7316231012318597 65 75 51
12.229001180046765 -2.0280467101719197 2.8332656408573844 66 76 52
12.538266949852543 -1.932537459690333 2.763417652028824 64 74 51
12.260622061048874 -1.1334914054759717 2.144296465169163 78 79 78
11.476349509143379 -1.6391127651107023 2.1891004845588844 69 73 62
11.800193239560532 -1.187220867785892 2.2763960926536306 81 80 75
11.555142121038473 -1.2945319704382865 2.2946047907258906 69 71 62
12.027309871352095 -1.6472839341702312 2.37371846872688 67 71 58
12.027309871352095 -1.6472839341702312 2.37371846872688 67 71 58
12.29673455167584 -1.8775374194860182 2.3512852279729275 63 68 54
11.302560395623212 2.853612793953286 2.5944095830218514 65 71 49
12.015196719111941 2.7591637196567227 2.5036825619001792 59 67 43
11.492963205915649 2.6993115879930643 2.5677948329252276 63 71 49
12.167682522220659 2.853612793953286 2.637182093885123 65 73 53
11.921244933770433 2.619256155400473 2.6760032652047814 67 73 53
11.198550787530044 3.023289674008424 2.609850824451426 64 72 50
11.737791487972798 2.7959700707059834 2.7081441945241402 66 74 54
12.071129450293103 3.023289674008424 2.651867162134585 65 73 51
10.791206016142086 -2.862379488698707 2.6780207133621823 65 75 54
10.959461461540917 -2.6761104178991673 2.648195094856042 64 73 51
11.183345116067427 -3.083161156960819 2.6121667322235687 67 74 54
11.183345116067427 -3.083161156960819 2.6121667322235687 67 74 54
10.412600528417713 -2.9099713817259087 2.551602989667064 64 72 51
11.418692765523906 -2.7497502567887877 2.5779378543186353 64 72 51
11.151621718611677 -2.8040588038040615 2.458904104956691 63 71 48
11.22517575351415 2.841803601364768 2.2051094837950083 51 56 39
11.559780865158498 3.0641676459172507 2.294250180839112 58 63 44
11.661764142904 2.926325978791295 2.4067535266540245 60 66 43
12.514544483398884 2.841803601364768 2.3341945217433064 56 62 39
11.560986600152292 3.054080029871849 2.416451980591891 61 68 45
12.339914581193375 2.9506065471965788 2.3478261186604685 57 65 42
12.327247772059447 3.054080029871849 2.4702807950117904 61 68 45
11.545050969773323 -3.1034287634947177 2.2953775804023175 61 66 50
11.616706509972754 -2.9888468152610153 2.2899304536728713 62 67 51
11.060325014962054 -2.845539479387267 2.3348728968774215 61 69 47
11.545050969773323 -3.1034287634947177 2.2953775804023175 61 66 50
12.23081470546863 -3.1034287634947177 2.356636423816581 61 68 47
11.617906337084134 -2.9692212503220015 2.4109406684286974 63 71 48
11.551152843563251 -2.390584714577297 2.5600472075111647 61 72 48
10.897536247991045 -2.384317496996251 2.3492872655092283 62 72 50
11.015693326346302 -2.6259027495751286 2.219174114486573 60 68 50
10.444933127220073 -2.4867195266504365 2.392980258081537 62 72 49
11.21469855908664 -2.518961825472429 2.6074082041000803 62 73 48
11.400113164454046 -2.7736745571655 2.1938656255743583 61 69 49
11.313286776210298 -2.730496612271376 2.3136608944788497 60 68 47
11.402558274316824 -2.676662796506542 2.4322720609595283 62 70 47
11.44574889224335 -2.532364411909528 2.1910035986432312 61 69 50
11.170683676243591 -2.286938936530888 2.456808182295563 62 72 49
11.330846702786241 -2.3799820589201954 2.1982651704016085 62 70 51
11.944238608989242 -2.4496017792831184 2.16150223217859 61 68 51
11.680917859435297 -2.203185098939234 2.404940805492066 62 70 49
10.960803600741631 -2.203185098939234 2.3436101763549058 62 70 50
11.940672546578206 -2.904417452002651 2.1617025128048026 59 64 51
9.569237289904372 -0.30650997452919737 2.2026919542162458 59 61 45
10.131564298932549 -0.37897793159314314 2.047879519855071 58 62 45
13.105401376645343 1.7931371350428242 1.1504768791433464 36 39 23
11.657786249659052 1.6305530774366246 1.9813024704839313 42 44 21
10.666988440816551 1.9306601324720014 1.8220793214788835 82 86 71
11.320115895969895 1.7386282470577874 2.09360528807113 44 47 25
11.507465961045364 1.83715006359936 2.084247829621554 41 44 25
10.161761165520197 2.423757979462009 1.6350334266392303 61 63 54
11.159904957204722 2.284208910810786 2.0008036905779343 28 32 17
10.595599544500306 2.2046960459031526 2.0253704808399084 45 50 33
11.065450309565922 2.5030208617392784 2.1069199549699342 48 52 35
10.794673289942617 2.6903903776033284 1.4456223122932197 89 92 84
10.409011028457176 2.423757979462009 1.3432952557987832 86 85 82
10.196180816490621 2.2046960459031526 1.9371399122385615 26 30 15
10.094479700964195 2.3538056974782653 1.9410081640775578 34 38 23
10.464341051424356 2.5607365680139162 1.7293593355407095 64 66 57
10.348136505623462 2.1473958382668172 1.5371910281607426 88 89 81
10.319363650226874 2.777758291960991 1.5370972931100977 74 75 65
15.702016834284022 1.2009178849138948 2.5077814809629944 64 60 31
11.679638053983403 1.7575609918437984 2.285222620839804 53 56 31
11.679638053983403 1.7575609918437984 2.285222620839804 53 56 31
12.336967979816714 1.533417744089294 2.2398896180877923 58 58 29
11.754696993823643 1.636715522167921 2.172354849248816 50 51 25
11.851145529569454 1.7386282470577874 2.1667791189482637 47 50 27
10.965905077206079 2.1412932448381206 2.4800077792382416 60 66 38
10.957810607791897 1.7812373299678848 2.3438765593937054 56 60 34
10.488566656452322 1.9474593705901941 2.388512976949788 57 62 36
12.326020937525998 1.9906552832453726 2.80944013806272 66 72 47
12.49830152855806 2.1940751947979784 2.7715494979232225 63 71 48
12.827621480795935 2.0850391650174225 2.7101819385110724 64 70 43
13.27536886934495 1.9906552832453726 2.8340052893330996 67 73 53
11.160803214809333 2.1784224166221624 2.326281330442745 53 59 37
10.40169789627931 2.3533832236665204 2.2646974961069533 54 58 38
10.500423893103296 2.1784224166221624 2.256900948145559 55 60 36
11.765565647615567 2.5645665754327926 2.532883241518433 60 68 44
11.067969352609591 2.3533832236665204 2.3342112763343765 56 62 40
11.609336524398481 2.4346943752256065 2.2904864085357772 53 58 37
11.155104785743253 2.5285145594177534 2.3267625931383966 55 61 39
11.153855174893375 2.5928268684148286 2.2098221903619497 51 55 39
12.109893844206328 2.739834111595836 2.2548061487628765 52 56 40
11.504125453640643 2.739834111595836 2.187384019747242 48 52 38
11.81736085531781 -1.2561766413032558 1.9754328057100867 81 79 77
11.414682466256432 -1.2249670045172172 2.0888373999549876 83 83 79
10.70385679025437 -1.982609290084294 2.127114589364788 60 65 50
11.467467123133842 -1.627081370263131 1.7153866357669025 74 77 70
11.45539406889733 -1.5388891695561144 1.7155400948199238 89 89 85
11.560458001117672 2.895678882102059 1.8922346416899338 43 46 35
11.61584350759718 -3.110598397987592 1.982874558145015 53 58 45
11.877381196438412 -3.1132600147591636 1.3718257696963914 62 63 53
11.193570907767748 3.0721733738306773 2.1001327427444734 50 58 40
11.83215229710762 -2.5604990927118076 1.7968789019178857 58 63 51
10.894977798942323 -2.532364411909528 2.1162428643993847 60 68 52
11.877381196438412 -3.1132600147591636 1.3718257696963914 62 63 53
11.639150029395438 -2.838250372526266 1.2790523352144745 38 42 30
11.269114682662279 -2.838250372526266 1.7179499970674201 42 46 34
11.17967432255672 -2.71938035326782 1.903598020989535 54 63 50
11.390484132879406 -2.3067324801548965 2.090048668552661 60 68 50
11.194535360688004 -2.676959522537477 2.1000823412167406 59 67 51
11.328731603218857 -2.636463952828685 1.8071124170810466 56 61 48
17.100136121591284 -2.3696270481823913 1.2527328759077383 86 83 84
12.296300304957462 -2.141980821664352 1.623870793666841 56 59 50
10.976744400368702 -2.24366836891988 1.8148418348767295 59 62 51
11.34220010830536 -1.9928408145405592 1.6283401335513494 64 67 59
10.988809230907583 -1.0419038479477143 2.893482724990661 64 74 48
10.3070915253238 -0.3767011139985935 2.7832318996110765 65 75 52
10.988809230907583 -1.0419038479477143 2.893482724990661 64 74 48
10.2262636122497 -0.09780439555575109 2.804967824473898 66 74 52
10.442110878451851 -0.40992224345048295 2.5473952597988188 63 71 49
11.27614994732452 -1.1536989972942506 2.5982662059074157 63 72 47
11.257298427646486 -0.939253896224618 2.2030116640820516 100 105 92
10.756953930624459 -0.7824246394781353 2.3622602892446674 59 65 42
11.827489958213214 -1.1407952559856063 2.391378153288247 89 92 81
11.243380121540813 -1.1826266597659338 2.8159014318975912 65 75 49
11.622735255745681 -1.3589127780915475 2.5507441464265237 63 71 50
11.379762742197187 2.7112450758691664 2.782099238073567 68 73 56
11.4951151819117 -2.572031004144261 2.7562820309464153 62 75 48
11.261364773288273 -3.051185520696305 2.811205198183082 67 75 53
11.771553216506602 -2.942930195909791 2.9991380957647475 68 76 54
12.063452142198582 2.577240952008633 2.8797654840944955 69 75 55
11.786000037538924 2.7533148365458966 2.9908322058004564 70 75 58
11.67444714676543 -2.6646917465686664 3.0800048681054775 68 76 54
11.995365839248329 -2.183676800987343 2.9018589446352765 67 77 51
11.900086246367222 -1.8382325777408315 2.937172655753833 68 78 52
11.771553216506602 -2.942930195909791 2.9991380957647475 68 76 54
11.951828900861758 -3.0172237342460724 2.9172464402874225 68 76 54
11.971370491722377 1.8054681198584355 2.9102015369506358 69 75 55
12.021059949923458 -2.674721941661378 2.8932655278339787 67 77 53
11.788697116062515 1.9358837045287003 2.98933357126599 71 77 57
12.242026357712849 2.350205833699752 2.829942232693417 68 74 54
11.677169990713189 1.075968163806813 3.076332887899943 70 76 56
11.959806123163277 1.4361834946043734 2.9143418749303986 71 77 57
10.903010323874069 -2.1180608015807123 2.657911051295915 62 74 50
11.797468397387139 -2.1180608015807123 2.6973400290298652 63 74 50
11.504347602018377 -1.4874702274233964 2.7543081641558746 66 74 51
11.840395711751501 -1.9657144580825885 2.523874056514188 64 72 50
11.928387608502367 -1.6900022554939393 2.674812873610571 65 73 51
11.928387608502367 -1.6900022554939393 2.674812873610571 65 73 51
11.909104136610212 -2.031542804371403 2.3840537439307767 64 71 53
11.178868209721143 -1.7602116426786514 2.8334459261281153 66 76 52
11.738711227796529 -2.400443875924175 2.707974928238748 62 75 48
12.402629511841939 -2.240851582045485 2.791974128395858 63 76 49
12.12158948685984 -1.7650047969487277 2.3656963931715183 63 68 55
12.01579934066378 -1.5274102771860085 2.3747111053594496 67 71 58
12.526141813629188 -1.2249670045172172 2.228002600754709 85 85 82
11.575117580501846 -1.7446298861401992 2.1830436772074275 68 72 62
12.087294356003278 -1.4087656563427047 2.368592396899768 68 71 60
10.897536247991045 -2.384317496996251 2.3492872655092283 62 72 50
12.244719683003295 3.0641676459172507 2.3555004754790274 60 66 44
11.302560395623212 2.853612793953286 2.5944095830218514 65 71 49
11.733894864337126 3.0409802189012347 2.536766503560203 62 70 47
11.623041146941082 -3.070602297587301 2.729994093903235 67 75 54
12.313435989922716 -3.0984382694081725 2.4716940561433574 63 71 48
10.986309603812932 -2.943884359000494 2.4776261699805526 63 71 49
12.298475377203758 -2.9888468152610153 2.3511450726369914 61 69 48
10.959461461540917 -2.6761104178991673 2.648195094856042 64 73 51
11.149121576078496 -2.8781534929649273 2.2101376970095608 61 69 49
10.366524842315105 -2.518961825472429 2.558274652057937 63 73 49
11.016958608369496 -2.563642158506915 2.3386517015348334 61 71 49
10.729608825605697 -2.390584714577297 2.508828542689277 63 73 49
12.344749074702762 2.6993115879930643 2.611781196494869 67 73 51
11.660568828590874 2.9506065471965788 2.2866417677730624 52 60 39
11.446966638490135 -2.4650966114268287 2.3029882553892014 61 71 49
10.775497114083155 -2.2984839451419905 2.2361730979279097 61 69 50
10.180072942758786 -0.15771922458599624 2.1594395111366054 68 69 53
10.241564274995065 -0.5316701912767909 2.1554365607149495 53 57 40
12.390319087223913 0.14595527555660326 1.9557106120192944 56 28 13
10.816196228259196 1.6305530774366246 1.7241596877479304 37 39 16
12.082739296137621 1.8994181697358883 1.2027146636858987 79 82 71
11.331103005718438 1.9306601324720014 1.9938853167237878 43 47 31
11.582437207718883 1.8132006253167356 1.8916028223038939 33 36 17
10.649091301146543 2.777758291960991 1.822510777230103 58 59 50
10.277626149034186 2.284208910810786 1.7322650355598799 74 75 66
10.68206285953666 2.284208910810786 1.2520320960673126 83 84 79
10.851578911757384 2.0180384787007273 1.7236556926876243 91 92 82
10.149893907308774 2.284208910810786 1.536534411965135 91 92 85
10.420583200857509 2.5607365680139162 1.4411037538817266 88 89 81
10.809388765493003 2.0180384787007273 1.4457936130371882 88 89 81
10.866277250247006 2.6459716183339026 2.0132324964005006 37 38 26
14.9829820080899 1.272109885242782 2.576325626999056 65 64 35
14.9829820080899 1.272109885242782 2.576325626999056 65 64 35
11.517934558768266 1.9681208167015065 2.186534515370749 48 53 30
11.851145529569454 1.7386282470577874 2.1667791189482637 47 50 27
12.08429063920176 1.6829090254400914 2.6498278295111817 62 67 40
11.839749303948137 2.3518446196769434 2.689895649152456 63 71 46
11.238979356315555 1.9474593705901941 2.449400323590585 58 64 38
12.974386564209617 1.6829090254400914 2.6862292893664943 64 69 42
12.746932573963987 2.3518446196769434 2.7241453257905137 67 73 53
11.682984114418057 2.3527792091825646 2.5430996637319767 61 70 42
11.178358462287918 -3.107385074268547 2.1009290806118512 59 64 49
10.91002525304004 -2.925993681930774 1.630622266719697 43 49 37
11.268451858179196 -1.9094475295747861 1.8084008428688985 64 69 58
12.075432989832912 -2.256838675395042 1.6248424970484026 53 56 46
11.842599245155027 -2.925993681930774 1.9745202766135712 56 61 49
12.22108300279827 -2.4914151815308063 1.7064135236136744 53 56 47
11.405341278034065 -0.9988871908269472 2.089304272978563 107 110 106
11.198688530275204 -2.3768046160430623 1.9030111886838528 57 63 49
10.931522063935747 0.2765040908743705 2.9150927627566015 68 74 54
10.597156152515392 -0.07547817482640769 2.7161108145080055 68 74 52
10.265379260100577 -0.24312195582299342 2.573378765032808 67 72 53
10.480086886385434 -0.9539011020983088 2.74147358289071 63 70 50
10.298174091624086 -0.6793337073492416 2.4084496612992905 64 70 46
11.058636139997018 -0.8849710514098027 2.4693118543318677 56 62 40
11.988867045964684 -1.3206738361705712 2.6648994665066836 65 73 51
11.58301634541115 -1.259104825136126 2.4143084515473863 68 72 56
10.709684768566342 -0.555753362870109 2.511369745471866 62 70 50
10.846588175835931 -0.9674515099756517 2.353930622081181 64 68 53
11.988867045964684 -1.3206738361705712 2.6648994665066836 65 73 51
9.788327025899113 -0.4822115470977646 2.318036698749988 61 65 48
10.994631388384569 2.892846162134161 2.8914009351973844 69 74 57
11.334813840607946 -2.79117464989383 2.7928035093090564 67 75 53
11.959806123163277 1.4361834946043734 2.9143418749303986 71 77 57
11.733526131575772 -1.3052838901366677 3.0238689148353783 67 77 53
11.776953372915816 1.3575670865530827 2.9959759296553856 71 77 57
12.125361521033525 -1.5215001840172162 2.4915257964761746 65 73 55
12.45458460880792 -2.169778133975621 2.59691148289713 63 73 50
12.230204001103797 -1.7907029310425564 2.480333041648011 67 72 55
11.64259474473792 -1.916307725462457 2.408577369735306 63 71 52
12.707670402248873 -2.1180608015807123 2.731167247856796 64 74 51
11.845218324797806 2.841803601364768 2.2731623437401316 52 58 37
12.244719683003295 3.0641676459172507 2.3555004754790274 60 66 44
11.637672329950954 2.9981027034095318 2.727123503828914 66 73 53
12.595304726182125 2.805298705922867 2.44392427100414 57 64 41
11.492963205915649 2.6993115879930643 2.5677948329252276 63 71 49
11.921244933770433 2.619256155400473 2.6760032652047814 67 73 53
11.833199924075387 2.8951156376224274 2.52473048679132 63 69 46
10.93134288883879 -2.1349903793667795 2.22503345527981 62 67 52
11.774354160693449 -2.845539479387267 2.3962329361178876 64 72 49
11.418692765523906 -2.7497502567887877 2.5779378543186353 64 72 51
12.012288880376566 -2.730496612271376 2.3750144202021866 63 71 49
11.646893402317811 -2.6259027495751286 2.287663448823287 62 70 50
10.241564274995065 -0.5316701912767909 2.1554365607149495 53 57 40
11.010857018244291 1.8132006253167356 1.6300737659611584 31 35 19
9.841619552688503 2.6459716183339026 1.637126039852929 69 72 63
10.87797373212531 2.0620356021936357 2.0127231499159945 32 34 18
10.956987862491305 -2.4496017792831184 2.009313963138138 61 66 51
11.635409201214244 -2.4379583920342975 1.8007699748233323 59 64 52
11.630483745262197 3.078680646519423 1.9823244055138638 44 52 36
11.488110949101495 2.8713356205297424 2.085198133554651 45 49 34
11.730664256751565 2.9858692744007733 1.9786001242058298 40 45 32
11.659103852524092 -2.8089531403593893 2.076928818347082 55 64 48
11.800193239560532 -1.187220867785892 2.2763960926536306 81 80 75
11.517950559005664 -1.0884357397522244 2.186533532550315 96 97 96
11.464285808962897 -1.5320555957783946 2.1898492292681966 70 73 64
11.677169990713189 1.075968163806813 3.076332887899943 70 76 56
10.586874798947244 -2.7497502567887877 2.5274502224080435 63 73 50
11.786432565472348 -3.004485431786044 2.1705077787534854 59 64 51
11.321090631756599 -2.0924786044408545 2.4406971651900524 63 71 49
10.206495622984832 -0.7786218250151306 2.8105469421385547 64 74 50
11.341734390367815 2.0620356021936357 2.0925071536174604 48 52 31
13.774021479748074 1.8730134152901907 1.0918494067472078 63 68 53
11.162402684488459 2.114686040359747 2.209253341407889 53 58 36
10.500423893103296 2.1784224166221624 2.256900948145559 55 60 36
11.504259537681259 -2.755065130363374 1.6275286422871735 45 49 38
10.894705342968091 2.9858692744007733 1.7230458738311154 57 59 51
11.947043664843958 -3.0278231917973044 1.373001372266014 41 44 34
11.719383811937238 -3.0919475025592726 2.5385601050719058 64 71 49
11.961973092242717 -2.286938936530888 2.509709254100741 62 72 49
11.833199924075387 2.8951156376224274 2.52473048679132 63 69 46
10.800814638949618 1.7231536351710008 1.5385999735149678 37 39 19
15.562046639736733 1.1039703479774379 2.64096740828955 69 69 42
11.216792340350386 2.895678882102059 1.3599361711066607 82 82 75
13.182515910561149 -1.2307885058456212 1.6964681291531385 86 84 86
10.821333670452807 -0.2060725530005089 2.49735975170333 69 73 56
10.850879515171277 -2.608138552286241 2.493743447097074 64 72 50
11.334813840607946 -2.79117464989383 2.7928035093090564 67 75 53
11.881994913143252 -1.982609290084294 2.2705456833937587 61 66 51
10.839367573358114 -1.0714677924216263 2.669210143764828 62 71 45
11.257303239641747 -2.9099713817259087 2.601044596749315 65 74 54
10.960105316259865 2.5645665754327926 2.4806876778097697 59 66 41
11.765565647615567 2.5645665754327926 2.532883241518433 60 68 44
11.57900102779331 -1.2661129854112683 2.738795790344613 63 71 48
11.845218324797806 2.841803601364768 2.2731623437401316 52 58 37
11.025752149578453 -2.114399521923608 1.7212224500118367 56 61 49
10.749673120600482 -0.780647157314283 2.685810227140074 63 71 49
11.464285808962897 -1.5320555957783946 2.1898492292681966 70 73 64
11.334206646224883 2.4498427190127536 2.439326887992175 61 67 41
11.662588359201917 -0.7394532817738021 3.0996125979696894 69 75 53
