20.812881771615963 2.9954481839106686 0.7199419221989124 18 19 3
21.058306959137273 2.9358696515786495 0.4831343052192286 27 31 12
20.932577565728128 2.9242311778831933 0.7264383001565743 17 18 4
20.791968796123452 2.865346593679916 0.5571014298166416 11 16 0
20.301550836038142 2.8381635615886247 0.5170216654272588 34 39 19
20.959549668944028 2.780156311574966 0.5698076297786543 14 16 0
21.34117625149022 2.746074861875522 0.5078220386281603 19 23 6
20.959549668944028 2.780156311574966 0.5698076297786543 14 16 0
20.47314636918814 2.746074861875522 0.5315761315098118 30 35 16
13.00231278089734 1.2175825085666325 1.7526853531884385 33 41 18
13.214422977832935 1.2928517723519581 1.9063945023367244 32 40 17
12.701501375355196 1.2690295303607104 2.005745491055125 29 37 14
12.28314394461118 0.950834834942817 2.0216296496172164 23 33 6
12.64445727061824 1.154262310817293 2.0971122552293044 15 25 0
12.873974452213737 1.2409031317324537 2.1786068008133226 23 33 7
11.929366599411866 1.2374264056794932 2.471790198965751 32 42 16
11.760096464939037 1.0071255182944439 2.3605711845247903 28 38 12
12.012075185669621 0.8282034127596147 2.2294432702311866 29 39 11
12.06576925500853 0.894167797074115 2.1252096741435347 25 35 7
12.171967277003056 1.1158382694698106 2.447007741763685 34 44 15
11.760096464939037 1.0071255182944439 2.3605711845247903 28 38 12
12.012075185669621 0.8282034127596147 2.2294432702311866 29 39 11
12.745445490343709 1.2072496451127772 2.2853624082485333 26 36 10
13.449497171751169 1.353911564133357 2.1491361483818334 26 35 9
13.154164954309383 1.2690295303607104 2.0747435189876784 25 34 8
11.569522247207924 0.3838669660345217 2.377330550539981 28 38 13
12.106238374479082 0.2629624950316051 2.453550724636804 27 37 11
11.613373245167963 0.8627010283179107 2.6711828824582313 35 44 18
11.946440392889123 0.734962679966179 2.619005670625036 38 47 21
11.856261053898978 0.3530303873858262 2.632365915486327 38 46 23
11.625834657626639 1.05217123766447 2.505481108123533 32 42 14
12.345765513222394 0.30161276424028344 2.565326079592868 25 33 10
11.994465141787003 0.970261538460143 2.6120958540761494 34 43 17
12.397752835426324 0.6612684036705788 2.4254246483136024 26 36 8
12.024177509363934 0.5283656322829055 2.8056332357363623 39 47 24
12.024177509363934 0.5283656322829055 2.8056332357363623 39 47 24
11.625408074041141 0.8356870295853016 2.372328734269796 23 33 7
11.910385192723691 0.7446294594309899 2.473805163774653 28 38 10
11.988769776477659 0.8910327999874195 2.8141960356875386 37 43 20
12.546896054878419 0.5956908292359819 2.701617757017158 38 46 21
11.899183882048892 -0.28462874967615476 2.837141357637052 43 49 25
11.219769524877426 -0.5054861267711416 2.556254073610407 28 34 9
11.729478183632908 -0.18262413423337245 2.6520738703976927 39 47 22
12.22420094730133 0.22197932417228228 2.761543278777743 44 52 29
11.856952937613128 -0.0004737978428977909 2.8486888476946777 44 50 27
10.58394167952222 -0.154685218926072 2.480165055455002 24 32 7
11.989581532214604 -0.8915614005615942 2.8139967379240707 45 51 24
12.02471709242474 -0.5290721149262442 2.8055047565292517 43 49 24
11.38934817030719 0.15419213395194195 2.534157305674481 26 35 9
11.43402390346855 -0.4249287890367415 2.7030336260760555 45 51 26
10.536440451190717 -0.0002525176296774409 2.4859785622365385 25 33 9
12.745616488840906 -0.6903484287154684 2.8924099567136454 43 49 24
12.62699518486067 0.39077151253409326 2.9324940192833173 41 47 24
12.587464061221151 -0.0006692992784173215 2.9478500012820232 43 49 26
21.34255183894834 -1.4092063978304719 1.4935008379252503 48 48 23
21.28173761496602 -1.4092063978304719 1.5873351677871896 46 48 25
11.614490556365336 -0.8631016782189808 2.6709937273590882 45 51 24
21.316522556650558 -1.4439394824710066 2.024968770138462 44 46 24
21.96594284762769 -1.436974181128962 2.1679889193564703 44 46 24
21.272044086467403 1.598243935202625 1.7290316208654601 36 46 25
21.286191329146746 1.692886024513463 1.6815146483727454 36 45 27
13.144728726995513 1.5355145389720235 1.9901347755923453 31 41 16
13.150547265305402 1.6188075671578486 1.989937546544017 31 41 17
13.388162439950147 1.7823214397504088 1.9820437815829055 30 39 13
13.254884953563003 1.8604925253474767 1.9053299745455456 28 37 11
12.91252182309201 1.9351893035623575 1.6756899818622568 31 38 13
13.271814372793568 1.9351893035623575 1.8261237645936048 27 37 11
12.427934063046422 2.1526050962669947 1.8438899508585325 29 37 13
12.885746546759622 2.1097084461535247 1.6759087456846977 27 36 10
12.74359202435725 1.8851949263062115 2.0042114336578223 28 37 11
12.923529941709496 2.2706188780501892 1.9977778165635882 32 40 17
13.076743454227852 2.0400515614368016 1.9100691487051802 28 38 11
18.803257086225077 3.021616761540214 1.0928884231674763 21 19 5
18.500355440198042 2.962646258622697 1.1446117729709204 9 7 0
18.349626770508213 3.0775850693196287 1.0171533474480705 21 20 5
10.169349126701325 2.8381635615886247 1.4080188273647767 40 46 23
11.676465508274333 2.746074861875522 2.0469390797937614 36 44 21
12.055563142046937 2.660545894062443 2.0307884390574333 36 44 21
11.27348651086553 2.9548490399092597 1.872692540157069 41 47 24
12.109064378423703 2.5820128541994034 1.9384177723842575 34 42 19
10.306858662505565 2.8381635615886247 1.8010182575392442 38 46 23
10.596334860253387 -3.1414392902841968 1.5096010713533148 39 46 23
10.643568788928869 -3.0471716563076146 1.509872980323985 40 45 22
10.062184452645647 -2.9355450535587355 1.8067212722249277 41 47 22
11.139781963966199 3.047475665213645 1.8764324676984243 40 47 24
18.199775419288024 2.9726289690069074 1.3689849497164956 14 12 0
13.816616545718942 1.5323096657176036 2.219917529769911 30 36 11
12.70791311968145 1.5323096657176036 2.0942136250152656 29 38 12
13.23612384024882 1.5323096657176036 2.1596961958978795 30 38 14
13.055891365426358 1.4139013343075484 2.369284335581634 31 40 14
13.322949165100935 1.7131658847143583 2.155349391392054 28 37 11
13.722726328014272 1.5237669961390319 2.4254842322884356 31 40 14
12.594669753634498 1.792364403436254 2.5355906303847244 32 40 17
13.348281709246951 1.6529869872265515 2.5876240698088306 32 40 17
13.28010305222308 1.8230011291858705 2.250943830728377 30 38 15
13.040519043972301 1.6283919119851806 2.265896243788384 29 37 14
13.696935983003836 1.5284647634928967 2.3223537265647045 30 39 13
12.377858502219762 1.744234342019188 2.3114221573015694 30 39 13
12.95955462466063 1.8009086247200785 2.0830434241465987 27 36 10
13.176587650415268 1.76540425218136 2.4745145646686604 32 40 17
13.088791463218277 1.517897492975312 2.483078901441126 31 41 13
13.088791463218277 1.517897492975312 2.483078901441126 31 41 13
12.717106145083978 2.3291140350719997 2.09379649134707 33 41 18
12.76248537198388 2.457174696617451 2.0917476681115623 33 41 18
13.27161895600664 2.395839361997831 2.251461044732898 33 41 18
12.828427204476894 2.2019309362983357 2.0888005253370086 32 40 17
13.10230442758696 2.0412936211024126 2.2619700940412644 32 40 17
12.787391494845014 1.9491115870663227 2.2825202819198442 32 40 17
13.27161895600664 2.395839361997831 2.251461044732898 33 41 18
12.99737305552842 2.043242426428428 2.49222363254444 33 41 18
13.404730064411433 2.3251266474075307 2.3429239954213052 33 42 16
12.915503036713815 1.9143214127120363 2.1763716920741594 29 39 15
13.307317776896532 2.1499344082412404 2.4621368389934672 33 41 18
13.303368954842414 2.258945464837302 2.2495299660189567 32 40 17
13.129262883507042 2.0905076019720017 2.3635644494896373 33 41 18
13.194811712953427 1.8851949263062115 2.0730455998980952 27 37 11
12.815012438289141 1.9912803041560772 2.3887758280575127 33 41 18
13.09245203832319 2.0795628881230845 2.077344663468337 29 39 13
13.194811712953427 1.8851949263062115 2.0730455998980952 27 37 11
11.82723978044389 1.1275465357535037 2.8571376965604376 37 44 22
11.97175635216883 1.500310873644708 2.6153460502181423 32 42 16
11.583315336249983 1.2933492010342953 2.6763120701800505 35 44 18
12.048649305418616 1.3377924602387443 2.6044613684114597 31 41 13
12.119420643334188 1.2287691443953241 2.7838083944258742 36 44 21
13.925620366265026 -2.2801291443201497 2.8535626627244963 47 53 26
12.526361797936541 -1.8512230862368289 2.9745281681805085 47 53 26
12.593797669938304 -0.9526108628556181 2.9453032984000087 45 51 24
12.724503290378117 -1.7605484776438207 2.899016151076637 46 52 25
12.520253185222483 -1.3622928930844809 2.9774466253708725 44 50 24
12.473992771254274 -0.613160293387417 3.0015995762950762 44 49 25
12.718489844164411 -1.430631136422353 2.900934327697594 47 53 26
14.161460049074629 2.4719281160707944 2.3905755502654467 35 43 20
14.039270394214842 2.4916992721322155 2.5125414513632793 35 45 21
12.242723429210596 2.5312715364713863 2.1162844956550457 36 44 21
13.652616989090646 2.4021365092084963 2.431405578857156 35 43 20
13.038625871515544 2.805270741240432 2.3706445946478927 37 45 21
13.174091354004474 2.7647579335708166 2.47475521484545 37 46 20
13.590913404492918 2.912670955214397 2.436701953222377 38 47 21
12.845583237494282 2.912670955214397 2.3862390311994277 37 46 21
13.652616989090646 2.4021365092084963 2.431405578857156 35 43 20
13.304229422379747 2.705347467869676 2.350306760849498 36 44 21
12.845583237494282 2.912670955214397 2.3862390311994277 37 46 21
13.032508444599031 2.5584138522902737 2.3711278779331586 36 44 21
12.98306308610164 2.8837058758313607 2.4936768012370734 40 48 24
12.98356281895895 -2.8833055902242934 2.493625952650976 45 51 24
12.80510920646224 -2.7969768673629654 2.6605607847312145 44 50 23
12.84608831853309 -2.9123122099747034 2.386197277726128 45 51 25
12.077489015634933 -3.0101536892472818 2.4564515465588475 45 52 26
12.867387434122504 -3.0101536892472818 2.505648605067153 45 52 26
12.201187852697869 -2.8833055902242934 2.444137909396612 45 51 25
12.404524541910567 -2.7643877884286567 2.424797619893016 43 49 22
12.72840338791294 3.025705682582764 2.3960671506576654 40 49 24
13.45834558755993 -2.713415729033083 2.574541235916446 44 50 23
12.82834421450306 -3.1413785643681966 2.509782748587419 43 52 26
14.136044012282415 -2.8461408838839017 2.6337420801941946 47 53 27
13.510180763770874 -2.561096920123554 2.7244997110784435 46 52 25
13.880849553989654 -2.6478054315545663 2.667826087502464 45 51 24
13.699443063367768 -2.7969768673629654 2.694341881020674 47 54 28
18.194095525490777 2.5615927263540663 2.8361494192547676 40 50 24
18.194095525490777 2.5615927263540663 2.8361494192547676 40 50 24
11.53488177247908 3.037715000787941 2.1539677791540193 40 47 24
12.1146153116878 -3.037379899037984 2.222908996033447 44 49 25
11.664614429426667 -2.9355450535587355 2.146648151107265 42 48 23
12.23793888872714 -2.9355450535587355 2.215237048262786 44 50 23
12.440674914901507 -2.837855079152707 2.2030464734343305 42 48 21
12.073137953992777 -3.1414232757379397 2.2255347903697498 42 49 25
11.66405818791344 2.9358696515786495 2.146679113454113 38 46 23
11.49159438890486 -3.1414232757379397 2.156454868847176 41 48 25
21.888667571821742 2.7537199259287797 1.309808628075967 13 14 4
21.743725635678143 2.8137509952908584 1.5409883372127628 15 16 4
20.330441887248153 -1.4997468954749535 1.7364264863648875 41 41 15
20.284966536859372 -1.549626208964435 1.7368012451267678 35 35 9
20.477714372684908 -1.5996110135159183 1.7849512449931584 38 36 11
21.11422551597992 -1.5031193632590412 1.4926632792700916 50 50 24
12.853746450429577 -1.6665598816343474 2.6533604773369692 44 51 21
12.59647266180773 -1.7922650681034253 2.535384122588065 45 52 22
12.937225277572514 -1.8276721041663406 2.6413469869367168 45 52 22
12.510720340929185 -1.6529490765991328 2.545342441664534 43 50 20
12.853746450429577 -1.6665598816343474 2.6533604773369692 44 51 21
12.120491305322211 -1.2290253231432664 2.783572200763467 45 50 23
12.847793496986192 -1.50034884761953 2.6542335871229787 45 51 23
12.050264694745888 -1.337913901496882 2.6042363127420347 42 48 21
12.050264694745888 -1.337913901496882 2.6042363127420347 42 48 21
12.412193748373458 -1.4863252878421318 2.7252674642886863 45 52 23
12.578240071944833 -1.3702200844346757 2.537478090849995 35 42 13
12.04405702216332 -1.4653567390441657 2.8009380379346887 47 52 24
13.57296844158945 -2.0464768289967603 2.7141795465114584 46 53 23
13.23715332774927 -2.1428458531069245 2.773813287830657 47 54 25
13.419108474323206 -1.8761370442893088 2.740091549670765 46 53 23
13.23715332774927 -2.1428458531069245 2.773813287830657 47 54 25
13.654042616722757 -2.401867301766159 2.4312841590684524 44 51 24
13.999421351098132 -2.319493277795188 2.5164638433759903 44 51 23
13.265643971458873 -2.5191608154998333 2.5977781755750287 43 50 21
13.654042616722757 -2.401867301766159 2.4312841590684524 44 51 24
12.622383087935502 -2.7050367922818506 2.2938514868096225 42 48 21
13.768901036610435 -2.5581155770644446 2.421638975455366 42 50 22
13.600755643402415 -2.410487021600371 2.558305162450826 45 52 22
12.811201334684455 -2.222277287769398 2.5116133405236907 46 53 23
12.811201334684455 -2.222277287769398 2.5116133405236907 46 53 23
14.130860852564304 -2.5191608154998333 2.6344015377930314 45 51 22
13.797770558576245 -2.19156364250037 2.679707811992872 45 52 22
14.190902595717898 -2.108212077086226 2.626838786685791 46 53 23
21.186154302288625 -1.6011265399090475 2.0279751735172558 36 34 11
21.236905004993382 -1.6535733466246172 2.0267999037958844 31 29 6
21.878200228903115 -1.4918843280318939 2.1707186928593063 46 46 24
12.991303810927114 1.37149223563444 1.912391136862429 32 40 17
21.905333207300586 0.37091101087628864 2.2852185749455076 37 49 25
12.142475293072273 0.9749371907716484 2.2211582733831476 20 30 2
12.277318261403822 1.02837942155556 2.1145752274394463 19 29 2
11.508386087410786 0.9115079472504636 2.263779293572568 23 33 4
12.241215496859779 0.5925934150476286 2.3216756069848583 33 43 16
10.597451788991757 -0.11835234901009531 2.2135295657390213 29 38 10
10.447949983309 -0.00021850165039307242 2.3513526539772016 27 35 11
11.371588787728959 1.1868241838434475 2.5364076979533006 33 43 13
11.958554737749143 0.9353761366085891 2.468714120032315 33 43 15
11.735022946564722 0.43672234843823143 2.4929875916316524 25 34 8
12.345765513222394 0.30161276424028344 2.565326079592868 25 33 10
12.124236586987681 0.7511878648318765 2.3307181144833367 28 38 10
12.065143268281656 0.5050281119139661 2.6021702386120458 36 45 18
12.230192176848812 0.7192955934963028 2.7603188498844853 36 44 20
12.317231586960329 0.8463378387343761 2.568900744949986 37 46 20
11.748199611356362 1.1193361099347914 2.649091137431952 33 42 16
11.77853322139152 0.689552137632064 2.8716409461865515 38 44 21
12.346167207111817 0.42431988525594866 2.737532575795898 41 49 26
11.779084057072602 -0.6903484287154684 2.8714719958050448 44 50 24
12.224466327332326 -0.22267704400613483 2.7614889381498036 44 50 26
12.62699518486067 0.39077151253409326 2.9324940192833173 41 47 24
20.846623327870308 -1.450218928419368 1.8304338795849453 45 47 22
21.773792787780984 -1.4439394824710066 2.0662514124318 43 46 24
20.181238280568866 -1.4439394824710066 1.890985118082777 45 47 23
21.286191329146746 1.692886024513463 1.6815146483727454 36 45 27
21.137548135003303 1.598243935202625 1.6822964715330253 35 45 24
13.23215377207209 1.7014407030288348 1.9871914315627845 30 40 15
13.020713308473566 1.7823214397504088 1.911588221243554 29 38 12
12.874889875681642 2.332194499166256 1.8341795368869707 29 36 13
13.059561162381835 1.96511031949905 1.9930438031691506 28 38 12
12.295410298687525 2.457174696617451 2.021146766758844 33 41 18
21.160575456235502 2.6478329537553407 1.4928347691802093 2 3 0
20.231679911103214 2.624393150352808 1.5387598553394592 0 2 0
18.898187147027617 2.9387229138083346 0.9066875447543528 12 13 2
17.88780473000462 3.0814368079721297 1.1900083370609593 23 22 7
11.140073177173736 -3.0471716563076146 1.8764242196182643 40 46 22
10.783126832349792 2.9548490399092597 1.5106624242373705 41 47 24
10.062184452645647 -2.9355450535587355 1.8067212722249277 41 47 22
10.643263990739946 3.047475665213645 1.5098712334599458 39 47 24
13.227366282147555 2.0000551428287685 2.160138505684644 29 39 15
13.122809798474353 1.727184369835617 2.2606780484533053 29 37 14
13.764194682282541 1.4293736760570934 2.3177969338986304 28 38 10
12.572650624382081 1.882428245981544 2.409584225478837 32 40 17
12.572650624382081 1.882428245981544 2.409584225478837 32 40 17
12.79832239001786 1.7131658847143583 2.090141618513288 28 37 11
13.23612384024882 1.5323096657176036 2.1596961958978795 30 38 14
12.758475860142775 1.9235539735042846 2.517303771787215 32 40 17
12.215882607799772 2.043242426428428 2.4427035772792114 33 41 18
13.122809798474353 1.727184369835617 2.2606780484533053 29 37 14
11.97175635216883 1.500310873644708 2.6153460502181423 32 42 16
12.593797669938304 -0.9526108628556181 2.9453032984000087 45 51 24
12.520253185222483 -1.3622928930844809 2.9774466253708725 44 50 24
13.77351382452516 2.805270741240432 2.4212571792665907 37 46 20
13.590913404492918 2.912670955214397 2.436701953222377 38 47 21
12.98306308610164 2.8837058758313607 2.4936768012370734 40 48 24
13.767722935023654 2.5584138522902737 2.421736553508939 36 44 21
13.200036006771962 2.3197628963432284 2.472262082611498 35 43 19
13.390000518230183 2.5312715364713863 2.244322481801713 35 43 20
13.447789121803835 2.4719281160707944 2.339810641295455 34 43 17
13.447789121803835 2.4719281160707944 2.339810641295455 34 43 17
14.025207270495013 2.705347467869676 2.4010413390743763 37 45 22
17.534942075877595 2.648256600753848 2.7721692187165257 39 49 23
12.201187852697869 -2.8833055902242934 2.444137909396612 45 51 25
13.17483007738213 -2.7643877884286567 2.4746839826158356 43 49 22
12.035883716152417 -3.1413785643681966 2.460692583096523 42 51 26
12.999002495709567 -2.6478054315545663 2.632720706115533 45 51 24
13.684556611332566 3.0105745362892615 2.5490892335582283 40 51 25
12.341851997352771 -2.804933723294319 2.3140926463489064 43 49 22
13.271165052856297 -2.8461408838839017 2.597090504157623 45 51 24
12.98356281895895 -2.8833055902242934 2.493625952650976 45 51 24
13.323728463749365 -2.729291657242131 2.757302443705935 46 52 25
13.699443063367768 -2.7969768673629654 2.694341881020674 47 54 28
13.066921580308927 2.660545894062443 2.168370828839149 36 44 21
11.535163011121655 -3.037379899037984 2.1539516948426423 42 48 24
12.114347525232276 3.037715000787941 2.2229258741929865 39 48 23
21.894788594676687 2.8137509952908584 1.4495556353902317 20 21 9
12.853746450429577 -1.6665598816343474 2.6533604773369692 44 51 21
13.09674760974615 -1.976303987153138 2.6194989756370917 46 53 23
13.09674760974615 -1.976303987153138 2.6194989756370917 46 53 23
13.57296844158945 -2.0464768289967603 2.7141795465114584 46 53 23
13.972427005013222 -1.976303987153138 2.6551979935397965 46 53 23
12.996777603732514 -1.7138784365712727 2.825271674666822 46 53 24
13.999421351098132 -2.319493277795188 2.5164638433759903 44 51 23
14.040425710863362 -2.4913866761697823 2.512428378863636 43 50 23
13.631977042778937 -2.222277287769398 2.5548434294612177 45 52 22
14.090119675071737 -2.3118389083871036 2.63962966944845 45 52 22
13.766925160100351 -2.423111194687245 2.6842292665540985 45 52 23
13.467562076822734 -2.3001546313995287 2.7317002644250614 46 53 24
21.226095589602018 -1.4960213470060597 2.0270496972349794 45 45 21
21.200523828050596 2.9706536285743272 0.5873101754123403 18 20 2
21.176615591052546 2.8381635615886247 0.49367807802932917 23 29 9
20.47314636918814 2.746074861875522 0.5315761315098118 30 35 16
13.375617278524235 1.146264310626224 1.747554618100306 29 37 14
13.012233420503113 1.112669325864514 1.9118193368276528 21 30 5
12.655767958246052 0.9997440100896408 1.9218331688156196 21 33 6
12.381301416677978 1.0656147650211776 2.3111679613374165 23 33 4
12.171559834053374 0.9115079472504636 2.3270297760985454 22 32 6
12.171967277003056 1.1158382694698106 2.447007741763685 34 44 15
12.346167207111817 0.42431988525594866 2.737532575795898 41 49 26
10.994543378300378 -0.353556937885399 2.5879217681566686 32 39 13
10.994543378300378 -0.353556937885399 2.5879217681566686 32 39 13
12.02471709242474 -0.5290721149262442 2.8055047565292517 43 49 24
10.495851701875656 -0.13411590500328682 2.3468428208814025 28 35 10
10.77201133781888 -0.5961931596590281 2.6223032782822453 45 51 25
12.029443855073312 0.556771404779939 2.4613536450593294 25 35 7
12.35169777763861 0.6352794120540483 2.5645874324151743 32 42 14
11.359990799055685 -1.0262478389585328 2.7171411555787213 45 51 24
12.231508052574686 2.2706188780501892 1.848390798843238 31 39 16
12.5087949804128 2.391059773125888 1.9261393166101333 33 40 17
12.778783232790975 2.0400515614368016 1.8362080569725834 27 37 10
18.426283045028082 2.9726289690069074 1.3157909721734131 16 15 0
18.566160465450913 2.951425008463349 1.0243465400567424 6 6 0
17.215825250823084 -3.141494801388717 1.2974172938609903 21 20 5
10.640868921043358 2.746074861875522 1.793667560236707 36 44 21
11.492965414401432 2.865346593679916 1.8667509684036587 40 47 24
10.378426817379875 2.8381635615886247 1.3127949699692962 37 45 22
13.241902219286073 1.6231652237420187 2.1594047445212334 29 38 12
12.727249099577822 2.3251266474075307 2.286603357041209 33 41 18
12.888733953607074 2.1255918025356513 2.177810382602207 31 41 17
12.76248537198388 2.457174696617451 2.0917476681115623 33 41 18
13.288527056342014 2.457174696617451 2.157064396645766 33 42 16
12.508905073282211 1.6529869872265515 2.5455563100082266 32 40 17
13.605742127235262 2.0795628881230845 2.1416577606124108 29 39 15
12.544496050926252 1.8496645710902309 2.299344070313573 31 40 14
13.073457827139894 1.744234342019188 2.3679059909479907 31 40 14
13.271165052856297 -2.8461408838839017 2.597090504157623 45 51 24
11.82806262193229 -1.1279653477522462 2.8568998633156957 45 51 24
13.638155169570236 2.6139167705004867 2.326389108274571 36 44 21
12.433714310827009 -0.0011394775961013045 3.0268538835185703 44 49 26
13.32109613121285 2.746074861875522 2.2484570805448003 36 44 21
12.863051361364187 2.9358696515786495 2.277457947105292 37 45 22
21.211540299984012 2.7537199259287797 1.493022466014503 15 15 7
12.486374717123898 -1.2935200701227203 2.712029400184341 44 51 23
12.504604087223594 -1.5103839499530527 2.5460635542498964 42 50 20
13.600755643402415 -2.410487021600371 2.558305162450826 45 52 22
11.973382115516461 -1.50034884761953 2.6151123483755505 44 51 22
12.999120111035595 -2.043054657390611 2.4920466295406265 45 52 22
21.318043214368938 2.888156286516726 0.5955408118133089 16 19 4
20.667840739968295 2.8090328955860255 0.6342698351534474 16 19 4
21.34117625149022 2.746074861875522 0.5078220386281603 19 23 6
21.53149535113573 2.9548490399092597 0.5234855521143729 13 18 0
13.17047076083071 1.0421942913921858 1.8281328135340384 17 27 1
13.508070719623467 1.2175825085666325 1.8988221509252403 30 38 15
11.929366599411866 1.2374264056794932 2.471790198965751 32 42 16
11.358848454060531 1.025888403314238 2.717363745768122 34 42 19
12.346167207111817 0.42431988525594866 2.737532575795898 41 49 26
11.308985223699782 -0.7198315957887417 2.7272340183093826 44 50 23
11.351523647628923 0.2629624950316051 2.397579604462919 25 35 11
12.22420094730133 0.22197932417228228 2.761543278777743 44 52 29
11.686634004976831 -0.0002990775296383734 2.6590001206485447 40 48 24
11.43402390346855 -0.4249287890367415 2.7030336260760555 45 51 26
21.2051295461482 -1.4559086373386378 1.4929989058067565 51 51 25
21.32259036063262 1.6457329713243503 1.72865336518814 36 45 27
12.499845503546492 1.8009086247200785 2.013254298621721 27 36 10
13.109591221296416 2.1526050962669947 1.991329912017557 29 39 13
18.765519484898874 3.0053461439637763 0.9011419134616936 19 19 5
17.40146044750057 2.890324718317811 1.178794410344222 9 7 1
18.29019275320872 3.0283827847974796 1.3138508570525431 21 20 4
11.151650610118555 -2.9355450535587355 2.0713658868285023 44 50 23
13.477906904508353 1.8009086247200785 2.147760748850161 28 37 11
13.241902219286073 1.6231652237420187 2.1594047445212334 29 38 12
12.699437274605268 2.258945464837302 2.188199961671964 32 40 17
12.99085445562666 1.6347759916881675 2.3744371585904123 31 40 14
13.09463485700712 1.6427490166869123 2.4825023703688567 32 40 17
12.780377763847268 1.442083687507073 2.090944503226468 29 37 14
12.943484385164819 2.2435998242648036 2.378240455133541 33 41 18
12.689188189142486 -3.1414035266739475 2.3994205132788835 42 50 26
12.808824460409074 -2.0544126708756747 2.8737043150960098 47 53 26
14.144818933307898 -2.4433654366056525 2.805186233056661 47 53 26
12.23793888872714 -2.9355450535587355 2.215237048262786 44 50 23
21.008839951897638 -1.5506339519616037 1.587550021662509 45 45 19
20.330441887248153 -1.4997468954749535 1.7364264863648875 41 41 15
13.079343567305408 -1.946089533131231 2.8065211089419346 46 53 24
12.853746450429577 -1.6665598816343474 2.6533604773369692 44 51 21
14.08625530607916 -1.6187946094229206 2.1199016904818606 13 16 1
12.178729929007282 1.0737774198642998 1.9362156631303635 19 29 3
12.627252099588954 -0.3919153592745027 2.932398159586116 44 50 25
11.74958020733802 -1.1195907652203654 2.6488722098742907 44 50 22
18.109861122347034 2.962646258622697 1.1949122006545716 6 4 0
12.248300708600416 2.3291140350719997 2.023007200552126 33 41 18
12.682595132580742 1.96511031949905 1.92105865660276 28 37 11
13.214798266926774 1.4527072902280842 1.9877723376720937 32 42 16
12.634326101014263 2.5105019399949464 1.92245472842367 33 40 18
12.728658255822282 -3.0253325021458295 2.3960454637741044 45 51 27
12.137465412124602 -2.9123122099747034 2.3296828729370054 44 50 23
13.055835715535544 2.8381635615886247 2.264918284409567 36 44 21
12.048649305418616 1.3377924602387443 2.6044613684114597 31 41 13
13.437017485648216 2.656004668620207 2.4502740820406963 37 45 22
13.305712090815469 1.442083687507073 2.156206837489022 28 37 11
11.66405818791344 2.9358696515786495 2.146679113454113 38 46 23
13.484190052943303 2.1255918025356513 2.238760552688677 32 40 17
13.329583565292719 -2.108212077086226 2.5898959500225867 46 53 23
13.201510508595257 -2.319493277795188 2.472120921262012 44 51 21
13.338645814884007 -1.6855525328794616 2.7545463350715274 46 53 23
13.716060296172271 -2.5949663612060156 2.545685932352184 43 50 21
12.760255624022577 -1.9234037460375346 2.5171101881132554 45 52 22
21.182543144052662 -1.548512446926286 2.028059040210386 44 42 17
11.77853322139152 0.689552137632064 2.8716409461865515 38 44 21
12.433401072094526 1.113900457129202 2.2034751101515346 16 26 0
12.739079174654988 1.8604925253474767 1.7564871540763765 30 38 12
11.094953190471161 -3.1414392902841968 1.8777075825005751 40 46 23
14.144818933307898 -2.4433654366056525 2.805186233056661 47 53 26
11.768950881469745 -1.3702200844346757 2.489193892823172 41 48 18
12.183362955031846 -0.00036668858597196246 2.7700243981402757 45 51 28
13.510386520561354 2.1796432254192446 2.3353364210415606 33 41 18
13.480214065899133 3.025705682582764 2.4464109091589212 41 50 25
13.251269249547889 1.332993390043503 2.2527052059525285 28 38 11
12.863051361364187 2.9358696515786495 2.277457947105292 37 45 22
