15.68531773184663 0.3692031244401494 1.311515724162787 13 23 1
11.48601608695585 0.41532109808501566 1.3046062176092366 9 17 0
10.583597997848498 0.5918140383525438 1.9561785309323143 17 27 6
10.696741036014163 0.539417442939675 1.6624023144494726 5 14 0
10.99861708716431 0.5918140383525438 2.04053046598881 22 32 11
10.365081082091061 0.4549878841820815 1.7628577237753986 9 17 0
10.102977401579961 0.5023264158154171 1.9755543528580868 12 21 1
11.47274556490406 1.1587617653882964 2.0196608591180096 28 37 13
11.164162657530497 1.1162739243868787 2.135907302362706 29 39 15
11.47274556490406 1.1587617653882964 2.0196608591180096 28 37 13
10.378379964490783 1.0017197656600594 2.308254876423214 30 40 17
10.199635062041695 0.8996035773420398 2.1970949986819552 30 38 18
10.167053514027039 0.727909808025244 2.1994153662269635 22 34 11
9.78613184481572 0.9230961765269234 2.3647101562404043 27 40 13
10.249253262828612 0.8166575536081606 2.3197603701703224 24 38 10
10.167053514027039 0.727909808025244 2.1994153662269635 22 34 11
10.215397207662408 0.8117024201720494 2.079853395023057 29 37 14
10.833268753350108 1.2158905933476165 2.1553968271251063 32 42 18
11.790193089058377 1.3692565357592394 2.0067323199848217 28 40 10
11.402775544754556 1.348639023152234 2.1226933468705145 32 42 19
11.402775544754556 1.348639023152234 2.1226933468705145 32 42 19
9.406888992787666 1.0498595223529807 2.406623737191718 31 41 18
9.75464703433038 1.251503576623784 2.367998780602795 30 41 18
9.121992356998724 1.198045629146094 2.441870249704421 30 40 17
10.444880706240633 1.2919052341268706 2.3024860808128267 31 43 20
9.90796527098996 1.198045629146094 2.5069148538699824 28 40 15
9.90796527098996 1.198045629146094 2.5069148538699824 28 40 15
10.314243268600086 0.6294536169824024 2.313918396283284 26 36 9
10.491035673010344 0.7159813859598493 2.4348912934917792 24 38 10
10.039074336356364 0.8239117236526252 2.489385538665769 26 40 13
10.255847739602796 1.1245070692854184 2.6371692447260244 28 42 16
9.249962344040922 0.8355465138174296 2.61107594332522 28 42 18
9.827331296590529 0.6668586972033853 2.7229142615091533 26 38 14
11.194949689257491 0.21678540487251283 2.9446367890507514 23 37 10
11.25808483546673 1.4510692793664721 2.130626114170128 30 40 21
11.25808483546673 1.4510692793664721 2.130626114170128 30 40 21
10.976351636488875 1.5543411084652103 2.2598115105387606 34 44 21
11.034451105938102 1.4370949749896142 2.2554823008541116 34 44 21
10.224377782761387 1.552139101872411 2.3220245867352607 33 45 24
10.286725280968247 1.4194556970861871 2.316379142566821 31 43 20
10.549329797512415 1.7268130138190567 2.5888698751409684 28 42 18
9.675233531453902 1.5453214956401822 2.5403492049175855 27 40 18
10.575726504579084 1.3654753430129078 2.5848367818322457 27 41 16
10.308914692144402 1.7030086121571377 2.4558410614903448 30 44 20
10.335925408635838 1.3965090010884376 2.4526533946191327 29 41 18
12.107280519035625 1.8641150797253632 2.1851004599347834 33 43 20
11.342127109294456 1.8964578126269676 2.233529791261662 36 46 25
11.342127109294456 1.8964578126269676 2.233529791261662 36 46 25
11.298605418818946 1.9364598728867213 2.3548429870971734 36 46 25
10.677525144676398 1.8985979098245442 2.5697031552680265 30 44 20
11.087709428536241 1.8148668572651308 2.3739964407192726 36 46 25
10.440062555771593 1.8507636843580497 2.440629040082182 31 44 22
10.89636302872248 2.0525530322926437 2.5392171351049964 32 46 22
11.200531741494398 2.1852848755620666 2.500788267248815 33 47 23
10.677525144676398 1.8985979098245442 2.5697031552680265 30 44 20
11.091626583236987 1.9651287028168225 2.689749875056678 29 45 21
10.968272253343095 1.7609455963384184 2.713506345672788 29 45 21
10.70966719959527 3.0201402979150607 2.7699436075218804 31 50 25
11.248295610258864 2.4092551285170303 2.6618496423250027 31 47 23
10.945454312053723 2.260056929032631 2.7180980915610884 30 46 22
11.36917051451063 2.5107966393079577 1.8358714709665467 30 46 24
11.299209123395249 2.313615296060594 2.0270715524669063 34 46 25
11.364790287724816 2.2150085601354705 2.3490517218906386 32 45 24
11.17687841360358 2.306720176222181 2.245121996353848 32 46 25
11.451165189203193 2.0917122436755027 2.1200935591443404 35 45 22
10.793911359941639 2.5335370133624795 2.0501814497422775 32 46 22
11.31093489147782 2.390544031433585 2.3537564690387014 32 46 22
11.31093489147782 2.390544031433585 2.3537564690387014 32 46 22
10.618115165026406 2.468389101690702 2.1688665026047658 32 45 24
11.32006277532027 2.1475773485930003 2.2350519848232575 36 47 26
9.97150217260849 2.7682126268213665 1.87412943655599 32 47 23
10.362106435545003 2.6742590131993667 1.8623524921246963 30 46 22
11.394993926933632 2.930350175589209 2.478244657925558 30 48 26
10.862543620903116 2.48987020076376 2.3957228373866872 31 47 23
11.966107653598542 2.397898084491053 2.5569297796400052 30 46 22
10.269378251475654 2.977055480865661 2.0769220204905907 30 49 25
11.196452552832417 2.8476802594091195 2.6708267891097304 30 46 22
11.665407571377047 2.895642777414266 2.597106674364628 29 47 25
11.196452552832417 2.8476802594091195 2.6708267891097304 30 46 22
10.468083171709253 2.7257503812421477 2.178664080975521 31 47 23
11.269848755098518 2.606858141297341 2.492586156658346 31 47 23
10.269378251475654 2.977055480865661 2.0769220204905907 30 49 25
10.759135964590111 2.5640080093886017 2.2765570476499977 30 46 22
11.566688411039769 2.795858500769467 2.459474483274593 31 47 23
10.732302099415278 3.0613642912581818 2.561821505574903 31 49 27
11.003049430024765 2.742551535390502 2.5252576545674783 31 47 23
11.371145235685582 2.6712358582836493 2.641482029264336 31 47 23
11.30944262073189 3.073018646598538 2.4879852993920046 30 48 26
12.122190727617973 0.9118132317273269 2.987477592994245 28 42 17
11.51505315800649 1.5306565429862287 2.8351261734462794 28 44 20
11.546325531104198 1.8138198699437322 2.826679637307904 30 46 22
12.122190727617973 0.9118132317273269 2.987477592994245 28 42 17
12.069328567706679 1.476320229224102 3.018843076072652 28 45 21
12.211103969432385 2.4725392981397425 2.9461032277511965 30 46 22
11.730149060404736 2.7775016467283984 2.7816668044318744 29 48 23
13.06237816499203 1.476320229224102 3.0282168169947394 30 45 20
12.099168405877073 2.1000838796977455 3.0002518796386264 29 47 23
11.730149060404736 2.7775016467283984 2.7816668044318744 29 48 23
12.131309325421556 2.893556416379734 2.9827120913302694 31 50 25
12.018630617110528 2.640650318398209 3.0598663737939993 31 49 25
11.98859032046859 1.2831427802423663 3.1005932706907338 30 46 20
11.405981900104642 2.2161580129029654 2.866951663908542 30 46 22
12.261006089102203 1.9059104204311457 2.926517015192297 28 46 21
10.684035046642787 -2.4176802249394793 2.7761483578879536 32 46 21
10.684035046642787 -2.4176802249394793 2.7761483578879536 32 46 21
11.325361648593685 -2.1341592226803514 2.648930798801102 31 45 20
11.558556926783545 -1.8954185140706918 2.612570836882755 25 39 14
11.2287833293159 -2.180359643553864 2.4974222786152738 34 48 23
10.994079721213811 -2.5616896535774685 2.7083906610373183 29 50 27
10.963859296555388 -2.2519920385255046 2.7143892825740052 35 45 19
9.642062477523071 -2.830342565205507 2.1133598548332815 33 47 28
11.016130252653676 -2.7342354769491855 2.5235834036034444 29 49 29
10.734985521643067 -3.0516060476912568 2.5614398910485034 30 52 29
10.524648199674564 -3.074421206754498 2.295700919929572 30 48 26
11.169116048213638 -2.391516374971321 2.5045693117279413 35 47 23
10.107534184060173 -2.788446166562877 2.332875633191662 35 47 23
11.646826982130833 -2.513627539798343 2.5997469819620553 36 46 20
10.509790687268904 -2.599612878350174 2.432803765944473 35 44 18
11.111964784023248 -3.03322493543294 2.6859931615089407 29 51 28
11.610631296154232 -2.2919663244178325 2.454827764692028 36 48 24
11.204167401379966 -2.836859293788181 2.6694756067253453 28 50 29
11.016130252653676 -2.7342354769491855 2.5235834036034444 29 49 29
10.518267048564518 -2.661863656508732 2.5936761383932363 33 47 22
10.78320262609816 -2.5581371898955902 2.2746566246535345 37 47 21
9.951229804261933 -2.7196344738982168 2.094731723283342 37 47 21
9.993437560403612 -2.949501187426195 2.2121044330698982 29 48 30
10.830397958831378 -2.8864178025921063 2.5481326258985053 29 51 30
11.26685777013055 -1.5157240185668248 2.914868265392736 18 33 9
11.239521622053374 -2.4537739662780664 2.9256639553482664 32 49 25
11.117808338611162 -2.083503931760457 2.983131036639347 32 48 24
11.2988171084793 -1.898818037870765 2.902916343933016 25 41 16
11.26685777013055 -1.5157240185668248 2.914868265392736 18 33 9
11.085327158707518 -1.4798601466360064 3.00266165724239 26 40 13
11.907076872365016 -1.7585837337802497 2.7440522520935375 17 35 9
11.05014426965967 -0.4345200625974822 3.0276702166385197 25 37 12
11.990992605652204 -1.3130317134776621 3.0959700730784365 31 45 19
11.147611425584973 -2.864682291889152 2.9671948512429744 32 50 27
11.2988171084793 -1.898818037870765 2.902916343933016 25 41 16
11.563774204282838 -1.810003422408662 2.8220800350320907 15 33 7
11.357395147407086 -2.9587983340654325 2.8825680739592388 33 51 29
10.164163515036273 2.9934855139422383 1.766703077489891 31 48 24
10.356283800843904 2.896036698018182 1.7630229116108742 29 46 23
21.273851142178497 -1.2932399810489503 2.3519245748633186 40 53 24
10.24965927873033 0.5918140383525438 1.8656465603338233 10 19 1
10.24965927873033 0.5918140383525438 1.8656465603338233 10 19 1
10.800360786500429 0.6538754702682124 2.1574145244148553 24 36 13
10.249253262828612 0.8166575536081606 2.3197603701703224 24 38 10
11.151012278512617 1.2507246337050575 2.0336050436848994 32 42 17
10.425743793157928 1.0648499278752057 2.181492336071745 29 40 17
10.070616549103855 1.1729970905484386 2.206394953015939 31 43 20
10.255847739602796 1.1245070692854184 2.6371692447260244 28 42 16
9.3219217506067 0.5382054506463758 2.5980606932033012 24 36 11
11.197522241182602 -0.242315756224334 2.9434887443294784 24 36 11
11.20114539683685 1.5560782385935594 2.1338151103885856 30 41 19
11.087709428536241 1.8148668572651308 2.3739964407192726 36 46 25
10.677525144676398 1.8985979098245442 2.5697031552680265 30 44 20
9.741096439808844 1.3654753430129078 2.5305621594749943 27 40 17
10.89636302872248 2.0525530322926437 2.5392171351049964 32 46 22
10.677525144676398 1.8985979098245442 2.5697031552680265 30 44 20
10.515092730840273 1.5453214956401822 2.5941710312694397 27 40 17
10.663774669737611 1.987019310812469 2.4161242009303674 34 46 26
10.273876488034947 1.5492568158792417 2.460019844293495 30 43 20
11.200531741494398 2.1852848755620666 2.500788267248815 33 47 23
10.98097263144488 2.5722026162682132 2.7109786887927965 31 47 23
11.59597121154568 2.2830390822132616 2.6070775130221797 31 47 23
10.993663090454845 1.3212742798182961 2.708472608133106 28 43 18
11.333618868194947 2.4528374580752734 2.025581934393702 31 47 25
11.211663610176847 2.468389101690702 2.2426444871742057 33 46 25
11.31093489147782 2.390544031433585 2.3537564690387014 32 46 22
11.583311069410893 2.2971635072084067 2.4577094657769374 34 48 24
11.440862597677345 2.1760151024394956 2.021003552949189 35 45 22
10.618115165026406 2.468389101690702 2.1688665026047658 32 45 24
10.826636785296575 2.2971635072084067 2.3993195054600447 33 46 25
11.166322754648958 2.3853941901627915 2.1357846435467245 31 47 25
11.22087224888088 2.2359677574225114 2.132705882671968 34 46 25
10.02224987840098 2.869606576260702 1.9790077092198803 31 47 25
11.394993926933632 2.930350175589209 2.478244657925558 30 48 26
11.371145235685582 2.6712358582836493 2.641482029264336 31 47 23
10.61381213953628 2.9565721073995204 2.2882839785661027 31 47 23
10.840809909460168 2.62442144383735 2.1549365568067156 30 46 22
10.521911134871859 3.0817200729530576 2.2959313621617268 30 48 26
11.196452552832417 2.8476802594091195 2.6708267891097304 30 46 22
11.08032687926259 2.6731870319550737 2.3746871178965705 31 47 23
12.069328567706679 1.476320229224102 3.018843076072652 28 45 21
11.61109844691828 2.4290977504593583 2.809981778250254 30 46 22
11.546325531104198 1.8138198699437322 2.826679637307904 30 46 22
12.231561072834813 1.5144429195915634 2.9378298559708584 26 46 21
12.231561072834813 1.5144429195915634 2.9378298559708584 26 46 21
9.472005308391623 -2.970735281070533 1.890678379173996 31 49 29
10.518267048564518 -2.661863656508732 2.5936761383932363 33 47 22
10.217538573131572 -2.7342354769491855 2.466845200810909 34 48 23
11.016130252653676 -2.7342354769491855 2.5235834036034444 29 49 29
10.886381680199204 -2.4836865688504743 2.393355819795372 35 47 23
9.642062477523071 -2.830342565205507 2.1133598548332815 33 47 28
10.633046258489253 -2.9223366657369945 2.419389047257346 30 50 29
10.223440228776848 -3.03322493543294 2.6429414416709176 28 50 27
9.727194354767795 -3.081983045553231 1.992164762721516 33 49 27
11.2988171084793 -1.898818037870765 2.902916343933016 25 41 16
12.021026899034842 -2.590605617210036 3.0574677956819842 32 49 25
12.020801291216957 -1.9606084262561638 2.7220937729915904 27 42 17
11.563774204282838 -1.810003422408662 2.8220800350320907 15 33 7
11.418601144158506 -2.205121370819506 2.8630562931375985 30 43 18
11.142858438348084 -0.9303137190109635 2.9696327183958773 23 36 9
21.049932926843287 -1.269336498164488 2.176149390849278 42 55 26
9.78613184481572 0.9230961765269234 2.3647101562404043 27 40 13
10.199635062041695 0.8996035773420398 2.1970949986819552 30 38 18
9.596361872897612 0.8166575536081606 2.2433660546613137 27 39 15
10.42478416188093 0.7363426815959982 1.9623663727687106 25 33 11
11.151012278512617 1.2507246337050575 2.0336050436848994 32 42 17
9.90796527098996 1.198045629146094 2.5069148538699824 28 40 15
10.021574463419263 1.11911080772639 2.34109444009361 30 40 17
9.596361872897612 0.8166575536081606 2.2433660546613137 27 39 15
9.585109430928991 1.3965090010884376 2.386281098098724 30 42 19
11.25808483546673 1.4510692793664721 2.130626114170128 30 40 21
10.286725280968247 1.4194556970861871 2.316379142566821 31 43 20
10.440062555771593 1.8507636843580497 2.440629040082182 31 44 22
11.13205566483023 1.7870007803529069 2.248344577088689 36 46 25
10.974391748313476 2.108697925132828 2.3847566195868484 33 46 25
11.00915434020095 1.6720393504964588 2.2573597543319313 36 46 25
11.20114539683685 1.5560782385935594 2.1338151103885856 30 41 19
11.616879321316159 2.48987020076376 2.454172053526665 31 47 23
10.822416668948804 2.895642777414266 2.549226755541965 31 47 23
11.629502920343683 2.5214323146178392 2.6022268606369203 31 47 23
10.797935095961407 2.8369977941454407 2.2734989602066933 31 47 23
11.109372419925448 3.0449523075069367 2.6864696357040767 31 50 26
11.196452552832417 2.8476802594091195 2.6708267891097304 30 46 22
10.61381213953628 2.9565721073995204 2.2882839785661027 31 47 23
11.269848755098518 2.606858141297341 2.492586156658346 31 47 23
12.099168405877073 2.1000838796977455 3.0002518796386264 29 47 23
11.354858816276554 2.9783384952971677 2.8834123956719537 31 50 25
11.440070495447165 2.6665720854163264 2.856567368138856 30 46 22
12.987814639962846 1.2831427802423663 3.1037491492371267 32 48 23
12.211103969432385 2.4725392981397425 2.9461032277511965 30 46 22
11.440070495447165 2.6665720854163264 2.856567368138856 30 46 22
9.760267508051077 -2.666524443944363 2.2300613262163718 37 46 20
11.204167401379966 -2.836859293788181 2.6694756067253453 28 50 29
10.107534184060173 -2.788446166562877 2.332875633191662 35 47 23
10.991881021663664 -1.7585837337802497 2.7088233574221503 18 35 10
10.712356291818315 -3.005465216528934 2.7693000855192227 30 50 27
10.994079721213811 -2.5616896535774685 2.7083906610373183 29 50 27
11.990992605652204 -1.3130317134776621 3.0959700730784365 31 45 19
11.447621164727574 -2.6507773674571493 2.8543248311461933 31 50 27
10.356283800843904 2.896036698018182 1.7630229116108742 29 46 23
10.329830536622989 0.5595120591300133 2.1880063710116993 24 34 9
9.669756851617437 0.958635317436925 2.54117536128869 28 42 15
11.634647884740888 1.9984064003513804 2.214053240646342 35 45 24
11.25808483546673 1.4510692793664721 2.130626114170128 30 40 21
11.147765481691412 2.58842263511464 1.935731853050528 32 45 24
9.712431617606548 1.7268130138190567 2.5347884096925997 28 41 20
11.663567949334459 2.062834275490444 2.7971554198059754 30 46 22
11.266205870353044 -2.401065068012199 2.6588030487067678 36 46 20
11.76101280792642 -2.048265329360089 2.5838275932044077 32 46 21
11.311989134913437 -3.0646664355263153 2.4876914364275895 31 50 27
11.2988171084793 -1.898818037870765 2.902916343933016 25 41 16
11.418601144158506 -2.205121370819506 2.8630562931375985 30 43 18
11.680841488786267 -2.0560123413768014 2.7930566079469266 33 43 17
11.117808338611162 -2.083503931760457 2.983131036639347 32 48 24
9.406888992787666 1.0498595223529807 2.406623737191718 31 41 18
9.635383714604293 0.697822769855181 2.5464051240999668 26 39 16
11.044646435121198 0.5023264158154171 2.142783983947166 23 33 10
10.31916076474011 -0.6204519798456444 2.8839333020489404 23 36 9
10.807968501047368 -2.7645374073915416 2.747265915290974 29 50 27
10.280601240617017 0.6538754702682124 2.0763170294473126 29 40 17
9.752168899397487 0.7159813859598493 2.368258997580583 26 37 9
11.532549146182895 -1.5313111167274591 2.830367609208597 24 38 13
11.246299318119354 2.381586909842566 1.8388385358399073 33 45 24
12.107280519035625 1.8641150797253632 2.1851004599347834 33 43 20
11.28772481681779 -2.599612878350174 2.4905014982118923 37 47 21
11.302449482323855 2.1399549432400486 2.6527205261414637 30 46 22
11.604201384302403 2.251528337076752 1.9207468268955754 34 44 21
11.109372419925448 3.0449523075069367 2.6864696357040767 31 50 26
10.81655719410248 0.6717124012009076 1.8497670673502289 7 15 0
13.06237816499203 1.476320229224102 3.0282168169947394 30 45 20
11.592224482327723 2.0477382182238184 2.329890266096431 36 46 25
11.618304545412384 -2.2767128126390976 2.603839303718729 34 46 22
10.174366588080744 3.088463735046171 2.0821055733805727 31 49 25
10.968272253343095 1.7609455963384184 2.713506345672788 29 45 21
