11.308515103172336 0.015757641866748287 1.7922743226407192 50 56 29
12.298029200988536 0.36172713024294656 1.8580406650626982 38 43 16
12.451936648251053 0.257930239703508 1.609688546506831 40 45 18
9.036928122734736 2.5029740457737164 1.2886733381890385 46 52 16
8.720315808081823 2.339333778591041 1.3960803869320468 49 52 17
21.27098313479002 -2.599345326866346 1.4047462887511144 75 67 43
20.738986025207296 -2.5329338461074693 1.4976398300462685 64 55 32
18.34991600001564 -2.2843251268471714 1.488094697665682 40 30 7
13.996128858576897 1.0356970697469376 2.1349854869257276 29 30 12
14.739039807084957 1.0758674503087138 2.1033999885206716 12 12 2
14.039786571245438 1.2245800702705887 2.133018970516407 33 34 21
14.170324697953808 1.1115615409146524 2.212707607468335 43 45 25
13.470353768052782 1.0691831599439159 2.2521429315802286 45 47 21
13.470353768052782 1.0691831599439159 2.2521429315802286 45 47 21
12.65957737973219 1.352928229363049 2.3052439714331 46 50 22
13.796989151841949 1.1567978671122752 2.328710475901606 47 49 23
13.796989151841949 1.1567978671122752 2.328710475901606 47 49 23
13.538650816151836 1.251699241054452 2.346929030016124 49 51 24
13.23523246690354 1.4588895034686933 2.3696893590766397 50 53 26
12.669195728042057 0.7356225011382347 1.8493969112930682 35 35 11
12.77096294311066 0.6712946578139801 2.014651499525919 40 42 16
11.084558552624873 0.5357298263479185 2.312015920068796 47 52 20
11.875302228632929 0.4329296117116234 2.1484033639424043 43 48 19
11.764444384517864 0.5202563565352841 2.0557462742332646 41 46 16
10.650883599461668 -0.08217627346705833 1.904055018184891 51 56 29
10.475251934883577 0.19223277862822435 2.514819413854491 47 54 20
11.190797077198434 0.26434851238237195 2.3033605344604156 47 54 22
10.633841004464381 0.34595241496452694 2.4945091316597994 47 54 20
10.748012230064838 0.42402672270436403 2.3410673950658722 46 51 18
10.798763256876812 0.3763632661398735 2.2148651472667122 46 51 19
9.737201194336468 -0.2541181972801584 2.2995177662023316 52 58 25
9.89477680796474 -0.22358964694536484 2.158255692582063 52 57 26
10.597930138604351 -0.09122779651514107 2.1146935513321212 50 57 27
10.979007077379139 0.021642417307318043 2.3208516742215712 50 57 26
10.979007077379139 0.021642417307318043 2.3208516742215712 50 57 26
10.301896973948036 -0.11696803659812052 2.383987528563512 52 58 25
10.354834727907978 -0.10251230045039321 2.2474615625604426 52 57 26
10.798763256876812 0.3763632661398735 2.2148651472667122 46 51 19
11.04021140259946 0.14513675626140046 2.3156988962683362 49 56 23
11.561796210469561 0.3379579337791059 2.166180024427011 46 52 22
13.875747497400257 1.1710479114528782 2.545690894413452 52 56 27
13.15329761873799 1.1126442316986405 2.376110241325059 47 49 22
13.386138248302366 1.11443091769616 2.6019930013584673 52 57 28
13.635091391943405 1.2157060839707534 2.447931261939847 48 51 23
13.327786372539848 1.0588687466229059 2.4761431941460694 49 53 23
13.57986307526325 1.4280676778705876 2.5786264614099816 53 58 29
13.333867773378357 1.445334174417031 2.475562313501684 53 56 27
13.29399059964999 1.5670133146588354 2.4793888820152565 53 56 27
13.692133686071498 1.294914155651325 2.5657643349299795 53 58 29
13.965433487287767 1.405340470784467 2.676841141979233 55 62 32
14.43540799204527 1.4280676778705876 2.6156062708934753 54 60 31
14.442719276454254 1.5648198132795772 2.775212906511489 54 61 31
13.665559074303118 1.1967400934158772 2.7227229811448046 53 60 30
11.262704751545767 -0.20215700750939697 2.7675947882741707 54 61 28
11.195209910346684 0.5628061828838188 2.5814182228948974 46 53 19
11.195209910346684 0.5628061828838188 2.5814182228948974 46 53 19
10.465778717211608 -0.4253781785864682 2.7050217932199674 55 62 28
10.737304629649234 0.034539707710573096 2.6536318137862644 50 57 23
10.737304629649234 0.034539707710573096 2.6536318137862644 50 57 23
10.737304629649234 0.034539707710573096 2.6536318137862644 50 57 23
11.293531827483527 0.2833711233669121 2.7607003010320117 47 54 20
10.252515154444668 1.8838033785650052 1.9175375584944556 49 52 23
9.95719560108223 1.8838033785650052 1.8229437364698007 46 49 21
9.731626372236864 2.022844202889235 1.9369476896472793 50 53 22
8.852027519032124 2.1765837357637325 1.7392554043390998 50 53 20
9.101168102677317 2.022844202889235 1.514087649439753 48 51 20
9.637635125090652 2.2484941309151876 2.176129406823594 51 54 21
7.9140938768470726 2.4274412401749665 1.6320116599845094 50 53 19
8.139720142261684 2.6019765808118063 1.5073808137929146 48 54 19
8.839023419471495 2.6019765808118063 1.9759711649565403 51 57 29
9.616366031983162 2.4274412401749665 2.177660745035998 50 57 27
9.083290863292516 2.4274412401749665 2.0871028093595716 50 57 26
9.751674061720886 2.5313749681918707 2.298193777010609 51 57 29
9.1665144851576 3.0114564542309292 1.7334234300272648 50 60 23
9.272646525117107 -2.940731541811395 1.7315457500404645 56 63 31
9.343338147718862 -3.049739341854375 1.8399079544726797 53 62 28
8.413124485054269 2.7142432025247265 1.9977875638826865 52 59 25
9.308363935276942 3.1222134108483903 1.8409443704025055 52 61 29
10.275250551764909 3.119782334161223 2.2536978853083123 54 63 31
10.293619956009296 2.9747240660282133 2.384837989298372 55 64 34
10.388243238003003 -2.8853164554462705 2.37524057622692 57 67 37
10.980858943803677 3.1166539656724286 2.453772683819918 55 65 33
10.388243238003003 -2.8853164554462705 2.37524057622692 57 67 37
9.764115958641238 2.839230928713108 2.2970599612479803 53 62 32
9.915028692118375 2.875287957605299 2.1568962135360614 53 61 30
10.275250551764909 3.119782334161223 2.2536978853083123 54 63 31
8.87406256203583 2.7142432025247265 2.100538644512331 52 58 30
11.782278073083564 -2.9163257433291303 2.374711310979463 59 66 36
9.367362253969578 2.6528977773968894 2.3353401061914663 54 61 30
10.670298243038541 -2.940731541811395 2.110597148344631 55 64 32
11.669179405614246 -3.0382904363549224 2.384822359926191 55 64 32
10.545280271492896 -3.049739341854375 2.117715626519444 55 63 30
11.744967147776324 -2.7894085047141615 2.6739898899310397 62 71 41
11.804022150865727 2.7292051808474715 2.664177322973301 54 63 33
11.63150569407465 -2.9768386272581133 2.6936935155870207 58 68 40
11.603430360037368 3.106623422700657 2.6987560881948056 58 67 37
11.354033944553946 -2.8446976358498848 2.5594964633450377 61 70 42
10.08385516045496 -0.303288456450475 1.9235878879802613 48 53 24
10.346600725423293 -0.49079082336826035 1.7147372097032072 39 41 15
11.142067472052895 -0.44843690682583753 1.6142634726918337 35 38 14
9.99634674992753 -0.5411160719166859 1.9268130041044795 45 50 23
10.30134672172021 -0.4983723774996139 2.2516388587876404 53 58 30
10.127138622063539 -0.3383756500103726 2.143053733209263 52 57 27
10.345251243959538 -0.5653477614262087 2.379567430593164 52 57 28
10.755303430945148 -0.674885182309926 2.3404098936417355 53 58 28
10.600026307931895 -0.7681310862409277 2.2290190117374324 55 58 29
9.96207521090053 -0.4446136487340354 2.03769965112798 50 55 26
11.22403518598504 -0.7724861951810837 1.6139458397230144 44 47 23
11.296066924333552 -0.8981320387859215 1.5251151107942167 46 48 24
10.187832148957474 -0.9142346601832785 1.8171157258986244 58 60 36
10.260525022100131 -0.5118261832303193 2.544322635062771 53 58 25
10.260525022100131 -0.5118261832303193 2.544322635062771 53 58 25
10.889374151969486 -1.5662664540382716 2.464061843029363 66 66 40
10.3312068092932 -1.281616114508306 2.38099299462078 64 64 38
10.098649406313724 -0.9356635836297467 2.144872027873299 61 63 39
11.053212916068773 -0.9655506709928603 2.445844263359123 60 62 36
10.98103050315639 -0.7646285236893273 2.4537536702004767 55 60 31
10.490463683709997 -1.235381358768374 2.512819844103393 64 64 38
10.729010766775934 -1.0910991923062703 2.482859428979113 63 63 37
10.67478536484677 -0.9356635836297467 2.2236148741795954 61 61 36
10.578801911103772 -1.2716015249458439 1.8078342945266601 61 63 37
11.373045766911618 -1.5679401182387023 1.8821552818230693 60 63 34
10.309650225472279 -1.1423834828963915 1.9155357709096394 62 64 38
10.58781591314667 -1.3446306556500418 2.1152713420647347 62 64 38
10.82877995245674 -1.566845258927733 2.3338562492961423 64 66 40
11.300103126404657 -1.4662627524818632 2.077524976176621 62 66 39
10.025535444752235 -1.2013027795551563 2.1495957442132254 63 65 39
11.0003783948659 -1.4545202666030048 2.201172827763679 62 64 38
11.064703619909848 -1.0100291399646875 2.6005158861501703 60 63 34
10.9925966604687 -0.7593438178643146 2.611533499175543 58 61 32
11.587592566259875 -1.360348158340324 2.7016469012266153 64 64 38
11.208031624267797 -1.307606476869087 2.780227497422722 65 63 38
11.541683488438135 -1.5643892834024906 2.7101745478288284 62 64 40
11.1783857206123 -1.3956622129658889 2.5838225181912806 62 64 40
10.685731268785188 -0.6114779712988124 2.662804330023454 55 62 32
11.046695797110036 -0.9476865279234716 2.821088413808265 59 64 35
10.90722899271547 -1.2210176027174617 2.862160394247087 63 68 41
11.1783857206123 -1.3956622129658889 2.5838225181912806 62 64 40
11.590129183238584 -2.0974649788515918 2.3920728697486 68 68 42
10.932365969323637 -1.711819219202 2.4591889380837477 67 67 41
11.42877605689905 -2.2769658801653976 2.4073685387874026 68 66 41
11.414215973158678 -1.6600709979159336 1.8809946944723297 60 64 35
11.754175377847629 -1.8384653562502256 1.871737318719537 63 66 38
11.625925751140478 -1.9221991517799886 1.6988052688222728 64 68 39
11.201635281335113 -1.864233996403854 1.9826548216045525 62 67 40
11.42395725938755 -1.7685681372406339 2.0715170851467937 61 66 39
10.771100736653539 -2.136505529562031 2.1049992144890517 66 67 41
11.533217258046713 -2.0401515160721617 2.2769634168964465 67 67 41
11.918274489604961 -1.933400107557431 2.3629415643647103 67 67 41
10.872011383565296 -1.693994651642007 2.3300605302598427 66 66 40
11.294628953563242 -1.6691006549939356 2.077794023091903 59 64 37
11.648995929197262 -1.9933962257191526 2.1611180770211402 67 67 41
11.347288217579123 -1.895299906154852 2.1790415493107274 66 67 41
11.12756907986491 -1.7902973653129526 2.1928574165844936 61 66 39
11.81257660091884 -1.6691006549939356 2.151868141550919 59 64 37
11.507162519131116 -1.954685651074039 1.9710851718972906 63 67 40
11.738446080340953 -1.7902973653129526 2.262145103509767 63 65 39
11.077031051517652 -2.08356102286764 1.9875741181675624 66 66 40
10.483667397758998 -2.647939958364609 1.8100271016301623 65 65 38
10.764553165865324 -2.647939958364609 1.900401897472854 65 65 39
11.281635244109367 -2.4910395073958864 1.6137253977171937 63 61 36
10.963261822168857 -2.77512651578175 1.7993711279601283 62 65 36
11.248463604057012 -2.565510351297798 1.8857217205298626 65 63 38
9.52020494374047 -2.8363400697353662 1.7273307534870916 58 65 33
11.337382807194764 -2.7563288787273263 2.4163448768185756 64 66 40
10.8424213135285 -2.5103000273041016 1.9971741540554984 64 62 38
10.91880280772683 -2.639502040881608 2.326001272056202 64 66 40
11.206549677330981 -2.368310124558288 2.302096796497009 67 67 41
10.886119289556103 -2.8363400697353662 2.0987603149551464 61 63 36
10.732734927482058 -2.738371764234113 2.001821360319119 63 63 37
10.41821819854716 -2.8363400697353662 2.0157492447648835 62 65 36
10.609803304631486 -2.7563288787273263 2.3537844554253624 64 66 40
10.564962513732874 -2.368310124558288 2.231587922871621 67 67 41
11.76966065509671 -2.445281404520873 2.259952179250421 68 66 43
11.147679646798025 -2.2893096535355455 2.191564492324375 68 68 42
10.597284499046381 -2.2893096535355455 2.114730395503567 67 67 41
10.963124019446347 -2.693970003637564 2.203654681283627 63 64 38
11.410978421288474 -2.4332901209152213 1.9746545047643234 64 64 38
11.441273960243207 -2.461673554217825 2.406159057904994 66 67 41
11.292759746579371 -2.5103000273041016 2.0778859606060407 66 64 41
11.350877360663162 -2.597057361110505 2.178821393197728 65 65 39
11.91466741534477 -2.424139596222207 1.527488369492129 63 61 36
10.816027209233367 -2.222381070797014 1.9982829153427262 65 67 41
11.841399579280797 -2.5715721193520333 2.4996472704976074 65 67 41
12.201273400233498 -2.461673554217825 2.4611735857552324 68 66 41
13.074073793725093 -2.259052372559187 2.6432835492669557 68 68 42
12.805984901526507 -2.1223206783047837 2.683235890609939 66 66 40
12.738880522742772 -2.3745259057905974 2.694030387282204 66 68 42
12.46358378264738 -2.2307267116500196 2.7425085453647977 65 65 39
12.494676337017943 -1.7689578803388541 2.73664839480457 66 66 40
11.708405966594011 -1.9581807252732586 2.680212287570751 68 68 42
11.917421136479932 -2.1223206783047837 2.646098929535784 67 67 41
11.744484506422626 -2.3707835826889365 2.5107685767730774 69 67 42
12.201273400233498 -2.461673554217825 2.4611735857552324 68 66 41
12.056585792521055 -1.9810691155504472 2.476140025648007 68 68 42
13.139897825703324 -2.3808500380782887 2.824339085425973 66 72 45
11.941381071442247 -2.624467931530416 2.6423991146636885 63 69 42
12.356263801621942 -2.0421032385032856 2.5839210093558194 69 67 42
12.154797360286526 -1.8967155063253032 2.61109101328232 67 67 41
19.915885567585658 -2.6167103264725036 1.7466450488447764 71 64 40
20.83215861041214 -2.5329338461074693 1.6903272292175917 54 44 23
12.743562990820251 0.3339333798400752 1.6087980951612835 41 44 19
11.627489324937219 0.10601424183808518 1.8751206780443337 49 54 25
11.1609372221075 -0.07475574092596635 1.7041695951866311 51 56 30
12.104317500973822 0.19457422193389934 1.950300172211546 45 50 23
11.279133311867485 -0.1640615693172987 1.702763737886806 49 54 27
11.99557630209657 0.28015459400431275 1.8654974328301672 39 44 15
12.27405996928075 0.4385662747087689 1.6920114840218827 39 41 16
8.043397067392348 2.4274412401749665 1.3812050462814942 48 51 16
12.566205071554684 -1.8946020137816932 1.4498736537322332 63 66 37
20.536285945547206 -2.6411807705394454 1.4969164405492994 69 66 43
16.0429841488407 1.1685049527111648 1.8540792053890924 10 6 7
15.09013466044369 1.0470525055637343 1.9427400502409702 11 6 7
13.470353768052782 1.0691831599439159 2.2521429315802286 45 47 21
13.846886231607597 1.1935660065873759 2.2302846856442766 44 46 26
13.589496479882117 1.2812549526155423 2.2450539512606498 43 45 23
14.358880551786735 1.1477417867184356 2.119078286475978 24 24 13
13.350401574010169 1.352928229363049 2.3608665599557397 50 52 25
13.796989151841949 1.1567978671122752 2.328710475901606 47 49 23
10.496289605792963 0.29985937356182785 2.364605580794093 46 53 20
12.603306870254693 0.5517244470996673 1.93455818749498 38 40 13
11.118998038743895 0.019246566610472884 2.193410242535828 51 58 27
10.031253418097302 -0.3481982471013977 2.578808281390706 52 59 25
12.237231021982048 0.599656697760044 2.035495374042845 40 44 14
10.748012230064838 0.42402672270436403 2.3410673950658722 46 51 18
11.200565094227413 0.21341332921238193 1.982696561243619 41 46 19
10.270187567458814 0.02471941786583309 2.387257281614514 51 58 25
11.179435978372814 0.129254953103632 2.1895347363935382 50 56 25
10.882382364040236 0.4844345991276997 2.464860771161318 47 52 19
13.692133686071498 1.294914155651325 2.5657643349299795 53 58 29
14.830367881728666 1.5657878344897518 2.7122182340001957 54 60 31
14.43540799204527 1.4280676778705876 2.6156062708934753 54 60 31
13.29399059964999 1.5670133146588354 2.4793888820152565 53 56 27
13.448192203128773 1.3272617637276378 2.464817346365723 52 56 27
13.493371779561034 1.0190642242716297 2.3502284151262094 45 47 21
10.953768918859785 0.40786471461378104 2.617614083627807 46 53 19
11.293531827483527 0.2833711233669121 2.7607003010320117 47 54 20
10.867960076954907 1.7822289962340598 2.0997350331334905 50 53 25
9.105805184083112 2.2484941309151876 2.0856997954052052 50 55 25
8.494704954032207 2.6019765808118063 1.867570005956094 49 56 24
8.693160423988084 2.5029740457737164 1.6265196776878101 47 53 18
9.020051121518438 -3.049739341854375 1.6244982582704277 52 61 27
8.27442929729896 2.875287957605299 1.629342730664 51 58 22
9.41898662855151 2.7142432025247265 2.1922840861967057 54 61 28
11.010521864778584 -3.0235962065503714 2.4505004720027213 56 67 34
10.227948982557887 3.1166539656724286 2.3916622160336494 54 65 32
9.145716395872581 3.119782334161223 2.0832323453466794 54 63 29
10.227948982557887 3.1166539656724286 2.3916622160336494 54 65 32
10.30694438194944 -3.0382904363549224 2.25119899906567 55 64 32
9.145716395872581 3.119782334161223 2.0832323453466794 54 63 29
11.13031537405034 -2.8853164554462705 2.4375893267290243 61 68 39
10.434818210378811 -2.9163257433291303 2.2413203959839336 55 64 33
9.591156814735466 2.9747240660282133 2.3131935360991736 54 63 32
11.66135787673043 2.9096172189251703 2.688394715118186 56 65 35
12.0655605914471 3.112478177217848 2.6238382893142034 57 66 36
12.092563044157984 -3.004059085119675 2.619931307803878 57 67 39
11.354033944553946 -2.8446976358498848 2.5594964633450377 61 70 42
10.139119790112137 -0.6015535019981177 2.14229273273507 53 56 27
10.364257811031816 -1.3168928067409174 2.246731550541726 64 65 39
10.400469306360135 -0.7706228586294339 1.9124019813385886 54 54 30
10.877698239659189 -1.439822807295046 2.329564483037309 65 65 39
10.018577479342676 -0.4382236771620339 2.414377059895821 52 59 27
10.267136212115027 -1.0527270955097887 1.71585911819283 55 57 33
10.621559626247148 -1.3669811161097007 1.9050108815694136 63 65 39
10.490463683709997 -1.235381358768374 2.512819844103393 64 64 38
11.130788992000221 -1.565488962417259 2.5907151003903173 65 65 39
11.541683488438135 -1.5643892834024906 2.7101745478288284 62 64 40
10.666552282972788 -0.9008561860724206 2.6662799436366704 61 61 33
11.541683488438135 -1.5643892834024906 2.7101745478288284 62 64 40
10.833550778119355 -1.1724758264636985 2.6371489481262884 62 63 36
11.31451064134656 -1.235381358768374 2.564825443913751 61 63 37
11.379345760227242 -0.8749440631034047 2.556125461860827 58 61 32
11.42877605689905 -2.2769658801653976 2.4073685387874026 68 66 41
11.969513388179282 -2.2000327464678042 2.3586121076722133 68 68 42
10.932365969323637 -1.711819219202 2.4591889380837477 67 67 41
10.840125009525735 -1.864233996403854 1.898018029835522 62 67 40
11.549226067292738 -2.0389924654160336 1.8772497578687348 65 68 42
11.155557650238276 -1.954685651074039 1.8884359828741801 63 68 41
11.625925751140478 -1.9221991517799886 1.6988052688222728 64 68 39
11.497491729037826 -1.8384653562502256 1.7885748552649 63 66 38
11.542204405899033 -1.7507110402512662 1.8774422576588656 61 65 36
11.006306727963644 -1.8172821305333255 2.3185431996451453 67 67 41
10.910855950263494 -2.0401515160721617 2.2071730427301954 67 67 41
11.507162519131116 -1.954685651074039 1.9710851718972906 63 67 40
10.994754993246609 -1.680154354919032 2.2015460882468534 63 65 39
11.294628953563242 -1.6691006549939356 2.077794023091903 59 64 37
11.056315198889951 -2.4332901209152213 1.891388505422886 64 63 38
11.541747670476212 -2.4910395073958864 1.7877264229669374 64 62 37
11.897692146983522 -2.368310124558288 2.3646965733968055 68 66 43
11.567724511266409 -2.647939958364609 2.0647283912392442 64 64 38
10.610761821298176 -2.445281404520873 2.113962396255496 66 66 40
10.655409878306292 -2.800789036929909 2.225006052527549 61 63 37
10.67259390172657 -2.5359104672975272 2.2237718957843016 65 66 40
11.291859121890141 -2.800789036929909 2.2953384637494456 58 65 35
11.292759746579371 -2.5103000273041016 2.0778859606060407 66 64 41
11.187489520777195 -2.738371764234113 2.083121064607621 63 63 37
11.410978421288474 -2.4332901209152213 1.9746545047643234 64 64 38
10.41821819854716 -2.8363400697353662 2.0157492447648835 62 65 36
11.308076023138392 -2.5359104672975272 2.2940698026331443 65 67 41
11.160492336013911 -2.445281404520873 2.1907438050175703 66 64 41
11.267554697468594 -2.3652421473128458 1.7029001424748231 64 62 37
11.442294857866267 -2.3652421473128458 1.789642460294368 62 62 36
11.850025515026378 -1.8516330071258995 2.498674184083578 68 68 42
12.565875977245176 -2.3707835826889365 2.557723299368724 68 68 42
11.557093726587897 -2.6993954701573486 2.533318536826105 62 68 41
12.205043335026017 -2.259052372559187 2.604114234218515 69 67 42
11.917421136479932 -2.1223206783047837 2.646098929535784 67 67 41
13.401308560568529 -2.522828113033526 2.769484307327233 65 71 44
11.817236929460746 -2.168827681970515 2.50238741071764 69 67 42
12.216747131886347 -2.485417203572109 2.6025090109426596 66 68 42
12.494676337017943 -1.7689578803388541 2.73664839480457 66 66 40
12.356263801621942 -2.0421032385032856 2.5839210093558194 69 67 42
12.950627730124843 -2.179325402738135 2.8723821449120948 67 73 46
12.738880522742772 -2.3745259057905974 2.694030387282204 66 68 42
12.263880480558607 -2.0460832850026716 2.7830850149677158 64 64 38
20.983994246476204 -2.599345326866346 1.5938712637893335 74 67 43
19.07103410084315 -2.5899813080313896 1.7545220874285354 56 52 28
20.42779543984668 -2.5737040979483763 1.7421941259658356 61 51 29
18.962969677270667 -2.3242188871007983 1.596331040141028 43 31 8
21.276618985464072 -2.494354798419097 1.5935538509767861 56 44 21
12.6723791624664 0.4385662747087689 1.8493250558354748 39 42 16
20.980202473902178 -2.5329338461074693 1.402423032057194 55 45 23
12.65957737973219 1.352928229363049 2.3052439714331 46 50 22
13.23523246690354 1.4588895034686933 2.3696893590766397 50 53 26
10.748012230064838 0.42402672270436403 2.3410673950658722 46 51 18
11.545935678669117 0.5723148730594039 2.167110829465614 44 49 18
12.579919314802561 0.6208361873800398 1.7695731363483538 36 37 13
10.270187567458814 0.02471941786583309 2.387257281614514 51 58 25
10.270187567458814 0.02471941786583309 2.387257281614514 51 58 25
10.246957063435286 -0.1995219501191127 2.0237342221761017 51 56 27
10.442009398644991 -0.13614068854316339 2.519228886457017 51 58 24
11.084558552624873 0.5357298263479185 2.312015920068796 47 52 20
10.56824909208921 -0.29402379337170914 2.5027682369212774 51 58 24
10.597930138604351 -0.09122779651514107 2.1146935513321212 50 57 27
11.133775607897736 0.47929935308197075 2.1924577678528707 45 50 20
10.410726760910414 0.028816089782625034 2.523429229435909 48 56 22
12.979862986539779 0.7356225011382347 1.9235365682530223 37 38 13
14.074628812946159 1.2529903028744518 2.661598358768486 54 59 30
11.065215911910173 -0.5422639070174796 2.8160840061880115 57 64 32
13.327786372539848 1.0588687466229059 2.4761431941460694 49 53 23
14.479433132302484 1.3741154990475586 2.7686606222160943 54 61 31
10.867960076954907 1.7822289962340598 2.0997350331334905 50 53 25
9.95719560108223 1.8838033785650052 1.8229437364698007 46 49 21
8.062922533967203 2.2484941309151876 1.7559243640819333 50 53 18
8.591498798518526 2.7625795243574216 1.627179737362514 51 57 20
9.117391307393452 2.5313749681918707 2.2161806910381854 51 57 30
10.533079514566335 -2.8446976358498848 2.5072775418553928 58 68 39
9.74474846040598 2.995345500295419 2.1685429083204175 53 62 29
11.354033944553946 -2.8446976358498848 2.5594964633450377 61 70 42
10.018577479342676 -0.4382236771620339 2.414377059895821 52 59 27
9.879518304777452 -1.0951756863378133 2.041916392890966 61 63 39
10.736248727949578 -0.8585139892543145 2.3421309674339947 59 61 34
11.253021235784846 -1.567649446264901 2.0798488598474223 59 64 37
11.291657749465811 -1.3853577133570931 1.7926104951649537 59 61 35
10.30134672172021 -0.4983723774996139 2.2516388587876404 53 58 30
10.952008085090005 -1.567292909043839 2.2043993653268643 63 65 39
10.117714205006088 -0.4007467433284483 1.8188585382269142 43 48 22
10.579730730042092 -0.6502059754502995 2.5013084859537282 54 59 30
11.15525396379283 -1.4758575639313776 1.7953690236781386 56 59 30
11.536030287213197 -1.0910991923062703 2.5359455601006844 61 63 37
10.685731268785188 -0.6114779712988124 2.662804330023454 55 62 32
10.426576325478866 -1.082814645362057 2.713150703016974 63 63 36
10.736492549499898 -2.3665537662800014 2.001660420930928 66 66 40
11.63808213280684 -1.864233996403854 2.06147605529846 62 67 40
11.556864689686424 -2.6127051455634374 1.6127024256084987 65 63 38
10.062552037916664 -2.738371764234113 1.8202472386154351 63 63 37
11.179868787536833 -2.3652421473128458 1.6141164096370875 62 61 35
11.518200365950946 -2.08356102286764 2.0670449787066323 67 67 41
11.946935701120863 -1.895299906154852 2.2477871072558786 64 66 40
12.205043335026017 -2.259052372559187 2.604114234218515 69 67 42
11.172851912116158 -1.7356194606651107 2.584616953045785 66 66 40
11.582254271640295 -1.7689578803388541 2.7026270783566373 66 66 40
19.915885567585658 -2.6167103264725036 1.7466450488447764 71 64 40
13.53121356415955 0.47412324444131415 1.606585041902471 37 39 15
16.067151473105593 1.0233394978254875 1.853641358600687 11 5 6
13.538650816151836 1.251699241054452 2.346929030016124 49 51 24
10.33559016601043 0.16542756431286476 2.380547422070571 48 55 21
13.635091391943405 1.2157060839707534 2.447931261939847 48 51 23
13.965433487287767 1.405340470784467 2.676841141979233 55 62 32
10.79987880111776 0.22922324974721958 2.6428254844214214 47 54 20
13.060170207838151 1.1710479114528782 2.5027030766787526 50 53 24
8.280671917143005 2.4274412401749665 1.8754838919576613 50 55 22
8.280671917143005 2.4274412401749665 1.8754838919576613 50 55 22
9.128507270562492 -3.049739341854375 1.7341066114708803 55 62 28
11.744967147776324 -2.7894085047141615 2.6739898899310397 62 71 41
10.353519536424859 -1.2400115690722862 2.018731153746288 65 67 41
10.515668164022712 -0.6276138613928639 1.9085096847232925 47 50 21
10.902179672207636 -1.0373836010045738 2.3274375947281976 64 65 39
10.573347524353004 -1.1529303533222808 2.357221655677308 64 64 38
10.55114388420403 -0.704485440647826 1.6166995439165075 38 40 15
10.938021446127118 -1.4209040273168887 2.458552934068438 65 65 37
11.27347913326867 -0.7504534462202814 2.7651671294277236 56 63 33
11.056691242966187 -2.5715721193520333 2.4454676144590577 66 68 42
10.797744576715212 -2.565510351297798 1.7086839084038339 65 63 38
11.627062290532788 -2.639502040881608 2.388666099054409 64 66 40
8.857393687534909 2.1765837357637325 1.3988115058887212 50 53 21
10.034223032339794 2.7142432025247265 2.273397024249271 54 59 31
9.65744741101523 -3.049739341854375 1.9398945820604925 55 62 28
14.442719276454254 1.5648198132795772 2.775212906511489 54 61 31
11.561796210469561 0.3379579337791059 2.166180024427011 46 52 22
11.66135787673043 2.9096172189251703 2.688394715118186 56 65 35
11.328171088197884 0.23621646564548074 2.1802171056665403 48 55 24
10.767638520164994 -0.16276454611382282 2.6483504439421597 52 59 25
8.657214638471695 2.2484941309151876 1.9849961517247796 50 53 18
10.631850643275419 -1.181507917401675 1.6163508487877798 57 59 35
11.12756907986491 -1.7902973653129526 2.1928574165844936 61 66 39
10.886119289556103 -2.8363400697353662 2.0987603149551464 61 63 36
10.80102607066192 -1.567649446264901 1.9989157479332027 61 63 37
11.282771290595978 -2.2000327464678042 2.29605163157016 68 68 42
11.313042642589334 -2.136505529562031 2.1811508918221145 67 67 41
11.557093726587897 -2.6993954701573486 2.533318536826105 62 68 41
10.858443745085081 -1.5598554790132448 2.8782711465642237 65 70 43
9.973234966150232 -0.38219671902695324 2.2785864351893563 53 58 25
10.82877995245674 -1.566845258927733 2.3338562492961423 64 66 40
10.305590376783044 -0.9655506709928603 2.3836087197916513 63 63 37
10.227948982557887 3.1166539656724286 2.3916622160336494 54 65 32
14.541074500571137 1.294914155651325 2.603220787781626 53 58 29
10.454964524459122 2.839230928713108 2.368633575334174 53 62 32
10.476652454349994 -0.9142346601832785 1.9098177503799572 57 59 35
12.611704604552095 -1.9581807252732586 2.715518939841581 66 66 40
