13.171202183375769 0.7193561830224755 2.206188284816167 125 129 133
13.258765528880943 0.66138328592365 2.110814620544456 123 128 131
13.321384487046686 0.5881591457044121 2.197900169596639 37 42 45
13.801139850035417 0.910725984005152 2.1729318339342787 41 45 43
13.258765528880943 0.66138328592365 2.110814620544456 123 128 131
13.967822090404558 0.7859906890338236 2.000342650119049 43 49 50
12.669291813441038 0.6438366964362002 2.2357275584146823 42 46 49
13.172010069044024 0.8528565256899504 2.20614305788283 49 54 39
13.311181497692765 0.9284535942650459 2.294783109198832 38 42 18
12.893379047670715 1.0136698265608335 2.323809875644325 39 44 16
13.730127292501376 0.7862879681500351 2.478075232277383 41 46 17
14.148527017685538 0.6953637874466394 2.5593141255908565 42 47 15
13.448121585054347 0.8632283922653763 2.3891060748569455 40 45 18
13.803538596024053 0.9519686106289371 2.471301517987909 42 47 18
14.148527017685538 0.6953637874466394 2.5593141255908565 42 47 15
14.624175887061078 0.7864666621444956 2.6391867880510693 43 48 16
13.801996709340886 0.6205589065768579 2.4714424549362572 44 48 40
13.594462459366888 0.5586852467998658 2.3776778751891134 69 73 76
13.788976846094206 0.8528565256899504 2.2645465005284957 34 39 20
13.993626623132517 0.9284535942650459 2.348345298283676 41 46 19
14.016912315521635 0.4634192005061522 2.452324723055068 52 56 60
13.827913973876868 0.5882377429399211 2.5955320114650413 42 49 19
13.827913973876868 0.5882377429399211 2.5955320114650413 42 49 19
14.175203785778482 0.16337486827383685 2.7002657893326227 41 46 30
13.260459933874731 0.4634192005061522 2.4043462615953586 39 44 47
14.175203785778482 0.16337486827383685 2.7002657893326227 41 46 30
14.591611290899785 -0.0021786157597688677 2.6432638304267133 42 45 36
14.04243292899434 0.40439237558653107 2.5708908006877222 26 30 18
14.06866363849892 0.5404648911268048 2.716578708490414 45 50 17
14.626876227119567 -0.14454970770504175 2.6388508792503496 55 58 52
14.27956631938054 0.32075860972693326 2.6850396108526526 43 50 18
13.890920943982913 0.37966381568764407 2.7457972598034477 43 50 17
14.624798527362781 0.14028025395129168 2.639109305492254 27 31 23
15.08745212979967 -0.1683228099211107 2.728279714662305 20 25 15
14.81862739511012 0.37966381568764407 2.771817599720215 41 48 16
14.685111306102897 -0.0030545835812369852 2.7960330988217557 43 50 20
15.053266212694012 -0.0025432871593766993 2.7334887911454326 43 50 20
14.458836563271422 -0.46740494829510126 2.6604110874167115 64 68 67
14.28382185077345 -0.3253325666287354 2.684433410979358 10 14 11
14.458836563271422 -0.46740494829510126 2.6604110874167115 64 68 67
15.608008504141777 -0.2812898131677963 2.6578312934593273 37 40 37
14.401656386082239 1.4305579869754752 1.7676692828740395 65 66 54
15.746735578041273 1.3748639828246627 1.8156357102229044 8 8 7
16.01854283534791 1.3748639828246627 1.8762386251557426 14 14 10
14.922324653653442 1.4305579869754752 1.8994890840274898 65 66 54
13.024889814161895 1.2812956646048517 2.2144973287581715 41 46 20
15.435612584855916 1.3612471817438954 1.957196954135135 20 20 16
13.769917591545573 1.214238528968767 2.474387560572379 43 48 18
13.769917591545573 1.214238528968767 2.474387560572379 43 48 18
14.070176302395458 1.0328466130084033 2.7163412353576635 47 53 21
12.999099864022556 1.214238528968767 2.4267668175533403 42 47 19
13.392427348356243 1.252172505103905 2.6516621342147197 45 50 18
14.454738775976868 1.1095896188665175 2.660954337987606 45 50 17
14.693120930535256 0.9846127369622575 2.630711690257514 45 50 21
13.893218906462488 1.1937114754584586 2.745401603152673 47 53 21
14.314963876241347 0.8977309992220096 2.6800306190899317 45 50 18
13.868191020541893 1.2953439859245963 2.59077149765823 45 50 19
13.200776703306087 1.154346910276572 2.3022020734409567 40 45 14
14.896613205120408 1.1682440952205375 2.6068465068967983 45 50 19
13.00783841287459 -0.4749744202577015 2.9700947608941424 48 55 25
13.74773615106328 0.9296184103198433 2.771517480294501 47 53 20
12.857184799957095 -1.596239370103373 3.062525452721304 52 59 27
14.199197984204035 -2.974686411820393 2.696702130127983 50 59 29
14.097756171898286 0.788086015080358 2.9416915622326734 50 58 24
14.133500446719601 -0.0051086332565897 2.9295712718939733 49 56 24
14.684491223136646 0.9296184103198433 2.796150413877066 48 54 22
14.413105955593654 1.3310292720240258 2.8529901148696233 48 55 22
15.079149919190446 0.788086015080358 2.95486061575917 50 57 23
14.410890894606956 0.24290888149787465 2.8535082896262045 45 52 22
14.272177783362292 0.5884748501813318 2.8883636286514407 49 56 22
13.95734592534767 -0.007696292322117054 2.999669799123712 48 57 23
14.683766552854982 0.6441742950504526 2.7962875771141835 46 53 19
14.445230028668242 0.78718389804085 2.845591770203907 48 55 23
14.513558773695175 0.46318925451419535 2.8305255090594117 45 52 19
14.167760824444409 0.31975738571265855 2.918615834845137 46 53 21
14.180840785741896 -2.817885544215258 2.9145838442014416 53 62 30
14.427332247957585 -2.8945728725694106 2.849687182968981 51 60 28
13.31407662487259 -0.9910969367012423 2.8674829718141366 48 53 26
13.166927400793654 -1.5793644549352954 2.9105362807357293 49 54 23
14.093485345710297 -2.6012180799484583 2.7127039488764995 52 59 27
14.093485345710297 -2.6012180799484583 2.7127039488764995 52 59 27
13.310994623686886 -0.5955106407101134 2.86830760987618 46 53 22
13.123804641727077 -0.7956824736377164 2.9249449932117964 48 55 25
13.31407662487259 -0.9910969367012423 2.8674829718141366 48 53 26
13.498628299593358 -0.7922484139565015 2.822451122662642 41 48 16
13.753592096910051 -0.6490451327828738 2.770421525522336 41 48 19
13.498628299593358 -0.7922484139565015 2.822451122662642 41 48 16
13.913875847188999 -2.7602529362122805 2.741867419110992 52 59 27
14.704036588314104 -2.4987567583181667 2.7924754899843593 50 57 25
14.531975223338305 -2.6774927789133276 2.8266075755404514 52 59 27
14.109392725660673 -2.3588277617085214 2.937661013433007 52 59 27
14.287289228167893 -2.554054522363578 2.884308265466113 52 60 28
13.507497836134046 -3.0157700973673776 2.4994523125795656 49 58 26
13.374233996473853 -3.0295869307391987 2.395025608968455 51 58 26
13.847966839522039 -2.874652895668235 2.170609655269311 47 52 21
13.672267960728387 -2.819185895384999 2.371755474140144 51 56 23
14.074645174618716 -2.7362053407813614 2.5673355020169 50 56 25
14.074645174618716 -2.7362053407813614 2.5673355020169 50 56 25
13.687532589522151 -2.8494548691797794 2.270726217000697 48 53 22
12.777577622071934 -2.921925899655166 2.3323381505871703 50 57 25
13.619210178711812 -2.895589884818914 2.4885635609296033 51 58 26
13.894792142837417 -2.8622652431235367 2.5876625321267377 49 58 24
14.149279100852176 0.8773585007178584 2.5592334029446686 43 48 19
14.314220498317754 0.6754116239615632 2.680135039521018 44 49 16
14.288440589040608 0.5190995173274461 2.5446060026164194 41 46 35
13.730127292501376 0.7862879681500351 2.478075232277383 41 46 17
13.447330287561547 0.709200496260451 2.3891689277974297 39 44 37
14.624798527362781 0.14028025395129168 2.639109305492254 27 31 23
13.756179962932066 0.7864666621444956 2.6041746050155066 42 47 17
15.095146559815776 -0.0019054071964131156 2.585041329892977 32 35 33
13.596810525635753 1.0136698265608335 2.377497615581311 43 48 19
14.148527017685538 0.6953637874466394 2.5593141255908565 42 47 15
13.346551691277979 0.7271258327462722 2.0217723225 57 62 67
13.235039499785545 0.7861604796130923 2.29988116895957 92 95 90
13.921217754349245 0.7861604796130923 2.353478604279765 40 44 24
13.801139850035417 0.910725984005152 2.1729318339342787 41 45 43
13.18393513536365 0.7860649451346504 2.1142205339593114 62 65 70
15.053266212694012 -0.0025432871593766993 2.7334887911454326 43 50 20
14.720152246882252 -0.20132837497248549 2.789480342413153 41 48 18
14.458836563271422 -0.46740494829510126 2.6604110874167115 64 68 67
14.075142101086959 -0.5449445906444461 2.7155628864280685 39 44 29
14.79831306141049 1.3612471817438954 1.831681555573506 78 79 70
12.894011423054181 -0.8060195986114842 3.0322554207036427 50 57 25
14.070176302395458 1.0328466130084033 2.7163412353576635 47 53 21
14.070176302395458 1.0328466130084033 2.7163412353576635 47 53 21
14.314963876241347 0.8977309992220096 2.6800306190899317 45 50 18
13.49187301222531 0.78718389804085 2.823969858916418 45 52 19
14.454738775976868 1.1095896188665175 2.660954337987606 45 50 17
12.807352094684806 1.328416830561993 2.4441920051325847 43 48 18
13.998163410849873 0.7867351635965558 2.7278469036466952 45 51 18
14.290674629892274 1.053503423165283 2.5443760525743992 44 49 20
12.541566635365385 1.1089776749114775 2.3504364639026796 42 47 18
13.893218906462488 1.1937114754584586 2.745401603152673 47 53 21
13.992798129205333 1.114526820274362 2.9829189255201016 54 61 27
13.88628055252571 0.7908301215623821 3.0416717516420557 52 61 27
14.272177783362292 0.5884748501813318 2.8883636286514407 49 56 22
14.272177783362292 0.5884748501813318 2.8883636286514407 49 56 22
14.377209898830412 -0.0038231870394505475 2.861522401973839 43 50 18
15.14602405217474 1.2553216667850247 2.932779500392798 51 58 24
14.513558773695175 0.46318925451419535 2.8305255090594117 45 52 19
13.603086649324187 -2.677642865098392 2.623370369259442 51 58 26
13.753592096910051 -0.6490451327828738 2.770421525522336 41 48 19
13.913875847188999 -2.7602529362122805 2.741867419110992 52 59 27
14.305509829900695 -2.818859307386796 2.681361054099999 51 58 24
13.202890091770616 -1.2582972044713876 2.8992295979595237 49 54 26
12.97449764264533 -1.5836158296815304 2.9856287412709372 49 56 25
13.498628299593358 -0.7922484139565015 2.822451122662642 41 48 16
13.010992224907877 -1.1205086472297303 2.968700848682758 49 56 25
14.093485345710297 -2.6012180799484583 2.7127039488764995 52 59 27
13.498628299593358 -0.7922484139565015 2.822451122662642 41 48 16
14.109392725660673 -2.3588277617085214 2.937661013433007 52 59 27
14.462261980343317 -2.357955968306433 2.841754144995984 50 57 25
14.651583320481782 -2.9980914271294234 2.6357926265743563 50 59 28
13.172010069044024 0.8528565256899504 2.20614305788283 49 54 39
14.27956631938054 0.32075860972693326 2.6850396108526526 43 50 18
12.603433411266852 0.7193561830224755 2.14228608232112 45 48 53
13.473139992719519 0.5190995173274461 2.502869916949396 33 39 30
14.175203785778482 0.16337486827383685 2.7002657893326227 41 46 30
14.458836563271422 -0.46740494829510126 2.6604110874167115 64 68 67
14.148527017685538 0.6953637874466394 2.5593141255908565 42 47 15
14.28382185077345 -0.3253325666287354 2.684433410979358 10 14 11
13.955041846853973 0.6109204398350047 2.081164426454814 122 128 132
13.864353957688259 0.2772636824446814 2.5912222351421264 30 35 23
13.323780678269651 0.9840048840234338 2.1977698454972767 23 27 13
14.452530095828399 0.4633427234389157 2.661247509215661 42 47 19
15.384785177522005 1.3748639828246627 1.6891774090872453 63 65 59
15.965838874370329 1.3115516170140686 1.8122083876864572 9 9 10
15.08721653144268 1.3612471817438954 1.8957638601831233 76 77 68
14.019948647393834 1.1089776749114775 2.45206196837593 42 47 18
12.934920795000824 1.2511277775805807 2.3208040642748333 43 48 15
14.045463743851348 1.1682440952205375 2.570554751964743 43 48 18
14.737692702568909 -2.9422794730764132 2.78625524665642 51 60 29
14.144463838965383 -3.136571255969924 2.926000063043635 58 65 33
14.272923351000479 0.986445449019535 2.8881618538769693 49 56 22
14.515025073515142 1.1108169608074618 2.8302114539900365 47 54 22
14.001591873360857 -2.6770464817042976 2.979041036271761 53 62 30
13.202890091770616 -1.2582972044713876 2.8992295979595237 49 54 26
14.531975223338305 -2.6774927789133276 2.8266075755404514 52 59 27
14.718087714573167 0.19545652440655537 2.7898623117096886 41 48 18
14.29194894190273 -0.12662919181808296 2.5442449545205075 18 20 21
15.08745212979967 -0.1683228099211107 2.728279714662305 20 25 15
12.999099864022556 1.214238528968767 2.4267668175533403 42 47 19
15.348404030545138 1.1095896188665175 2.691082240212067 46 51 18
13.992037635064369 0.46272468762022023 2.983258946087009 50 58 25
14.167760824444409 0.31975738571265855 2.918615834845137 46 53 21
14.133500446719601 -0.0051086332565897 2.9295712718939733 49 56 24
13.892188617556586 -2.3614080633934478 3.037515887366805 51 59 27
14.287289228167893 -2.554054522363578 2.884308265466113 52 60 28
14.231463603379783 -2.921925899655166 2.4342288382337296 51 58 26
13.502524219214328 -2.943235627905654 2.282322291701776 48 55 23
13.573562279950707 0.4633427234389157 2.6271978927372035 42 48 15
13.024889814161895 1.2812956646048517 2.2144973287581715 41 46 20
14.737692702568909 -2.9422794730764132 2.78625524665642 51 60 29
12.972928658820065 -2.819185895384999 2.3180781045609997 50 55 23
13.851323968567598 -0.015595736482974434 3.071195884283101 50 59 25
12.934920795000824 1.2511277775805807 2.3208040642748333 43 48 15
13.310994623686886 -0.5955106407101134 2.86830760987618 46 53 22
13.194370525930243 0.31975738571265855 2.901855347874025 47 54 22
14.175203785778482 0.16337486827383685 2.7002657893326227 41 46 30
13.802654599412714 -2.7822206805896696 2.47138231323793 51 56 23
13.788976846094206 0.8528565256899504 2.2645465005284957 34 39 20
