9.72623193738727 0.575016920348746 1.5200323402726363 46 50 29
8.87584147226486 1.2072151798620634 1.515163861531798 20 24 6
8.934275969228068 0.9551457625414133 1.5155280969915175 19 23 4
8.675640904491209 1.1623856418160068 1.9868720872927168 33 37 17
7.679742284048845 0.9868763350180674 1.7682381448779763 23 29 9
8.487173042661617 0.7095634485400859 1.870591426622608 19 25 3
8.321887144786093 1.1623856418160068 1.8767367526042058 28 32 13
8.50261906144838 0.8840082394442018 1.8700299370491469 22 27 8
8.95401666091059 1.0328995545941801 2.3842348489535854 38 42 20
8.92900047375602 1.10585315110235 2.235333645853312 38 42 20
7.630865770956338 0.04593755760421408 2.202546592627901 34 34 12
8.302218743392663 0.4902037453516766 2.144567381148263 29 35 13
7.914450865907703 0.3089776641636828 1.8930397904452172 28 32 11
7.583362276040596 0.03952136827120242 1.9076531646931192 33 33 11
8.302218743392663 0.4902037453516766 2.144567381148263 29 35 13
8.073986667759844 0.6935695621304915 2.162946965656178 33 39 17
7.685893439234726 0.17748389928740882 1.9029851762125913 29 33 11
8.275232393087899 0.6081777296307312 2.0083563929607378 26 32 10
8.671920212057346 0.6935695621304915 2.2587750512225613 32 38 16
9.199009689493408 0.9363998776072989 2.525267998705382 40 46 24
8.673419482544285 0.2996822279576399 2.616857754850572 37 41 19
8.673419482544285 0.2996822279576399 2.616857754850572 37 41 19
8.387276981610025 0.6690647278823103 2.4587065521615505 36 42 19
7.878518329298797 0.41712127618474676 2.344685425130796 36 38 17
10.377313540915733 -0.7115206051069798 2.7289941997244536 41 44 23
10.224702820823518 -0.9818013201378968 2.5534142397428052 39 41 20
10.682839593332721 -0.8675617679615415 2.667883395942371 37 41 21
11.102574040698572 -0.4988995467304523 2.8124176604295528 43 45 23
9.472428259644015 1.4473720316713479 1.4124642964069536 25 26 10
8.885309391248937 1.9020237932903714 1.4019047052520022 32 36 15
9.787977726591938 1.7673493663471997 1.313202624580211 30 31 15
9.440370614067938 1.6619407585369408 1.411922069987335 29 31 14
9.025562871498417 1.9436219415643545 2.0935877913387304 38 43 19
8.565642699300993 1.5499865647101265 2.124816080397851 36 40 19
8.127370146449024 1.6867708574181721 2.0168843086925037 36 40 19
8.68926296330444 1.3166487723405622 1.7450482164120729 27 31 11
8.364424379603685 1.2835347829174908 2.0033738740776603 32 36 15
8.655052310381155 1.552498376013607 1.8646011952961048 32 36 16
7.963790980933374 1.9436219415643545 1.7611079491308619 35 39 17
8.50163230127245 1.7903631399562026 1.630404854001476 33 37 16
8.712526853577401 2.3204044359170757 1.3985221340284937 33 37 16
8.597735959392583 2.3204044359170757 1.5133624033422979 37 41 20
8.77720910786219 2.484543668516036 1.3998042490718168 34 38 16
9.005062883491652 2.484543668516036 1.852861764834294 38 43 18
8.636669537281279 2.1203815538306183 2.119736346409243 39 45 20
8.676172620545586 2.228041215321087 1.9868450073739008 39 45 20
9.30756967091758 2.39924369977687 1.6252380359193066 36 40 18
8.252628516618097 2.0569264526709783 1.6322056330003936 35 39 17
8.468963115106481 2.313347063480521 2.131893987023666 41 46 22
8.952356996493895 2.0569264526709783 1.9732543763262953 39 43 21
9.084458668911982 1.7050239408644434 2.3691668350025923 40 45 20
9.825493817630493 1.7050239408644434 2.4402536256320686 40 45 20
8.652818295924853 1.1840296654079123 2.4218084983535313 40 44 22
8.851865055141156 2.0653020989464888 2.396521140538508 42 46 24
8.546310642594944 2.2003842764697477 2.270916464518005 41 45 23
9.297141443039774 1.2408584269992948 2.345963517814295 38 42 20
9.169516039772265 1.6867708574181721 2.2149464968219204 38 42 20
9.202517275549443 1.4139719104655517 2.2122559909319035 36 40 19
8.53549130360202 2.5095177165646336 2.127002924933899 41 46 21
9.449301039947347 -2.80829712842151 2.067932552302758 53 57 36
9.054612846076711 3.1055771481741252 2.091739909333795 40 44 22
8.243793719282854 3.1055771481741252 1.879730286019557 40 45 20
8.216607787458164 2.582728605989567 1.755183862191633 40 45 20
9.201619313360004 2.7454332811977893 1.961750689514746 41 46 19
10.205789584562206 -2.600409235066943 2.0281330786344873 47 51 31
8.311338311737407 2.8585427914551573 1.7530585337784557 41 46 19
8.765952614520616 -2.9261899949001964 1.9823242108947365 48 52 31
9.054612846076711 3.1055771481741252 2.091739909333795 40 44 22
8.62597819320317 -3.0504627494158942 1.9894175410714305 39 43 22
7.997500136695677 2.6946017219043656 1.8895746318519018 40 45 20
8.36498343629994 2.6946017219043656 2.0033430145464557 41 46 21
9.140655793865843 2.979580019928403 2.086346780834875 41 46 19
10.674792148989896 -1.3313575951463419 2.6693560799135554 46 50 29
11.350455996497658 -1.0461004117176507 2.7535275772945202 43 46 26
12.092952120074303 -1.5300423972736488 2.828878646306123 52 57 41
11.574287316170327 -1.3313575951463419 2.7086670435973312 49 53 35
8.753174627076307 2.546413213163275 2.408826440842564 43 48 23
9.079275975881918 2.8198448688027153 2.222432036469952 43 48 21
8.79216146047347 3.1003237903982397 2.247585405967188 43 48 24
8.677671156329613 2.6301066136709585 2.2582304472107553 43 48 22
8.880747586584745 2.9564270186536463 2.2395973309367347 43 48 22
9.17516433649492 2.4180609672812565 2.3590730701487255 42 47 22
9.909418754640114 2.4180609672812565 2.43028457818542 43 48 23
9.385812146816386 -2.3699106791710394 2.336749027054309 48 53 35
9.669538916394407 -2.855999588317796 2.459572206314278 55 59 39
10.049282213807333 -2.373535945687659 2.5801264147409304 54 61 45
9.678428780439873 -2.4874986469089504 2.4584418182146384 53 58 41
10.550600411815434 -2.80829712842151 2.23532972870671 55 59 39
10.15148976267901 -2.6443067509964227 2.266515225465958 50 56 36
10.460520946069014 -2.255113082191851 2.520421682357244 51 59 42
9.340104828514649 -2.630775497063309 2.504252771968474 55 60 42
9.896181501269572 -2.7066590731983347 2.431838083183295 58 62 42
9.542827537227197 -3.0195684441989106 2.4760932888198557 48 52 31
9.973676874606273 -2.53842134632246 2.1556774544617747 46 51 31
9.379614432557116 -1.9243845967618727 2.071968196898839 51 56 36
9.639211710953115 -1.328813647308334 1.9431098459447953 42 44 22
9.256827931271083 -1.779744545949773 1.8449889722026953 48 51 30
9.397239094831553 -1.553410072441451 1.9531856516181314 47 49 27
9.814328405884712 -1.553410072441451 2.0478597974881225 45 47 25
9.90049488920414 -1.4528377178888012 1.7235507467110716 41 43 21
9.90049488920414 -1.4528377178888012 1.7235507467110716 41 43 21
9.767321014223256 -1.6578870333014275 1.6226730866119619 45 47 25
9.430611944613373 -2.195998042454279 2.0690081426218914 49 53 34
9.585550424634475 -2.4459767358717555 1.945297008587441 48 51 30
8.957655471799358 -2.091065974247531 2.0979620166153294 52 57 38
10.002091695863726 -2.219297216106714 1.8240906853515693 48 51 32
9.826176679430693 -2.512024509280712 1.724715247880142 47 51 30
9.452247785264552 -2.131737312348878 1.8391784416895973 47 51 30
9.71037195412021 -2.36586659220109 1.7265657676760182 47 49 28
9.309193173886563 -2.0333879394736822 1.9569924304074549 49 53 32
10.138745455858665 -1.4010104212747856 2.404423810317378 44 48 27
10.074274639750604 -1.5482349999148248 2.4115000956965744 48 52 31
9.859604746186974 -2.367539017626803 2.163358101017417 48 52 32
10.190386865101235 -2.1632599245362845 2.3988591668199 53 59 41
10.4145678602954 -1.8834978121212207 2.5266138291641065 54 61 44
9.532668580248245 -1.8393274459962567 2.322034805121971 52 59 40
9.500133209833534 -2.091065974247531 2.1890589426371045 53 58 40
10.09517189127562 -1.551157699556736 2.271182525625693 46 50 28
9.51821444177971 -1.6802958896496898 2.1877083933363584 50 54 33
9.500133209833534 -2.091065974247531 2.1890589426371045 53 58 40
10.4145678602954 -1.8834978121212207 2.5266138291641065 54 61 44
10.4145678602954 -1.8834978121212207 2.5266138291641065 54 61 44
10.472622561850878 -1.2108576440966636 2.5188088798191295 42 44 23
8.9545374629143 2.9976221723507135 1.5156532798498157 40 45 18
9.027732659924819 -2.949905587050084 1.626927339790784 39 42 22
9.027732659924819 -2.949905587050084 1.626927339790784 39 42 22
16.659104453387297 2.534912092477992 3.0061211347152557 52 58 36
8.090221589004035 0.9047318822264994 2.1615976980421068 35 39 17
8.140556000535549 0.8840082394442018 1.6330521525712736 11 19 0
8.349497590107456 1.10585315110235 2.140912020946049 35 39 18
8.92102804347979 0.7959501685311186 1.7404766566846595 19 23 4
8.258577786669022 0.4303378314929101 1.8791590082480827 22 28 6
8.258577786669022 0.4303378314929101 1.8791590082480827 22 28 6
9.199009689493408 0.9363998776072989 2.525267998705382 40 46 24
8.826776858844976 0.8009537841856195 2.399607599343242 36 42 20
8.876586059390995 0.502736139247864 2.578574923875655 38 42 20
8.224148929505892 0.5673524106561546 2.304397601634716 31 39 17
8.117823000208626 0.8009537841856195 2.3162680939852516 37 42 19
10.723422318832993 -0.579533330227675 2.660553388238979 38 40 19
9.787977726591938 1.7673493663471997 1.313202624580211 30 31 15
8.830432302850946 1.2835347829174908 2.106369440351872 35 39 18
8.60998004292392 2.0569264526709783 1.8661854492139895 38 42 20
8.62596353402543 2.4069662880309357 1.9894182971793883 40 45 20
8.714754301394981 2.3204044359170757 1.7445333170798663 38 44 19
8.077752932298367 2.228041215321087 1.7583908252296976 38 42 20
7.920735833411774 1.8193551698055408 1.8927748732538705 36 40 19
8.42003509745115 1.552498376013607 1.7506797701663388 32 36 17
9.467451273891987 2.0057491008740858 1.304272853724758 32 36 17
9.403390198887314 1.5544691744733885 1.4112919278841904 28 30 13
9.667510500163841 2.2473928183408103 1.3099183794931637 33 37 16
9.985039720895083 1.4473720316713479 1.213357109687319 23 24 10
9.789968266642523 1.5466755748033374 2.4445611626509347 40 44 22
8.826559355201775 1.9964489178038405 2.2444585447431886 40 46 21
8.546310642594944 2.2003842764697477 2.270916464518005 41 45 23
8.270100382491837 -3.0504627494158942 1.8787152465249455 39 43 21
8.830961858297055 2.6946017219043656 2.1063338553610134 42 47 20
9.365403148868136 -2.6992665405105467 1.9545531841666892 49 53 34
8.5216219216473 2.7454332811977893 1.5128488384673449 40 45 20
8.093995921827377 2.979580019928403 1.7580098961206314 40 45 18
9.49380124808332 -2.600409235066943 1.837974916922998 48 52 32
10.135366217592788 -2.114031982093759 2.5667647411359074 54 62 46
10.674792148989896 -1.3313575951463419 2.6693560799135554 46 50 29
12.12173011895732 -1.7951946518609583 2.821617350803128 55 60 44
11.574287316170327 -1.3313575951463419 2.7086670435973312 49 53 35
12.826334436601824 -1.8734451637019083 2.9177960054000978 57 61 46
9.520038442929604 3.0932775607490077 2.4791488472542635 46 50 28
8.842158506344948 2.9256729902139944 2.3977119777346183 44 49 24
9.10316160721047 2.5095177165646336 2.2204320925102015 42 47 22
8.79216146047347 3.1003237903982397 2.247585405967188 43 48 24
9.17516433649492 2.4180609672812565 2.3590730701487255 42 47 22
9.678428780439873 -2.4874986469089504 2.4584418182146384 53 58 41
9.829461783402618 -2.763878509737479 2.2941943354710532 62 66 45
9.473619585489178 -3.0372463566262806 2.327871816559348 47 51 29
9.614227930305512 -3.0504627494158942 2.1806429637807643 44 48 26
9.601244372526322 -2.8959123344105295 2.3153850414264983 56 60 39
9.896181501269572 -2.7066590731983347 2.431838083183295 58 62 42
9.505571750470843 -2.5754127844204917 2.3247003611871713 49 54 35
10.518139493489215 -2.763878509737479 2.365518422245901 58 62 43
9.939331957116307 -2.4628534053768187 2.2844740670498203 47 53 33
9.740010479782391 -2.9261899949001964 2.171648211888238 53 57 36
9.507140129796548 -1.8866180816006581 1.8375908932702958 48 52 31
9.73158310330132 -1.5551989879995305 1.6228637689626364 45 47 25
9.430611944613373 -2.195998042454279 2.0690081426218914 49 53 34
10.21357931352248 -2.36586659220109 1.9212399331880514 48 50 29
9.99478445972374 -2.4459767358717555 2.038549710221027 47 50 30
9.730057399720785 -2.0333879394736822 2.0523416828175547 50 54 34
9.51821444177971 -1.6802958896496898 2.1877083933363584 50 54 33
9.59606012210961 -1.2608142899310588 2.3158830153848413 41 44 23
9.721412236111657 -1.2988988007819149 2.1729600328524117 43 45 23
10.472622561850878 -1.2108576440966636 2.5188088798191295 42 44 23
10.108801096843761 -1.6964371357761325 2.4076923605447265 53 58 38
9.92612185628054 -2.274151405840683 2.285627077361622 51 56 38
10.63767238709321 -2.033018267090475 2.4975170489835348 54 60 44
11.299945255447614 -1.2108576440966636 2.5704514231101667 41 44 23
8.866688594122378 3.109644475881881 1.515106374009355 39 43 21
9.38460293721713 1.106165830634974 1.4109698680366114 17 21 4
8.169571335610854 0.7979725216168735 2.0144153445282402 30 34 13
8.398278195313523 1.0526877738022804 1.631139317519359 22 26 7
7.93671096881654 0.9868763350180674 1.8921034999269277 29 33 14
7.732767096191949 0.20558376643094978 2.192936691877157 31 34 12
8.761503013121851 1.8193551698055408 2.111044612994723 38 43 19
9.231697536509605 1.856927815922244 2.352932819879561 40 46 21
9.856298928271206 1.3895180347905325 2.4365611232447075 38 42 20
9.169516039772265 1.6867708574181721 2.2149464968219204 38 42 20
8.773517076091352 1.9020237932903714 1.6285555400814957 34 38 17
9.767093414027451 1.5499865647101265 2.2998475517771624 38 42 21
8.211875927041321 1.9436219415643545 1.8809710089035492 36 40 18
8.663275314583046 2.484543668516036 1.5137973750535225 37 42 17
8.164584821075469 1.4139719104655517 2.014705598245274 35 39 18
9.366954499047571 1.4473720316713479 1.5180834727747878 27 29 12
8.805596086533164 2.582728605989567 1.9803601247928602 40 45 20
8.894055511317884 2.8585427914551573 1.9760465068759672 42 47 20
10.550600411815434 -2.80829712842151 2.23532972870671 55 59 39
8.495334081044914 2.4180609672812565 2.275982712811139 41 46 21
9.04153425038716 2.769454403335735 2.3740513655331945 44 49 22
8.842158506344948 2.9256729902139944 2.3977119777346183 44 49 24
10.28283302631523 -2.6992665405105467 2.1358974601214022 49 53 34
9.981647747156373 -2.2871643873328655 2.039214633599697 50 53 33
9.880495532114171 -1.439453268044254 2.0444014423370187 42 44 22
9.434243621184372 -1.6678183054920834 1.951608632186698 48 50 28
10.313712882440326 -1.3720334087641453 2.5405965935831505 46 50 30
9.856324586883305 -2.033018267090475 2.4365580639206406 55 60 43
10.108801096843761 -1.6964371357761325 2.4076923605447265 53 58 38
9.151465222811671 2.889110139589101 1.516841052822776 40 45 20
8.891152460482504 -3.060714057345725 1.5152597619891037 38 40 17
9.270079958095154 -2.8436492078165063 1.6254584261610703 50 54 32
8.306883919717295 0.9868763350180674 2.0065746747573914 32 36 15
7.9599787382595855 0.35533823005971266 2.172613023251307 31 35 14
8.461314386118545 1.6728726243822827 1.7497926742203485 33 37 17
8.762978265327416 2.158155428590048 1.5144465859683243 35 39 18
8.084385901165493 1.5499865647101265 2.019428631966633 37 41 20
9.365403148868136 -2.6992665405105467 1.9545531841666892 49 53 34
10.161225204706746 -2.630775497063309 2.5628480988031317 57 62 44
10.828404191094313 -1.1428717163514235 2.6422963903976804 42 45 24
10.104771601003707 -2.3699106791710394 2.408134582681248 50 56 39
9.293695389588736 -1.8866180816006581 1.7336105797522345 48 52 31
10.427163993040896 -2.296618686490872 1.7157792170833184 48 50 29
9.301341604983941 -2.274151405840683 2.2043445642326764 48 53 34
9.658843422384033 -1.8058871867426471 2.1774192431773574 51 56 36
11.102574040698572 -0.4988995467304523 2.8124176604295528 43 45 23
9.645208501410174 1.3430369534777202 1.415323882577322 23 24 8
8.636669537281279 2.1203815538306183 2.119736346409243 39 45 20
9.550010783389142 -1.4226677221114323 2.1853489237000003 43 47 25
8.189347048393358 2.8585427914551573 1.6326807649399568 41 46 19
10.112639144046769 -2.091065974247531 2.269727417825741 54 58 41
10.284277982351043 -1.7181195212313118 2.5447840227736753 53 58 40
8.49706660818201 1.4326496105502258 1.749031434342363 30 34 14
9.77592043540042 -1.971860904082667 2.299041331031651 54 60 42
8.688313444119107 2.3028260933862357 2.41716076418066 42 47 22
9.064804204833694 2.6420664278917543 1.40528017696841 39 44 19
8.397524395238534 0.24404551111402875 2.457207783744904 36 38 16
