12.670485625958111 0.4233390497372291 1.608605112533154 15 21 4
12.778948455887345 0.5992285495275241 1.5300102680288898 23 31 15
11.70291506615987 0.7003516890349771 1.8726298767453824 32 41 23
12.825387501185968 0.7098983500952916 1.7653044423137185 30 39 21
12.451732350886722 0.6464200494730564 1.8539594314668553 30 39 21
12.171926162411697 0.499003064974711 2.037706546354384 34 43 26
13.187186895285883 0.4929712231187539 1.6831826526876297 22 30 11
12.009641783457697 0.8271453183146407 1.95297783435321 32 41 26
12.171926162411697 0.499003064974711 2.037706546354384 34 43 26
12.643103775603056 0.8224446949635584 1.688040900897339 32 41 25
11.990023168797505 0.8840724554292204 1.694458950522943 32 41 28
12.90182049920636 0.4233390497372291 1.764137515484496 23 30 11
12.300387263420674 0.6880500157375535 2.2243667329727526 35 47 28
11.917476750927616 0.5468645204012158 2.1455766730676764 36 45 28
12.484174014033258 0.6036457299287952 2.3174346523186373 35 47 28
11.751045462237673 1.3474950313450709 1.7833481485989917 26 37 28
12.001872876915575 1.3474950313450709 1.8648837308151336 27 38 28
11.633139537694015 1.1121161873033043 2.0611943427478483 31 40 26
12.058911766649056 1.0285515821254256 2.0424364145365743 31 40 26
11.814779062346616 0.9526168978578765 1.8696833524374166 30 39 25
11.682058557543757 1.4206125897083226 2.058959951182463 30 39 29
11.691340557376247 1.2364623128815546 1.9639453198903232 28 37 27
11.696879003514265 1.151774083951638 1.8727905480956597 27 36 24
12.37068835229157 1.0004539165141584 1.77255059873169 31 38 27
11.741810659728216 1.522295057046203 1.8715986847480073 28 37 27
11.819275890856114 1.7000808703000918 1.8695661265446268 44 53 41
12.302729798231786 1.5262646262441086 1.6913002294685757 30 39 27
12.299176516984096 1.6081755253233525 1.6913352131001986 24 35 24
11.588600310527012 1.615494811957829 2.0632474404130328 30 37 24
11.052590437804586 1.8974636566339091 1.797006658484843 18 27 17
11.253026062554081 1.930116131288887 2.0793174848377785 31 40 30
11.59237139887754 1.5175492669421862 2.0630729077197674 32 39 28
12.204631930097278 0.9384658005980797 2.460154394401261 34 46 27
12.945869303529177 0.7535522020523664 2.5139990202693605 35 48 29
11.690040006570232 0.8332111234717196 2.1582309175506023 32 44 27
11.769770641814157 0.9147372911112968 2.2593699833217835 33 45 28
11.71375726817635 0.758546937321245 2.2633115625132034 34 46 27
11.387188309645715 1.270049017181166 2.2873444677365837 32 41 29
11.957568700303929 1.4045754801155772 2.246513050688649 32 41 29
12.172962444694344 1.2312522611755659 2.4633685213630616 32 44 27
12.273902035217377 1.3268260220236334 2.593957013745068 34 45 26
11.830994335995971 0.9763968733040631 2.150318788823812 33 42 28
11.896996394259766 1.3847481653164533 2.364130388654054 34 43 29
12.067557362507012 1.270049017181166 2.349873191426626 34 43 27
11.675210879219314 1.1135001188575933 2.383624873022424 33 45 28
11.65141515403598 1.1629394594134936 2.2677584992128215 34 43 27
12.439296148194261 1.1815427143694244 2.5725297794209396 34 46 27
12.204631930097278 0.9384658005980797 2.460154394401261 34 46 27
12.003899249309436 1.3596298905326312 2.4810431579484824 33 45 28
13.396491989687334 0.8527857798804495 2.5999476164939663 36 48 29
12.188570616677987 1.4833448498824144 2.605547044745211 32 43 29
12.154995977708197 1.8995071050045194 2.4652051217918625 31 42 28
11.625125919538604 1.969636509034139 2.2696530526579775 33 42 29
11.885969490450833 1.7465307322275097 2.3650734076966202 31 42 28
11.80523986288696 1.6263747745388197 2.3720592874082156 31 42 28
11.94659770584857 1.727762722552944 2.2472494078717915 33 42 31
12.18498404534773 1.644242670620461 2.6060427234822665 34 43 25
12.421714905786725 1.947924259636025 2.5747463470325895 34 46 27
12.395826302660712 2.0182730834905684 2.4413535882643713 31 42 28
12.614132061314711 1.46664343924894 2.7140959480752462 34 46 27
12.610666523539523 1.658296951673846 2.714699537701378 34 46 27
12.839551206455226 2.011987193977838 2.67705726577697 34 46 27
12.842630307846397 0.09548619523303346 1.7650399541683879 26 34 12
12.787898346033698 0.016054841275321696 1.765881999181031 26 36 13
13.373440822022776 0.09548619523303346 1.9123094106289047 31 39 17
13.18100039659592 0.2498854790644483 1.7599923265373518 15 22 5
12.974434952611167 0.1737295050079317 1.7630418659945732 27 35 15
13.029999553223194 0.2498854790644483 1.6845442667741393 28 36 17
13.343286746116874 -0.06357921009751974 1.9131127736078533 30 40 17
13.440256399100978 -0.14241554771489195 1.9105429635518132 28 38 12
12.767617090760638 0.34905347220044997 1.8467676804204995 25 31 14
12.603189869237319 0.3791910486150185 2.020530964021865 33 41 23
12.903912495025402 -0.15456467751116287 2.0093112539912914 33 41 18
12.80288119115366 -0.06907009769080416 2.013015240651736 33 43 20
12.982593490116145 0.1134558285737964 2.1847144519587505 39 49 28
12.43341669178432 0.1134558285737964 2.118925044815067 39 48 27
13.521972449444776 0.023569069227825454 2.457442720839418 41 53 34
12.76774804810075 0.021100252784973517 2.297073154729686 41 51 30
12.928454068993812 0.01909954757937346 2.1876688265779007 40 50 27
12.81751399222961 0.1397026207806237 2.40316880870505 41 50 30
12.56951310700078 0.20583153013638686 2.1123277317965954 40 48 28
12.782623708088567 0.2947853201565176 2.102329264556703 39 47 29
12.323275755770553 0.22670038055109723 2.222945057322349 40 49 31
12.376875272701808 0.01909954757937346 2.1217165341386077 38 48 25
13.69851660416523 0.25217855411292467 2.4417896376547725 41 50 32
12.832331962032825 0.4146975914999483 2.1929912288344706 41 49 31
12.540571536747667 0.3236512783643845 2.2097796252373834 40 49 31
13.09816550751376 0.28393535081677634 2.498143607713615 40 50 30
12.822233611785624 0.5081569614094585 2.4027645043652353 37 49 30
12.10707752066707 0.45702922621535524 2.2366529775335398 39 48 30
13.15653005818969 0.358515522289535 2.3752823174407656 39 49 30
13.788292629791583 0.15793281018069807 2.5544258643620776 41 53 34
13.273017589772122 -0.4270990538142659 2.0807407649535894 37 46 20
12.958160639141493 -0.5117454347962361 2.284095496811725 43 54 31
13.80707469295988 -0.3165475106844326 2.432502308165647 44 56 34
12.958160639141493 -0.5117454347962361 2.284095496811725 43 54 31
13.459015007387517 -0.46647943991797697 2.4631987349272295 45 56 35
12.786048909258673 -0.09320095225584142 2.405876511774248 41 53 32
12.791113364529965 -0.08348319771317828 2.2954517976336057 42 52 30
12.892236888481904 -0.18627397977834317 2.2885285837937355 40 52 29
12.791113364529965 -0.08348319771317828 2.2954517976336057 42 52 30
12.887212173097463 -0.2074872508648015 2.3972461616130696 42 54 32
13.639579197779403 -0.2074872508648015 2.4469375901339 42 54 33
12.958160639141493 -0.5117454347962361 2.284095496811725 43 54 31
12.94510737900322 -0.3457957153130123 2.0949649917483204 34 44 17
13.319315063383952 -0.37879908369806237 2.2608646929585086 42 53 29
12.68773479268254 -0.2594455966556242 2.1067323433206213 36 46 22
13.069313787388003 -0.28524331420116655 2.2767595844590462 41 53 30
13.638230993870254 -0.4658866620007453 2.2417125872649812 42 50 25
14.018051832643186 -0.35524517622944796 2.5302333040206046 42 55 34
12.216163866965498 -0.6721397442036029 2.0358819700702853 37 47 23
12.15501678389062 -0.8020099608830846 2.038407925135392 38 48 25
12.744555721636793 -0.6553409627866335 2.2986907120754814 45 53 32
12.910568125783984 -0.5459766064788083 2.096512285626223 40 48 25
12.637338173631655 -0.8020099608830846 2.1091025108427677 39 49 26
12.612018408181795 -0.733492694230411 2.205577290543097 41 49 26
12.696162519541824 -0.6721397442036029 2.106338145505802 38 48 24
13.178019548201961 -0.8020099608830846 2.174300993900633 44 52 30
13.660829495194466 0.6137929231228573 2.722561188176971 40 52 33
13.929144683443365 0.7462757964569763 2.6812203159721415 38 50 31
13.422019445917991 0.648518224992662 2.5967948113899184 38 50 31
13.143355617614448 0.5236992648797454 2.6328643234325955 38 50 31
13.395238156446531 0.3245218672036557 2.6001032089788882 38 50 30
14.141692941457285 0.18157474624207612 2.651782184746347 41 53 34
14.345874658787075 1.0263846184337637 2.792166036629238 38 50 31
14.299955527989344 0.7346931909698103 2.801088019331683 41 53 34
12.925079012397374 -0.5259547102752927 2.5162197419026135 44 57 36
13.253484762929018 -0.6327364819333517 2.482675320915426 44 57 38
16.874570837048704 -0.22165310506572902 2.924624980528346 45 58 39
13.702401096220283 3.0597802848234767 2.9607469906657653 44 57 38
13.734949272753543 2.155233107391256 2.9482156207206014 41 53 32
13.13453895050425 2.5744626922153198 2.824307754288143 40 52 31
13.864576287264285 1.4025670850010787 2.9051849739114166 41 53 34
13.930241944798967 1.9977104526173786 2.8863530598072735 39 51 32
13.33862521243613 2.394460323167221 2.7806074427778844 38 50 31
13.702401096220283 3.0597802848234767 2.9607469906657653 44 57 38
14.125928898607953 1.6789767848617052 2.8377658465459166 38 50 31
13.394370054830034 2.0998419666587513 2.769739800500225 37 49 30
13.610511467597005 2.451807206350128 3.002435174636865 43 55 36
14.573890601915735 -2.6399969882942846 3.0273814700665422 46 59 40
13.937918395291604 -2.9145219346873223 2.8842507741602197 46 59 40
12.681718496637243 -2.0439004286408586 2.7025443718844793 47 60 41
13.983825244014186 -2.2911462260956332 2.872058942810326 46 59 40
14.662724104377206 -2.25141341034549 2.983098051545066 46 59 40
14.03077902606568 -2.6617718764877596 2.8601995201432855 46 59 40
14.07948780431917 -1.9368902552951675 2.8484691006041145 47 60 41
13.983825244014186 -2.2911462260956332 2.872058942810326 46 59 40
13.273532922381282 -2.144799847393886 2.793828879237359 46 59 40
11.885729658060239 -1.2537054926102393 1.8678445995359982 45 54 35
11.449704560370026 -1.428803778727595 1.8795227609573208 45 54 36
12.994283254310275 -0.9819949288107986 2.00605223093604 42 51 29
12.111009962365396 -1.136599663430584 2.040243627934877 46 54 32
11.510939463127206 -1.3168036108548373 2.0668708495092822 49 57 37
12.38900808746052 -1.0965075396305008 1.7722481573559965 35 45 23
12.22121053729376 -1.1725152550899551 1.8594524807577417 43 53 32
12.25782225392308 -0.9313252790776148 2.034177327672419 45 54 34
11.06995231361518 -1.3168036108548373 1.9873415515498025 48 56 36
11.341572277161637 -1.2237766057616664 1.9767701713690857 47 56 36
12.116356577074479 -1.0559295951453989 1.9494402168519618 43 53 32
14.028609570763757 -1.300680695051394 1.242665479139696 34 42 23
11.908789867574255 -1.4406969950831163 1.611024658872687 41 49 33
12.079184310308644 -1.358452289457276 1.6104568799453165 40 48 30
13.119711474631352 -1.1315486786085942 1.683763126895936 32 41 21
12.407739286140686 -1.2790184152967252 1.6902754759114311 42 51 33
12.321625696251969 -1.358452289457276 1.7733650990248344 42 51 33
11.699520615524754 -1.6130258911655495 1.9636553593228783 46 55 37
11.780974710978777 -1.704846891585218 1.9607918707170313 47 56 38
11.320426553549567 -1.7183387650082593 2.076001736988361 48 56 38
12.121224493569997 -1.520488859356069 2.039816198205753 49 57 39
11.320426553549567 -1.7183387650082593 2.076001736988361 48 56 38
12.89171561194819 -1.684094284309655 1.530367229553777 40 48 30
12.89673857274198 -1.6064328996903605 1.4525798443450313 39 47 29
11.820823093916596 -1.5247464079032287 1.6113241886205387 41 50 33
12.068455775856423 -1.5247464079032287 1.777675566414429 42 51 33
12.068455775856423 -1.5247464079032287 1.777675566414429 42 51 33
12.141972213715333 -1.7760496024645605 1.6929036040976333 44 53 35
11.721687026008293 -1.043245553329455 2.26275048401999 48 56 38
11.486942022563499 -1.1879142315848301 2.1700503807972953 50 58 38
12.984105192620815 -1.0903004352040977 2.5099509181226933 52 60 40
12.895509534237219 -0.7251006655480423 2.396547874401733 47 55 35
11.833733752375135 -1.094104727976433 2.1501672879348375 48 56 38
12.252537370457997 -1.008561286482838 2.127963166238976 46 54 34
11.847877148648914 -1.4145367906242199 2.1493864531656715 49 57 37
13.197144833383502 -0.807866596517608 2.4882081009261148 46 58 37
13.291892459142533 -0.9816427174307079 2.4789527718852344 51 59 39
12.685955775345205 -0.8044994889501629 2.3028146905619704 47 55 35
13.153301621752036 -1.375375561020239 2.492574573692039 52 60 40
14.892146540052394 -1.157398650941453 2.702420604103402 49 64 44
11.639185223458037 -1.7348233398813948 2.2686384193405846 49 57 37
12.053870651422692 -1.9451004232813613 2.24012512946091 48 56 38
11.755737235271233 -1.6173297166628418 2.1545144077376737 49 57 39
13.070367575858384 -1.6292391120724548 2.500985022608222 51 59 39
12.518058574924883 -1.875926085110696 2.429844751965261 50 58 38
12.027322640339285 -1.9879760448268178 2.353181851128066 50 58 38
11.836804486531628 -1.7183387650082593 2.1499975650174 49 57 38
13.014853009623053 -1.7348233398813948 2.386659307817154 50 58 38
12.225599854991268 -1.9714814744116913 2.600470254063925 48 60 39
12.730376376951275 -1.9174969094240313 2.5377233639027383 50 59 38
12.027322640339285 -1.9879760448268178 2.353181851128066 50 58 38
11.56051329529526 -1.5090798563051169 2.2743590791718646 50 58 38
13.837213429836954 -1.8168528332209506 2.6948038203071976 49 60 41
13.092867329673346 -1.9714814744116913 2.639822316224947 48 60 41
13.420424109888312 -1.7818122232075058 2.5969910140696606 51 60 40
14.218054855700338 -1.637811342353439 2.6418016782432456 51 62 42
14.683364518585647 -1.4773040874910763 2.733737424007619 48 63 43
11.358153497546635 2.2376944730219073 1.976142734533041 30 41 27
12.082290209749852 2.135043944808878 1.61044667937158 24 33 23
10.89148238498901 2.590149299274575 1.9946031079665685 33 45 28
12.246579660424345 2.606277821581994 1.6918554442991152 32 44 27
11.161778306976398 2.021809725449464 1.9837046330968289 28 37 27
10.446874425785591 2.157843457231244 1.9102931422027563 29 38 27
12.706917655297543 2.5384807403059413 1.529778937617137 29 40 26
11.576874101826958 2.5611532147891802 1.786596128428692 31 42 27
11.380432354591916 2.4361685943593843 1.790381627997906 30 42 25
11.93875149928421 2.679993068254763 1.779956302583317 34 46 29
11.142849699666003 2.292365313614438 2.3066059112142527 32 44 27
12.172357336105623 2.193892696860317 2.463430221563093 33 45 28
12.51884008606173 2.2791947426890036 2.5626720741556666 35 47 28
11.165700731322508 2.4634260740733844 2.304754455482708 34 46 27
19.866609739855072 2.7695742945370787 1.6453088378621117 56 53 51
18.586370864144556 2.960212773794926 1.269195912449646 33 43 32
10.704966015232893 -2.6254443828255565 2.0024776566245586 40 55 34
10.768332721497782 -2.71940131321337 2.104588122304395 41 56 36
12.871662085825745 2.8900263132527315 1.5303042082438352 32 43 28
11.02168883983343 3.122333467818204 1.8919327097113765 36 49 32
10.748011061775273 3.122333467818204 1.8035336304090768 37 50 34
11.388118190341055 2.815156637269206 2.0727171702244647 36 48 31
11.237581728875467 2.9340890933500727 1.885548657466768 34 46 29
10.916788851881764 2.7234912140128475 1.8951308776048803 34 46 29
10.994708622156837 3.015221504181168 2.0924624105182286 37 50 33
11.604919810759815 -2.7113461150275775 1.439347972725842 39 54 36
11.606504205164407 -2.985867471867664 1.6120729737482526 37 50 31
10.92489960317293 -2.8800751956754955 1.7065867176151617 37 53 33
10.590516964268316 -3.0653659995700075 1.7109019666376968 37 51 35
12.503523294219157 2.812984510314907 2.5645489251428932 41 50 33
12.477804426026724 2.7360380955391324 2.4335929498322506 39 51 32
12.240437956910359 2.6109829077849285 2.598456475478946 38 50 31
12.214165133240291 2.5646933081150456 2.459192618578085 36 48 29
12.035143724637969 3.000464851395332 2.3525361082892595 38 51 34
12.047428327723324 2.6284658170158974 2.3515243630907925 37 49 31
12.711324758988207 3.1046970498919886 2.6976106565120657 43 55 36
12.898968771165917 2.758105617139114 2.667947590529717 39 51 30
12.766385010800438 2.924863961405098 2.6886280336785533 41 53 34
13.252285754499074 3.096427833360465 2.798279105453186 44 56 37
13.010627620638743 2.3856264660394593 2.6514681058922442 37 49 30
13.305107546894257 2.8782560971748867 2.7873403001529624 43 55 36
13.305107546894257 2.8782560971748867 2.7873403001529624 43 55 36
12.898968771165917 2.758105617139114 2.667947590529717 39 51 30
12.38057949374872 -2.7825296848464296 2.4428162492817873 42 55 36
12.193504734757548 -2.9048958485656726 2.461280333682739 40 54 35
12.356911666964015 -2.319225023321884 2.5830393631198394 47 60 41
11.59988638624767 -2.569755667181161 2.271482899630991 43 56 36
12.356911666964015 -2.319225023321884 2.5830393631198394 47 60 41
11.014430616898382 -2.8219901386071977 2.1996560642613012 39 53 35
12.08152957939826 -2.6097791743907943 2.4728167860124985 45 61 43
12.33408559328622 -3.018525153076309 2.586007760313208 41 54 36
11.912936514035598 -2.6704149485194426 2.3627718669092053 44 57 38
11.630802419116819 -2.8219901386071977 2.2692429911200973 40 53 34
12.33408559328622 -3.018525153076309 2.586007760313208 41 54 36
12.438925126673414 -2.8699009387061203 2.5725764122291372 43 56 37
13.543066505497514 -2.5808317759398345 2.742532516759462 46 59 40
13.274798250948132 -2.964268618228177 2.793566025410626 45 58 39
13.543066505497514 -2.5808317759398345 2.742532516759462 46 59 40
13.265238055397752 -2.533430780380921 2.616624761215419 47 60 41
13.372264560943002 -2.7579796826723633 2.7740018224030796 44 57 38
10.862838655982996 -2.4644363123682953 1.522810852042496 47 55 37
11.744171081951581 -2.1534024824767157 1.6115888527506175 48 56 38
10.92375226365333 -2.2038398390893983 1.6146544366558309 48 56 38
11.77520544913863 -1.9621799364022898 1.6967268478852464 47 56 38
11.511758689423635 -2.262306842459272 2.066832334625829 49 57 37
11.45434471333331 -2.2038398390893983 1.8793935676325453 48 56 37
12.078485206233777 -1.9976254604673134 2.0416100727689175 48 56 37
11.04609232185811 -1.9976254604673134 1.7971420512664218 48 56 37
11.039841332583162 -2.4023000631776332 1.9885486085964708 47 56 36
11.196373171300136 -2.5915239466575044 1.43452215225822 45 55 34
11.102906753960415 -2.5915239466575044 1.613946306988833 42 54 35
11.456088885422364 -2.409811098170495 2.282117993318762 45 56 37
11.688078939859427 -2.0899377045826633 2.265135489270816 49 57 37
11.972158273743409 -2.2260403437516256 2.48446289241045 46 58 39
12.160775634210461 -2.2470972354742234 2.342332014103434 47 58 37
11.39654686021644 -2.330375474878281 2.1754782258683942 47 57 36
16.84770397193414 -3.0931024185461706 1.360250840512696 32 43 31
17.848342496282534 3.072877425302984 1.3722172869911557 34 43 33
18.07222860541942 3.072877425302984 1.3179445489461141 33 43 32
18.649248984446842 3.022876871937304 1.4891442488513351 36 40 33
18.166129358838756 3.01614535553963 1.3192798952243905 35 42 34
17.678269512672053 3.072877425302984 1.4277007185096695 35 43 34
17.523592295679897 3.130055516706926 1.4838863507870181 35 42 35
16.74515461584237 -3.0327294459334144 1.419667180468886 32 42 33
18.052794958166253 -0.6684511817711198 2.8887790447109447 48 61 42
17.925016455142135 -0.4696662242009808 2.918032762029533 47 60 41
13.265655184534626 0.7671392101527441 1.6069080493356658 32 41 25
13.366458612954077 0.6610870273914137 1.6066355949161832 30 38 20
13.006735675503714 0.5992285495275241 1.7625584993501322 29 36 19
12.396629452574247 0.8840724554292204 1.85525308798008 29 38 24
12.038110488935414 0.7003516890349771 1.952027464697718 31 40 22
12.343461028466656 0.7649589753289059 1.8565127477435697 32 41 25
12.339445062088943 1.1854395793893617 1.7730685109216793 28 37 25
12.007268088451422 1.264396120121727 1.7787452220900208 26 36 27
11.830364958921363 1.4338451458425139 1.8692774492718656 28 37 27
11.836467436387888 0.8973514852487628 2.0520451869207212 32 41 27
11.638705679660513 1.0285515821254256 1.9658216745426462 31 40 26
12.120412365725027 1.0730143188041532 1.861922942594048 28 35 24
12.209670233526257 1.0004539165141584 1.6922232085024382 33 40 29
12.075926493109021 1.522295057046203 1.950772538533561 24 33 21
12.072306456290987 1.611508999868775 1.9508923021837652 33 42 30
11.40889736452857 1.8070784237762392 1.974234943923523 19 28 18
11.670828576616977 1.712592294903678 2.059470993265171 19 26 14
12.68627181939411 1.8437868413746274 2.701780718287269 35 47 28
13.091164200994104 0.9727323302604596 2.640059510713031 36 48 29
11.387188309645715 1.270049017181166 2.2873444677365837 32 41 29
12.016570499381606 1.0079315310559334 2.354071645808827 33 45 28
12.945869303529177 0.7535522020523664 2.5139990202693605 35 48 29
11.993452071195625 1.064875100200883 2.2441170269350774 34 43 27
12.638238264028779 0.671605691900686 2.418889850068828 36 48 29
11.916634579242762 1.4954389213454482 2.4905259583413746 32 44 28
12.681620801571379 1.0516442562364399 2.5433193087048678 33 45 26
12.420484377523534 1.1135001188575933 2.4390010119200656 32 44 27
11.842875521181993 2.079257436891268 2.498744983381706 34 46 28
11.808941769382328 1.5045986032366079 2.3717357501822263 33 43 29
12.188570616677987 1.4833448498824144 2.605547044745211 32 43 29
11.367980037697794 1.8617910516459526 2.288817090464948 32 42 28
12.273902035217377 1.3268260220236334 2.593957013745068 34 45 26
13.23728878488548 0.3231969140540326 1.6069854674921382 30 38 20
12.811226912086443 -0.06357921009751974 1.7655221949685496 22 32 9
12.811226912086443 -0.06357921009751974 1.7655221949685496 22 32 9
12.37320815230039 0.34905347220044997 1.6906105206875717 16 21 4
12.779537390309542 0.01744535746012767 2.0138803280553255 34 44 23
12.966194281336623 0.18843908338558596 2.0070598029643847 34 42 23
12.834305007511825 0.10370106301027107 2.011856244318189 36 44 22
12.81464446796457 -0.4270990538142659 2.012580638743803 32 42 16
13.080831340696554 -0.23784579434814876 2.0029778092925614 32 42 16
13.080831340696554 -0.23784579434814876 2.0029778092925614 32 42 16
12.949574280899173 0.25217855411292467 2.3920325695325024 40 49 31
13.302809807621346 0.40134599576026164 2.477901789002643 38 49 30
13.434920628257252 0.45702922621535524 2.353988279882074 38 49 30
12.762674321061334 0.023569069227825454 2.4079019226168117 42 52 31
12.455376352161489 0.358515522289535 2.3195762165072815 40 49 31
12.455376352161489 0.358515522289535 2.3195762165072815 40 49 31
13.112991376689362 0.20583153013638686 2.177723291590343 39 48 30
13.068981520306444 0.3791910486150185 2.089494006032056 38 46 28
12.928454068993812 0.01909954757937346 2.1876688265779007 40 50 27
12.822566019923782 0.12522574584524707 2.293282220362508 40 50 30
13.737328871699965 0.026692006697399823 2.5600243444227697 42 54 35
13.03013402676633 -0.5665455409231478 2.385413663968873 44 56 34
13.040071378029262 -0.4658866620007453 2.181611375674249 40 48 25
13.3144515231903 -0.41836033022976815 2.363037325785634 43 54 31
13.3144515231903 -0.41836033022976815 2.363037325785634 43 54 31
12.400977074428209 -0.0755970767979124 2.120522914543235 36 47 24
13.633481222632064 -0.5117454347962361 2.339590899856522 45 55 32
12.887212173097463 -0.2074872508648015 2.3972461616130696 42 54 32
13.064357178174056 -0.3165475106844326 2.3826404177884397 42 54 31
13.051410130060113 -0.16895838349773887 2.1810032465660054 38 50 27
13.211657507088422 -0.35524517622944796 2.4867745756867565 42 56 34
13.47344381188376 -0.3457957153130123 2.15926460044405 38 47 21
13.816453248412829 -0.2594455966556242 2.2315149245307033 38 49 26
13.47344381188376 -0.3457957153130123 2.15926460044405 38 47 21
13.759047765514804 -0.10546961994680429 2.5576276039697428 42 54 35
13.853107459995917 -0.23405355830883198 2.547431754585882 41 53 34
12.79968165655029 -0.7398355782070889 2.013133603213516 33 43 19
12.749636658987866 -0.5962855936465898 2.1976510371874665 41 50 27
13.360805291383915 -0.5962855936465898 2.2583040663854526 43 53 30
13.049143282258143 0.5707679210339427 2.5031700024101498 37 49 30
14.085500012782852 0.8993811294382721 2.847058177619386 41 53 34
14.261496708480013 0.3245218672036557 2.6362512518406387 39 51 31
13.410676218131732 1.0263846184337637 2.766634413670875 38 50 31
14.141692941457285 0.18157474624207612 2.651782184746347 41 53 34
13.361543511301672 0.7346931909698103 2.7760910885906633 41 53 34
13.422019445917991 0.648518224992662 2.5967948113899184 38 50 31
12.477859402282366 -0.6327364819333517 2.4335878031030687 45 57 36
17.188244509298165 -0.37691765435292457 2.853308981532795 48 61 42
13.506234104675652 -0.40413612550035916 2.586590860296958 42 58 37
13.506234104675652 -0.40413612550035916 2.586590860296958 42 58 37
13.753494280262828 2.686692327442668 2.941446854774919 43 55 36
13.916478660542383 3.0833866048309835 2.8901712526256063 43 55 36
13.247511715718346 1.904456928947366 2.7992886522974922 37 49 30
14.553387797764866 3.0041647725138936 3.0404021721122203 44 57 38
12.702907091500554 2.259197290715074 2.6990058512364423 36 48 29
14.553387797764866 3.0041647725138936 3.0404021721122203 44 57 38
13.665147237314363 1.775175068801528 2.976320874676009 42 54 33
13.86142338048311 1.7123712550490209 2.906130987596838 41 53 34
13.494415835788242 -2.309046887539073 2.751170699112218 47 60 41
13.81847233129089 -2.5095549773482086 2.919457221045026 46 59 40
13.24771934578537 -2.460958636223568 2.7992446709678567 46 59 40
14.193658829306878 -2.460958636223568 2.8228982653004753 45 58 39
13.84322166070802 -2.0506029253303795 2.9116756290295607 46 59 40
13.448839526828461 -1.8654452937920092 2.7594892968910796 48 60 41
12.116356577074479 -1.0559295951453989 1.9494402168519618 43 53 32
11.974978242101106 -1.1725152550899551 1.7793142033030724 39 49 28
11.772389087018258 -1.2237766057616664 2.0548896885423367 48 56 36
10.883768958102097 -1.4145367906242199 1.9949228625560649 48 56 36
12.285586314747787 -0.9819949288107986 1.8578968389888602 37 47 24
11.692676306579632 -1.136599663430584 1.9638979411560793 45 55 34
12.605297068898587 -0.9819949288107986 1.9340550362282487 40 50 27
11.792099796805628 -1.428803778727595 1.9604041027167747 45 54 36
12.25782225392308 -0.9313252790776148 2.034177327672419 45 54 34
12.652332930615646 -1.2031952563890673 1.6086593838918584 35 43 24
12.407739286140686 -1.2790184152967252 1.6902754759114311 42 51 33
12.729470204419595 -1.2031952563890673 1.6872417967549909 35 44 26
11.35020328741565 -1.8805614919715068 1.524872775250795 44 53 34
11.703255962571102 -1.520488859356069 1.9635230979227074 45 54 36
11.606065826103888 -1.8805614919715068 1.7860447936344435 47 55 37
13.04258080009403 -1.760409577749626 1.5308351286030335 38 46 28
13.04258080009403 -1.760409577749626 1.5308351286030335 38 46 28
12.064833497460086 -1.609450417382718 1.777738580653687 43 52 34
11.979770729484038 -1.6936043944421526 1.6945653260612779 43 52 34
12.027322640339285 -1.9879760448268178 2.353181851128066 50 58 38
13.164307097972417 -1.8430338730966165 2.3746687512095415 50 58 38
11.371478762382834 -1.1442865210017208 2.288548345299648 49 57 37
11.650445705768762 -1.3971145973844068 2.26782815810564 49 57 37
14.754274332478273 -1.310609920094322 2.7227538361598755 48 64 44
13.08868644791453 -1.043245553329455 2.3806826253572964 50 58 38
12.632212067584431 -0.8726713842383673 2.2044005018732906 46 54 34
11.55673181130077 -1.6226094671589888 2.2746367163076444 49 57 37
11.80606687993917 -1.8430338730966165 2.2568425825163008 49 56 37
12.465066157946985 -2.108311244753196 2.569305837935499 47 59 39
13.197144833383502 -0.807866596517608 2.4882081009261148 46 58 37
12.575766385839328 -1.7818122232075058 2.555782865066958 50 60 39
11.29236132374182 2.373582012250917 1.9786441818382963 32 44 27
11.138783517443986 2.4478185218426964 2.0850437010098934 32 44 26
11.337407582651284 2.182637973040872 1.701617101205247 29 38 26
11.117914617715188 2.2191884608184966 2.1929023452422283 31 42 28
11.298377141750823 2.1249310237094496 2.294211409566818 30 41 27
11.163671986896762 2.5324886463952327 2.189966229031699 36 48 29
12.110989080581058 2.3801056734353123 2.4697447157242514 34 46 27
20.801949806908524 2.7870962471528933 1.497610054802015 35 33 29
18.440454787884114 3.01614535553963 1.2667333608914262 33 44 32
11.606504205164407 -2.985867471867664 1.6120729737482526 37 50 31
12.291691407438808 2.790089042724135 1.6914089739931926 32 43 28
10.91693466706967 2.6804780585452748 2.096562048060038 37 49 32
11.085144744099296 3.027196522682273 1.890029080512104 34 47 30
11.148382250427789 2.912868586435484 2.0845573485168147 37 49 32
10.890046542544875 -2.672002785096672 1.800443215218522 40 53 34
10.457371324950916 -2.853854996763965 1.9099386586028528 38 54 35
11.212857313397599 2.844484802018452 1.7937183397590093 33 44 30
11.501722066288638 2.8869179235288187 2.2787036945892467 38 50 33
11.976722229273301 3.1177800291118847 2.3573901820108674 40 53 36
12.881041886273806 -2.6097791743907943 2.5209701655925434 46 59 40
11.464671459255673 3.1202974008738633 2.171377818773342 38 51 34
12.366700677770027 2.9576141523444477 2.5817740148297457 39 52 34
12.75169982601473 -2.4202416403368443 2.535303531540502 47 60 43
11.687714266026804 -2.5024298533638767 2.3824953974621708 44 57 38
11.223197997423794 -2.6704149485194426 2.300142656139124 45 58 40
13.252285754499074 3.096427833360465 2.798279105453186 44 56 37
11.12360267663356 2.779684796897317 2.1925357075293497 37 49 32
12.75169982601473 -2.4202416403368443 2.535303531540502 47 60 43
12.309852823573243 3.1104076811650896 2.5891868403638947 40 53 35
13.01419800763367 -2.6676691462124156 2.6509541626340964 45 58 39
12.539183804877226 2.4854069985673006 2.5601945984984775 36 48 29
11.070660383958934 -2.333759269163515 1.7966310161570789 48 56 37
11.71346219101613 -2.125887451252461 2.057536799880335 49 56 38
11.129910734597738 -2.4644363123682953 1.7954080869030737 46 56 35
10.86133959645294 -2.2470972354742234 2.209947067444307 48 58 37
11.800444783600186 -2.0396125549569453 2.1520140949914186 50 57 38
12.379222763937786 -2.325790034572016 2.442946701545717 46 58 39
17.817488412231796 -3.0958762410461222 1.7673130793169594 33 37 32
18.033375658789353 3.130055516706926 1.3173878246126507 33 44 34
17.686880524747902 -2.9826252365396657 1.54133189687922 38 43 38
17.46402167718943 3.130055516706926 1.5982242362228822 35 40 33
18.64586112192427 3.022876871937304 1.6501971481668702 35 35 28
17.505341446507135 3.072877425302984 1.5410262462819215 34 41 33
17.54062364426329 -3.0958762410461222 1.4839709502151253 35 43 36
17.925016455142135 -0.4696662242009808 2.918032762029533 47 60 41
19.96298909399795 -1.235819065613675 1.4945284865234147 41 49 27
12.581149426721888 0.45828798196058784 1.9347847362471617 32 40 21
11.467924617309505 0.6278615563158302 1.9720388933636177 32 41 23
12.71732074436132 0.5316693124756803 1.8478878901547167 30 38 20
11.827794287803542 0.6036457299287952 2.2553395524244837 36 47 28
12.653603028436901 0.499003064974711 2.1083351403708592 37 46 28
11.85571210995985 1.3264305813660162 2.051197719345835 29 38 28
11.59237139887754 1.5175492669421862 2.0630729077197674 32 39 28
11.71375726817635 0.758546937321245 2.2633115625132034 34 46 27
11.877818610479457 0.8413371430856619 2.3657721786790376 34 46 25
12.421714905786725 1.947924259636025 2.5747463470325895 34 46 27
12.31719765976679 1.1629394594134936 2.3300528505205076 34 43 27
12.696603685736395 1.2822899289908212 2.700054526484965 35 47 28
11.7983219615824 1.2031769393726834 2.1521322946692987 31 40 27
11.518502339929174 1.8316608190667127 2.1681800609945436 33 42 32
12.263214044165233 1.8014495348273525 2.5953877968383536 34 43 25
13.202039442359029 0.1737295050079317 1.8374609956784043 28 36 14
12.834305007511825 0.10370106301027107 2.011856244318189 36 44 22
13.202039442359029 0.1737295050079317 1.8374609956784043 28 36 14
13.3208899967165 0.016054841275321696 1.9137119700227299 31 41 20
13.544036688078636 -0.09320095225584142 2.455447639647308 42 54 35
13.573744805287413 0.1397026207806237 2.452779239507584 41 52 33
12.376875272701808 0.01909954757937346 2.1217165341386077 38 48 25
13.788292629791583 0.15793281018069807 2.5544258643620776 41 53 34
12.951529465609811 -0.0755970767979124 2.1864058325598212 38 50 27
13.03013402676633 -0.5665455409231478 2.385413663968873 44 56 34
12.94510737900322 -0.3457957153130123 2.0949649917483204 34 44 17
12.612018408181795 -0.733492694230411 2.205577290543097 41 49 26
12.637338173631655 -0.8020099608830846 2.1091025108427677 39 49 26
12.762340352983044 0.4549977437027334 2.53410218842428 38 50 30
13.11511875852461 2.225249012885628 2.828848431954196 39 51 32
13.916478660542383 3.0833866048309835 2.8901712526256063 43 55 36
13.247511715718346 1.904456928947366 2.7992886522974922 37 49 30
13.86142338048311 1.7123712550490209 2.906130987596838 41 53 34
13.937918395291604 -2.9145219346873223 2.8842507741602197 46 59 40
12.207026694321943 -1.428803778727595 2.036257610674916 48 56 38
11.626828974923708 -1.3394544767621626 1.8746679788706346 45 54 36
12.154630488261235 -1.4406969950831163 1.7761877622394722 42 51 33
11.824563528326662 -1.2893656357533019 2.2555625794040637 50 58 38
12.144355241348073 -0.9528189656203601 2.234244023079266 47 55 35
12.915259948592295 -0.8867235853383388 2.3948914481887824 49 56 36
12.915259948592295 -0.8867235853383388 2.3948914481887824 49 56 36
12.784492454772055 -0.9528189656203601 2.295910395124051 47 55 35
12.166231220407024 -2.0411279295383475 2.464055486232267 48 59 38
12.000938419973997 -1.8164129044497828 2.1410784856358958 49 57 37
13.073711258109437 -1.5011901556109437 2.5006420296943572 51 59 39
12.33512225487886 -1.6173297166628418 2.2222119100259694 49 57 39
11.759454725331011 -1.515364733804366 2.15430562117023 49 57 39
13.143328766932784 -1.7554076999457626 2.493575393190055 51 59 39
12.94116750353157 -1.6226094671589888 2.3927307605994415 50 58 38
13.143328766932784 -1.7554076999457626 2.493575393190055 51 59 39
14.221128695433118 -1.490992486476738 2.6414059724233465 51 61 42
13.348977518208606 -1.637811342353439 2.6058929280209 52 60 40
10.980988629699572 2.106041480217408 1.7985076135287592 26 35 26
12.592566083809057 2.7153993364011066 1.5294062517746123 32 43 27
11.182422997153528 2.30864269086982 1.7034408671959624 30 40 27
10.493813241954413 -3.0573413362883413 2.0117668524397687 38 54 36
12.001627649683426 -3.0474338858573065 2.3553122059747524 38 54 36
11.431464211904663 -2.9320224383115674 2.2839759603860053 38 54 36
12.622363058930913 -2.7325714812511843 2.550242180261942 44 57 38
13.543066505497514 -2.5808317759398345 2.742532516759462 46 59 40
12.83636081206117 -2.823172486201197 2.677553497248815 43 56 37
12.71773973175283 2.68126402093521 2.5391652556912563 39 51 30
11.976722229273301 3.1177800291118847 2.3573901820108674 40 53 36
12.71773973175283 2.68126402093521 2.5391652556912563 39 51 30
13.305107546894257 2.8782560971748867 2.7873403001529624 43 55 36
12.898968771165917 2.758105617139114 2.667947590529717 39 51 30
12.722956494754051 2.518623412701934 2.6956924711589427 37 49 30
10.921970074315075 -2.125887451252461 1.8949713902467895 49 56 39
10.800173847713166 -2.333759269163515 1.6151566001964057 47 56 36
12.35188537845339 -2.0899377045826633 2.3273910340790707 49 58 37
12.487184014662365 -2.1510089197185276 2.432715960141647 47 58 38
17.55643904133837 -3.03892072911387 1.5411129168813462 35 43 35
18.052794958166253 -0.6684511817711198 2.8887790447109447 48 61 42
12.231137008498461 0.5762274354605128 1.945709523757896 31 39 23
12.277803258220905 0.7621875776822299 2.1266816163692193 34 43 26
12.38664850653411 0.6278615563158302 2.1212318584007694 34 43 25
11.314351235501908 0.9763968733040631 2.0762987418792784 32 41 27
12.032242580704482 1.151774083951638 1.9522229552860413 28 36 28
12.387274840765729 1.4449460432245338 1.6904738089051934 31 40 28
12.85656107382617 1.1159529477330845 2.6744239451089786 36 48 29
11.80523986288696 1.6263747745388197 2.3720592874082156 31 42 28
13.067771718652669 2.1572918185798353 2.6433341253033618 36 48 29
12.839551206455226 2.011987193977838 2.67705726577697 34 46 27
11.866280556170649 1.620345042975301 2.252695186004865 33 42 30
12.78933618913917 0.27053011987470277 1.928590627731619 29 37 19
12.032484508093859 -2.1949981245255876 2.62780173241151 47 59 40
13.966788729871123 2.807058105847791 2.8765102404688823 42 54 35
13.63574912206628 0.8701124486978535 2.7267099862569557 38 50 31
13.87664995713107 2.4108637358619758 2.901600075810154 41 53 32
14.03077902606568 -2.6617718764877596 2.8601995201432855 46 59 40
13.1253226144696 -1.9368902552951675 2.8264530860117003 47 60 41
11.510939463127206 -1.3168036108548373 2.0668708495092822 49 57 37
12.328589176981032 -1.2790184152967252 1.609654146731957 38 46 28
11.817124909439887 -1.609450417382718 1.6113368788190916 41 50 32
13.197144833383502 -0.807866596517608 2.4882081009261148 46 58 37
12.06709984305925 -0.8726713842383673 2.137565953416188 46 54 34
12.601370910707258 -1.6130258911655495 2.110807727295332 48 56 38
12.244799119121582 -1.9099041106320214 2.1283569332153323 48 56 37
10.8231404387373 2.0685251073390254 2.1015978617051454 32 41 29
12.886192539254566 -2.4357000554115604 2.6698855983848753 47 60 41
12.73479359914966 -2.996262224491105 2.693751864593043 43 56 37
11.135202698012256 -2.7931335617711017 1.613821079710287 38 54 34
12.272526979122015 0.8332111234717196 2.2261064832438464 33 45 28
12.949574280899173 0.25217855411292467 2.3920325695325024 40 49 31
11.314563149830857 -1.9099041106320214 1.9777965047044548 48 56 36
12.782623708088567 0.2947853201565176 2.102329264556703 39 47 29
12.4251253837969 -0.8620353963254515 1.9395729301002693 34 46 23
17.188244509298165 -0.37691765435292457 2.853308981532795 48 61 42
18.31423121503021 2.960212773794926 1.3213572855912359 36 42 34
10.958010743519234 -3.0573413362883413 2.0943883770854805 39 52 35
10.4537507988346 -2.4806115088402887 2.0135763681976138 45 55 35
10.919651499118467 -2.4806115088402887 2.09641768839972 41 54 35
12.263214044165233 1.8014495348273525 2.5953877968383536 34 43 25
14.025180212358856 0.5236992648797454 2.6675993470707735 39 51 32
11.608017253187082 -1.7944547581183212 1.8751762065439088 46 55 37
13.831228104315933 0.37800353932488234 2.6957079073177566 41 52 33
11.486942022563499 -1.1879142315848301 2.1700503807972953 50 58 38
11.491938037682887 -1.8164129044497828 2.0677659444019842 47 55 35
13.639579197779403 -0.2074872508648015 2.4469375901339 42 54 33
10.6168407373142 -2.9536367798196297 2.006304735904787 39 52 33
12.505255826450355 -0.16895838349773887 2.1154214438971914 37 46 23
12.520542312571015 -1.0559295951453989 2.0237198893418435 45 53 31
11.869963425812267 1.5117752000926383 2.2524433340893553 33 42 30
12.91272885704582 -2.1949981245255876 2.665872769784609 47 60 41
13.724175264334662 -2.827250002279376 2.952266426989242 46 59 40
12.079184310308644 -1.358452289457276 1.6104568799453165 40 48 30
12.18498404534773 1.644242670620461 2.6060427234822665 34 43 25
13.432374918455263 2.6827571543349884 2.762551182914507 40 52 31
