12.60221408292094 1.190317598438762 1.3822884221293275 11 11 11
12.453620166863965 1.190317598438762 1.461245890495294 10 10 12
12.400425523400466 1.0095598549121505 1.5416341404759197 11 11 12
11.521739278125755 0.7169316726513145 1.7134831671246586 5 5 5
11.566466093515267 0.9635058641719392 1.5395308410871487 9 9 9
11.605189964233224 0.5948694792872387 1.6258363729449201 4 4 6
12.369912963752785 0.779347809082691 1.7857415998927662 8 8 8
11.332231706426636 1.0380883401907615 1.805777913522122 11 11 12
11.158050997658327 1.1198461382305511 1.9029512657138552 10 11 10
12.646628499580178 0.2926092689075712 1.8626201583471746 4 1 3
11.697030301759163 0.8410613864917644 1.7983181378678312 10 10 10
12.175969046106164 0.8959174189556355 1.6232538050329521 9 9 9
11.204292479860683 0.43791448652603904 1.9015280281717857 1 1 0
11.991682146887321 0.5199031778587646 1.9679593600041014 4 4 2
13.37181861250568 0.04254590278598389 2.090299742615655 0 1 0
12.514443821249355 0.04655521096163977 2.1299409339684887 1 1 0
12.356429340322082 0.15440252087008557 2.2372143201219026 16 19 7
13.44592682840111 0.1280947068316143 2.0871504898989426 1 1 1
12.981374842672356 0.1280947068316143 2.0201100790189597 1 1 2
12.501867640210659 0.31846329531577117 2.038689423338179 2 2 0
12.905086681926623 -0.04362904983943132 2.022962613369617 0 1 1
12.003744453784522 0.43791448652603904 2.059772637134931 3 3 1
12.276258204536331 -0.05270578701149456 2.2423606719251374 38 42 26
12.51673924436136 0.25421754180665584 2.2271812881185777 5 6 1
12.750926817025222 0.23111471488262153 2.1183769859889674 2 2 0
12.736822704512305 0.21180319587066962 1.9435427528233697 3 3 5
12.181105085810122 0.34912507069655563 2.1471585607998502 1 1 0
12.501867640210659 0.31846329531577117 2.038689423338179 2 2 0
12.075964651072987 0.9292766732612808 2.2556135758391163 14 12 5
11.46601239171716 0.8489420870037762 2.084896351473479 7 7 5
11.63558393673513 0.7785459739027428 1.9808315095521936 7 7 7
11.183398308871976 1.0747053231360981 2.099226647105838 8 8 5
11.179703534382194 0.9881398239879557 1.998626147515763 9 9 10
10.852256221534516 0.6943903881658342 2.2290160225892004 15 16 8
11.48763221679654 0.6260819183212665 2.186920151409351 2 2 1
11.475027396420245 0.7072508628028586 2.0844527253301477 5 5 3
11.71238660424189 0.9104212502951896 1.9779829493396186 8 8 9
11.630246196251724 0.9881398239879557 2.0769391056591746 9 9 8
11.391175548063424 0.7774991453190032 2.19292869812677 2 2 0
11.74411059225873 0.9547655586176065 2.397280424882923 39 41 23
12.008895611295417 0.8740177883491508 2.502449784111744 35 37 16
12.825382227120574 0.8740177883491508 2.548976505789395 36 40 18
12.01923241017296 0.38599547394560135 2.2594744066833994 4 4 1
11.771030501999029 0.3171632308980731 2.394800706640533 34 37 24
12.197399615967816 0.057364128553402026 2.3577683632338973 34 39 16
11.672837450601646 0.5341474660874302 2.2841537864066632 11 11 8
12.01923241017296 0.38599547394560135 2.2594744066833994 4 4 1
12.429924135037062 0.774023798063382 2.598031439521052 35 40 15
12.017503375683905 0.6764833201322252 2.501486660714931 36 38 16
13.154020047053626 0.2823158376716495 2.393130532920825 32 35 17
13.08237838504915 -0.06654432251454057 2.520404612441426 35 41 14
13.081897395965337 0.0648949525930051 2.520455986819676 36 41 16
12.763880333423074 0.3613979950259719 2.5561708986468146 37 39 15
12.191275608653829 0.48703154874008514 2.4825852660875762 35 37 16
12.925401254560665 -0.058823025594244654 2.412376050599661 35 42 13
13.0015702178362 0.1720279243447712 2.405843207204064 33 37 15
12.24745426860523 -0.12916201181578685 1.8724255244794143 5 7 8
12.152143926717828 -0.5957684221002995 1.8748666132226262 18 21 13
12.711883235676064 -0.5506270510374296 1.7798722217579108 20 21 18
11.891078443392551 -0.5957684221002995 1.7945414746849009 19 22 16
12.399534267661009 -0.29360384101287285 1.7852200889861396 14 18 19
12.152143926717828 -0.5957684221002995 1.8748666132226262 18 21 13
11.64740388604381 -0.5208902849916514 1.8884947648185444 15 18 14
12.230265355519707 -0.4792067351799867 1.7882350782125653 18 20 19
12.189329959915828 -0.6637557703946112 1.5411289609876175 20 23 19
11.71392771137864 -0.717762896282379 1.7979841662013076 19 22 12
11.522048552195214 -0.8417970215424976 1.7134793109292314 20 22 18
11.481223451447406 -0.2322396675154723 1.8932581351604227 8 10 8
11.935444252216534 -0.2554455177750784 2.1605958653882613 30 35 21
12.41452845954646 -0.4020719483221166 1.953714607684239 16 19 15
12.087511412273928 -0.3195340546460543 1.9646362636981163 14 17 10
12.0979179261776 -0.14119589728971474 2.055635371365915 5 8 1
12.580818396683359 -0.12916201181578685 1.9483961684592896 0 2 2
11.665451670628931 -0.14119589728971474 1.9797188597508937 3 6 3
11.766148255343893 -0.155682554718072 2.1702569033481787 34 39 25
11.75949701769998 -0.4827909073801742 2.170643458302096 36 41 22
11.770193546240927 -0.2836655364290434 2.2770178176453206 35 41 19
12.35496872502102 -0.5353737372997497 2.345055375155578 36 43 18
12.09880082729417 -0.6271687869599587 2.2540731193892856 38 43 24
12.022896524839933 -0.3872511830087898 2.2592235785539456 35 41 17
12.28013545746483 -0.17344851023542723 2.3510324569081984 33 39 16
11.673447615258732 -0.7772186887541849 2.403876428258151 41 47 20
12.753738155038471 -0.6271687869599587 2.314916991702803 39 45 21
12.999698056192067 -0.488520163622798 2.5293471952377296 38 46 19
12.02221485267599 -0.6778489918025836 2.500960603616726 40 48 21
13.159073255386863 -0.19573312790229075 2.512306900871173 37 43 16
12.521897647785524 -0.5596387706677384 2.585996033599768 40 49 21
13.159073255386863 -0.19573312790229075 2.512306900871173 37 43 16
13.462683074292459 -0.22447785801696274 2.614941953589038 40 46 19
13.610893442014643 -0.36306606211689374 2.596504977375518 38 47 19
11.5904883897684 -0.7754217832680168 2.552744213292465 42 51 23
11.18926769472871 -0.988819875799938 1.998236413257114 39 43 26
11.036796620302885 -0.9556783120032878 2.3351732493033293 43 48 23
11.639440150327228 -0.988819875799938 2.0765013147277687 38 42 24
11.643692907078805 -0.7793848866369574 1.9805288118636863 30 34 22
11.48215377235781 -0.7082072630715214 2.084102609534356 38 42 25
10.850265112877489 -0.8603748758997984 2.2291579289454604 40 44 22
10.92995801830972 -0.9300809670987678 2.112818192954623 38 42 21
11.02481786245087 -1.0212837505309076 2.216968754851583 38 43 21
12.913805845610042 -1.190694780309513 1.8564108473683611 43 46 35
10.93754887142983 1.4197580838084494 1.8144259056269891 23 26 16
10.836777494456955 1.5139554809476226 1.8167380015589971 35 37 23
10.447128797545949 1.8186932909366769 1.9265218866356615 32 36 14
10.424558302068087 1.9149665621528196 1.826676804526664 32 36 14
10.959074503470253 2.2167496842230063 1.813937703900492 22 27 0
11.71467673353756 1.2740551029050637 2.2810671634264055 5 8 1
10.583101725529493 1.507983257312423 2.024487453528393 8 11 8
11.28895320890604 1.1232617360186425 2.313970479499461 9 11 4
10.787683205901754 1.6181942176385937 2.2336529162065335 10 14 0
11.442919409811088 1.6245077989578611 2.426320325803291 30 34 15
11.534271633733058 1.3849315842014953 2.2945973667823965 4 6 2
10.573921376781566 1.6132079954315541 2.024910848383356 24 27 15
10.88073985692148 1.3037678197458318 2.0111916373543934 6 9 5
12.470232567517252 1.632759360862391 2.5927057599843772 42 48 26
13.110399431673532 1.3608107173609638 2.517424502098457 44 48 27
13.129311750407785 1.1291907235544902 2.660405599119862 39 43 21
11.97995346480964 1.644001102961454 2.66381533754069 41 47 25
12.055084245597676 1.8208154167092108 2.6519154466475983 42 48 26
13.02644788142487 1.4912822189236357 2.5264291482468795 46 52 32
12.470232567517252 1.632759360862391 2.5927057599843772 42 48 26
12.731433023804092 1.190338887738329 2.5600264776155957 36 41 14
12.165802900812036 1.064934373579929 2.485293365492407 38 40 18
12.727693250953607 1.1232617360186425 2.4299345328311763 33 37 18
11.28495572124811 1.952635059464032 2.801455324693361 44 50 27
13.662659596110215 1.0467518570919676 2.75192200492158 41 45 24
12.577646159750456 1.2293089167892493 2.7526917783226743 43 47 25
11.685544356953894 1.8810921976228483 2.4027382071665038 40 46 24
10.967000111679903 1.8810921976228483 2.341293376917936 29 33 12
10.63219086600716 2.0490319203343645 2.0222373501505535 29 34 5
10.721802546257551 2.349152277035378 2.1245507906685352 38 44 22
10.84977300960802 2.3478597790634517 2.351834772175068 42 48 26
10.893466373985296 2.277859469599984 2.0106411453671194 32 38 15
11.330061906222154 2.053481158975003 2.4378631980146133 43 49 27
10.949850157857378 2.166620112251127 2.342814732956705 43 49 27
11.22857348905193 1.9970537985999517 2.3189231416007248 40 46 25
10.474196665188716 1.8464938790321268 2.1392339307384622 29 33 12
11.604298470765606 2.1253694645550785 2.5509647254523844 43 49 27
11.135843684238983 2.4478051151420437 2.4586701807151643 40 48 22
11.941987456929082 3.050467214556852 2.6699921788008503 36 44 17
12.453198333791553 3.029926373418372 2.7778543693937476 38 44 17
11.588634723710634 2.567584964822647 2.5529837503691457 40 48 25
11.187876541641845 2.3376486067804025 2.8268914560782754 44 50 25
10.521287810516483 2.5091767540986463 2.72900979081619 44 50 25
12.18958141034295 2.709174481277274 2.63159895677399 42 48 23
11.83701020697715 2.770199974919213 2.5222530813930346 42 48 23
12.18958141034295 2.709174481277274 2.63159895677399 42 48 23
12.532739684909766 2.814520738061728 2.7615314796728825 39 45 20
11.452335865664406 2.173270543055129 2.7623109286870005 44 50 27
11.165676322088581 2.218924913491542 2.6124087339916375 43 49 24
11.79590658020598 2.0618343862184534 2.6948855923586548 43 49 24
11.667364542651343 2.9124050072536214 2.5429504669803786 41 47 20
12.024910797607397 2.871865148230363 2.6566444543100944 39 45 20
11.582424825276913 -3.062684306911241 2.553787401290827 38 46 18
12.453703604622413 -3.027104475647491 2.777747805887082 37 45 18
10.716917472679818 -1.62441792124267 2.364200053149052 41 47 20
10.222789382566468 -1.5007144966661214 2.155023281135225 40 45 19
10.329552343197689 -1.3852002881790908 2.148204373353316 39 45 20
10.820725914279281 -1.170725349688541 2.1189082441680993 39 43 22
10.351722136877585 -1.2376968805173194 2.2669710919802957 39 44 19
10.659111163102768 -1.065754619451798 2.369726314293928 42 48 22
10.147113991109704 -1.3611525371482553 2.2839449169772283 39 45 18
13.550039556554518 -2.3412290237171054 2.7726871423980164 44 53 23
13.550039556554518 -2.3412290237171054 2.7726871423980164 44 53 23
12.534245817073394 -2.811959698864028 2.7612308011162274 39 48 20
11.668982370550893 -2.9105417871857875 2.5427472510519507 37 46 18
12.026480527715693 -2.8697025748932803 2.6563968018691777 38 47 19
13.036591040517827 2.517339828551428 1.3886411386045445 18 21 0
13.569147554145903 2.351388260867107 1.395865683555453 28 33 8
14.098159557257343 2.4018578819154657 1.6160962920559512 26 31 6
13.712597586741637 2.5601890226921995 1.4713389060718556 14 18 0
13.127253055216812 2.623917201490704 1.54324920801623 17 21 1
10.859082366991291 2.3500977314786202 1.8162224254041899 27 33 8
14.223206506045885 2.5013805668416813 1.545372297363433 19 23 2
14.088337284191367 2.4018578819154657 1.5451288570884212 31 37 12
10.806266965119098 2.5031644599647884 2.1197253202362147 38 44 21
11.059128419641722 2.5625589663644965 2.0036034459121552 37 43 20
11.606642167880697 2.9840527396920833 2.179678348477804 39 45 21
11.881079802376986 2.7475617522871754 2.269083710761362 42 48 24
11.900888268938058 2.7006450867806886 2.38308616686548 42 48 24
11.387225113382858 3.07500002311043 2.4319686611753673 39 47 18
11.646618664693374 2.816674909770279 2.4064144187590957 42 48 22
11.387777681088343 -3.073307766839194 2.4319121671871176 39 46 18
12.028672950544177 2.7858439453380233 2.1554176478353 40 46 22
12.430603909813842 2.9989814949906726 2.134167048900882 37 43 20
12.092579268414683 2.906318993796446 2.0558679482629287 36 42 19
11.613380949175125 2.6505085508427566 2.179273815662997 41 47 24
11.777162548007468 2.882353857562035 2.169617961516024 39 45 20
13.000385711290184 1.1176252878225315 1.388128136369445 11 11 11
11.970972681056699 0.7169316726513145 1.8796193163180495 6 6 6
11.96233143450816 0.8410613864917644 1.8798497831042775 8 8 8
11.676337132420352 0.9635058641719392 1.7115812870943539 10 10 11
12.260068483674264 0.23111471488262153 2.0486809484691073 1 1 2
12.593598350915023 0.1400316617770085 2.12601267242618 1 2 0
12.014451024391116 -0.04774013500214646 2.05929854398619 0 1 0
12.753673062310295 0.34912507069655563 2.212947908775292 0 0 0
12.178882380388384 0.6943903881658342 2.3592947639506856 41 42 28
11.98942432461882 0.8489420870037762 2.1575856547886545 5 4 1
11.482225698225971 0.85941754500079 2.298610599757508 34 35 22
11.71943911642663 1.0747053231360981 2.172982994833344 7 7 4
12.14658314317972 0.9881398239879557 2.1490069921656465 5 5 6
11.667516753139353 0.7760747972844356 2.404435866326595 39 41 23
12.325240317014803 1.0205361299588631 2.347416953452154 23 24 10
12.022669185665675 0.431033897380923 2.3724563314733027 38 39 23
11.32553393351523 0.431033897380923 2.311006438374357 30 31 25
12.1979154826818 -0.058823025594244654 2.357725939421241 33 38 15
11.761707391632015 0.5979712249936523 2.39565746400985 39 41 23
11.754680239375528 0.4816418850981665 2.170923735623891 1 1 0
11.59685807414341 0.1720279243447712 2.2898375462172744 37 41 22
12.606713524824022 0.222664019014517 2.575251993696293 36 41 16
13.38772762001842 -0.07659438008445936 2.624652645322689 37 43 16
13.29585910994573 0.774023798063382 2.636939622764918 37 42 16
12.523338793937562 0.3171632308980731 2.4490691017839024 36 38 17
12.278851231698363 -0.8965635644120847 1.7046304354393986 24 24 26
11.74014806861917 -0.3195340546460543 1.885898141613339 14 18 15
11.706171804133657 -0.8417970215424976 1.7981373362098423 22 23 18
11.529928315416988 -0.717762896282379 1.7133811323036459 18 21 15
12.11094448096188 -0.7800880396767452 1.6235357138701936 21 23 20
12.15466434435205 -0.21284016743775097 1.7896094638482478 9 11 13
13.073718203517984 -0.5353737372997497 2.3997678982135096 38 44 19
10.92995801830972 -0.9300809670987678 2.112818192954623 38 42 21
11.737002540421802 -0.647838639496905 1.97707858305114 26 30 17
12.28013545746483 -0.17344851023542723 2.3510324569081984 33 39 16
11.662825531215894 -0.5696546715766485 2.0753913530198265 36 40 27
10.84645685933999 -0.7784670952526775 2.1174605754505276 38 42 23
11.036796620302885 -0.9556783120032878 2.3351732493033293 43 48 23
12.595097205551028 -0.14119589728971474 2.1259388558908068 2 5 0
13.462683074292459 -0.22447785801696274 2.614941953589038 40 46 19
13.003022045756708 -0.17344851023542723 2.405719886317401 35 42 13
12.120166104883781 1.2674889769499813 1.458219278446197 4 6 5
10.703849694941953 2.137341072411581 1.9176256887704621 26 31 2
10.235557002061789 2.0490319203343645 1.9342125906027572 29 34 10
10.658967324830817 1.7175046760522712 2.02101975575768 36 40 18
11.36446322327119 1.17019395935709 2.1946153500153733 6 8 2
11.438758379745238 1.500611000095045 2.302001489587684 3 7 0
10.871056990943778 1.7344861301475158 2.227679417790707 22 26 6
11.156752504748077 1.404128185227491 2.100621536813779 2 6 1
12.968600471479133 1.2878776162241183 2.6847081855815533 42 46 25
13.269393434086307 1.2371780456511972 2.5009750161797504 46 48 29
11.70622125062869 1.7835641138668084 2.538101677968587 43 49 27
11.988057134896865 1.462530720796187 2.662511469047906 41 47 25
13.36715571728777 0.9315524955235582 2.8098729644451668 42 46 25
10.743748608387675 2.264758196560363 2.236849408676479 42 48 26
11.143996530837393 2.246415646454947 2.457771371474189 43 49 27
11.685544356953894 1.8810921976228483 2.4027382071665038 40 46 24
10.936625543545993 2.102006914888203 2.223064487360115 37 43 21
11.351386340406187 1.9831133355193005 2.585069745676357 41 47 25
10.802079080468081 2.343026131953239 2.673156058193238 42 50 27
11.157539316988267 2.470825212910615 2.613657085421285 41 49 26
12.024910797607397 2.871865148230363 2.6566444543100944 39 45 20
11.327358010172912 2.709174481277274 2.588488905211462 42 48 23
11.509913070006323 2.3459862112732535 2.563309528012743 43 49 24
11.581881544125478 3.0646378714777973 2.553857796877944 38 46 17
11.83701020697715 2.770199974919213 2.5222530813930346 42 48 23
12.453198333791553 3.029926373418372 2.7778543693937476 38 44 17
12.18958141034295 2.709174481277274 2.63159895677399 42 48 23
10.147113991109704 -1.3611525371482553 2.2839449169772283 39 45 18
10.646707474598362 -1.1239160103264179 2.2440324997914614 40 45 20
12.935969281290008 -2.217579487018749 2.68986677932808 46 54 24
12.693301498580203 -2.6240990076975805 2.7310270990011163 40 49 19
10.942487182244747 2.4836616676718015 1.8143137296317038 30 34 12
13.844250277928491 2.456885728211666 1.3255311221501256 20 23 1
11.407132737134981 2.6957748974441955 1.9895533709037556 38 44 21
11.453611951368158 2.9656690275577495 2.300838707856497 41 47 21
11.507046427402784 2.7858439453380233 2.0828835859439527 39 45 22
12.124503396552491 3.089134854067306 2.2523485394605256 39 45 20
11.881079802376986 2.7475617522871754 2.269083710761362 42 48 24
12.337661392332665 2.8175875785687485 2.045426397940049 40 46 22
11.092335921386999 0.646907234299719 1.8109587846854691 5 5 4
11.65688926473006 0.5686159620534541 2.075672625260737 2 2 1
12.523338793937562 0.3171632308980731 2.4490691017839024 36 38 17
12.51494661939246 -0.04774013500214646 2.129915793808143 0 3 0
12.001488900780105 0.7774991453190032 2.2606919468367868 17 18 9
12.501867640210659 0.31846329531577117 2.038689423338179 2 2 0
12.904599084706325 0.04254590278598389 2.022980966630886 0 0 0
12.363114465165243 0.19413876795666665 2.4648417548296737 35 40 15
12.501867640210659 0.31846329531577117 2.038689423338179 2 2 0
12.763880333423074 0.3613979950259719 2.5561708986468146 37 39 15
11.362969899022731 -0.9111383751880374 1.8967373651491526 32 34 27
12.0979179261776 -0.14119589728971474 2.055635371365915 5 8 1
12.184720523212885 -0.3502824426719375 2.1469657110533653 32 36 21
12.763601487588092 -0.43240038159627703 2.426678522342865 38 44 17
12.585450575548366 -0.7082072630715214 2.2229823925174763 38 44 21
12.166925827941002 -0.647838639496905 2.0526499607662663 35 39 25
12.488052589752135 -0.5957684221002995 1.9513442257954976 21 24 15
10.784612798603241 1.2086156043302465 1.9149202835031296 10 11 9
12.158178726677265 1.6856066824764384 2.8481401554203862 43 49 26
11.727023969067037 1.2371780456511972 2.3988637462878484 20 21 9
12.087275371606482 2.642098542226097 2.4937753545154173 40 47 22
12.289142819482333 1.7558626373084658 2.472370264713721 42 48 26
12.478017836920856 1.4791014098548818 2.5916864252924303 39 43 22
12.98405332016854 0.8957639449712799 2.6822930370899623 39 44 19
12.215451693989106 1.6245077989578611 2.4800341391306495 47 53 33
11.633470715976978 1.8733977340977537 2.7249856943694706 43 49 24
11.01647903649651 2.083239103996616 2.8788571162696317 44 50 25
12.727693250953607 1.1232617360186425 2.4299345328311763 33 37 18
11.555599064957258 1.6602127518723773 2.7404865738470825 43 49 24
11.38083237331398 2.4324696114014825 2.3065768931899835 41 47 24
12.501847880261266 0.9910752268438939 2.58858465032654 36 40 18
12.927973068694683 -2.4690737211954223 2.691143270838297 39 48 18
11.397083234588226 -1.065754619451798 2.430962155778532 43 49 23
10.725975431949168 -1.4914149691129914 2.36334230806531 41 47 19
11.668982370550893 -2.9105417871857875 2.5427472510519507 37 46 18
12.70958418269559 -2.060672387109547 2.728093896025917 46 55 25
10.364478855052717 -1.191005976336165 2.399389726786761 42 48 21
11.626376993779571 2.8531036183229186 2.2876171641698653 40 46 21
11.547367725588414 2.596026578032632 2.2935954581541678 42 48 25
11.474158402768397 2.9424921933804074 2.423192036845334 41 47 20
10.885125884510375 2.421525902186844 2.0110017560011433 33 38 15
11.017320711670788 -0.8497742141743507 2.0053574078104033 38 42 28
12.418362541902553 -0.5208902849916514 2.0420902754676677 27 30 22
11.672837450601646 0.5341474660874302 2.2841537864066632 11 11 8
12.026332253235436 -0.43240038159627703 2.3721417243754157 36 43 13
11.767520234135512 0.2823158376716495 2.2772116112285063 35 36 23
11.73003099443443 0.646907234299719 1.977334290090321 3 3 1
12.014657957860999 -0.8751437045009478 2.501804744141994 43 50 22
12.409965926365787 0.4010658147676076 1.9538627020103188 2 2 1
13.310664659275073 -0.3186578907029935 2.496827459657641 38 44 17
13.156411632868272 -0.2836655364290434 2.3929348223787894 36 42 14
11.368673175638225 0.5199031778587646 1.8050105907632674 3 3 3
11.353552065255828 0.9104212502951896 1.8970177479485197 10 10 11
12.262634418409686 -0.2322396675154723 2.0485725765967437 10 13 6
11.71467673353756 1.2740551029050637 2.2810671634264055 5 8 1
10.573921376781566 1.6132079954315541 2.024910848383356 24 27 15
10.747770323676594 1.9518509125444676 2.123057640840475 28 33 8
11.9425143563861 -3.048157733429474 2.6699056738094304 37 46 18
10.258543340150846 1.9518509125444676 2.0399736586172077 29 33 11
11.161752939594516 1.2086156043302465 1.9993596153733157 9 11 9
12.534245817073394 -2.811959698864028 2.7612308011162274 39 48 20
10.222789382566468 -1.5007144966661214 2.155023281135225 40 45 19
11.668982370550893 -2.9105417871857875 2.5427472510519507 37 46 18
14.280319901726171 2.4018578819154657 1.4046606224949756 26 31 6
12.061287946662665 3.082905587666227 2.369154212913169 40 47 19
12.924914423715222 0.057364128553402026 2.41241820688635 35 40 15
11.813839593264715 -0.4020719483221166 1.7960294821705713 16 19 18
12.357956960415509 -0.155682554718072 2.237117108572834 39 43 27
12.549270071091234 -0.3706143825216746 1.7017297211317322 18 20 22
12.434479345035161 -0.7754217832680168 2.5974255069021535 46 55 26
13.003022045756708 -0.17344851023542723 2.405719886317401 35 42 13
11.867661400550809 1.9252051984408647 2.5186394180621283 43 49 27
12.972417495985725 1.064934373579929 2.5323481538790196 34 39 12
10.79209526922989 1.7558626373084658 2.357146828284307 27 31 12
12.184564336763827 -0.695515788204035 2.3588256500543725 39 45 19
12.519100559323357 -0.5992730976194333 2.449477286302113 39 46 20
12.275745630038486 0.051398033204145974 2.242393859433715 27 30 16
12.161715539175352 0.779347809082691 1.4586055127077524 7 7 7
11.098231207276141 -1.274468850606172 2.21198926710702 39 44 21
12.565634006649335 1.329634928728965 2.5804146940489554 39 44 19
11.653874278936515 2.529642648807627 2.4057261902486085 42 48 25
11.97995346480964 1.644001102961454 2.66381533754069 41 47 25
11.630246196251724 0.9881398239879557 2.0769391056591746 9 9 8
11.192959312107874 -1.0753248489608054 2.098728029994282 38 42 23
13.596877612921515 0.7708160091182913 2.763877102574421 41 45 21
12.00846132904178 -0.43898945002661305 2.0595636522546554 31 35 24
