10.11688735322943 1.3242048200933778 1.5154273539462424 29 35 10
10.009016554462558 1.4222683030276209 1.7151801770753117 29 35 12
10.400151639215368 1.2307413590352985 1.6131280160758308 30 36 13
9.563041798954593 1.1954537860141499 1.7219641334305913 31 36 13
9.244946009435866 1.4056721921323694 1.8379026227977533 31 37 14
9.92068114297756 1.4222683030276209 1.5143311404811295 29 35 10
19.310868698541764 -0.5832283787163237 1.8563753714076054 44 54 30
10.545832839459797 0.6003288377653483 1.8042951596859769 39 45 22
9.031026363249888 0.31897343669871026 1.7309441118212288 34 42 20
9.031026363249888 0.31897343669871026 1.7309441118212288 34 42 20
10.03109942051567 0.5154202738291422 1.8165175418579713 36 42 20
9.883791085907008 0.5308545410370278 2.2804676017038377 37 43 20
9.544511068477837 0.408125434746513 2.3114173707339845 39 45 20
10.309265780035634 0.6381851011087125 2.2455344411370257 36 42 19
9.959928927659425 0.31897343669871026 2.032862787266216 31 38 13
9.895027534784752 0.4215005462682049 1.9258726669565764 34 40 18
9.544511068477837 0.408125434746513 2.3114173707339845 39 45 20
10.057999001986586 0.6601348963303184 1.9198713029722376 37 43 20
9.991170263798882 0.8102822194096221 1.922306970923685 33 39 17
10.246577311157864 0.7308158229579628 2.130483514884897 35 41 18
8.892308329276286 -0.14129390462253638 1.8487708070205084 29 35 9
9.312803043500416 0.20902889821082668 1.9491567157949024 29 35 9
9.561656768748307 -0.024114004196350878 2.053716853387357 27 33 6
9.300863231052107 0.27091473387794207 2.335637251414106 40 46 21
9.204952621391397 -0.18413073479643227 2.345685507564938 41 48 19
9.160481545703707 0.1224660874913033 2.350450329193016 39 44 18
9.388264912565125 -0.3285463100589672 2.3267405454630286 42 48 21
9.810301258179207 -0.2547097236008087 2.040473210762263 29 35 9
9.217016678207429 -0.14129390462253638 1.953291212889441 28 34 7
9.128131651965766 -0.03156863374804862 2.3539599199522194 38 45 15
9.239807022307597 -0.027342441274628714 2.200333057655232 43 49 21
9.217016678207429 -0.14129390462253638 1.953291212889441 28 34 7
9.27176728046189 0.10619479284379638 2.1978244959962385 41 47 21
9.309773260167745 1.0505876630509132 1.835997629157132 31 37 12
8.483970223571298 1.2227349302042818 2.1215792864751988 36 42 19
9.265027874164787 0.9894238650604265 2.070579084163163 36 42 19
9.375072685740415 0.8934503825078579 1.9465177995672363 31 37 15
9.981887590831171 0.6070073178267551 2.4118747319622167 38 44 21
9.91454583893005 0.8210217347176098 2.4195014010160265 41 47 24
9.646058530945705 0.47281790173223615 2.4516969438086345 39 45 22
10.047803665901371 1.031867914034645 2.404569774986872 41 47 24
10.278739509774095 0.8934503825078579 2.128524352781466 38 44 19
9.090538491789157 1.3849487964340943 2.081090091933622 34 40 17
9.198947320311646 1.1524713155638586 1.9540815873620456 32 38 15
9.783710468553737 0.9894238650604265 2.160408827817342 39 45 20
9.04754109014609 1.2227349302042818 2.2159010263072925 39 45 22
10.244076348781748 0.814699170083336 2.250635740697078 38 44 19
9.234259098690794 -0.03733940229815305 2.507667616789322 39 46 16
9.374960161824616 -0.3618250007172083 1.8341096051658474 34 40 13
10.058752028242731 -0.46093266221082474 1.9198440545058992 35 40 15
9.672015476359753 -0.46009138160203306 2.2994306483044165 43 49 22
8.984646176534293 -0.6777124475934502 1.9637182032945262 43 48 23
10.058752028242731 -0.46093266221082474 1.9198440545058992 35 40 15
9.43800824633811 -0.5765324919797118 2.1851200098261963 45 51 24
8.820281047242823 -1.0158853844661289 1.8511018834455775 46 51 24
9.23440456561705 -1.171098835632482 1.8382150132279773 43 48 21
8.683964355459029 -1.3940030059858184 1.8556239252310773 42 47 22
8.820281047242823 -1.0158853844661289 1.8511018834455775 46 51 24
9.772238076360862 -0.5302326113228104 2.4361940422076467 43 48 21
8.379617838271733 -1.0613632034696805 2.1292459059816853 44 49 22
8.58856039550965 -1.3700781095384376 2.1141168917752977 42 47 22
9.276152100146579 -1.1925047312782937 2.338197005157387 41 47 22
9.303379471304192 -0.760888850744336 2.1953646409759635 42 48 23
8.97608644432058 -0.9832870792712655 2.370968116859069 47 49 23
8.382675078359373 -0.9469074442989072 1.993672590874147 45 51 26
9.145688530162962 -1.3700781095384376 2.207849743038105 42 47 22
9.435292963341448 -0.6556681948588493 2.3220519127930737 40 49 21
8.7831944234796 -0.6556681948588493 2.2387475512281347 41 47 20
9.773631245048682 -1.3700781095384376 2.2901897653948384 41 47 22
17.73550874156903 -1.3720088755919184 1.4259542371211014 40 46 20
17.1940736066504 -1.480586928054036 1.241518232035009 36 40 11
17.73550874156903 -1.3720088755919184 1.4259542371211014 40 46 20
9.882071551290283 0.8308212394475787 2.5945845644587626 41 47 24
11.111574260452985 0.7044851995947289 2.5859768637356297 41 47 23
10.436795207623263 0.47281790173223615 2.512716813486596 41 47 22
10.531244568171205 1.1685566839318358 2.500489662375129 41 47 24
10.307617224091105 0.9450233199697512 2.5301557456242243 41 47 24
10.342901758081842 1.3230924742079926 2.525306333117824 41 47 24
10.96615546361098 2.2097261777819828 1.6109419145407793 37 43 20
10.491344530269963 2.1324039804138373 1.7084989705370897 35 41 18
9.788337439569041 1.9528625580842403 1.8227422979343084 34 40 17
9.25605426655846 1.7434886446751954 1.8375742338919765 33 39 16
9.45971907543853 1.63146115650854 1.9429905829817131 33 39 16
10.803295381514378 2.004306494094954 1.611547443514024 36 42 19
10.2202950484951 1.823953430960455 1.7121751464604056 35 41 18
10.019277731233748 1.7261573589510326 1.715031272751768 33 39 16
9.91205917104022 1.5232865382824583 1.7166025494557229 31 37 14
10.1338014995074 1.823953430960455 1.5155198636243683 27 36 10
10.071637943620681 2.118385898657551 2.4019662371393524 46 52 29
9.765725075214991 1.9830014288283146 2.4369775830997664 45 53 28
8.853743755645192 2.050365110263807 2.096124367941531 39 45 20
9.066450401969162 1.927736519220563 2.2143324925659407 39 45 21
9.377833580812272 1.6492498423370197 2.327789735062023 37 43 20
10.087393472555279 1.5023688644739 2.400255986042918 39 45 22
10.090788457442155 1.6492498423370197 2.3998885797587066 38 44 21
9.699524313841595 1.927736519220563 2.2969023874807553 43 49 26
8.699275419280898 2.118385898657551 2.2463811055431004 42 48 25
9.374180393331107 1.5023688644739 2.3281579732931923 36 42 19
8.98367378600744 1.5111239759860344 2.0877609996663953 34 40 17
9.101835196200335 1.7651174573201767 2.0803955024272813 34 40 17
9.224975022228929 1.9964345907601797 1.9529441673869354 36 42 20
11.004115345351419 2.469112441490983 1.7020442638933355 36 42 19
10.435626427509712 2.407679403471583 1.8068076135071238 37 43 20
9.866961253734813 2.1881358649594906 1.820691647744105 36 42 19
9.15127845949416 2.234670755850118 2.2073978160170027 43 49 25
9.79809459360126 2.416011996102631 2.0411056401751466 40 46 22
9.161558439613932 2.3331126742532016 2.076756223685028 41 47 24
9.415175978843022 2.2542331674164156 1.9448381797010608 38 44 19
8.638931223176915 2.540408113148174 2.251991537557541 43 50 27
9.221415931031439 2.3281672028872444 2.3439388014000495 44 52 27
9.122651334581404 2.4275571275035874 2.2097196746127286 42 49 25
10.1605695414254 2.1881358649594906 1.916199379343406 37 43 20
7.196715235963489 -2.9273448894830953 2.235677256853822 46 56 29
7.098193071557572 -3.104715027974792 2.246605507054812 44 54 28
7.139746464312776 2.9987731614619815 2.241947973748064 43 53 27
6.879013480910807 -2.762569813735603 2.0944988036243135 51 60 32
7.967728886685782 -2.882010018754134 2.512014661335673 47 60 33
7.3189899759615535 2.82782082372106 2.2226462891798855 44 54 28
7.387327018642628 -3.110354766685045 2.05519827728622 43 53 26
8.92665981303594 -1.8703959336074722 1.8476728492982226 49 57 34
8.912266557712151 -1.6358240175451642 1.9670866536203455 44 50 26
9.0275688764147 -1.7556694764265224 1.9617483350723848 46 52 29
10.469461810700695 -1.780628386806607 2.3612181975856563 52 60 37
9.615509633983818 -2.088605471254023 2.304687579777428 52 62 37
10.469461810700695 -1.780628386806607 2.3612181975856563 52 60 37
9.039475831786449 -1.5062365484248745 2.216572604068861 42 47 24
10.01347941137226 -1.9585871550184897 2.4083542656997263 52 62 36
9.784139286737632 -1.780628386806607 2.28924934474497 50 56 33
9.743198101148923 -2.1673693821479456 2.4397013671304313 51 61 37
9.376440539007445 -1.9090516803382014 2.189759254278991 52 59 36
9.341553299882197 -1.735968457876833 1.6179284783230399 44 49 24
9.226462421163706 -1.5202377063848473 1.6185168486450725 44 46 22
9.226462421163706 -1.5202377063848473 1.6185168486450725 44 46 22
8.788510443417245 -2.2875102977843222 2.2382704338316994 49 59 34
8.39581382737068 -2.616777686443084 2.275695167617679 48 58 31
8.503025004350466 -2.5264096975738517 2.4301062711931594 47 57 31
8.928034471878474 -2.3939487127184274 2.3765276318134463 46 57 31
9.600749835481533 -2.1325474416567487 2.051583044180078 52 60 36
15.102514066174255 2.886135002900195 1.4673259821275382 20 28 5
17.399821383863753 -1.5437311666028768 1.4231395720661295 35 36 10
17.137814090881275 -1.542061801489235 1.2403962333066847 35 37 9
10.252444880257901 1.6627155116731354 2.537874382607091 41 47 24
10.032846085461566 2.056928173256573 2.570386116797414 45 53 30
10.792816750830902 -1.673096216610037 2.635545466793785 52 62 38
10.789642662957801 -1.4815392391160265 2.6360765575802825 49 55 30
11.308990172577621 -1.6566960582715604 2.5584660916114306 48 56 33
11.264469473140558 -1.460464232311052 2.7566474641796685 50 60 36
19.616062268349314 -0.5832283787163237 1.9053088270711966 58 66 44
10.386276021466239 0.738458137250695 1.8079504747103141 37 43 21
9.388880224354414 0.4215005462682049 1.7247904305030954 38 44 22
9.92229601724529 0.5709969775346666 2.03475256860497 34 40 17
9.651369741656438 0.3583198885665948 2.169610613288236 38 44 20
8.812762456600955 -0.024114004196350878 1.8513475007942104 27 33 6
9.08193331451831 -0.2547097236008087 1.8428176392130353 32 38 12
8.773129571604173 0.20902889821082668 1.7356943548222596 32 40 13
9.496881826282088 -0.2870835428565052 2.1807539257373603 47 53 26
9.315707118406305 -0.15991701354023527 2.1944110832239185 47 53 26
9.239807022307597 -0.027342441274628714 2.200333057655232 43 49 21
9.646058530945705 0.47281790173223615 2.4516969438086345 39 45 22
9.681851517210921 1.2227349302042818 2.2985243406185845 39 45 22
10.244076348781748 0.814699170083336 2.250635740697078 38 44 19
9.369604855872256 1.0991946738402314 2.1902790481715333 40 46 23
9.78632908124152 0.8934503825078579 2.0417168997960475 34 40 17
8.82759901675302 1.3583666737244977 2.2347852835387774 36 42 19
8.82759901675302 1.3583666737244977 2.2347852835387774 36 42 19
9.748172296958954 1.1685566839318358 2.4390980890783043 41 47 24
9.762081916386471 -0.46093266221082474 1.8234346901416292 38 43 18
10.08218111733139 -0.3618250007172083 2.026832966139541 31 37 10
9.650245904214653 -0.5128675163591967 2.048909563554973 43 48 22
9.777480745509454 -0.40540955036170806 2.1608351385965308 44 50 23
8.899199437843198 -0.5765324919797118 2.0931660986635947 44 50 25
9.654311112595867 -1.0723199988887764 1.8263175350142058 44 50 24
8.355514108729778 -1.2410279177083212 1.9951359594074918 43 48 23
8.756290342584967 -0.760888850744336 2.1025878461195084 45 50 25
8.639365282161222 -1.1283266045962395 2.4119903325848666 46 51 26
8.612011888148801 -1.1925047312782937 2.2545280381888793 41 47 21
9.330546832123455 -1.4128743788306481 1.6179841174692648 45 46 22
10.275545412391685 0.7044851995947289 2.5346220733366582 41 47 24
10.748748167496448 0.8308212394475787 2.642993682820085 42 48 25
11.264965454874211 2.085053114957234 1.5210752474796418 36 42 19
9.915514189032232 1.625281167386653 1.7165513809799382 32 38 15
9.473280593763283 1.8513188693879106 1.8313128416757427 34 40 17
11.051552591175705 2.2097261777819828 1.7014776643324008 37 43 20
10.192156516339708 2.0467676664097234 1.812556513707998 35 41 18
9.473280593763283 1.8513188693879106 1.8313128416757427 34 40 17
10.19276784369902 1.7928380328127893 2.389032723551432 41 47 24
8.889975227077445 1.8850991902319962 1.9681360772723862 35 41 18
9.101835196200335 1.7651174573201767 2.0803955024272813 34 40 17
9.487479501538187 1.7928380328127893 2.3169269292550805 42 48 25
9.778862227613155 2.234670755850118 2.2897212675097425 44 50 27
9.161558439613932 2.3331126742532016 2.076756223685028 41 47 24
9.652391868518631 2.0975961791055355 1.93520969712166 36 42 20
9.79809459360126 2.416011996102631 2.0411056401751466 40 46 22
9.221415931031439 2.3281672028872444 2.3439388014000495 44 52 27
9.29824086122333 2.1591765191638093 2.068629754642293 39 45 20
10.03563866105589 2.336574827297462 1.9206824055179377 36 42 18
9.824753825721038 2.2542331674164156 2.0397267138044097 40 46 21
8.067299704202616 -2.762569813735603 2.3108704955860153 49 59 32
7.801040225386887 2.9987731614619815 2.3425021573254403 43 53 28
9.784139286737632 -1.780628386806607 2.28924934474497 50 56 33
9.25016240079645 -1.8703959336074722 1.9518500548082893 48 54 31
9.69464500661263 -2.0268823052990004 2.1665676600831794 52 60 36
9.170926495224007 -2.0268823052990004 2.0761903362397844 53 60 37
9.989889198833975 -1.9090516803382014 2.2713803440525524 52 60 36
8.908422451423004 -1.5140876527769063 1.967267217532835 41 46 21
9.2301740737563 -1.628775785329089 1.618497644620447 45 50 25
9.556836436668618 -1.8394758444013266 1.6168659902159437 45 50 25
9.415215404890908 -2.201920528395165 2.1868286466281814 51 59 35
15.028187820421538 2.886135002900195 1.6000871140429729 23 31 8
18.82158814613038 -1.6037544134504718 1.0380270317277556 34 36 10
17.401789816368296 -1.6018399799541083 1.4231563969384844 36 37 12
17.399821383863753 -1.5437311666028768 1.4231395720661295 35 36 10
17.139812613803738 -1.6037544134504718 1.2404362239789313 32 34 8
10.330852104122798 2.205889570411207 2.5269549374117757 44 53 28
10.352832010876222 1.8295777584577149 2.523953454556328 45 51 28
10.234336990688382 -2.0239612757356533 2.540444870909667 50 62 36
10.488708676477753 -1.6566960582715604 2.505943920665366 45 53 30
10.888222905493487 -1.8574861553193538 2.619952870552197 53 63 39
12.199878120598171 -1.6971952316034153 2.7868171324599404 52 62 38
9.557681504466533 1.4056721921323694 1.9389923540214014 32 38 15
10.110967250534001 1.3242048200933778 1.6143395023905984 30 36 13
19.616062268349314 -0.5832283787163237 1.9053088270711966 58 66 44
9.12034002616101 0.814699170083336 2.0792620106673914 34 40 15
9.090538491789157 1.3849487964340943 2.081090091933622 34 40 17
10.442394023757227 0.6601348963303184 2.0099811362248508 36 42 19
9.309773260167745 1.0505876630509132 1.835997629157132 31 37 12
9.987020205432668 0.4703696150180586 2.146850909592639 33 39 17
9.592544753969575 0.09372893704441392 2.0520292616120868 29 35 8
9.981887590831171 0.6070073178267551 2.4118747319622167 38 44 21
9.75254313346512 0.7308158229579628 2.043481464606534 33 39 16
8.624161859948867 0.09372893704441392 1.738569479840675 30 36 10
9.747287051398793 0.9142961674878147 2.2925597984601684 40 46 21
9.128131651965766 -0.03156863374804862 2.3539599199522194 38 45 15
9.959928927659425 0.31897343669871026 2.032862787266216 31 38 13
8.840220047758134 -0.9469074442989072 2.0970113533069834 43 48 23
8.90745374976407 -1.2788371911894203 1.8482856361052349 44 47 21
8.686914485635764 -1.2788371911894203 1.7373461439020268 43 48 21
9.01617912146384 -1.3940030059858184 1.9622690655253752 42 47 21
9.762081916386471 -0.46093266221082474 1.8234346901416292 38 43 18
9.650245904214653 -0.5128675163591967 2.048909563554973 43 48 22
8.893439038233614 -0.7552380916111833 2.3805877199766585 40 49 21
17.013168769857433 -1.4197873890104822 1.2994587115276541 37 42 14
10.015761451885554 1.095896499028888 2.5730458149796154 41 47 24
10.81089486823373 0.55935980768422 2.6325361813733945 41 47 23
10.42318024777241 1.9170528435325012 1.6130344342073448 35 41 18
9.487479501538187 1.7928380328127893 2.3169269292550805 42 48 25
8.987485706030036 1.6392199793495976 2.0875198783402515 34 40 17
7.763027367241817 -3.104715027974792 2.3472776337373435 46 56 30
6.62664780745978 -2.9273448894830953 2.1166348532964205 48 58 32
7.763027367241817 -3.104715027974792 2.3472776337373435 46 56 30
10.273518383784765 2.2683846652859647 1.7114378339300618 37 43 20
7.9654167054626335 2.82782082372106 2.3226145062565386 44 54 28
7.853213304819023 -2.9273448894830953 2.336058265490415 48 59 33
8.928034471878474 -2.3939487127184274 2.3765276318134463 46 57 31
16.84201369966618 -1.6037544134504718 1.2966304316689228 34 36 10
19.726493944517994 -1.5401730371623943 0.8805840943239439 41 44 18
10.249103443717868 1.4906093595507988 2.5383473085809314 41 47 24
10.488708676477753 -1.6566960582715604 2.505943920665366 45 53 30
10.485442531306093 -1.4958669195796772 2.506366232322568 42 48 23
10.009016554462558 1.4222683030276209 1.7151801770753117 29 35 12
9.410488998803547 0.2360563182071614 2.1871842513600104 40 46 21
10.182681495925024 1.3583666737244977 2.39009115035912 38 44 21
8.826621444910133 1.0991946738402314 2.0979064545994404 36 42 19
9.713365304883304 0.7202052832057143 2.295637848451743 38 44 21
9.651369741656438 0.3583198885665948 2.169610613288236 38 44 20
8.703224195577487 -1.122403523635025 1.9771582315987357 43 48 22
8.75336359405807 -0.861614284257417 2.241439010718727 43 48 21
8.955486410388346 -0.8485906378305176 1.965068143188549 47 53 28
10.2202950484951 1.823953430960455 1.7121751464604056 35 41 18
7.427262966525843 3.0203978907668283 2.0523709300041997 41 51 25
9.685783502943826 2.3331126742532016 2.1671880427491717 41 47 22
9.677854977193334 -1.6448194578118172 2.298892277357761 45 51 28
9.048398256980642 -1.9775580861087874 1.7306339982789105 53 59 36
9.435292963341448 -0.6556681948588493 2.3220519127930737 40 49 21
9.234259098690794 -0.03733940229815305 2.507667616789322 39 46 16
10.403351122092737 0.7202052832057143 2.3676581087087625 40 46 23
10.436795207623263 0.47281790173223615 2.512716813486596 41 47 22
10.366900277340683 -1.5062365484248745 2.371262394467943 39 45 22
9.15127845949416 2.234670755850118 2.2073978160170027 43 49 25
11.677548648601451 -1.673096216610037 2.6770664199547562 51 60 36
10.586855733536595 -1.8132258150953207 2.4934835884465723 53 62 39
9.455184931807901 1.2974799321935737 1.8318230563040458 30 36 13
8.892308329276286 -0.14129390462253638 1.8487708070205084 29 35 9
8.683964355459029 -1.3940030059858184 1.8556239252310773 42 47 22
9.772238076360862 -0.5302326113228104 2.4361940422076467 43 48 21
14.811297898863213 2.9515533551892306 1.5329867498980163 20 27 3
8.870689737814406 1.264461377119901 1.9690486238957043 33 39 16
9.456097522948811 1.5178946905568402 1.943140101104967 33 39 16
8.839231769145426 1.7928380328127893 2.2337558776790853 38 44 21
8.178818308176808 -2.6891120156072934 2.47740053016361 49 60 34
10.252444880257901 1.6627155116731354 2.537874382607091 41 47 24
