23.40783272913752 -0.07890753709680495 1.5626831035697104 66 69 40
23.5033371576664 0.006639181129228981 1.69064430922732 66 71 40
14.38042347873292 -0.07442206768107155 2.2301987004569788 55 59 28
9.92174850143061 1.53430438472203 1.9649359019302641 46 56 19
10.848108119435068 1.53430438472203 2.135997214126885 41 51 12
11.41497384988723 1.53430438472203 2.2100449741185977 25 35 0
10.916481132205906 0.553928997611797 2.0270926029024867 55 61 29
10.904494290494045 0.4187945992911337 1.9277327500093884 57 61 34
11.491379009057999 0.5154312614733467 2.318078555964074 45 51 15
11.536900443935288 0.4624766003126504 2.2022114001014383 45 50 17
11.392529944330354 0.553928997611797 2.10597079416378 53 60 27
11.199603782643287 0.6981935764612475 2.1162152865129826 55 62 25
12.154021971180178 0.4624766003126504 2.268673974407841 42 47 14
11.226051439418777 0.9301603703648609 2.222614257625944 52 62 23
11.859359558725448 0.9301603703648609 2.2896987309418657 51 58 21
11.789954316595065 0.7710421440432903 2.2948621325604956 51 58 23
13.608658542568415 0.6617526687775455 2.621627292737616 52 59 25
13.20014650114444 0.5805449496124447 2.5303526945988195 49 56 22
13.590420536606562 0.12310415488626718 2.377251569982985 57 60 29
13.051471821888573 0.2530214802672891 2.4213507403435712 50 56 20
13.54214478803013 0.01659571704623081 2.380977052521043 58 61 30
13.56760260908779 -0.09028917971925789 2.379007335465924 58 62 30
11.977423992559512 0.32594013488179857 2.1755714610876704 42 47 19
13.580794004159959 0.014990072587593472 2.2766934018536764 56 59 28
13.69858569482127 0.13769884242806124 2.480202375409784 55 60 29
13.69858569482127 0.13769884242806124 2.480202375409784 55 60 29
13.767868425158857 0.46210657602484945 2.6017719315173102 53 60 26
13.573664062096148 0.3279202692989837 2.6261482934813367 56 62 28
14.230457499638963 0.5341079804391002 2.6909976640686684 54 61 29
13.239812551320203 0.28577486070498076 2.526090369568378 54 61 27
13.438842260252247 0.4062365791832812 2.5054466726517433 51 57 23
16.62931055929072 -0.24645646755333506 2.66946241690755 61 68 36
16.70709656731583 -0.15711961586278522 2.81241900536067 62 71 39
16.787412868210833 -0.33301218141770916 2.7986889601008844 64 73 42
11.44447249098974 1.026145805522814 2.3218827734160525 47 54 16
10.786833287594867 1.026145805522814 2.2540678355658508 49 56 17
12.365535254912649 0.9572644185379764 2.487074312619135 40 50 8
11.813955520834849 1.208308405749505 2.5505881902900795 47 55 13
12.510845883664649 1.3573248383583765 2.614071209389367 48 56 14
13.031926550846368 1.386436708294798 2.549022739595072 45 52 13
16.2628507253663 -0.5054303268329235 2.905074644846171 63 72 42
15.920896271165514 -1.3915931270402728 3.02354228137759 68 77 46
16.087630502017237 -0.6688868978126359 2.9555728481020878 65 73 43
16.00380267534192 -0.3473577722738082 2.985844659733479 63 70 40
17.991231656872497 2.823696246198144 1.1596786017653364 24 30 9
10.448620229003941 1.7333841454080703 1.744911891271863 42 51 18
11.256227516536384 1.6362640139987656 2.0123304089961063 27 36 4
15.530786511939297 2.2426124693317644 1.5585679942779767 6 10 5
13.864007548965443 2.0724110127928688 1.5570977747994121 6 11 1
14.419503061791096 2.133464076937751 1.4881814454673594 9 14 2
14.334150518804918 2.4322731734285297 1.7681158268358044 12 20 3
15.454682282536071 2.333781370264033 1.6232374262508078 0 3 1
15.243890503024968 2.2847933976343553 1.8234167230232299 3 7 4
14.856252136426193 2.4322731734285297 1.900513457365549 34 40 20
14.642499152795871 2.133464076937751 1.76390755634543 8 12 1
14.821826169167728 2.3315206581169963 1.9013083981581382 4 9 0
14.234533000835064 2.109422107646364 1.9912433445306994 4 10 1
14.234533000835064 2.109422107646364 1.9912433445306994 4 10 1
14.56541833882253 2.1249804474388325 2.309755886032614 38 47 12
14.58907392756981 2.079710052711659 2.2191596744595676 37 46 18
15.209484072897544 2.4322731734285297 1.9627604892674835 40 46 19
14.929299472822477 2.2174147612468795 2.121325573189597 36 44 21
14.986505462596993 2.277235881369723 2.042511428187499 35 43 20
15.161209918643532 2.109422107646364 2.1119629553850388 10 18 1
14.559367010890043 2.277235881369723 1.9812898838307924 9 15 1
14.56541833882253 2.1249804474388325 2.309755886032614 38 47 12
14.267940911265779 2.2678937655591267 2.150035365052214 38 47 15
14.812793120157922 1.9932479511273604 2.4935880781632065 47 54 15
14.95830437895455 2.2194328371332124 2.5990263803922002 50 57 21
15.12379493848711 2.0442690969107398 2.581141776283439 48 55 18
14.454337213178167 2.5745706010823386 2.2262409634688463 43 50 14
14.393509229404419 2.256052718732544 2.3206933392908002 47 54 15
15.031602456336616 2.5507130534892473 2.117153238125863 37 44 14
13.857111448631985 2.770121412807127 2.1695530971872237 40 46 11
14.067930058796474 2.604960959843382 2.3424717550002847 48 55 21
14.057667636219794 2.651647833927269 2.2481210899784685 40 47 15
13.685247147843857 2.4514039916931334 2.178147137165877 45 52 16
13.722542565741074 2.735613257138173 2.2679209239143523 45 52 18
14.393509229404419 2.256052718732544 2.3206933392908002 47 54 15
14.339369963546401 2.504371786162794 2.146780632209357 43 50 14
14.279571692464193 2.4514039916931334 2.2356850002165625 47 54 18
14.339369963546401 2.504371786162794 2.146780632209357 43 50 14
14.243752004587211 2.325285860635342 2.237658022947866 46 53 17
14.444366234711161 2.770121412807127 2.226771797819424 41 48 12
14.629373221771269 2.4888202842404024 1.9792081679942877 38 46 21
14.363397844195719 2.4407727907995205 2.0647696995800757 40 47 17
14.680109884764754 2.644904684376719 2.5056226965344583 52 59 24
14.464335085305507 2.694508648368119 2.4148785416065053 49 56 20
14.92555117999093 2.2405604511110035 2.483673841991487 49 56 19
14.147505073470459 2.2405604511110035 2.440439226556597 48 55 18
14.50806429806283 2.483319076099589 2.521864142215916 50 57 23
14.678615217578194 2.178001546501022 2.3986062346296326 41 51 12
14.472810132268123 2.3148371181787124 2.525286360376102 48 55 19
14.611815007376842 2.4650799590103474 2.403596681259933 49 56 20
14.50806429806283 2.483319076099589 2.521864142215916 50 57 23
15.429903529457805 2.178001546501022 2.4424630992145593 47 55 14
15.299752002805114 2.3148371181787124 2.5630753761083667 52 59 25
13.39402284215299 2.942235414205194 2.193338828551773 44 51 17
14.128641399277784 2.826093632187832 2.3382995158048114 43 52 16
13.9394642252685 2.9222363104543763 2.3514777850751023 44 53 19
13.859671403508633 -3.0625251592672713 2.2596642120586523 52 59 27
13.820232197242365 3.022670648488713 2.3600607274072227 50 57 24
13.772761999099844 3.125566079913143 2.3635402622374655 53 61 30
13.83475103914345 3.127068475167584 2.2611483619476744 48 55 19
13.894937325521019 -2.952973995667968 2.3546572506563233 53 62 31
14.24380343956895 2.8675552298494598 2.5483616333355976 48 57 24
12.833348633195806 -2.8715548535642004 2.572413417109817 56 65 33
14.080704762950777 3.1213857663795737 2.565766555853015 52 61 29
13.562252953233708 3.1183553459107975 2.627635409466592 56 64 32
13.686307586920766 -2.8715548535642004 2.6118017066644468 58 65 33
13.610457379138374 2.9700341761477267 2.6213964884056584 53 60 28
14.105190594938408 -3.0317956176803342 2.5630981400903963 57 65 33
13.880481438003905 -3.044381006369785 2.463543394479064 57 64 32
13.923513919734264 2.6995306644969155 2.583396333240379 51 58 24
14.428991001692461 2.7511608918737958 2.529586703763873 49 57 22
14.547130170873936 3.022670648488713 2.4084993658825034 50 57 23
14.127140245754996 2.9920576191946053 2.560723165238805 52 59 26
14.547130170873936 3.022670648488713 2.4084993658825034 50 57 23
14.24380343956895 2.8675552298494598 2.5483616333355976 48 57 24
13.38007393832474 -2.9053949608326155 2.511417775538579 56 64 32
14.830336404872103 2.476208829344322 1.5579904082899785 5 12 2
16.54447731327406 2.4657787833544362 1.3767730813772585 0 6 0
16.534977649431177 2.823696246198144 1.4987708092046192 29 33 13
14.891795216438767 -3.016441748528326 1.6926470575397443 45 49 27
15.538381103716766 2.5695492819031864 1.8185274938939604 27 33 12
16.251019690017692 2.8823385826309824 1.4975100516205293 34 38 16
15.925338091595162 -3.0243551097019084 1.4328481156961297 44 49 25
15.153402621766261 3.1310295068122804 1.8249584725395451 43 48 21
15.88908379600236 2.6592710712775833 1.8129488242708984 27 33 11
16.338114660581383 2.687699745309722 1.6203994433986249 17 22 6
15.753581305390409 2.929700374210939 1.8810844941969018 39 44 12
15.19656066086002 3.0630053154821684 1.8242207707526565 42 47 17
17.587688299629217 3.0130038175498597 1.27124899835001 38 43 16
16.46430854892897 2.687699745309722 1.4373913927279725 7 12 0
15.19656066086002 3.0630053154821684 1.8242207707526565 42 47 17
15.916547547430628 3.004894424567486 1.684766624854133 38 43 13
16.063989524470347 2.6035730973701465 1.4340462848592392 6 11 0
13.63348200277409 -2.9847303664466023 2.093831805896789 48 54 28
14.541071232245455 2.9730688705244144 2.0582014490479414 41 46 15
16.062128660002237 2.6273802078092103 2.0086363399074627 35 41 15
15.005136314358108 2.9851928912258088 1.9683963375145732 41 46 15
14.498392082360487 -2.996935859986267 2.059762440498666 48 52 29
14.388927487893255 2.8774682516671404 2.1445454743871477 40 47 13
14.086218245084753 3.0429132514020485 2.1584970170509763 44 51 19
15.328756275620911 2.6561054719284796 2.105406595456084 36 43 9
14.039647415313278 3.1283133471383633 2.16070859784597 48 55 24
14.381344261839532 3.1293616785558074 2.064097825717943 45 50 20
14.388927487893255 2.8774682516671404 2.1445454743871477 40 47 13
15.642318632115236 2.6892486532437476 2.0212379498628503 35 42 10
14.867422689017783 2.591432080306182 1.9722895917251249 37 44 16
15.419915875780903 2.8464348086176785 1.9571260964016668 38 43 12
14.873620309357472 -3.079832302030144 1.9721126926978345 47 52 26
14.640733559275501 2.7994374979374625 2.133469672513365 40 46 10
14.0642047284753 -3.0692781895631507 2.159540174534879 49 55 27
24.084581691307044 -0.2454432728587366 1.5213707020217988 46 47 20
23.53713257707446 -0.1213283460521226 1.5202201436075948 63 64 38
23.93233674183179 -0.2047290867476256 1.4791638833542642 42 44 19
24.234236402346458 -0.3377951257888676 1.3549684665081683 32 30 2
24.232802676295634 -0.37708132601005184 1.4387770961482182 31 27 0
24.02268220279013 -0.37708132601005184 1.5628907621599097 29 24 0
23.11650946327423 -0.48996327113867744 1.6491794385881355 47 43 14
14.725522663177118 -0.19593491887064995 1.6940298970667707 42 45 16
15.333087070778102 -0.41312480307374716 1.8898904086848454 50 56 25
15.104679772327296 -0.2620748531305055 1.7579275381294301 37 42 11
14.950958925831385 -0.2620748531305055 1.692162485328895 38 42 12
15.151145165310439 -0.4039634762835803 2.1913430999603625 56 63 31
15.2537030592333 -0.442542924677951 2.033595768311104 57 61 30
16.08936086801214 -0.47612965749600566 2.2265101965825824 58 63 32
15.330805009671366 -0.348523714442026 1.9594916079352107 50 56 25
15.096864742244039 -0.30219269752604316 2.114526558800889 55 61 30
15.84321580021292 -0.6054434695202454 2.086286175220358 58 63 36
14.498691040237912 -0.9155723081605674 1.9089652019917296 56 62 35
15.823355503896257 -0.8534128152918559 1.685440803244434 52 56 27
15.807885048075308 -0.5850216899252602 2.240281040656031 59 64 34
15.173027751475681 -0.6327471687134025 2.273846898769217 60 65 36
15.319938224410265 -0.2958550636795733 2.451043989208627 60 65 33
15.441468279323585 -0.3562012053350884 2.346290071344068 59 64 33
14.957346146686225 -0.4322603994377848 2.480927971022308 60 67 35
15.75888263724448 -0.4322603994377848 2.5198772421054922 62 69 37
16.581995060821292 -0.4322603994377848 2.555008736512595 62 69 37
15.24507654457476 -0.5265909893488632 2.4570086640393045 61 68 36
15.720340254571804 -0.4384085591801243 2.3290434205434725 59 64 33
15.813943764793628 -0.4787835138214968 2.414056070655573 61 66 35
15.59174505782139 -0.6116206407627702 2.4302068169667432 62 69 36
15.26998660194552 -0.6876070231467162 2.357360071210306 61 67 36
15.24507654457476 -0.5265909893488632 2.4570086640393045 61 68 36
16.35712891155964 -0.42215452196733544 2.7031668798197965 66 73 41
16.926529056659103 -0.4899799881172466 2.776363676419494 67 76 46
16.56036899732414 -0.5455737844104336 2.6776811111385337 65 74 43
14.620724908699783 -0.7452572111949387 2.51114480757006 63 72 40
15.535896450687614 -0.5837989694809574 2.540198812849253 64 71 40
14.748017910128938 -0.7509142619720925 2.393497408093812 63 70 38
15.080916928422686 -0.67288371468918 2.4704551597181474 63 71 39
14.860424627275338 -0.9155723081605674 1.9724895311597312 57 63 38
13.999125954229006 -0.9493263989921636 2.251488862032045 61 63 39
15.01041120604601 -0.8151256599415797 2.1980604550026714 60 65 38
15.045289126435794 -0.7584975927080162 2.1166001402347776 63 63 37
15.079204934282497 -0.868315745357851 2.1152346760156444 58 63 36
15.110729338011257 -0.9305259964161197 2.1932560702429624 58 63 36
15.042963405610916 -0.6989314231867398 2.1964926280661183 60 65 38
14.067890766098172 -0.8915506785753695 2.3424744724563245 61 68 36
15.074563598960125 -0.7551742004335164 2.279395790571378 60 65 35
14.051703680183884 -1.1175228178520817 2.5689534077000866 61 72 39
13.509206365999031 -1.0063298005745769 2.498427689531961 61 72 39
16.40641547729733 -0.7064032458780793 2.871150458363033 66 75 45
16.40641547729733 -0.7064032458780793 2.871150458363033 66 75 45
16.638477314941206 -0.5808756168301067 2.824713472248184 66 76 46
16.11935332826593 -1.132287119667658 2.9453909187734233 68 77 47
16.06751670842032 -1.4538559822219101 2.9623465509507994 67 76 46
13.71544600891527 -1.37829198376161 2.608185192177088 60 67 37
13.71544600891527 -1.37829198376161 2.608185192177088 60 67 37
12.565619735221969 -1.52821838236035 2.4665955112259086 58 63 36
13.28791306092295 -1.0660529515545019 2.40130063213582 60 69 37
13.766639139281281 -1.1689179797500655 2.4738768395554063 59 68 36
13.42324238397593 -1.402336038704776 2.5070218713409678 58 64 37
16.203747647960956 -1.0289344366317243 1.4972958644521344 47 52 27
15.922931303210403 -0.9423894394003752 1.4959972107091726 51 56 29
12.460573495660922 -1.626943781709403 1.881545033321808 51 56 31
11.78771321680426 -1.896752116411352 1.8115054559833985 47 53 30
11.799949985080014 -1.811822564656374 1.8995780812258156 50 56 33
12.73123217034855 -2.121907849128448 1.5558788443523093 51 55 35
12.405720557797775 -1.9770801538565523 1.8829653637997732 50 55 32
12.745209915522178 -2.640269289797996 1.874380957549124 47 52 30
13.233689239546132 -2.571017765622515 1.8628382735291953 47 53 28
12.172871937728358 -2.5253997544294786 1.80374596420852 45 50 28
12.216982121012228 -2.1659641960409837 1.8028894202771304 49 55 33
11.976904435121153 -2.344634913803112 1.9840745606590031 49 55 29
13.103380737072179 -2.400501269850413 1.5563025452485155 50 54 34
12.074968053468742 -2.216606130470819 1.9805158912443235 50 56 31
12.097812895285795 -1.7105098947733066 1.720981461576204 51 56 33
12.873529950593435 -1.901943222139427 2.732276563886212 55 65 32
13.145051335996714 -2.244462761081934 2.536359534616885 51 60 27
13.591261815979083 -2.3373438495624392 2.623867411774757 57 66 36
13.281221942901292 -2.2185061094629575 2.6664601558442933 57 66 36
13.309807972703998 -2.0624652917183495 2.5186921013702093 49 58 25
13.06979138381201 -1.9421692493115037 2.5447334124037697 51 60 28
12.812352005334155 -1.6677540535976827 2.5749799170493075 55 63 34
13.26771429645426 -2.452326331969351 2.668442993619772 59 68 37
13.145051335996714 -2.244462761081934 2.536359534616885 51 60 27
12.574946986695906 -1.9986874665491396 2.605386109578131 52 62 29
13.444309946623095 -1.9986874665491396 2.6433948769302593 53 62 29
13.194180043985005 -1.6842103449006376 2.6794481164971304 55 64 33
12.584367069308016 -1.638318255351886 2.2403273808866717 56 61 33
12.846376043182785 -1.835227508688355 2.2242856289944104 53 58 32
13.011185265810754 -1.9636902893635162 2.31463349390304 51 56 29
12.578805220850194 -1.6554582429927849 2.4652869804446165 57 62 35
12.840927680345553 -1.8983570754239398 2.4402405439055324 51 57 29
13.085142916519976 -2.0079189502615424 2.4184231495233006 50 58 28
12.765555239289931 -1.8635229707776724 2.332486267900127 52 57 29
12.501852569102951 -1.6459248544296703 2.35280034270088 56 61 33
12.51961423823005 -1.9272377716967333 2.1459378972648913 52 57 30
13.522227012843972 -2.8809139324546846 2.1865502895743947 50 57 27
13.550304622425998 -2.71519829969792 2.0973748385313717 49 55 29
13.273583875430003 -2.631785766523714 2.296592277138255 49 55 28
12.321265469060666 -2.4341169779014273 2.4917709437720075 52 61 31
12.747695393961255 -2.3406185467817764 2.448944796847644 49 58 29
13.059350770323205 -2.4901454174250364 2.3112450696264215 48 56 29
13.048295129003378 -2.5481853565267456 2.2124892321633056 48 54 29
14.06269669651989 -2.855331376728003 2.3428338877478914 51 58 27
13.076336533520507 -2.71519829969792 2.0312123657831083 48 54 31
13.008045088757692 -2.762981232918872 2.2148031857252857 49 55 29
13.642509007604774 -2.723982906617943 2.3732774160738335 50 57 28
14.06269669651989 -2.855331376728003 2.3428338877478914 51 58 27
12.99635549631539 -2.3429239469519354 2.3156839593600043 49 55 29
12.478293329875486 -2.4730417092167216 2.055126511608895 47 53 30
12.512941889608493 -2.26220946181158 2.3519204946024215 48 57 24
13.767380959537707 -2.7955889329563695 2.17400693436431 50 57 30
13.554207232191455 -2.786209989969441 2.494010833531665 53 61 30
12.532096823174268 -2.676225004912557 2.6111677927536903 57 66 34
12.796234050827955 -2.5453394438096324 2.5769628668457836 54 63 33
13.086782256569917 -2.1962714303811377 2.309331070273093 49 58 28
12.00389479548445 -2.1405041155923294 2.0760357882564 50 56 33
13.804419097452787 -2.9023798554152354 2.0867064780354143 48 54 28
13.587934482238909 -2.8232027983976735 2.012623378655892 49 55 30
23.3635754155862 -0.03620039718030939 1.605476443321633 68 73 44
23.896182209477793 -0.07890753709680495 1.7734721618373919 65 66 39
14.473656570675127 -0.16137257127804813 2.225215135954405 55 60 29
9.92174850143061 1.53430438472203 1.9649359019302641 46 56 19
10.924738363780836 1.4260761954840215 2.1315548094927537 50 60 19
12.013049409213677 0.6831111457376661 2.394071918848499 43 50 14
12.193111569754253 0.5154312614733467 2.378274995184437 47 52 19
11.998114121141835 0.8567090473093752 2.3954157573764103 45 52 15
11.749523526971384 0.6981935764612475 2.189040892107653 54 59 28
10.976333341814014 0.4624766003126504 2.1286055498045258 47 52 20
13.608658542568415 0.6617526687775455 2.621627292737616 52 59 25
11.84948965880323 0.361879356547686 2.2904278916040277 46 52 16
13.60617951085393 -0.08159305803454132 2.2751040898881167 56 61 28
12.887177819024657 0.12310415488626718 2.3235241678960254 53 57 21
12.92405013204861 0.13769884242806124 2.4326595378431537 53 58 27
13.69858569482127 0.13769884242806124 2.480202375409784 55 60 29
11.588195887101296 0.9572644185379764 2.4345158669125233 41 48 7
10.786833287594867 1.026145805522814 2.2540678355658508 49 56 17
12.510845883664649 1.3573248383583765 2.614071209389367 48 56 14
15.973208714072564 -0.9447155402707299 2.9985576690422935 67 76 46
16.158589156211587 0.04643085214808301 2.9335279770962583 59 68 37
16.496932207585107 -0.40246265182335755 2.852017954875155 63 72 42
16.158589156211587 0.04643085214808301 2.9335279770962583 59 68 37
13.886592890371599 0.629212008820133 2.7452495966306274 54 62 30
10.336446354335813 1.6362640139987656 1.7468210906756547 51 61 22
15.264771651013277 2.1901563634271644 1.360272625499477 9 12 2
14.921958130117602 2.2312650286761353 1.8990069938071699 6 10 6
11.176386343205722 1.6304096394564964 1.5538033540252278 53 64 26
15.759647571043882 2.333781370264033 1.3669780493552481 1 5 2
14.563243090685932 2.4322731734285297 1.8355004108940853 24 32 10
15.161209918643532 2.109422107646364 2.1119629553850388 10 18 1
14.58907392756981 2.079710052711659 2.2191596744595676 37 46 18
14.914424164334193 2.042131021396538 2.3815515247540833 41 51 11
14.729340487807008 2.172886508214202 1.9762730145984349 6 11 5
14.953830363237776 2.383330731826389 2.0436264029975466 43 49 22
14.43134798023252 2.2174147612468795 2.0622358799855065 10 18 1
15.823117522034243 2.2194328371332124 2.631663886184293 52 59 25
15.091400911594858 2.0904798219380747 2.4695808232316367 47 55 13
14.575340015678549 2.148650896224975 2.515424028312075 49 56 19
14.913002108479702 1.9274424054457486 2.604086033295971 49 56 19
14.057667636219794 2.651647833927269 2.2481210899784685 40 47 15
13.820179185842724 2.504371786162794 2.08605984390507 39 46 10
14.339369963546401 2.504371786162794 2.146780632209357 43 50 14
14.464318201734748 2.524016059569726 2.3161433465825425 47 54 18
14.1890585523372 2.691382263096828 2.1536759943063553 38 45 11
13.722542565741074 2.735613257138173 2.2679209239143523 45 52 18
13.958566061134714 2.178001546501022 2.350123075547744 42 51 14
14.385004438345922 2.735613257138173 2.3212441510935555 45 52 16
15.299752002805114 2.3148371181787124 2.5630753761083667 52 59 25
14.219539124316139 2.549590153321905 2.4344600346493266 50 57 23
14.183585046626243 2.5842008017329086 2.554688234431655 52 59 25
14.112887598075558 2.396019027990504 2.4433496225155187 49 56 20
15.299752002805114 2.3148371181787124 2.5630753761083667 52 59 25
14.219539124316139 2.549590153321905 2.4344600346493266 50 57 23
13.820232197242365 3.022670648488713 2.3600607274072227 50 57 24
13.83475103914345 3.127068475167584 2.2611483619476744 48 55 19
13.797794323079431 -3.0543844898549177 2.3617008998561024 54 61 29
13.218840411559137 -2.9318096751686022 2.407038002306149 56 65 34
13.590794413792075 2.8539945905855637 2.182985252632918 42 49 13
13.894937325521019 -2.952973995667968 2.3546572506563233 53 62 31
13.9394642252685 2.9222363104543763 2.3514777850751023 44 53 19
13.797794323079431 -3.0543844898549177 2.3617008998561024 54 61 29
14.600499073451026 2.8289155792016114 2.6411564941233463 52 60 28
14.021315903163593 2.89786557643947 2.4511675679542546 45 54 20
14.600499073451026 2.8289155792016114 2.6411564941233463 52 60 28
13.587673099749297 -3.0154867380219534 2.624331331360792 59 66 34
13.902785863073001 3.009099359383484 2.461554003013921 46 54 20
15.310767151658332 2.476208829344322 1.8222893661496737 23 28 12
17.248219318995517 2.55134368246468 1.2651648367538533 1 8 0
15.792029258950599 2.4253234043220893 1.367401846912356 2 5 2
15.687466902061407 3.1317037433276367 1.6224585601831565 42 47 18
14.956456394910212 -3.08403385854904 1.7598043592213948 44 49 24
15.377368835251026 2.7808822019842188 1.8889391598975858 36 41 10
16.01663111683971 2.6035730973701465 1.6840513850767984 14 20 3
15.689697086902923 -3.087700682794071 1.55869185305848 42 47 22
15.172373936831038 2.5695492819031864 1.6903827970717042 12 17 3
16.00546267767919 2.8035879804014847 1.8111532406875233 34 39 13
16.07462271469696 2.718414695440594 1.9406133373558827 34 40 11
14.722520079221564 2.8974702264323633 2.051679913507293 40 45 13
14.405319082745061 -3.0749700307667878 2.063203250612109 47 52 24
15.285955502897979 2.591432080306182 2.0325433106496735 36 42 14
15.373682132650151 2.5315065486415875 1.9583496960000422 35 42 20
14.968715455406583 2.8246105735678606 2.0431177954752164 41 46 12
14.405319082745061 -3.0749700307667878 2.063203250612109 47 52 24
14.203217570325547 2.9589298708968235 2.1530188962786823 41 48 16
16.07462271469696 2.718414695440594 1.9406133373558827 34 40 11
14.894437582890554 3.0572809377873216 1.971519678641462 43 48 17
20.987574698036287 2.2288602252380865 3.0114493132539333 61 68 36
23.75008603829211 -0.16331508094585998 1.47845872719127 53 54 28
15.389655815602493 -0.3259514233450285 1.754422492349379 38 44 13
15.333087070778102 -0.41312480307374716 1.8898904086848454 50 56 25
15.753646499873168 -0.4039634762835803 2.2430087697803787 58 64 33
15.381985572212887 -0.3742976183263035 2.1033587832714833 55 62 30
15.096864742244039 -0.30219269752604316 2.114526558800889 55 61 30
14.820704168434649 -0.21021428920470797 1.9736282732749655 48 52 22
14.055486878843622 -0.2459350558529387 2.1599543931119793 56 61 30
15.47537472712089 -0.3270613430914196 2.25740256296429 58 64 33
15.06183268644106 -0.7611626455424234 1.895846322704482 56 61 32
14.595946776775412 -0.9576564920514868 1.695129553223081 54 59 31
15.20753272133605 -0.5850216899252602 2.188695458308158 58 63 34
15.536751986753892 -0.39075097576197326 2.4343231412074653 61 66 35
16.362233715808912 -0.6116206407627702 2.4701193066333476 64 71 39
16.926529056659103 -0.4899799881172466 2.776363676419494 67 76 46
14.655623269172716 -0.9088180899386554 2.507889218985259 63 72 40
15.813943764793628 -0.4787835138214968 2.414056070655573 61 66 35
15.672448535722754 -0.5455737844104336 2.649127151811655 63 72 42
16.102611640693258 -0.4828704080432181 2.60144039658252 63 71 39
15.05713507053778 -0.8310622782862702 2.5882362450951337 64 73 41
15.074563598960125 -0.7551742004335164 2.279395790571378 60 65 35
14.758405183179137 -0.812027255162476 1.9754277902086539 57 62 35
14.47908788662048 -0.8785096632023567 2.224927379700435 60 65 38
15.685317447988066 -0.7079099597989756 2.0919990915410662 61 61 35
14.321970355429626 -1.0063298005745769 2.5403148353636844 62 73 40
16.232745001003057 -0.8837127295528842 2.9128962541943784 67 76 46
13.848534860034167 -1.2421541465513244 2.5921280222733687 64 71 41
16.11935332826593 -1.132287119667658 2.9453909187734233 68 77 47
14.272769209024702 -1.190850781012162 2.684908267196539 65 74 43
13.181610128478383 -1.5136772028269296 2.681366188456682 59 68 36
13.42324238397593 -1.402336038704776 2.5070218713409678 58 64 37
11.843811053804018 -2.2848894046234527 1.7242275648595162 51 57 33
11.82866208131521 -2.4058599140624226 1.7244256239449272 49 54 31
12.425778910573918 -1.8709241376670809 1.6360368295835233 47 53 30
13.293599771083528 -2.507411783741774 1.4811663091064282 43 47 26
12.369037455143472 -2.0522248231997 1.7176640877954261 50 55 33
12.321367342463487 -1.6321085913737825 2.061839215859899 54 59 34
13.651512154564601 -2.5453394438096324 2.6161702612457782 56 65 34
13.269331081009964 -2.618377298977104 2.522951467369814 52 61 31
13.030215292491874 -2.676673477475718 2.423211784410484 51 59 30
13.63192632219707 -2.762981232918872 2.2735003808593923 50 57 29
13.395069873816379 -2.8243679789707254 2.392586063186755 54 61 31
13.592840116605922 -2.5130668138782326 2.490262621359551 50 59 30
12.873529950593435 -1.901943222139427 2.732276563886212 55 65 32
13.040679232414025 -2.073794510940322 2.7036699364515617 54 65 32
12.824228365562613 -2.1309439414778537 2.5735259230435714 51 61 29
12.99635549631539 -2.3429239469519354 2.3156839593600043 49 55 29
13.40423921780236 -2.676225004912557 2.648918540223003 58 67 35
12.594755222451699 -1.7569434858775812 2.345500348875282 55 60 32
14.06269669651989 -2.855331376728003 2.3428338877478914 51 58 27
13.001738727478076 -2.216606130470819 2.122082104392603 48 57 29
13.395069873816379 -2.8243679789707254 2.392586063186755 54 61 31
14.46943450373673 -2.9363345873779583 1.837258204880941 46 50 29
13.194004780447024 -2.747945907910535 1.8637426446815608 49 54 32
14.219499122265612 -2.8673180952058477 1.6277974877941974 46 50 30
14.311335839493417 -2.8673180952058477 1.6976153894991217 45 49 29
14.222283566620067 -2.9206330057025527 1.9916284656499958 48 53 30
11.457164107041637 0.29630163675509114 1.909803357977919 45 48 17
16.415194703795162 -0.19256168182757408 2.8692279847498536 61 70 38
10.281464971555888 1.292014747107939 2.1713547047363533 46 56 13
11.215624233694193 0.361879356547686 2.22332388512847 40 45 12
16.787412868210833 -0.33301218141770916 2.7986889601008844 64 73 42
16.213127740544888 -0.2834440136246323 2.722510465319331 63 70 37
13.051471821888573 0.2530214802672891 2.4213507403435712 50 56 20
11.359322134613453 1.7333841454080703 2.0080450180988922 13 22 0
14.99258870234227 2.3807251721996474 1.7593433651631054 0 5 0
14.94971459420559 2.1901563634271644 1.6250104774730632 7 12 5
15.175859422506573 2.3315206581169963 1.9636765149907147 31 39 17
14.748923511337589 2.0407571715365953 2.128850066145044 9 16 0
14.678615217578194 2.178001546501022 2.3986062346296326 41 51 12
14.243752004587211 2.325285860635342 2.237658022947866 46 53 17
14.209403385017756 2.7924412271293746 2.4352951602771284 46 56 19
14.454337213178167 2.5745706010823386 2.2262409634688463 43 50 14
14.863625932231423 2.4407727907995205 2.124040004431487 41 48 16
13.855598502144062 3.1237170422592078 2.465776174013334 51 60 28
13.772761999099844 3.125566079913143 2.3635402622374655 53 61 30
13.38007393832474 -2.9053949608326155 2.511417775538579 56 64 32
13.722542565741074 2.735613257138173 2.2679209239143523 45 52 18
13.956383718979255 -2.970297388945342 2.2539714423279427 51 58 28
14.782653157056943 2.604960959843382 2.3909762049318712 49 56 22
16.00081724502875 2.942861349765262 1.6214459634841234 37 42 11
16.00546267767919 2.8035879804014847 1.8111532406875233 34 39 13
15.305074348759112 2.995701104550174 1.8223849348717165 40 45 14
16.2276306776638 2.8823385826309824 1.6207374406879282 38 40 16
15.005136314358108 2.9851928912258088 1.9683963375145732 41 46 15
14.426812110767596 3.0506595839486814 2.0624041695646347 44 49 18
14.8504015436882 3.1302566069218845 1.97277625541167 45 50 22
14.039647415313278 3.1283133471383633 2.16070859784597 48 55 24
15.181039513627326 2.9147046664800866 1.9635351083174695 39 44 12
23.95386516122639 -0.16331508094585998 1.730534248799411 52 54 29
24.331000529955794 -0.28534403204833053 1.6040970064128033 46 46 18
24.084581691307044 -0.2454432728587366 1.5213707020217988 46 47 20
15.499914674554313 -0.47612965749600566 2.1753512882824246 57 62 31
15.044714259380616 -0.2807453126895554 1.9672917912253713 49 54 23
16.05675100441135 -0.5147439840701227 2.3093817539521795 59 64 33
16.03223431317668 -0.5265909893488632 2.4964613598856102 63 70 38
14.277099626022514 -0.8241401604336122 2.4297551152525645 62 70 38
15.993519595331477 -0.6876070231467162 2.4015349551550607 63 70 39
15.893519010994256 -0.37004742921594824 2.6237987667396045 63 70 38
15.432135117071558 -0.5594604767994205 2.346883168271434 61 66 35
15.05713507053778 -0.8310622782862702 2.5882362450951337 64 73 41
14.545583836786406 -0.8190397222108946 2.310999089266895 61 68 36
15.079204934282497 -0.868315745357851 2.1152346760156444 58 63 36
15.683086640347966 -0.6493220676112694 2.16730478645852 58 63 36
14.382533514072364 -0.9736565800751164 2.42129935646857 60 69 37
16.232745001003057 -0.8837127295528842 2.9128962541943784 67 76 46
16.638477314941206 -0.5808756168301067 2.824713472248184 66 76 46
12.415620590281181 -1.7232021945210636 2.0577842069691057 53 58 33
13.359515921875438 -2.5779465205770506 2.395452914081025 49 57 29
13.014798970376102 -2.7381823121369857 2.550980196711897 53 62 32
13.131403618110404 -2.4341169779014273 2.537863408112262 55 64 34
13.337893091838282 -2.6769364518267533 2.196362634373636 49 55 28
12.498603965581637 -2.4216991623608055 2.3530585346860446 49 57 29
12.702330131993465 -2.597710345804423 2.0458693776229517 47 53 29
13.236082991405548 -2.26220946181158 2.405596766803048 49 58 26
12.908006020212389 -2.412691517957415 2.220634729014491 47 53 28
12.903019234368303 -1.809509350843663 2.5640289568836865 53 62 31
13.06979138381201 -1.9421692493115037 2.5447334124037697 51 60 28
12.839873500213582 -2.1690828081205304 2.4403377574494365 49 58 24
12.34321898207469 -2.275102011716081 2.1552300194406158 49 55 28
12.840927680345553 -1.8983570754239398 2.4402405439055324 51 57 29
12.685910624664865 -2.107338196309756 2.338490842103247 48 57 27
12.765555239289931 -1.8635229707776724 2.332486267900127 52 57 29
12.688668379797894 -2.056200455785976 2.233837915485865 49 55 32
12.26414282451914 -1.835227508688355 2.1595014087487856 52 57 32
13.17263218697831 -1.7754240479970738 1.4803409722506191 50 54 33
13.681116444027317 -2.7762339636781266 1.7034910543346804 48 52 32
13.774002631849354 -2.846854492620441 1.8510656976910773 46 50 28
13.073308019649975 -2.6771092943764527 1.6328011706506893 45 49 33
13.573664062096148 0.3279202692989837 2.6261482934813367 56 62 28
11.82910268251846 1.134712685908444 2.4110026941896296 42 49 10
16.179930735865124 -0.2482279071330979 2.9273700408180283 61 70 39
13.580794004159959 0.014990072587593472 2.2766934018536764 56 59 28
14.230457499638963 0.5341079804391002 2.6909976640686684 54 61 29
11.104390665448923 1.134712685908444 2.350872295405855 44 54 12
10.707952261654665 1.4086228816248743 2.260079619970032 39 48 4
15.005752880744954 2.151662999835254 2.1982855185673356 37 45 20
14.20633203649061 2.042131021396538 2.3330364263850347 37 48 10
14.829217083219868 2.32875285653661 2.125473629375207 41 48 18
14.359484826726643 2.390649431261123 2.3229025503133895 48 55 19
14.576811765875302 2.3208165517057266 2.4062409946018826 48 55 18
14.925567541822097 2.4033697723926877 2.602675271220392 54 61 27
13.902785863073001 3.009099359383484 2.461554003013921 46 54 20
14.537155642789573 2.5507130534892473 2.058344226249326 36 44 15
13.88200926440141 3.033729840437354 2.2583399261417414 45 52 18
15.467667011657595 2.4253234043220893 1.5585180911511995 0 4 2
14.604607423084985 -3.0073896602409618 1.906415882696155 46 51 27
15.812230738506637 3.0680031110801975 1.6855218174974118 40 45 17
14.722520079221564 2.8974702264323633 2.051679913507293 40 45 13
15.84321580021292 -0.6054434695202454 2.086286175220358 58 63 36
15.90400924347752 -0.543303967997648 2.1579023497971086 58 63 32
16.102611640693258 -0.4828704080432181 2.60144039658252 63 71 39
15.089586474796992 -0.652971656273937 2.58476458108603 64 73 42
14.042393376390756 -1.0660529515545019 2.4493524957151886 59 68 36
12.799407113405756 -1.5220073929618059 2.5765716078678316 59 66 36
12.921889686191614 -2.275102011716081 2.2198184696099337 47 56 25
12.824228365562613 -2.1309439414778537 2.5735259230435714 51 61 29
12.051473088148848 1.0743342633894033 2.521829013190616 44 54 12
15.973208714072564 -0.9447155402707299 2.9985576690422935 67 76 46
15.141314530982951 2.618202267000562 2.191807224923805 36 44 10
16.15130032553946 2.7442371853059355 1.7456716028505987 25 31 10
13.559199631433986 -1.281597364607758 2.493524217367056 61 66 39
15.01041120604601 -0.8151256599415797 2.1980604550026714 60 65 38
14.582185843729818 -0.8601298987418587 1.764716425898202 54 59 30
13.63192632219707 -2.762981232918872 2.2735003808593923 50 57 29
12.479008731908634 -2.232376473150115 1.5555773118800713 50 55 34
12.676665018409704 -1.7384072330233433 2.2345776381276923 54 59 32
12.671143683108339 -1.7800221583830194 2.456257683093817 54 60 33
11.44447249098974 1.026145805522814 2.3218827734160525 47 54 16
14.347918825256146 2.200138599121351 2.231955965352874 38 47 14
14.128641399277784 2.826093632187832 2.3382995158048114 43 52 16
16.926529056659103 -0.4899799881172466 2.776363676419494 67 76 46
22.24195475266361 -0.5111931993129198 1.6522681732733109 43 50 20
13.532328553500216 -2.3406185467817764 2.4961513311931105 52 61 31
15.711937837985985 2.8655195725314364 1.8157346069947804 38 42 15
13.28224109429506 -1.8484233989950178 2.666311024149262 53 62 31
13.549964489798436 -2.61096087573744 1.6306173301236786 47 52 30
11.889559976368535 0.6126415777255207 2.2874779934637175 47 54 20
14.233616350014996 2.3865553853742165 2.1516135064622914 42 49 17
15.321606333709033 2.6273802078092103 1.890137981320893 34 40 15
