11.362921977751085 0.38912317723551637 2.3880758889103233 33 36 26
12.626925337236557 0.5743695976117339 2.091961629397353 23 23 22
11.842270329752017 0.6910364673718642 2.2335932782177608 27 31 19
12.374909254464757 0.7681558973563729 2.2004183988985844 23 25 16
12.679297660990049 0.6472820594431569 2.0009008325200166 22 22 23
11.662547250312482 0.5021111702495298 2.36107714316035 29 32 23
11.654531883591305 0.4491733343989263 2.2462302730364865 22 23 18
12.187708192225228 0.4938757213498174 2.11277712341525 23 23 22
12.378000051502376 0.4057629674080781 2.2002364948853206 25 25 23
12.570939055389756 0.8294765232105037 1.8353337776560052 20 20 19
14.002766559154937 1.2576266985943547 1.807734480320176 1 1 1
13.854674392260838 1.0926189742588297 1.810316394911949 3 3 3
12.923792383834298 1.0853894145442469 2.372560707681033 41 42 32
13.286709533380321 1.2280564602940962 2.3447338231494332 40 40 27
12.95233980891972 1.4382317930707553 2.37028599235138 38 41 26
13.023581490612727 1.2870207400672555 2.074562114604263 7 10 3
13.905906535434026 1.3730947765072812 2.209209420252868 38 42 28
13.645523940149697 1.0560312053333372 1.9686503265923403 6 7 5
13.785822096211223 1.3538151813190717 2.309934244087586 39 43 28
13.281987103961512 0.992107080743178 2.34508137588851 37 41 29
13.256565435045424 1.044989127853436 2.2460708849475077 20 22 16
13.71637333465713 1.160813387016409 1.8886558519771455 2 2 2
13.082426318350622 1.3304492707998503 2.360111186926111 40 41 28
13.610612321920245 1.171922187884985 2.2254075614207043 16 18 12
13.951184165760042 1.0897242635215028 2.2068031950472715 6 9 3
11.934247420891268 0.7653167123717244 2.3383462166644664 35 39 24
11.468532992921862 0.6742285323665013 2.37831106090158 32 36 24
11.840688464185524 0.5676779866417259 2.4723880094942574 38 42 25
11.073763430578817 0.5676779866417259 2.4163377496623024 39 43 28
12.922444150664127 1.6606829093295759 2.372668518560884 40 44 28
13.199091602392208 1.874687992733749 2.3512423097197015 39 45 26
12.152444762271136 1.9729578636204834 2.213820922931985 40 43 25
12.647833729248273 1.8457381093421132 2.184785879435535 38 42 21
12.542607648931218 1.9101902813579699 2.4044955870915454 44 45 28
13.611588708512045 1.551362038045133 2.3216648936495403 39 43 25
13.729595896128902 1.7504175766676473 2.313673491069058 39 45 22
13.386982651836759 1.188817789566285 2.4471658018898133 40 41 25
13.055181378360292 1.4217882779365907 2.4782692653684424 40 41 26
13.856818812821244 1.4217882779365907 2.5227197077316967 44 46 28
13.856818812821244 1.4217882779365907 2.5227197077316967 44 46 28
14.169861372294712 1.188817789566285 2.4923435811293184 44 46 27
13.456813728589646 0.9290236206649972 2.440957827978532 38 42 24
12.601589240381536 0.9568366143387378 2.525793983875819 39 43 24
13.152450202278837 1.0781842481450346 2.6024602657195004 41 45 25
14.606872909821405 1.372837649349653 2.713186147728978 45 49 30
12.671846478952702 0.7554571066025744 2.6696824507942387 38 44 22
13.90225631565192 1.0278748950163457 2.5181453426268665 41 45 26
14.166371515229846 1.4007326220360454 2.6205968545114584 46 48 29
12.181494089233103 0.6501795330636102 2.5763600052540854 36 40 20
12.7313759598133 0.9978079166349871 2.6606015305267148 42 46 26
12.671846478952702 0.7554571066025744 2.6696824507942387 38 44 22
11.894947908784994 0.5165086246495377 2.61556205139554 37 43 21
12.54144372627544 0.7613584031482058 2.532604426199348 37 41 23
13.546361193145296 2.0173805119436725 2.433155745424015 44 46 26
14.087737228312102 1.9101902813579699 2.5000631801473614 44 45 28
14.65645082215115 1.6719174324553543 2.5649953471649227 44 45 29
13.025521760113577 1.6719174324553543 2.4811886090529183 42 43 29
13.12545028842233 1.7942619364619223 2.4714480273385737 43 44 29
14.23115477954885 1.8251296716452727 2.612718571014861 45 46 30
14.117340757315773 1.5429762163668204 2.626681032487573 46 47 31
14.559325683366243 1.5383032336131433 2.7203939581287595 45 48 29
17.55519359571205 1.8377435285116783 2.9665168856201563 49 55 33
17.55519359571205 1.8377435285116783 2.9665168856201563 49 55 33
12.713004662728077 2.0208333791094524 2.0880786669967666 38 42 24
12.382839061050852 2.1463412154025794 2.103315540615222 36 39 25
12.247830726624432 2.201659152914641 2.2079983957035543 43 45 32
12.20855924625128 2.2788967316674027 2.111749068784489 39 41 30
12.867906756637499 2.201659152914641 2.2705017321888397 43 44 29
12.464295651995874 2.344040383971342 2.411443404798971 47 48 32
12.263695505904627 2.42328553465217 2.3127383189277944 47 50 33
12.53287204744803 2.5128692594299795 2.405351710316174 46 50 33
11.7702496290187 2.576537272772018 2.2383786064270694 46 50 35
10.686750952207147 2.8184152838777 2.0882964448913195 44 49 30
12.154158677810097 2.3458073295015907 2.2137152710128687 46 47 33
11.623697562081224 2.2668374875668973 2.248357272979754 45 46 32
11.078842509160859 2.780350681057372 2.2885910814905386 46 52 31
13.312329519377656 2.175895093312187 2.4539269439598224 45 46 30
13.293155181998026 2.544297219899922 2.585020704539073 47 53 33
10.442569923942303 -0.2776878554596646 2.3431189226550146 40 48 30
10.239398986417587 -0.007019354247295786 2.3626355405105586 42 46 30
10.973557235123026 -0.007019354247295786 2.4267003118405 41 45 28
11.692080342487388 0.11537228050945338 2.3585297237674965 29 32 24
12.042885065077588 -0.654235560024634 1.8472309838142709 46 57 61
11.011323336901846 -0.5128343784342094 2.2939578040019786 37 45 27
12.032939890993603 -0.710564331017175 2.025686213896634 44 54 53
12.021058941607684 -0.8415653816514037 2.026169670740207 45 52 40
12.26046341446689 -0.7766017127591515 1.927990547448314 52 62 63
11.308295621078477 -0.6993155518447648 2.160300318777089 35 42 28
11.011323336901846 -0.5128343784342094 2.2939578040019786 37 45 27
11.969307486360652 -0.6360749797144132 2.123800749527228 33 41 38
12.229068077564547 -0.5023529905993869 2.1107419231132485 36 43 48
11.417102484277112 -0.6121355994408351 2.2630041640534455 35 43 26
20.42276670615301 -1.1915710924850562 1.883712557354311 50 52 56
12.789077351867025 -0.9495946934459014 1.8307162523858018 26 33 26
21.073589742733084 -1.122840342325294 2.0271589289033707 72 74 79
12.643033016436252 -0.8350623361175814 1.8337894355275195 22 32 35
20.27648258466461 -1.171565157898473 1.9918166216854798 54 56 58
10.785877296874682 -0.45766226697255546 2.4469837056862627 37 44 18
11.162699195653614 -0.008152670485309156 2.553413431771535 39 45 22
10.345636111094109 -0.008152670485309156 2.4997566565782474 39 45 23
10.785877296874682 -0.45766226697255546 2.4469837056862627 37 44 18
10.39871021088009 -0.1680163553576423 2.4929586443941285 41 47 25
11.331543510010937 0.3049536525765266 2.5314318792303965 41 45 29
11.202895421539845 0.15212525302617289 2.5480549600171503 40 44 26
11.640140725459869 -1.0905802178880202 2.2472211434735696 41 45 23
10.801743976991913 -0.8614798582137393 2.311216127986187 40 46 23
11.084429073461834 -0.964739851969074 2.415252888113731 40 47 23
11.94540719346691 -0.91504619864957 2.125036203951338 38 43 27
11.295652504881849 -0.8500253143497035 2.161049129816055 38 43 25
10.585337251149706 -0.6623847186601878 2.470044986622644 42 47 22
10.965229576288065 -0.7680667770294103 2.580989739780064 44 50 24
11.110181662327765 -0.5791842230854253 2.412647448632515 36 43 18
11.110181662327765 -0.5791842230854253 2.412647448632515 36 43 18
10.972323755787649 -1.0342350867591126 2.29709951622487 40 45 23
11.006832070458104 -0.7714500393335934 2.4232247065858132 39 47 23
11.043118912609945 -1.0069706259491351 2.5698533107185515 44 50 23
12.606855545377949 -1.9062468611103398 2.3988988245620004 53 56 35
11.790682627639733 -1.1369107527855185 2.133179109329101 42 46 29
12.174566675448741 -0.9706751602732832 2.020004372415923 36 42 30
11.790682627639733 -1.1369107527855185 2.133179109329101 42 46 29
21.678352086130428 -1.2564706413291566 1.9630404530899088 25 24 22
21.678352086130428 -1.2564706413291566 1.9630404530899088 25 24 22
12.968967183116536 -1.549432133111378 2.36896814380909 50 53 31
13.09276770198191 -1.7678216419468025 2.3593154396719527 52 55 32
12.227006535551734 -1.9689320242548523 2.209259648820457 56 56 36
13.665291981604051 -0.015810662111716892 2.9056957930137295 45 54 28
12.164602135242335 0.3049536525765266 2.5785531355435576 38 44 24
12.715972513905095 -1.1978897837842735 2.881056336055547 52 62 38
12.695138366832422 -0.015810662111716892 2.887284941661401 45 50 27
12.715972513905095 -1.1978897837842735 2.881056336055547 52 62 38
12.044855026750211 0.15212525302617289 2.594506190216345 38 44 22
13.116918880929475 -1.4236304354998606 2.472269173345501 47 53 29
12.422731792898585 -1.3387613381711911 2.7106273366104134 50 56 31
12.05086211404005 -1.2842759001331079 2.783593119076204 51 59 34
12.190572158063476 -1.074494126157606 2.754116798838776 49 55 32
12.409545575495457 -0.9031722419854314 2.7129442025070722 47 53 28
12.992187825038448 -1.2842759001331079 2.810566543311509 52 59 36
12.528071416710425 -1.4031228038413486 2.534136603715706 45 52 29
12.422731792898585 -1.3387613381711911 2.7106273366104134 50 56 31
12.769020403708204 -2.510627888559167 2.8659031807737185 48 60 37
13.025402497465095 -2.6474927578063374 2.8032250441373057 49 59 36
12.685519826782695 -1.8293008085928466 2.8902184909320123 51 61 40
12.967222893781223 -2.3145802857084625 2.81621494427614 49 60 39
12.29587048314132 -2.466018914132457 2.7336448434999308 50 60 39
17.415102919294416 1.9631022374729177 3.0201473732544892 48 56 34
17.489969635201494 2.3181703359539707 2.9890345034688965 47 55 33
13.063949979984523 -1.5467793228150395 2.4774108062906084 49 54 32
13.186858814018017 -1.791549455576953 2.4655934576264533 50 56 33
13.360631479518405 -1.9062468611103398 2.4495374402104124 52 56 35
11.993185808710685 -1.5230887637240715 2.796676644406034 50 59 36
12.126951890049138 -1.9903382032002386 2.7671811994556204 50 60 36
12.581312270382346 -2.325165082523743 2.683982671254819 50 60 37
12.391558477431332 -1.7291687604340302 2.716131701609244 49 57 35
12.679794075650728 -2.0780134764405966 2.668455814302984 53 58 39
12.937944425277177 -2.2166684220566575 2.630851135021313 53 59 39
12.807750811740297 -1.5388451967755765 2.6492971967792864 47 55 33
13.110231321666095 -2.005120622818985 2.60786758834514 52 58 35
13.063949979984523 -1.5467793228150395 2.4774108062906084 49 54 32
12.962384070161795 -1.7673645299709322 2.817323262687409 51 61 38
13.238196896998144 -2.1767457752900574 2.7601672032631424 49 59 36
12.581312270382346 -2.325165082523743 2.683982671254819 50 60 37
13.360631479518405 -1.9062468611103398 2.4495374402104124 52 56 35
12.831668208237295 -1.703328628122805 2.6458330923010487 48 56 34
13.309375205557984 -1.5433744955891955 2.5830650458330355 48 55 32
13.600704129356028 -1.949640746014812 2.549673225792343 51 58 35
13.039122446524699 -2.0658579290734926 2.4798469103632574 54 58 37
21.948068437970917 -1.226335785666596 1.8140679601909406 74 76 78
21.741773759028 -1.364626724588826 1.9125645640639308 10 10 8
21.64527272289803 -1.3173507790587242 1.865491663032976 9 9 7
11.695289406616501 -2.8489892948882356 2.488265991832181 49 57 34
10.855493487146363 2.8968728853931753 2.306700576950858 48 52 33
10.455029097099052 2.9237374776122853 2.100959027831001 45 49 30
10.42753318058786 -2.7202648379454333 2.344524682844497 49 57 34
10.02347480035644 -3.1351246703229907 2.248763395988703 49 54 31
9.794689461391373 -3.13585909928549 2.0238010360969994 48 52 30
10.315455439672803 3.034190139823468 2.1089083605816863 45 51 28
10.271787012714128 -3.13585909928549 2.111447743701259 47 51 29
10.721134564782057 3.020558720475106 2.318108963779737 48 54 31
10.180002982591574 -2.8489892948882356 2.3685636001248045 49 56 33
11.369588983800167 -2.6578727942870675 2.526662020679347 48 56 35
10.258601472186816 -2.8081404530332774 2.0019035550699043 45 51 28
10.026538446487198 -2.9884665387504037 2.3843817328744663 50 57 35
10.078245610227407 -3.0078315756645013 2.2443945929886424 50 55 33
10.764863792092628 -2.407043453471838 1.7848624488239835 47 53 30
10.67085809056877 -2.6208948893855784 1.883907043540471 46 51 26
10.406418480898484 -2.6208948893855784 1.7923567848385706 46 51 26
10.530388272679227 -2.4149363503972543 2.0967695661960737 51 57 35
13.196941427593506 -2.1090500013284665 2.35140364661319 54 58 39
10.55280798916403 -2.503232552257752 2.208995220540911 51 56 34
10.810827771273127 -2.662975780639466 2.1914059069161724 49 54 31
11.677694171677794 -2.532502439338688 2.490236922329615 51 57 35
11.463337320711608 -2.6047971514009127 2.3787849260099057 49 56 34
10.762640741888033 -2.6047971514009127 2.314541456273787 50 56 33
9.86688857464938 -3.0348786458228605 1.5998707211768188 43 48 22
10.276371501175731 -2.9354693673527605 1.7952083396583154 43 49 24
9.86688857464938 -3.0348786458228605 1.5998707211768188 43 48 22
9.810937908164492 -3.1364437503354865 1.600036576288254 43 45 23
9.8566482706431 3.0450704793578636 1.5999009357772545 42 46 22
10.022797895360053 -2.9354693673527605 1.599418330820854 41 46 18
19.939236712699493 -2.879233902697241 1.787482893002134 50 56 35
19.939236712699493 -2.879233902697241 1.787482893002134 50 56 35
20.480854192813897 -2.8919228140791904 1.6336687817631719 49 54 37
20.480854192813897 -2.8919228140791904 1.6336687817631719 49 54 37
19.7978066417302 -2.83032881724245 1.6358409681733441 52 58 38
20.125956755643294 -2.7829145928312933 1.6347789653151537 54 60 38
12.055246982374747 -2.441356769187257 2.5930925904191975 51 59 36
12.865883367240288 -2.242123614004235 2.4973310938953417 53 59 39
11.974047658442036 0.7034393626774332 2.028093186207241 22 22 20
11.372790074102852 0.6026698827197554 2.2662387968300877 22 25 17
11.452225073298527 0.5434181854462637 2.1519178919426287 21 22 19
11.654531883591305 0.4491733343989263 2.2462302730364865 22 23 18
12.378000051502376 0.4057629674080781 2.2002364948853206 25 25 23
12.603075602420565 0.992107080743178 2.2883249849312826 31 32 26
13.304151483351989 1.2050523706508005 2.0629746074466397 6 7 5
12.09779186447717 2.0173805119436725 2.325382549433056 42 43 26
13.561836972687955 1.1326150673695634 2.325093914375402 35 37 29
13.800313209736537 1.0140099475446325 2.127062997642315 7 10 5
13.662434593403882 1.4514223736019287 2.3181974405871832 38 42 26
13.652370436716234 1.1279166646707492 2.0493478572664623 6 7 4
13.023163631686696 1.7699868726696806 2.3647081990654284 40 44 26
13.723184484507161 1.2332972860360998 1.9662731950743884 2 2 2
13.132982299497483 1.3538151813190717 2.2536301856159904 43 46 33
13.047002969635402 0.9089356628930911 2.259001957283079 26 29 20
13.336491140036074 1.2602234903280938 2.2412804024260047 35 37 26
12.906623345916769 1.9362074305585741 2.1707217593751427 39 43 23
12.462956069743745 0.8428655583963123 2.2981792343505254 31 35 21
13.634096058057757 1.6516901764918814 2.3201254264924787 39 43 23
13.01824510751962 0.8679107379230251 2.619948667949544 39 43 24
13.634000103298268 1.1400599099083035 2.546050690914999 43 47 27
14.166371515229846 1.4007326220360454 2.6205968545114584 46 48 29
14.139043044308995 1.6863471128640701 2.623974790593897 45 47 30
13.80668880514116 1.546474339478401 2.5278361196538155 44 46 28
13.978490600229456 1.3015798913021503 2.5106010771433094 45 47 29
13.826562886833067 1.2175895053926582 2.6651668662128736 43 47 29
13.055181378360292 1.4217882779365907 2.4782692653684424 40 41 26
12.396639895263288 0.6129848305310568 2.7152280166596734 41 47 25
14.606872909821405 1.372837649349653 2.713186147728978 45 49 30
14.669710994277798 1.8656055285368682 2.703900976715336 46 48 30
13.687102444096704 1.4382317930707553 2.4212372004282936 40 43 28
12.382839061050852 2.1463412154025794 2.103315540615222 36 39 25
12.448686522957491 2.114622876563869 2.2992001250603677 42 43 26
11.611397877606034 2.42328553465217 2.2492098970414034 46 50 33
11.00480160692654 2.7200114237497357 2.0719201843378467 44 48 32
11.385945891145903 2.673221894489973 2.2652749352519708 47 51 30
10.773397655643778 2.673221894489973 2.1938916572924465 47 51 35
11.4962313040562 -0.5523991486649116 2.1494059125460776 33 41 40
10.684018631728035 -0.40108202731284204 2.321332725405396 35 44 27
11.145267308555056 0.2646564301239276 2.4091292191610973 35 39 27
11.023608569756473 -0.14501099950002855 2.421485533236419 43 48 32
11.375626161707261 -0.775366670475076 2.054149677802245 39 45 34
11.308295621078477 -0.6993155518447648 2.160300318777089 35 42 28
20.271873398038036 -1.122840342325294 1.9384804965359432 45 48 51
12.019131083624584 -0.8992305468190158 1.8477917145375546 31 38 30
20.752423153054277 -1.1915710924850562 1.9295758054306917 47 48 50
11.162699195653614 -0.008152670485309156 2.553413431771535 39 45 22
11.110181662327765 -0.5791842230854253 2.412647448632515 36 43 18
11.211906208996455 -0.1680163553576423 2.5468648275912718 40 46 23
10.585337251149706 -0.6623847186601878 2.470044986622644 42 47 22
11.316556225010661 -0.773728195357266 2.2703929139967247 38 44 23
10.779842005414414 -0.9359272363685143 2.1934621384155246 40 44 23
11.458882195414372 -0.9978723740835262 2.1515363828325182 39 45 24
14.230820480349541 -1.192062280312291 1.7321919233319563 2 2 2
13.022322436727642 -1.4396939941613525 2.364773907028122 48 51 29
14.840163988355279 -1.2807611068097389 1.7255103883621912 1 1 0
12.848087624619325 -1.9689320242548523 2.271800958932997 54 57 37
12.588094671523674 -1.8714988677121036 2.2893640512362623 54 55 34
12.99258780795447 -1.6596852383415415 2.3671048670971047 51 53 31
12.85956893392603 -0.5708061341901921 2.842018695935502 47 54 29
13.621872415586646 -0.7517407035174768 2.9193443384985285 49 58 32
11.687205536799459 0.35910597980514986 2.647035614301753 39 45 23
12.84845239021947 -0.9474146883905796 2.8448327173235244 48 56 32
12.05086211404005 -1.2842759001331079 2.783593119076204 51 59 34
13.116918880929475 -1.4236304354998606 2.472269173345501 47 53 29
11.667792004409762 -1.161082188567967 2.6501299642792766 47 53 27
13.36137119504088 -1.4031228038413486 2.5768683114913866 48 54 31
12.023942896884218 -2.3145802857084625 2.7896259649851056 50 60 39
17.415102919294416 1.9631022374729177 3.0201473732544892 48 56 34
12.315688786836887 -2.1767457752900574 2.729937423579792 50 58 36
13.360067120274817 -2.132367944953987 2.577022398300638 53 59 37
12.315688786836887 -2.1767457752900574 2.729937423579792 50 58 36
12.018724308050038 -1.7673645299709322 2.7908101601632525 49 59 35
13.605870118524269 -2.012482711508093 2.428066154005973 54 58 37
12.366789937123812 -1.5325245249768908 2.7205733838346053 50 57 35
12.49716086651299 -1.6847064073879618 2.537703910570381 48 56 33
13.360631479518405 -1.9062468611103398 2.4495374402104124 52 56 35
13.0873991774604 -1.670657411965316 2.4751253367637776 50 55 32
13.06279560174765 -1.9903382032002386 2.79518229712118 50 60 37
12.933094647335619 -1.8609586086569472 2.631520762218323 49 57 35
21.64095506923178 -1.2712041607061468 1.8175916061117845 11 11 11
10.02347480035644 -3.1351246703229907 2.248763395988703 49 54 31
11.143005256835458 -2.802131509774939 2.556068778701301 48 56 34
10.006893456935877 -2.912832754168403 2.0135043978613942 47 51 28
9.850732417022536 -3.0228689962431314 2.0210335774297787 47 52 29
10.762640741888033 -2.6047971514009127 2.314541456273787 50 56 33
10.695855169987404 -2.5673641031418444 2.087811973507364 48 53 28
10.599051451513995 -2.7105053401880372 1.9871785476342145 46 50 28
12.61183077656239 -2.1691628606101387 2.39846921767772 54 58 39
10.524900379238678 2.9453559762348536 1.888400192702251 43 47 28
10.27411627138419 -2.8400157105522656 1.5987180147294144 42 47 19
10.521634793931225 -2.8400157105522656 1.7898907923871432 41 47 22
10.386265714855647 3.0450704793578636 1.8927912555870212 44 50 27
14.704161070047832 -2.790909837707986 1.5903045182190005 39 45 17
11.105543974104448 -2.6660101283867648 1.6869302651573308 43 47 25
11.105543974104448 -2.6660101283867648 1.6869302651573308 43 47 25
20.027493138240725 -2.83032881724245 1.7356581876662516 53 59 38
19.748404844330892 -2.879233902697241 1.7380098498497851 49 55 36
11.757040116431005 -2.5760876288920374 2.636130831063391 49 59 38
12.42698544751473 -2.3314580322451923 2.5459388896386126 53 59 37
14.127529700925955 0.9895439701991249 1.9543540740342245 9 9 8
14.595818234994766 1.1893860068925075 1.8688945626817655 0 0 0
11.545687108725213 0.44445538483033975 2.5053857362166205 39 43 23
11.840688464185524 0.5676779866417259 2.4723880094942574 38 42 25
11.35469510521237 0.3455434051423308 2.2675694479883557 23 26 20
13.300025316686405 1.9101902813579699 2.45505397076707 46 45 26
13.001960966428827 1.546474339478401 2.483525037226625 42 43 27
13.184253208704384 1.3015798913021503 2.465839896903545 41 43 27
13.300025316686405 1.9101902813579699 2.45505397076707 46 45 26
17.629465401241834 2.12036657174702 2.944116211542598 48 54 32
14.285407021042912 1.2650738242941468 2.606255796787838 45 48 29
13.636348538588011 1.5491911310937847 2.425488102024274 40 43 27
14.392324152482447 1.954624182303153 2.5938598863180724 45 46 29
14.580370108642011 1.7055513316759736 2.7171837930497813 46 48 29
11.00480160692654 2.7200114237497357 2.0719201843378467 44 48 32
11.680568938137139 2.201659152914641 2.1391319557663397 40 41 28
12.80754935171136 2.435712060740108 2.5034190681308517 46 50 33
12.455292365224091 2.544297219899922 2.5425939872444334 47 51 32
13.228520666927954 2.341549123970049 2.5929239564642566 49 50 34
11.014443739283136 0.13123843277512257 2.422434541170281 38 42 27
12.021058941607684 -0.8415653816514037 2.026169670740207 45 52 40
11.417102484277112 -0.6121355994408351 2.2630041640534455 35 43 26
12.643033016436252 -0.8350623361175814 1.8337894355275195 22 32 35
11.068967612354895 -0.5310887962539237 2.5662340928778438 41 48 23
10.814964506975514 -0.6841003585906483 2.310099568579459 37 46 20
11.534793575297778 -1.085165213583983 2.50666537707019 41 50 24
14.840163988355279 -1.2807611068097389 1.7255103883621912 1 1 0
11.697576752712525 -1.049846673911804 2.039757335958534 48 53 39
11.774820888042228 -0.9706751602732832 1.9434280688856203 21 28 19
11.697576752712525 -1.049846673911804 2.039757335958534 48 53 39
12.190572158063476 -1.074494126157606 2.754116798838776 49 55 32
11.82412476465696 -0.7680667770294103 2.6259720350967912 45 50 24
12.992187825038448 -1.2842759001331079 2.810566543311509 52 59 36
12.788105466657301 -2.105487895222376 2.860675934219222 50 60 39
12.783015529397229 -1.949640746014812 2.5060112084770108 53 57 35
12.679794075650728 -2.0780134764405966 2.668455814302984 53 58 39
13.110231321666095 -2.005120622818985 2.60786758834514 52 58 35
13.43003814825664 -1.8216386621774665 2.568848688925518 49 57 34
13.186858814018017 -1.791549455576953 2.4655934576264533 50 56 33
13.0873991774604 -1.670657411965316 2.4751253367637776 50 55 32
12.315688786836887 -2.1767457752900574 2.729937423579792 50 58 36
12.938708306153702 -1.5230887637240715 2.8228118753207 51 60 37
10.853837397139852 -2.749898309647375 1.783080695615859 43 47 25
10.696560096152231 -2.338596698110466 1.9831507113194715 51 57 36
11.463337320711608 -2.6047971514009127 2.3787849260099057 49 56 34
10.409369421107643 -2.4822531476432257 1.8920509073578593 47 53 29
10.124367818461028 -3.0348786458228605 1.7986366527163293 44 50 27
19.748404844330892 -2.879233902697241 1.7380098498497851 49 55 36
12.055246982374747 -2.441356769187257 2.5930925904191975 51 59 36
12.51568425372217 1.874687992733749 2.294435015876699 41 45 26
11.073763430578817 0.5676779866417259 2.4163377496623024 39 43 28
14.602219176862489 1.2576266985943547 1.9412698223708396 0 0 0
10.75775181081587 0.44445538483033975 2.4501277955644296 41 45 29
13.660090642815108 1.0853894145442469 2.423493071126974 40 43 29
12.448686522957491 2.114622876563869 2.2992001250603677 42 43 26
11.375626161707261 -0.775366670475076 2.054149677802245 39 45 34
10.546760713913503 -0.31971937244594995 2.474660538544879 38 46 23
11.372653479614595 -0.8778554625994075 2.5262806029005986 42 48 23
21.311742947038358 -1.2097518542755403 1.8702454234000667 39 41 43
12.20972672761042 -0.5820731418307971 2.0186166059505704 35 45 46
12.86177486605098 -1.3760581580095963 2.6415219601337676 47 55 32
12.496557511981202 -1.914323506406245 2.697953020597429 51 58 37
11.507525998268587 -0.9031722419854314 2.676817207234686 45 52 25
10.23853754341287 -2.5673641031418444 2.002805105341656 49 53 30
10.23093456565701 -2.8847336247322257 2.232538953286796 50 55 32
10.477261550302295 -2.7690791696115338 2.2143542818725708 48 55 32
12.574295883709684 -2.059004396242574 2.1889141888022774 54 57 39
12.437872470087157 -2.7383689475683886 2.7079873891384154 49 57 35
12.247830726624432 2.201659152914641 2.2079983957035543 43 45 32
11.662547250312482 0.5021111702495298 2.36107714316035 29 32 23
14.745330747487106 1.7942619364619223 2.5557915205656867 44 45 29
12.181494089233103 0.6501795330636102 2.5763600052540854 36 40 20
13.073948779214648 1.7504175766676473 2.2573083010791404 39 45 22
12.210688588249587 0.6742285323665013 2.4349553820814767 36 40 24
11.81097857792625 2.5128692594299795 2.3484665420955424 47 51 35
12.501805543628674 2.063667218917635 2.193043331499121 38 41 24
10.345636111094109 -0.008152670485309156 2.4997566565782474 39 45 23
13.267772768958404 -1.8714988677121036 2.3461297053057084 52 54 32
14.718650956675301 -2.790909837707986 1.522324088750143 41 46 17
10.06984787456106 -3.1364437503354865 1.7998922018473333 45 49 27
10.762010328781585 -2.5396179189471084 1.6906549456160502 45 50 24
10.06984787456106 -3.1364437503354865 1.7998922018473333 45 49 27
11.677694171677794 -2.532502439338688 2.490236922329615 51 57 35
11.813750982087193 0.7681558973563729 2.1319488692210324 22 23 16
12.818701367111302 2.250336624700398 2.5022470535619994 47 48 32
11.918576744846678 0.6280519049720189 2.126430161376713 22 23 20
12.20855924625128 2.2788967316674027 2.111749068784489 39 41 30
10.755116944329849 2.849432305188375 1.881371640619041 44 48 29
11.842270329752017 0.6910364673718642 2.2335932782177608 27 31 19
10.546760713913503 -0.31971937244594995 2.474660538544879 38 46 23
12.661326357259865 -1.5074860906049916 2.897770292887203 51 61 38
12.738427126600364 -0.3178087030911865 2.8745242604219836 46 55 29
10.002626036420846 2.9453559762348536 1.59947606738085 42 44 24
12.19439063793195 0.7702917547228998 1.930013435050327 21 21 18
12.984794533678238 2.071912887695108 2.4852371780960554 45 46 30
12.971417755730322 2.2668374875668973 2.368774352977783 46 47 33
11.110181662327765 -0.5791842230854253 2.412647448632515 36 43 18
