17.821179169282107 0.56300409231428 1.0983006538528 35 40 13
17.00447129937166 0.56300409231428 1.2032225987816563 39 44 17
17.701370190163754 -0.15291148336026714 1.2183394718751708 46 48 22
10.484979733449656 0.4430439716966706 1.464674710525662 6 10 0
9.553649177334618 0.39088469554507355 1.8780476787988145 39 41 19
9.717637348973982 0.48803218667103804 1.766473080850907 24 26 4
10.040614029779839 0.5761198478860339 1.5597812694203654 9 13 0
9.300183009480858 0.39088469554507355 1.775378183694255 28 32 9
9.553649177334618 0.39088469554507355 1.8780476787988145 39 41 19
8.917170294338655 -0.06292200133307943 1.9007794266937736 37 42 14
9.597497046678303 0.28531328498508696 1.9880507242277714 39 44 15
8.603443335920687 -0.1798154106175907 1.6743590631888132 34 39 9
9.286215929447442 0.055710780059492405 2.002959743925265 37 42 12
9.0218661778432 0.17280138593968197 1.896807445178398 38 42 11
8.641538584119347 0.055710780059492405 1.7912190292049253 36 41 10
8.975206536537126 0.28531328498508696 1.7828967733766896 38 41 12
8.641538584119347 0.055710780059492405 1.7912190292049253 36 41 10
8.91475493686786 0.705674623765089 1.9008722265007891 33 37 15
8.747184434013361 0.9714992149198234 2.03157580574174 24 30 4
9.307691369345974 0.7892899190615528 1.7752108121943913 9 13 1
9.067098270748502 0.4374194139626984 2.01413526520641 41 43 20
8.747184434013361 0.9714992149198234 2.03157580574174 24 30 4
8.723095089878282 0.569461854661084 2.311965383113055 41 46 19
9.384712373489048 1.074654453417753 2.569307323152888 45 50 23
9.224500048001095 0.608209567656453 2.1294504921719444 40 45 20
9.123217051879568 1.15433365520006 2.42668039135605 45 50 23
9.172337819433386 0.8911974278799566 2.2680088799794977 44 49 22
9.120949655928593 0.7900047205542686 2.136562870264721 41 46 21
9.427152090679805 0.569461854661084 2.3902960039524577 41 46 17
9.32585213432104 0.791041173366478 2.401999166895397 41 47 20
8.462537670494813 1.2129340254202579 2.186790757756965 28 34 5
9.235369192208596 0.9714992149198234 2.128715006311901 34 40 11
8.354581535878053 -0.3286898242623766 1.9239373272036142 37 44 12
8.515686282955834 -0.20342608162688963 2.045116861844545 37 44 13
9.586018201851859 0.19553653544687055 2.2323891759024304 38 45 15
9.53057204023238 0.22504425465165692 2.3787491957960047 41 46 17
9.735033387225586 0.36724784534535115 2.357022319168311 41 46 19
9.582942670471612 0.08642439655344421 2.5379542303224616 45 50 21
8.901392761799123 -0.07137569616107227 2.1523050600513733 39 44 17
8.898080599720384 -0.27523841435855 2.4563371144022916 43 50 20
8.393923881536727 -0.43684267881537026 2.348474741900933 42 50 19
8.901392761799123 -0.07137569616107227 2.1523050600513733 39 44 17
9.586121144092012 -0.09757208360059556 2.5374735067571916 44 50 21
10.861743618973128 -1.3449653075835317 1.4683689388220094 36 42 15
8.709762396489173 -0.44413663713832685 1.9089471284414592 37 44 12
8.294577713851433 -0.5028202345730064 2.0588517776747177 39 46 14
8.792343501607293 -0.9758576450492563 2.0290277117845967 38 45 15
8.371507583525993 -0.614573592680754 1.9231921864233819 36 44 11
8.33465980735447 -1.088444571134205 2.0563003931269193 41 46 18
8.814121188301556 -1.259934210704079 2.0278093742011745 41 48 17
8.135381634220838 -1.0170440141099641 2.215554164142519 41 50 18
8.179383507606511 -0.9242611257920539 2.3746423675011674 44 53 22
8.845640886791644 -1.088444571134205 2.156453696853707 40 48 17
8.16579061369865 -0.6740457390183292 2.3763711121255047 42 51 19
7.997640659387075 -0.7978099398707605 2.22856909472208 41 50 18
8.108025524068418 -0.5773954696582623 2.2180936890974157 40 48 16
10.012640603851269 -1.3221908506976892 1.7606364563322094 42 47 17
9.325816430317444 -1.2944377803296419 1.8858090436050265 42 49 17
8.133710600178462 1.3830132841537315 1.933965147467768 28 37 6
7.726638288534905 1.6483727279254865 1.8178325340560877 18 24 4
7.865252004604026 1.7793295639523017 1.813390570726578 21 27 4
8.568535830783906 1.7793295639523017 2.041952764456235 41 46 19
8.414407141549054 1.903444702200202 1.9213179350625702 45 50 23
9.177912408995441 1.263302349490033 2.6052977497369083 46 51 24
8.937454267967045 1.8521191104245505 2.450965070441116 42 47 20
8.937454267967045 1.8521191104245505 2.450965070441116 42 47 20
8.863103422186148 1.3548244534387623 2.2976015451710317 40 45 16
8.91035011824901 1.3168914361101147 2.4546542220750434 45 50 23
8.890351614789484 1.8104202448140405 2.294879571122463 39 44 19
8.758758595054546 1.5060638401633242 2.308245094685062 41 46 17
9.672515841642598 1.9982746291874414 2.7364278532965853 45 50 21
8.232605521863526 1.3548244534387623 2.2067030818213103 34 39 12
8.76795882634698 1.660304064210937 2.307292298300827 40 45 18
9.885282624229873 2.2103146779950538 2.6888630454419804 44 49 20
9.077187121639971 1.4772405698813613 2.6242699770342526 46 51 24
9.204228688456988 1.9107138556255072 2.600506927073565 44 49 22
8.120162777475086 1.5060638401633242 2.216964250331717 37 42 15
9.580174368171145 2.3781880864262743 2.7595254318088553 48 54 27
9.580174368171145 2.3781880864262743 2.7595254318088553 48 54 27
8.12560228985978 2.2679766233024456 2.0699246991135745 43 48 20
8.354832993856796 2.076291569251475 2.055026837633614 39 47 19
7.20494031963214 2.4663017182946665 1.694555682131226 38 44 15
8.590070330453425 2.2825603061635418 1.674520869705364 46 52 25
8.807220336996222 2.120894943442691 1.6719545757551315 32 38 13
8.039219193401095 2.366247318310103 1.8080389267496513 42 49 20
7.178419781583077 2.5853619698131003 1.9850562724364738 42 47 21
7.955727890632318 2.544965806470128 1.5568944856264673 46 51 23
7.636001516132199 2.5853619698131003 2.105226679271949 47 52 25
8.95887921917763 2.2462185135463852 2.448076237836866 41 46 19
8.824179074671662 2.5853619698131003 2.3015306841575267 49 53 28
8.971270538867344 2.4933486899869255 2.4464163036130886 48 51 26
8.697353512657562 2.36846869539029 2.314677577471099 37 42 13
7.236673788283921 2.7249768298511428 2.13821550517141 48 54 27
6.774605578378511 -2.7158838443547255 2.0114216776433396 52 61 35
6.822919654299218 -3.046822776411024 2.177362849173151 51 58 33
7.647050292253762 3.0797327470870615 1.6873670007242252 50 56 31
7.01546816964192 -2.913083574127819 1.8434829635750993 51 58 32
7.002428760670968 2.9218849752777047 1.8440037502859783 49 55 28
6.862575093354847 3.070362117579965 1.8497188961745534 50 56 31
6.867012834966644 -3.061156575538492 1.8495338254546951 51 57 32
7.202343056650682 3.070362117579965 1.9835962171612196 50 56 30
7.913727759140239 -2.737666126418359 2.62714313663189 54 63 37
7.6163986441172336 -2.819137058747253 2.4547519258989694 52 61 35
9.13483928519195 3.039444669427867 2.6132842325185432 50 56 30
8.130796381445213 -3.046822776411024 2.380862820195466 51 57 32
8.676637534910176 3.0112042641966315 2.712322548380473 50 56 30
8.787668095038056 2.7521417169622553 2.6855022976274694 49 55 28
9.240365815411414 2.8311500669440433 2.5940335982861016 49 55 28
8.480982531849454 2.7249768298511428 2.338416497986687 48 54 27
8.290199547429394 -3.0263001485552072 2.551753167163626 51 59 33
7.878480606676212 -2.6368874615611677 2.415132685837663 53 62 36
9.935934548446433 -1.8352316801908772 1.4587865917816252 54 58 36
10.988282712278181 -1.5309924242061386 1.2837892797584864 42 48 21
11.071635250082867 -1.4368162889091431 1.286010629750177 35 44 14
10.683572637389494 -1.4368162889091431 1.4666545964789313 43 46 20
10.855582216852751 -1.7197842817489308 1.3751251783268095 52 56 33
8.495438887090451 -1.6477475485739352 2.0463408776171805 49 58 31
8.621701209063248 -1.777690262010419 2.0388139407795793 50 59 33
8.027082485484648 -1.947129524564026 2.0766281174263663 50 60 34
7.763556103661539 -1.8082680607693202 2.0955297520754366 50 60 33
8.25620207604426 -1.4784915803806509 2.557933943926187 52 61 33
8.36681677021814 -1.2671866892568633 2.538208408686396 52 61 32
9.090037996064181 -1.3844975726691253 2.1387237815329883 46 54 26
8.168788910254825 -1.5066661233820788 2.2124824506638627 47 56 26
8.907674836902062 -1.3567782009882534 2.2931610961332605 44 52 22
8.202788710939458 -1.3195718478461158 2.371686307375173 47 56 26
8.80385829361492 -1.5066661233820788 2.303601281131861 47 56 27
8.907674836902062 -1.3567782009882534 2.2931610961332605 44 52 22
7.596615288065842 -1.9064802238428582 2.4579338489271483 51 61 35
7.147797219787347 -2.0885749811143484 2.3240879536614454 52 62 36
7.335453995853794 -2.201999476233061 2.5028875835527535 53 63 37
8.099891502018034 -1.6753997835006604 2.3848798193445218 49 59 31
8.309729957612964 -1.8082680607693202 2.199868863575095 49 59 31
7.549217416712014 -1.8491782823208247 2.2753191748857784 48 58 32
7.819970169947074 -2.00738512473987 2.2462429052116124 50 60 34
9.025220310563114 -1.6387563760997106 1.89668180601051 53 58 33
9.384676893419234 -1.5216738300991937 1.9981259125097388 52 57 31
9.72499211156694 -1.5268210599486476 1.7663231796180623 53 58 31
9.70150311469503 -1.735150043369878 1.6626021922872747 54 59 34
6.86858067671259 -2.5775262423201766 1.8494684999957967 54 63 37
7.208065559237067 -2.5775262423201766 1.9832485427733735 52 61 35
6.969488348934627 -2.48495045435383 2.1628443835303397 52 61 35
7.060870174124989 -2.3616998955092408 1.9923883861237202 52 61 35
7.988522672503249 -2.07233005323205 1.9408810793740583 48 58 32
7.013652870338784 -2.363248249821909 2.342178214146048 53 62 37
13.010217297323713 2.741903844691838 1.0818718090641033 30 36 8
16.707074095559047 -2.9187622670887623 1.867798272628837 54 64 40
13.97181339583392 -0.3576574831347574 3.0329276026449463 57 66 39
12.907130232097614 -0.9018249265823151 3.0891777916449397 56 65 39
13.97181339583392 -0.3576574831347574 3.0329276026449463 57 66 39
12.904769756360084 0.8417678234089059 3.0927886168785803 55 61 34
12.9758172232269 0.31947297997799984 3.026120223405216 52 58 31
18.116237458430174 0.5985167323740832 0.9787071595458314 32 38 12
9.573592170780207 0.48803218667103804 1.663832320677383 17 20 2
9.738350236663534 0.25640536549244947 1.5594393640729711 26 28 1
8.992161819707785 -0.2919635932230715 1.7824907554041882 37 43 11
9.031990612367691 -0.1798154106175907 1.8964285044081737 37 43 12
8.64506318452825 -0.06292200133307943 1.7911276793196806 35 39 10
8.913753288855006 0.055710780059492405 1.9009107261710925 36 41 14
9.574716825543042 0.15476443399005788 1.6638213609526866 36 39 9
8.366361113015708 1.257560579825509 1.9234184105287138 33 41 10
9.409186847787954 0.6352562524870878 1.7729751060630572 16 20 1
9.147321934054432 1.036536755233503 1.8921743626746406 21 29 8
9.377160449356966 0.4955038539229199 2.249851909059145 40 45 18
9.393194481336991 1.0845822933128766 2.248474966057704 37 44 12
9.538924449074983 0.4374194139626984 2.108976152881575 40 45 18
9.428294213574453 0.07301351846556016 2.390166318054917 41 46 17
9.88488409128913 0.4275727106642043 2.4949782589020364 43 48 21
8.845099203021762 -0.23404412635445357 2.299412933815588 40 47 17
8.456825626747221 -0.37548918950209814 2.1872689657130193 40 47 15
9.22236455627421 0.3213151061041503 2.1295952387396344 41 46 17
8.077399079319633 -0.8966064866784972 2.073180994618583 39 48 16
8.16579061369865 -0.6740457390183292 2.3763711121255047 42 51 19
8.43353382528592 -1.1584166953982675 2.3438604495244633 44 53 22
9.120604209475605 -1.2159984870009957 2.2727690243056613 43 51 20
12.835685949087715 2.4176725548578246 1.4841639390445944 42 49 15
8.414407141549054 1.903444702200202 1.9213179350625702 45 50 23
7.570963267181789 1.660304064210937 2.1103189447239346 41 46 19
8.019881419418217 1.5147104790187156 1.9393645498250294 18 24 4
9.672515841642598 1.9982746291874414 2.7364278532965853 45 50 21
9.167297237794594 2.0116451587124 2.421158950266479 42 47 20
8.815715452413846 1.6765564003449762 2.467848689008208 44 49 22
8.91035011824901 1.3168914361101147 2.4546542220750434 45 50 23
8.510040722282946 1.9503443456934046 2.1828448765775055 37 43 17
9.204228688456988 1.9107138556255072 2.600506927073565 44 49 22
8.496157296335548 2.0177990900114486 1.7950547274334852 41 46 19
8.139262300154167 2.4663017182946665 2.069009973738747 35 40 11
8.437160400013868 2.1868911934878246 1.9203321125913462 44 53 25
8.798964706509537 2.150432640648595 2.304101923111173 42 47 20
7.973500664776023 2.8266649940327113 1.5569254745431704 47 53 26
6.467948081032724 -2.873927545842734 2.0338995049782205 52 60 35
9.009005615765119 2.5378169531835453 2.6377300867327067 48 54 27
7.575748779258385 -2.873927545842734 2.272345931820215 52 61 35
7.438483797305239 -3.046822776411024 2.2880426583802684 51 59 33
11.071635250082867 -1.4368162889091431 1.286010629750177 35 44 14
8.027082485484648 -1.947129524564026 2.0766281174263663 50 60 34
8.621701209063248 -1.777690262010419 2.0388139407795793 50 59 33
8.23222279815956 -1.8491782823208247 2.3680052811575028 49 59 32
8.907674836902062 -1.3567782009882534 2.2931610961332605 44 52 22
8.202788710939458 -1.3195718478461158 2.371686307375173 47 56 26
8.907674836902062 -1.3567782009882534 2.2931610961332605 44 52 22
8.813011443775974 -1.659473360347675 2.3026669573406764 48 58 29
8.36681677021814 -1.2671866892568633 2.538208408686396 52 61 32
8.309729957612964 -1.8082680607693202 2.199868863575095 49 59 31
9.482136391120033 -1.4059178615476617 1.993450244483383 46 51 22
9.819074381832799 -1.4229526855586807 1.7644258329373337 46 51 22
6.962287437008314 -2.239621634081182 2.1635401223507067 51 61 36
7.432249247446691 -2.4596856996570438 1.8278343726341975 53 62 36
7.988522672503249 -2.07233005323205 1.9408810793740583 48 58 32
7.650776086070362 -2.145367397523829 2.1040840664484426 51 61 35
6.66322683980964 -2.5775262423201766 1.7046754178226855 52 61 35
7.013652870338784 -2.363248249821909 2.342178214146048 53 62 37
13.386740669779138 2.664485994986793 1.0967768232473265 32 39 9
12.978164776818568 -0.3576574831347574 3.024571060193789 54 62 35
12.978164776818568 -0.3576574831347574 3.024571060193789 54 62 35
12.9758172232269 0.31947297997799984 3.026120223405216 52 58 31
18.329104324786137 -0.14425812864848314 1.2882269128410782 45 48 21
16.529155227500794 0.5079139944915914 1.1921253722915834 40 46 23
8.783639877592577 0.4955038539229199 2.1611429267263067 40 45 20
9.39004142294703 0.17280138593968197 1.997865762020759 37 44 12
9.690798547026162 0.9177387037234698 2.5219962936888676 44 50 23
9.166867490227851 0.6896409739052214 2.2685087834762214 41 46 21
8.78150955106569 -0.09757208360059556 2.472742695999741 43 49 20
9.53283055858406 0.48803218667103804 1.5591945067944666 10 13 0
9.077078407631708 1.2129340254202579 2.2768310947479735 40 44 14
9.685621043001458 0.6655731370880772 2.5227461002201688 44 49 20
8.80075530681712 1.0845822933128766 2.15984038776395 23 32 4
8.108025524068418 -0.5773954696582623 2.2180936890974157 40 48 16
9.139337091277046 -1.1445610514947657 2.010385177245178 39 46 14
8.709762396489173 -0.44413663713832685 1.9089471284414592 37 44 12
8.509207516105958 -1.2159984870009957 2.1829136141087826 41 49 18
8.59315850036117 -1.0803017014872731 2.5009826524353778 47 56 26
12.835685949087715 2.4176725548578246 1.4841639390445944 42 49 15
7.342288935727 -2.526377377426729 2.5016349575536685 56 65 39
7.257691736106407 -2.7158838443547255 2.1363708995555437 53 62 36
7.722541111243501 2.9501134609738964 1.5564746828791323 49 54 27
8.987035198715308 2.884109686712701 2.444315833976024 49 55 28
7.106258749100774 -2.774491021800501 1.6962832900677143 50 59 33
9.560141884551346 1.7366092648111393 2.7647746662108146 46 51 22
9.177912408995441 1.263302349490033 2.6052977497369083 46 51 24
8.863103422186148 1.3548244534387623 2.2976015451710317 40 45 16
8.890351614789484 1.8104202448140405 2.294879571122463 39 44 19
10.683572637389494 -1.4368162889091431 1.4666545964789313 43 46 20
9.482136391120033 -1.4059178615476617 1.993450244483383 46 51 22
8.988328021604717 -1.515163325434951 2.1459605698214337 47 56 28
9.733279068439026 -1.631644167875162 1.766154555598166 53 58 32
7.596615288065842 -1.9064802238428582 2.4579338489271483 51 61 35
9.090037996064181 -1.3844975726691253 2.1387237815329883 46 54 26
9.87429004763185 -1.8352316801908772 1.5595957224919688 54 58 36
8.089931550414372 -1.4951111776591512 2.3861846138520577 50 59 30
9.819074381832799 -1.4229526855586807 1.7644258329373337 46 51 22
7.740595324618784 -2.262529020303213 1.9533376841599914 52 61 35
13.508772909847554 2.741903844691838 1.0164722238930488 32 37 9
17.524015401941764 0.6145155051609023 1.2146143745960643 33 39 11
17.701370190163754 -0.15291148336026714 1.2183394718751708 46 48 22
8.920379872786897 0.8735006159325378 1.9006561946513525 15 21 2
9.32585213432104 0.791041173366478 2.401999166895397 41 47 20
9.437787851060863 1.0120766973609163 2.3890902425012692 43 48 21
9.484338317979674 0.06320080664654162 2.240764460913471 38 43 14
8.294577713851433 -0.5028202345730064 2.0588517776747177 39 46 14
8.063634271769601 -0.6962954971765613 2.074119079767803 39 47 14
9.427569973407184 2.0944181278447154 2.5622886801895906 43 48 19
9.086064929073565 1.6999800816093376 2.6225554092278944 46 51 24
9.332805249292687 2.3719501474673765 2.5779997529049528 45 50 23
6.818453215015868 3.0576535681240427 2.1778174090851232 51 57 32
7.278260793940378 2.7825820016642653 1.8333997243448208 48 54 27
8.633922830626384 2.647136008976125 2.4946760033057513 48 54 27
7.49221884538868 2.6563951775243106 1.6897873242838124 46 51 24
9.009005615765119 2.5378169531835453 2.6377300867327067 48 54 27
10.60477364239924 -1.6258781912397338 1.46587792784128 50 55 30
7.520627751247473 -2.649178020548632 1.6893357186887403 52 61 35
10.539391953343491 -1.5309924242061386 1.5603025778748691 49 54 29
13.424075855395232 2.773257190009473 1.1802391147845066 35 40 11
9.683587241404048 0.2647958068971579 2.523041071091778 44 49 22
9.147321934054432 1.036536755233503 1.8921743626746406 21 29 8
9.130856153395372 0.5421926498991376 1.892774780338323 37 41 17
9.172337819433386 0.8911974278799566 2.2680088799794977 44 49 22
8.890019482255518 0.6655731370880772 2.457447203534708 44 49 22
9.43152480468476 -0.08244753893435325 2.389799757958367 40 46 17
7.997640659387075 -0.7978099398707605 2.22856909472208 41 50 18
8.806565112678962 1.4942713461016695 2.469151204904148 45 50 23
8.309729957612964 -1.8082680607693202 2.199868863575095 49 59 31
8.265961684798183 -1.6982616247486113 2.55614853049354 50 60 33
8.133710600178462 1.3830132841537315 1.933965147467768 28 37 6
8.178652830043362 -1.659473360347675 2.2115816267334676 46 56 28
12.907130232097614 -0.9018249265823151 3.0891777916449397 56 65 39
8.727820549692453 -0.08244753893435325 2.311469964041355 40 47 17
15.686753798321119 0.23612757726943767 1.2389485792369483 47 52 27
8.232605521863526 1.3548244534387623 2.2067030818213103 34 39 12
7.952649266518153 1.903444702200202 1.6828682711770016 18 24 3
8.290199547429394 -3.0263001485552072 2.551753167163626 51 59 33
7.903532233280365 1.903444702200202 1.556802670608953 16 22 2
7.6638774585721015 -2.5775262423201766 2.103075179125801 53 62 36
8.971270538867344 2.4933486899869255 2.4464163036130886 48 51 26
8.127048752952096 3.0576535681240427 2.3813474047699126 50 56 30
7.573148383577699 -2.48495045435383 2.2726360951372895 53 62 36
