10.464128393513448 0.6293184399564967 1.7905649058169153 44 37 27
6.190873786395047 1.69393775584723 1.77925576101592 40 44 22
6.151340323536338 1.528227562659198 1.7806154345063492 39 43 21
5.382608959366138 1.1755924763350982 2.4904305867116037 42 51 25
5.041052897865082 0.5532725832009446 2.2795651942085122 43 46 21
5.28661897016108 1.8130285266064459 2.514644694974007 45 53 30
5.332167030759388 1.2673203965551485 2.2336430091407564 43 49 24
5.28661897016108 1.8130285266064459 2.514644694974007 45 53 30
4.893926257120768 1.0124936110796774 2.6358245746279922 44 51 26
5.555843068752442 1.7181866117915454 1.9939064082398323 43 49 23
5.332167030759388 1.2673203965551485 2.2336430091407564 43 49 24
5.647258740166433 1.3251999831884629 1.9866288535080945 40 45 18
5.472904921940922 0.3010572035112759 2.4690773776795902 44 49 23
6.367209561779811 1.3227579797445133 2.977059060141107 49 57 34
5.656932352263816 1.4441594047329138 2.7750824708006667 46 55 29
5.831214085639294 0.4212924437336681 2.703779456431448 43 50 26
6.036786630499991 0.002580447735354654 2.359142795190289 41 50 25
5.37404445993329 0.002580447735354654 2.2275739016611746 42 47 22
6.356009976672345 -0.437180363334118 2.30982498717035 49 55 32
6.274588304814745 -0.1859931758615264 2.1210902844978365 43 49 27
4.2552635930043206 -1.7551813270614776 1.876632350985191 55 64 46
6.105769756811894 -0.8862252054982493 2.138143257257025 53 61 39
4.655073276629681 -1.7551813270614776 2.082943641231722 55 64 48
5.378728779673933 0.0033729547712484215 2.491377836880679 46 52 27
6.153440361891471 -0.7426675790936031 2.3402515636610857 49 55 34
6.696481411012989 -0.8862252054982493 2.26441478614699 55 61 39
5.17148099798562 -1.5066993306943937 2.258136462173531 55 64 47
6.481473377395451 -0.6670183828771787 2.892366750950911 53 61 41
5.827446071301995 -0.41315513847461166 2.7051627903000943 51 57 33
6.630489655281264 -1.9287220557744693 2.8155697949530283 55 65 44
6.1970257526023875 -1.1729842292863522 2.591007297513645 55 64 46
6.474194754199783 -0.9242464108853312 2.5247929994731764 54 60 37
5.368546184164798 2.1707801022125106 2.009673300071313 46 54 31
4.823410473512964 2.6486869138767206 2.0634292946834543 49 59 36
6.151687015024655 2.071787570409503 1.9506970521395566 44 50 25
5.079937259605257 2.877852965238515 2.2730206184652126 50 60 37
5.46770487803109 1.9809362054071757 2.214433824194372 45 53 29
5.369145887460901 2.6486869138767206 2.228277477374114 49 59 36
5.230847168197675 2.3098298802069697 2.24885538027668 47 57 33
5.458285784279713 1.9057138107678768 1.8077363825786552 41 47 24
5.9141140134687475 2.285203209201413 2.674732180510044 49 57 34
5.652855876899294 2.6162308601449666 2.776965764559081 50 60 37
6.036779773033309 2.788586882576194 2.635902795755959 49 61 40
5.352155466446223 -2.1733416427513954 2.0111113293103258 53 65 47
4.768861671096915 -2.098963550812666 2.3295959638827135 54 66 49
5.460254212518199 -2.514369815418977 2.4719920561675033 53 65 46
4.255008128250633 -2.3134762053584743 1.8766513077725178 53 65 47
5.356054897138953 -2.936057585822401 2.010768329013815 52 64 43
6.025139544311977 -2.6532512095429843 2.361089215831941 53 65 48
5.008306018222771 -2.1733416427513954 1.8294910523895247 54 63 44
5.77271786316848 -2.883329060510565 2.4062930065068135 54 66 47
5.751604567222729 -2.5793577125817744 1.7954396049666714 51 63 43
5.806711854765626 -2.467854890344841 2.1713187667078855 53 65 48
12.751077369723115 -2.706865171084642 1.19171285968172 40 47 15
13.290611103956728 -2.739878359042287 1.287205252115372 39 45 18
13.27026260294372 -2.814154193290278 1.2072504455588626 40 46 20
13.39997744720324 -2.892368938690111 1.1298722050317263 40 46 20
6.275094822404399 -2.514369815418977 2.571064566382322 55 64 46
6.815520782148716 -2.2906433763919334 2.742992489152627 54 63 45
6.85442805736812 3.1375902555687376 2.7297230390642455 53 62 44
6.473691025365726 3.138659274811787 2.5249027427642425 49 61 42
13.627643888210587 -2.8382411578950784 1.369943780169402 39 45 18
4.933546380830778 0.23321855433993735 2.051484402819163 40 45 20
4.987157542482764 0.7463161757177135 2.0458866540859333 43 45 21
5.235252254680359 1.7541941445868836 2.24817783190943 46 52 27
5.240475526803545 0.7280317690328529 2.5269030282173026 44 49 23
5.188442512645445 1.5070493868190924 2.255455891959729 43 49 24
6.40541084293033 2.20520142159225 2.9443542875715285 50 58 36
6.196161989024374 0.0020894998143774148 2.128874290198735 41 47 25
6.117256560164116 -0.22832766456341755 2.3459969576577233 47 53 31
6.507572004642395 -0.3617704468716085 2.0992697651825463 45 51 29
5.17148099798562 -1.5066993306943937 2.258136462173531 55 64 47
4.602366429097383 -1.5066993306943937 2.0893935465115296 54 63 45
6.481473377395451 -0.6670183828771787 2.892366750950911 53 61 41
6.474194754199783 -0.9242464108853312 2.5247929994731764 54 60 37
5.742916742670538 0.004868015802263377 2.73787214678996 46 54 31
6.405580546773144 0.008743563522597895 2.944221757531553 49 57 35
5.775406710155897 1.9057138107678768 1.9768517068870872 44 50 25
5.318576275217559 2.464282083728158 2.0140881559721584 49 59 34
5.516907702579063 2.095782325810705 2.4591238178187558 46 56 32
4.668974526831121 2.3098298802069697 2.0812706072990856 48 58 34
5.368546184164798 2.1707801022125106 2.009673300071313 46 54 31
5.7765215767250035 2.877852965238515 2.4055653024617243 49 61 40
5.041260318557619 2.285203209201413 2.585332899993321 48 58 34
5.854981995359098 2.071787570409503 1.7914069832795834 43 52 26
6.390161734272943 3.139277611320246 2.3049652989420517 51 61 38
4.959135472498019 -2.467854890344841 1.8321157559324428 52 64 45
5.77271786316848 -2.883329060510565 2.4062930065068135 54 66 47
4.915041980888971 -1.9829479459541863 2.053448726153806 54 65 47
4.538193330947596 -1.9829479459541863 1.8570072088074647 54 64 44
6.033140146679755 -2.7956531980084347 2.6369933724036585 52 64 47
4.992204901793963 0.9277634514951903 2.287985124332093 42 48 22
5.240268091668384 1.4859667647104604 2.5269591057827347 43 51 27
5.225414169208103 1.7181866117915454 1.8185120328060334 41 46 23
5.136305658346712 1.0584339285211943 2.0310062952844605 40 45 20
6.484861381749887 0.6777216690581676 2.890322260529656 46 54 31
6.69271946671079 -0.7530243264543452 2.083192394141413 50 56 37
5.634428065897715 2.3217762282884054 1.8001942105244302 46 56 31
5.852329709270481 -2.936057585822401 2.1659897630003213 53 65 46
4.538193330947596 -1.9829479459541863 1.8570072088074647 54 64 44
13.460342398399423 -2.6700044379229326 1.367412564800796 39 46 16
6.275094822404399 -2.514369815418977 2.571064566382322 55 64 46
6.077595142375027 -0.7225801031249941 2.6239040193917824 53 59 35
5.511756683807383 1.5197459969805627 1.9975111797632825 41 47 20
6.879427911991876 -0.5170739107223178 2.0679902574673763 46 52 31
5.2308550822137105 0.4414077516032958 2.0220658608425124 41 43 21
5.627198153775431 -2.74458263636124 1.9882036164548833 52 64 43
5.852329709270481 -2.936057585822401 2.1659897630003213 53 65 46
6.101458680241748 -2.74458263636124 2.1385935675344188 53 65 46
5.827446071301995 -0.41315513847461166 2.7051627903000943 51 57 33
5.218234577054433 -2.3134762053584743 2.250803716159678 52 65 48
5.768165048377381 3.139277611320246 2.17590297455966 52 62 41
6.925403886729118 -2.7956531980084347 2.7068593682923416 54 63 45
5.69989597284005 1.9251332526613245 2.7559227693192034 47 55 31
5.46829370668519 2.509142174566998 2.470136985613875 47 59 35
5.95153299821076 3.1375902555687376 2.6624083183547143 50 62 43
6.69271946671079 -0.7530243264543452 2.083192394141413 50 56 37
6.275094822404399 -2.514369815418977 2.571064566382322 55 64 46
