14.548403495663006 1.431743482033965 1.423034991671397 22 34 52
13.528454118154935 1.4213998144619897 1.708581086728082 20 32 50
12.187439514011484 0.8033995370604596 2.1684694990965934 17 27 38
13.59214091729682 1.4958849036689696 1.7826552028806 20 32 50
14.20694897439733 1.2103465756034764 1.4903349576432114 19 31 49
12.737086112530312 1.4094080566026723 1.7971171987400518 19 31 50
13.771125390418737 1.2556091582583504 1.9313325098841616 17 30 45
13.725235786004799 1.4094080566026723 2.0117631226109816 18 31 44
13.768603097050056 1.2296414620889606 2.092200987253318 18 28 43
12.982625585327973 0.9958376768850552 2.127339115279611 17 27 39
12.819721301650166 1.1174225468698373 2.04537279652445 18 28 40
13.468694603886815 0.7193758292178027 2.508454694040087 15 26 33
12.874892578184946 0.9424916661482691 2.2272919982794983 16 26 38
13.415147100819702 0.8033995370604596 2.2920244917367394 15 26 33
12.06069286675459 0.5461051064375034 2.395670143188771 15 26 33
13.519937982664185 1.1992256614545553 2.191029281227986 18 29 41
14.04641075622978 1.3106711245065608 2.1645062193280866 17 29 43
13.759491745011784 1.48263220836301 2.1786483754905874 20 31 36
13.694047097840611 1.378629398348879 2.2742552437682013 16 29 40
13.551051808546783 0.7051495846247193 2.63637729502437 11 24 30
14.33161094001627 1.4130218208298064 2.6841527800650473 32 44 23
13.869722707419575 0.9571041619519606 2.757300751758855 38 49 38
13.579070878709997 1.3409808630788178 2.814272658969482 39 51 34
13.747437430005462 1.0757481674424054 2.270965637484246 16 26 38
13.665329038441271 1.3584467504024333 2.3766132778157094 19 31 30
14.299246190533873 1.4637043151098663 2.433108817861958 24 35 26
13.487722802994277 0.8966673667793802 2.506534982605543 14 25 32
13.735241871667311 1.1240513212000096 2.6126389580388723 26 38 31
13.569964524476877 0.9204711383676593 2.6338631464711364 33 44 43
13.735241871667311 1.1240513212000096 2.6126389580388723 26 38 31
13.461697763546187 1.1199285450580105 2.3925028666717965 17 27 36
13.782434818995355 1.333615986931927 2.47806302494498 24 34 22
13.217578242606413 0.9676232160729481 2.4125826604516702 14 25 34
13.487722802994277 0.8966673667793802 2.506534982605543 14 25 32
14.041716467399734 1.3023670396307998 2.5764129539616833 26 39 26
14.208137143348253 1.0525188431408539 2.7021360688168032 36 48 38
12.873047563556282 1.0672679509979777 2.44307382323591 16 29 32
15.235199934705992 1.4130218208298064 2.713145804773756 33 45 24
13.34594196125972 0.20573434211139802 2.6649035446614846 3 6 8
11.212728308651085 0.03138330349817798 2.347344976150932 8 6 9
13.30827789859938 -0.12430730084555863 2.6704133475662237 2 1 1
14.364273906162692 0.35921448879161194 2.679554962712959 0 4 5
12.525656174763672 -0.28389012504156796 2.6196866527998286 2 2 1
12.918258412480357 -0.6455191024331062 3.045065669082962 44 53 39
12.957056248183214 0.8991193711468932 3.0179378826570398 44 55 41
12.898967149159718 0.24720037919530766 3.061991381494718 44 53 40
13.651165620546333 0.513162056950026 2.799058585710426 25 31 32
13.796355954325842 0.05020824817703208 2.7706722199317766 3 4 6
14.171989871888435 0.5770146331603252 2.7075932586512073 7 21 22
13.851219293010569 0.683135846161441 2.760617714103617 18 32 33
13.976528318056179 0.4234276838123289 2.7388250420477904 0 1 0
13.850681958732004 0.24542125039884902 2.760714581153679 2 6 6
12.535239071300895 -0.18536070155392914 2.811409418902372 4 4 3
14.233045829503093 0.3957194668226044 2.9115569175954805 44 54 44
14.269038430813033 1.2739251692677442 2.901022399253444 44 56 39
14.373394823974584 1.0205013126157356 2.8730212439509293 40 51 37
14.596936929166255 0.513162056950026 2.8220705827136685 30 38 36
14.355540626817836 0.6445888612327718 2.8775779531860404 40 51 41
14.197735290452883 -0.2451030657322894 2.9224297579055225 44 51 43
14.355540626817836 0.6445888612327718 2.8775779531860404 40 51 41
14.180184783043318 0.08361678965636059 2.9280574717775285 45 53 44
13.577426500837994 -0.41270985045451636 2.814629545588225 1 1 0
13.577426500837994 -0.41270985045451636 2.814629545588225 1 1 0
13.128917256726755 -0.7199156308179683 2.938136881908601 50 55 46
13.577426500837994 -0.41270985045451636 2.814629545588225 1 1 0
15.571246270287745 1.5711562700958543 1.3676271679941259 25 40 57
14.312152735997245 1.6412354272413199 1.6307899177519012 21 34 48
13.71400618702728 1.7938354315994585 1.7067051984641464 20 34 48
14.392096789495334 1.7106046925610257 1.5609381495678176 21 33 50
13.214738972635658 1.6599286208060993 2.1164480066820897 19 32 43
12.842276284778496 1.7471939211329515 2.0444707259504136 20 33 40
13.579545475815696 1.571244412438466 2.016832729975838 19 31 49
13.19107662108303 1.811371610106278 1.8676152570737943 19 33 37
13.217366961291305 1.652687010773026 1.947176019268843 19 31 49
13.837792366502889 1.6465315987007771 1.8533516458096018 21 33 50
13.579545475815696 1.571244412438466 2.016832729975838 19 31 49
13.774314005129787 1.8867933336358265 1.931245236122619 23 35 21
13.328177110507482 1.7471939211329515 2.111288618887998 25 35 23
13.363905512336585 1.9586762877725572 1.7102886396456152 22 34 31
13.237853005022846 1.989395812165778 1.946564474861396 28 36 14
13.636605042937328 1.989395812165778 2.01483285619336 28 36 16
13.310570570341945 2.0250352898701327 2.1120825883037044 32 41 15
12.824002651028332 2.0250352898701327 2.045201290839449 31 40 14
12.853577912704306 2.7398368438158687 2.1335975551408835 30 43 12
12.556645085554145 2.06676296788645 2.148587198039186 34 43 17
12.132874875479086 3.116514027134783 2.171534100834554 36 46 18
12.337364343772775 2.9203028101627835 2.1602203152045063 36 45 17
12.255723011600235 -2.9685348549618267 2.1646816656833545 38 47 20
12.041439579220024 2.8274337546326698 2.078871947677989 34 45 14
18.926005554612082 -2.9900856831753977 1.2956547524730806 19 25 0
12.489973326642378 -3.073638370315133 2.0589839745923153 34 44 16
12.953614200809307 3.1206905487182706 1.9552361661290159 33 43 15
12.972824201380611 -3.0792833367445396 1.9546371562869567 33 43 15
12.66906835606645 2.9398430686410597 2.051491499310579 34 44 15
12.530097362239536 3.0284100288709146 2.0572841662133325 35 45 17
13.011459332714782 3.0377669630293167 1.9534382193763526 33 43 15
13.068749544483756 -2.9969251000021213 1.9516744732678863 33 43 16
13.760289641914051 1.6599286208060993 2.1786080340294163 25 36 28
13.877385228805757 1.8559942739616586 2.263101712587674 31 40 14
13.58528111009693 1.6685707517500974 2.2810659455062448 28 37 19
13.548021400418461 1.5713318354391206 2.283433519660122 25 36 21
13.666935780397363 1.7842797006880846 2.37649081965062 33 43 20
14.446235232843424 1.5714616403169448 2.533685547864758 32 42 18
14.446235232843424 1.5714616403169448 2.533685547864758 32 42 18
13.518993145836932 1.571389722141314 2.3879563250011007 28 39 16
13.849047353506506 1.884922836999853 2.3628920216415366 35 44 18
14.761707361062134 1.5715533953072538 2.628123606661213 31 44 25
14.7959110293282 1.7085871333484952 2.624039066827721 35 45 25
14.220572992029687 1.9637351313015492 2.5568803772388455 39 49 23
13.964612576461077 1.9201168211512893 2.4615494573190264 37 46 20
14.297064422816103 1.5716745072877094 2.6890861370424317 34 46 27
13.657211658363236 2.0754855681444657 2.489881064115755 41 50 23
14.584775293125583 1.8092334506529257 2.5201648188450125 38 44 24
15.743810582403874 2.186212539859332 2.804571009139992 42 54 31
16.04274056257516 2.0906501296523077 2.7548925914757105 44 54 28
15.23592054976611 1.7302833666306412 2.71304226339126 39 48 30
15.334414040743296 1.8812503506854739 2.6991928772100007 45 54 28
15.23592054976611 1.7302833666306412 2.71304226339126 39 48 30
12.92706070229074 2.262516308669418 2.325727736174529 39 48 20
12.841832358782598 2.4786466314233238 2.2292771181864093 35 45 15
12.685414108269054 2.7005598835559828 2.238852559781402 36 46 16
13.04327221758655 2.561065609476288 2.317377753389077 36 46 16
12.88000801978478 2.199971360884994 2.2269860195242774 37 46 18
12.782943028129244 2.3389768427393287 2.2328462652142806 35 45 15
13.613749269979186 2.4130497459695097 2.3805682075448162 37 47 19
13.420874687399083 2.3389768427393287 2.2916493216248353 38 48 18
12.87992155976811 -1.5781250543691423 3.08340391161181 47 56 40
12.028514469459052 -2.09254509724744 2.97307413771503 45 55 35
12.028514469459052 -2.09254509724744 2.97307413771503 45 55 35
11.986416535721837 -1.5739349176812532 2.995151969790412 45 53 35
12.830902922467256 2.896655358602988 2.332802291109018 37 47 17
12.654098565102634 -3.0586095628038756 2.346221871408994 36 47 19
12.693703821276781 3.003563303048149 2.3431679848620393 36 47 19
13.043543341794088 2.7951525924030056 2.3173585216242962 36 46 17
13.131213080631557 2.8274337546326698 2.2123373853276895 36 48 15
12.897183248527188 2.867490880708908 2.440848284994914 37 47 18
12.724892834853387 3.116514027134783 2.236406765253604 36 46 18
19.223796788985776 2.9648843112659935 2.7623875289054842 43 55 29
12.842078938066802 -2.9685348549618267 2.229262263055847 38 47 19
12.842078938066802 -2.9685348549618267 2.229262263055847 38 47 19
15.35156643272099 -2.7123110828133288 2.696840117064664 37 46 17
19.79286931753578 3.0998257676899112 2.833038211669295 45 59 33
20.11886315861831 3.1057822708463583 2.7856987173830166 41 55 28
13.21390813372698 1.48263220836301 2.1164861816044795 18 31 42
13.216536287587425 1.4897958825916469 1.947200859455366 17 29 47
13.216536287587425 1.4897958825916469 1.947200859455366 17 29 47
14.435514994687034 1.2619355650156832 2.669741392896985 32 45 29
13.987347507624277 1.0021773740938147 2.5825720059459463 15 26 33
13.987347507624277 1.0021773740938147 2.5825720059459463 15 26 33
12.90210132626268 0.7293221247338194 2.3275493921727537 15 26 33
13.150271684819733 1.0021773740938147 2.5422306293805077 18 30 32
12.921963887536258 0.8799750950988852 2.326098900900333 16 27 36
13.9622537781583 1.2226510903640844 2.461758380348004 20 30 30
13.79153101373827 1.0264716347498843 2.3671277765647445 16 27 37
13.555522738095572 1.4637043151098663 2.3850890277456065 26 38 21
13.846668868529585 1.257743675934232 2.3630661265447706 17 28 35
14.09678189448026 1.1631857182239007 2.345238200685408 18 28 40
14.119427361141469 0.8164919458550033 2.7156964272870177 38 51 41
13.875011601570538 1.2865849041161261 2.263243577205837 16 29 42
13.694047097840611 1.378629398348879 2.2742552437682013 16 29 40
13.584472933906444 1.47408282305593 2.2811171101606647 22 34 27
13.897228436684816 0.8104250351916855 2.5930252976142123 15 26 31
13.924550945452856 1.383618032916302 2.747678328196764 38 49 28
14.031469632877096 1.2077925340913984 2.729731737644599 34 47 29
13.318815606188329 0.4350847596623566 2.5239516473274675 11 22 27
13.128917256726755 -0.7199156308179683 2.938136881908601 50 55 46
13.317563191508336 -0.5286288130609993 2.8781574008334903 50 57 49
13.651165620546333 0.513162056950026 2.799058585710426 25 31 32
13.476502511289604 0.35921448879161194 2.6464711272402996 3 10 11
14.355540626817836 0.6445888612327718 2.8775779531860404 40 51 41
13.976528318056179 0.4234276838123289 2.7388250420477904 0 1 0
13.522291584494992 0.30349872141929307 2.8268736206781977 54 63 54
13.401802398292055 -0.28389012504156796 2.656894211197791 7 5 5
12.634487147137648 -0.41270985045451636 2.789206819284879 1 1 0
13.014314217081964 0.12517574164609593 2.9865080365961276 41 50 40
13.48512007692701 -0.18536070155392914 2.8354542633071245 58 65 57
12.888802876935802 -0.14885996273461144 2.7389607205657365 1 1 1
14.609147273468439 1.77864756529353 1.4925547017027445 21 33 53
13.530077114475832 1.721002925627202 1.7085644534252553 19 33 50
13.514854200590381 1.8318325786381344 2.1030200307476097 27 35 15
13.774314005129787 1.8867933336358265 1.931245236122619 23 35 21
13.19107662108303 1.811371610106278 1.8676152570737943 19 33 37
13.703256242154056 1.721002925627202 1.7809114609832462 21 33 51
13.801214388751657 1.5712105971503278 1.8541211878649875 21 33 49
13.771792295753496 1.9128175142716164 2.0920679692307425 28 36 16
13.785008537233592 1.9586762877725572 1.8544634938971596 25 34 20
12.295461019223673 2.199971360884994 2.1625010815323122 35 44 16
12.19374378711996 2.3389768427393287 2.1681175997106163 33 43 13
12.853577912704306 2.7398368438158687 2.1335975551408835 30 43 12
12.255723011600235 -2.9685348549618267 2.1646816656833545 38 47 20
12.558364226860038 2.8274337546326698 2.1484979448251686 31 44 13
12.194613804771095 3.0172090849619577 2.1680690712160953 36 46 18
20.19398100360313 -3.005034430284381 1.563770534804382 17 23 0
19.489778009697787 -2.9468330620064935 1.4606764193766146 18 24 1
13.695650470660981 1.7639949988929557 2.2741559455813176 31 40 19
13.723505093641613 1.5712842388102743 2.180473914115888 21 32 33
13.849047353506506 1.884922836999853 2.3628920216415366 35 44 18
13.464959653498534 2.0227415199138132 2.392242390356013 37 46 20
13.964612576461077 1.9201168211512893 2.4615494573190264 37 46 20
14.7959110293282 1.7085871333484952 2.624039066827721 35 45 25
14.48118404609259 1.692061487080607 2.5302256658427016 34 43 21
15.96491624246028 2.3264705426535954 2.7670454502987316 43 55 32
15.88579698296357 1.9356260712498699 2.7799265370956383 45 54 28
15.334414040743296 1.8812503506854739 2.6991928772100007 45 54 28
13.8938632182043 2.3361679797310906 2.4678706335052287 40 50 23
13.1271927772734 2.3361679797310906 2.420325494978766 41 51 22
13.054565645847955 2.613702622292614 2.2167301354431306 34 44 14
13.129568946429371 2.06676296788645 2.2124309234823563 35 44 18
12.67379173880426 2.653447690463772 2.344699842941263 35 47 17
13.184544591390964 2.4983785187813323 2.4153923476106196 36 46 16
12.91910826488962 -2.501341585395104 3.0443886594242384 47 56 38
11.92422380893062 -2.501341585395104 3.036249591786201 47 57 37
11.986416535721837 -1.5739349176812532 2.995151969790412 45 53 35
11.986416535721837 -1.5739349176812532 2.995151969790412 45 53 35
12.830902922467256 2.896655358602988 2.332802291109018 37 47 17
12.920015629459094 2.9203028101627835 2.2246037964938625 37 46 17
13.10874856153601 2.755844396122716 2.42192708622367 36 46 18
19.61033762989255 2.9865814231835994 2.7156469525535183 40 52 25
19.830774793853397 2.936223930291813 2.8270965657431137 46 58 33
13.359797184129013 1.1836845758629617 1.7103318160593515 17 29 47
13.62693639910536 0.8799750950988852 2.3795526611847135 15 26 33
13.867683083589974 1.39534466553228 2.173230718300986 19 30 39
13.522291584494992 0.30349872141929307 2.8268736206781977 54 63 54
13.934876401497242 1.4344913961612782 2.588620360189622 27 40 22
12.985348917030553 -0.336843327421571 2.721846549638994 1 1 0
14.119427361141469 0.8164919458550033 2.7156964272870177 38 51 41
13.466640880064412 0.06274788230458403 2.8398259500262437 22 23 24
13.289552803982188 0.04184329297074049 2.6731866421863373 5 6 7
14.180709631833567 0.8457339378067398 2.9278868541297465 43 54 42
13.330782736343535 1.7330575041614724 1.9438157795677624 19 31 49
13.035913437452093 1.8318325786381344 2.036871270995135 23 36 25
12.153382230496563 -3.0668707813623435 2.1703783320473575 36 46 18
12.589578253331442 -2.9839878579746872 2.0547870345284123 36 45 18
13.084866277926855 -2.9839878579746872 2.1224852051721697 36 45 18
20.553434029714264 -2.956341564168668 1.7103065845457757 18 24 1
12.263468248674114 2.262516308669418 2.2663034890968974 36 46 16
13.695650470660981 1.7639949988929557 2.2741559455813176 31 40 19
15.23592054976611 1.7302833666306412 2.71304226339126 39 48 30
13.099613449641627 2.1160942527024837 2.3134056368534632 37 46 20
13.221730761932083 2.1749956261436303 2.4122310836693455 40 49 21
14.464980995348872 2.0754855681444657 2.5318255352413215 40 49 23
14.043280145588648 1.8406327007809502 2.5762374042304295 38 48 25
13.419793093015778 1.9794067942132902 2.291720134549487 35 44 18
13.760289641914051 1.6599286208060993 2.1786080340294163 25 36 28
13.556332640185023 1.6790614218242228 2.3850257301523525 31 41 16
15.88579698296357 1.9356260712498699 2.7799265370956383 45 54 28
14.03974656504515 1.5732350355380604 2.9805683573337522 43 55 38
11.986416535721837 -1.5739349176812532 2.995151969790412 45 53 35
12.783772947060081 3.0172090849619577 2.2327956681184307 36 46 18
12.634403966899848 3.1137305807081903 2.3477510403686304 35 48 19
14.545910070934012 0.8264393223739255 2.8328490159393764 37 48 36
13.466640880064412 0.06274788230458403 2.8398259500262437 22 23 24
12.985348917030553 -0.336843327421571 2.721846549638994 1 1 0
13.317563191508336 -0.5286288130609993 2.8781574008334903 50 57 49
13.569964524476877 0.9204711383676593 2.6338631464711364 33 44 43
13.395617845482663 1.1791503543055721 2.5159257313331724 22 35 30
13.111208229194125 0.6168371487909148 2.546605586757427 12 24 31
14.632034440546587 1.1321000891559523 2.8148984156106174 38 49 35
13.03343475210812 -0.3592461948113163 2.9773901570671466 41 48 39
12.470019518979115 3.118791935950329 2.0598339420524923 35 45 17
13.202243615498531 1.8867933336358265 1.7890116674662324 21 34 34
13.23972286541385 -2.9164927224440205 1.9465087578329605 34 43 15
15.20270686504957 1.5716745072877094 2.7178495308611015 39 49 28
15.23592054976611 1.7302833666306412 2.71304226339126 39 48 30
12.908056564463427 2.4130497459695097 2.3271138255929946 35 45 17
13.840687231845124 1.2780095373305451 1.560545388730351 19 31 49
13.851219293010569 0.683135846161441 2.760617714103617 18 32 33
14.180709631833567 0.8457339378067398 2.9278868541297465 43 54 42
14.312152735997245 1.6412354272413199 1.6307899177519012 21 34 48
13.843859824595148 1.8643424635870867 1.5605477380166781 21 33 44
14.234340051937044 1.5724848907618365 2.9111689814336175 44 56 37
14.89850079699076 -2.767646539918211 2.6120695840200376 37 46 16
12.744447597091881 -3.0668707813623435 2.235202643913987 36 46 18
14.03974656504515 1.5732350355380604 2.9805683573337522 43 55 38
13.514986995657653 1.3310665156674553 1.938487477769609 17 30 45
13.679110827838082 0.49693207529309463 2.6197019225408353 9 22 26
13.068749544483756 -2.9969251000021213 1.9516744732678863 33 43 16
13.623245135670835 3.045699320580586 1.8579268849595023 31 41 11
14.495461007420952 1.572087673374145 2.8439546925698194 43 55 36
13.523185824662939 1.943296483873828 2.1908577488688623 32 41 15
14.480425871792818 1.450842531063639 2.530300365805445 29 38 19
13.552411159914048 1.2619355650156832 2.6361959752298514 31 44 28
14.251683832090935 1.5711815275415608 1.5608410198992744 22 34 51
13.214738972635658 1.6599286208060993 2.1164480066820897 19 32 43
12.860572790092261 1.5926653495805576 3.122071553893081 44 56 39
14.04641075622978 1.3106711245065608 2.1645062193280866 17 29 43
13.131213080631557 2.8274337546326698 2.2123373853276895 36 48 15
13.633024503368615 1.3485453654429018 1.4869398866391181 20 32 50
