15.249509401670196 1.003168477144577 2.0533221947280302 22 25 18
14.17283836704205 1.1019595255667811 2.1770901758661556 40 44 28
14.573760317189112 1.0283573663779086 2.1581377884913406 42 45 33
13.460726494694507 1.236393575927507 2.31076048459569 49 51 25
13.51159698040154 1.1999264764582014 2.4124312559857364 48 50 24
14.128465513634165 1.0105855534861494 2.3648115262686407 46 51 27
14.483320923693622 0.9826042395653543 2.2480500612827603 47 49 27
13.460726494694507 1.236393575927507 2.31076048459569 49 51 25
14.07982395394646 1.0599699586071594 2.271314345394547 47 49 26
14.483320923693622 0.9826042395653543 2.2480500612827603 47 49 27
14.483320923693622 0.9826042395653543 2.2480500612827603 47 49 27
14.357563499661888 0.9124637051738954 2.168195953654946 36 38 27
15.626284805758493 1.6832137059705947 1.7040465030095122 9 12 6
12.865306463711956 1.8284096752261518 2.153172692905672 44 48 26
12.622651970698595 2.193178190390102 1.9846471864717992 43 45 20
12.603129383775945 1.9160986871723247 2.073853667784175 43 47 26
12.384695317618373 2.170594958093715 2.1789514001047143 46 51 24
12.570146495344162 2.1192755293897125 2.075298122802452 43 48 23
12.146346171544348 2.0380521511502097 2.0946685121621607 43 47 25
13.082839166284517 2.1192755293897125 2.142261415023421 46 48 24
13.120246680448382 1.437138846805225 2.3347184166643262 49 51 28
13.226395613995196 1.7749933419211752 2.436904591895953 47 49 25
13.174423924486643 1.753756777047396 2.3307864517342023 47 49 25
13.853551006743597 1.449871311662059 2.2851674353322524 43 48 21
13.273784334027003 1.7364845312963049 2.2248657398882696 44 49 24
12.506532213432745 1.753756777047396 2.272796817928591 46 49 24
13.253905664384131 1.3343482072042827 2.3251021697041243 47 49 24
13.061995657296778 1.5428407610634045 2.3389992381846425 47 49 22
13.952242324733943 1.421431868423837 2.487917695939032 49 51 28
13.775624424602137 1.5428407610634045 2.391228274873671 48 50 26
13.897479033390203 1.539510809493273 2.4930792598192193 49 51 27
12.684171458989901 1.8544607227553813 2.261011227922255 45 50 23
12.912596888012203 1.9898702508016302 2.3502392997991572 44 49 22
12.912596888012203 1.9898702508016302 2.3502392997991572 44 49 22
12.93688769358678 1.9495965267074906 2.244986925078877 46 48 24
11.600426915368645 2.3157530393279 1.7507288065292301 39 43 16
12.692633349297193 0.22880692630962285 2.1621587227925416 26 32 37
11.049322115280187 0.543699265493751 2.265822706585554 41 46 27
12.431568112298962 0.12279679108376282 1.9914084221691655 56 66 68
11.738730612569853 0.14895494447681837 2.2177958620573586 39 49 48
11.672094555529664 -0.0657613462269831 2.2221159691381596 41 51 49
12.471685381632742 0.03798401802487516 2.1741037285704343 50 60 62
11.672094555529664 -0.0657613462269831 2.2221159691381596 41 51 49
11.187164244230479 -0.3059631386945292 2.2555922676594786 53 64 60
12.295116574897124 0.042080221249663013 2.2874300117796773 45 55 52
11.283021190899786 0.3645728267154026 2.505459156334208 40 49 21
14.04661679382074 1.0987250109795441 2.6055024236700755 47 52 25
13.034588044120879 0.9016723126442562 2.586293788070247 47 52 27
11.714931367433396 0.543699265493751 2.331430267096281 41 46 26
11.3780320971179 0.4367177663380779 2.3600007959824207 39 47 26
13.202590383131005 1.047608476084833 2.4390276722102313 45 50 21
13.558522604964017 0.9519820502804566 2.4085657157553753 44 51 22
11.87007412990708 0.062194626466876186 2.5846241315220535 42 51 23
11.630636462275449 0.053648635385414443 2.4660328754440477 41 50 22
11.637214087846056 0.16666806736807996 2.3378051491452156 38 49 35
11.043847136410598 -0.09709758077783563 2.535393536694682 41 51 30
12.268888098820016 0.07397327797158276 2.696975220615815 42 51 23
10.979963647476103 -0.2181563733201988 2.397239085707551 39 51 37
11.665536597365492 -0.19244305104881507 2.3354675930562783 45 56 50
11.630636462275449 0.053648635385414443 2.4660328754440477 41 50 22
10.547722823182742 -0.3948719436931755 2.442874782872904 41 50 30
9.497587690857939 -0.5494190641719788 2.5874014046623337 40 49 21
10.737245609243526 -0.5089168665820294 2.063206949993358 37 51 52
10.531637983006135 -0.5655878631770965 2.1857650064165792 37 50 43
11.824999715437693 -1.2724733737588705 1.922712936064358 52 58 57
10.424881456534946 -0.812381369178674 2.0793525602289904 38 47 38
10.88305601200852 -1.0221703717639306 1.9546879288276506 93 101 98
11.367495820489577 -1.111098705578295 2.1347251003467966 93 101 93
10.373536217697941 -0.7304886957471296 2.1965717085287517 39 50 37
10.04147402484106 -0.6577171806174488 1.9887830941975948 42 51 48
11.02620922746351 -0.5445732330210459 1.760210014341976 70 83 87
11.203054973202162 -0.5964687484895762 2.0410305066194936 72 84 84
11.231743475789177 -1.0602107847212006 2.2523553255175024 37 45 29
10.665179468987917 -0.882223346955452 1.9629536613765164 47 57 53
10.76324759922312 -0.46130003065039726 2.2881952430323076 40 49 30
10.513912399148838 -0.6345580299594001 2.3090775776159593 38 48 24
11.27544957929874 -1.1533142599268227 1.94067003135189 42 50 46
10.838563291048331 -0.5229160665940176 2.411513650205567 42 52 25
10.29316821049202 -0.6012518983163399 2.4728515896404377 39 49 21
9.42862805504224 -0.8359079470402724 2.5993344918392665 42 52 25
10.685003943324205 -0.7193946238034203 2.4277174794365304 38 49 25
10.93430470484706 -1.112296918731224 2.4017837297431748 43 49 27
11.214782106314937 2.310035427023151 2.0404990977727024 42 47 18
12.615765470128306 1.8017081165809778 2.495906523679115 45 50 23
14.337444105854416 1.2736917914829293 2.572283310426892 47 52 25
14.160226646468116 1.535280663906092 2.5921479934956793 49 51 27
13.197507485837868 2.2918473115090303 2.5667044293573222 47 53 26
12.30640598878719 2.382654082256345 2.2866311495893124 49 54 25
12.837527357046653 2.208758746231251 2.4733151641001836 47 52 25
12.503089660059954 2.100029218343201 2.5079645499395182 44 49 22
11.818105847394815 2.4668464412168665 2.3231545846404473 48 54 27
12.014360822002121 2.387406970922491 2.427111572835668 49 56 27
13.07686855437991 1.9755369630994262 2.58110411265641 46 51 24
13.042517149236486 2.0390264143040806 2.4536500730283066 43 48 21
12.12599360943477 2.5641046579271367 2.4165615219745646 48 54 27
12.626559842138152 2.140860622914871 2.3728798681648247 46 51 24
12.359319289753131 2.2309662610783434 2.282913641133909 48 53 26
12.39826444132746 2.4884650040424776 2.519564465627889 49 55 28
12.70075012793656 2.746889761855193 2.630229676241345 50 60 31
14.000656467724962 -2.813991722049502 2.776133300067824 53 63 37
13.833871622322484 3.083771405289648 2.6319797626418335 53 63 33
13.622082764599075 -2.714665245490325 2.6605334822123057 55 64 36
13.466296498526122 -2.8680153441596548 2.683191037315942 54 64 37
14.072526299176358 -2.7720057900866197 2.6024115593359016 55 64 34
13.383614755619893 -3.0356713800016992 2.69587379027864 53 64 36
11.592656032120699 -1.339568114744516 2.1224885513033542 46 51 44
11.324922712020332 -1.2818041169336123 2.3647375569879006 42 49 25
10.257720867083542 -1.3034747460071325 2.656864601265274 45 52 24
10.907152573011361 -1.187439361417836 2.553713918531057 42 50 23
10.744339665441121 -1.3494273401825256 2.5768538144311877 46 51 23
11.083672348047791 -1.5139009056907193 2.7118893268208795 47 54 26
11.2159488189687 -1.9312165664372398 2.6868359994254627 53 58 31
10.257720867083542 -1.3034747460071325 2.656864601265274 45 52 24
12.755150698912756 -1.339568114744516 2.2564250942238093 46 49 41
12.019728445044182 -1.3138221819353886 2.307566731580651 44 50 31
13.465001994412567 -2.490445262232656 2.6833859011160275 55 64 36
13.465001994412567 -2.490445262232656 2.6833859011160275 55 64 36
13.45748476365199 -2.6497071488568458 2.5375391232588207 56 64 34
19.38895433661742 1.784989956373145 2.9616930600557825 53 62 36
19.37670489717001 1.4934960576779877 2.965202981012582 51 60 34
19.226978185127862 1.4613727872903672 3.016211924665581 52 62 36
11.022012390347461 2.5101435240430505 1.7602830127429925 40 44 13
10.881158469902763 2.71804220570998 1.762766249809105 39 44 15
11.115381567161414 2.71804220570998 1.851194232745828 41 45 14
11.017306624628306 2.6759979161224297 2.0496184688726773 43 48 17
11.367074519794697 2.62550983360444 2.242734442689656 46 52 23
10.823298944350904 2.900905810588315 1.9569191067646579 44 49 18
10.717128921908065 2.588849101199752 1.8619126207321188 40 45 16
10.658378991218557 2.7714857612718937 2.0671809411733304 45 50 20
11.25989467228004 -3.0718913059835824 2.250328777021814 51 58 27
11.493823901983554 -3.079029664567355 2.1277891811528447 46 53 21
10.987988564518215 3.1015622780716705 2.0510040650758934 46 53 20
12.398974799185869 2.7286533749317967 2.392049130184259 51 58 28
12.015093877078984 2.62550983360444 2.30791671443446 48 55 25
13.606570429046693 -2.9364407477177337 2.5218398950784966 53 62 32
14.517835046968882 0.9607443845982359 2.0799103933930168 25 28 20
15.249509401670196 1.003168477144577 2.0533221947280302 22 25 18
13.737405146880818 1.1446641924134493 2.2925225301430636 49 51 26
13.8327222546295 1.181479063013828 2.1942426000984705 41 45 26
14.483320923693622 0.9826042395653543 2.2480500612827603 47 49 27
14.573760317189112 1.0283573663779086 2.1581377884913406 42 45 33
14.07982395394646 1.0599699586071594 2.271314345394547 47 49 26
13.787254816147158 1.1007265339886467 2.390323874198173 48 50 25
11.792322405852333 1.9495965267074906 2.112101069352388 44 48 26
12.496464704994155 1.998595828039632 1.989086673152734 43 47 26
13.120246680448382 1.437138846805225 2.3347184166643262 49 51 28
13.120246680448382 1.437138846805225 2.3347184166643262 49 51 28
13.957725928561887 1.3343482072042827 2.377336936966329 49 51 26
13.132504838852652 1.658464799235484 2.4453545410905795 48 50 26
13.830870207339517 1.437138846805225 2.3869535192434337 49 51 28
13.260389164421237 2.0380521511502097 2.225640407825085 47 49 25
13.583635777395246 1.9495965267074906 2.302529971221478 46 48 24
13.080160096369728 1.6491688777930424 2.337658360143008 48 50 26
12.148599466805512 2.376476569005849 1.494668688778838 37 39 13
12.542844127193064 0.13462452328676858 2.170200077640983 39 49 53
11.730842323200697 0.48838211818135263 2.2183039751549116 42 47 33
11.941977892348785 -0.05936931967876738 2.1045837593227996 41 52 53
11.569993372733771 -0.07369305288394254 2.3434204473056104 41 52 44
11.87007412990708 0.062194626466876186 2.5846241315220535 42 51 23
11.640090290757263 -0.0837954363962289 2.4650199949778107 42 51 36
11.94481738621897 0.2184131094311478 2.5746555231198407 41 50 20
11.706908518402324 0.18910553323323315 2.4579433598880454 41 50 23
9.991552796108039 -0.6747300588702666 2.7101710523724782 44 53 25
13.478890459550765 0.9825152966242506 2.535241712488345 47 52 23
10.553341103063026 -0.9657750160869893 2.072579602463072 46 55 44
11.612360507697224 -1.2085862226719277 2.226043075015188 71 76 64
10.29072885244155 -0.7383923256363153 1.8743513522354474 37 45 45
11.020762516774388 -0.8984054403727246 2.267985453571482 41 50 32
10.450083504914188 -0.5964687484895762 1.8695783302464695 37 47 51
10.87292709210837 -0.41191499373654805 2.1637629463248933 25 39 36
10.531637983006135 -0.5655878631770965 2.1857650064165792 37 50 43
11.347366150221218 -1.243508257791759 2.03457719478146 45 51 47
10.487292230505107 -0.6577171806174488 2.0760380957732507 67 79 70
9.819580917987619 -0.7026953121067643 2.5364893427487267 39 49 22
10.717470052379301 -0.9210420224905962 2.4242276677647143 42 50 28
11.566287945482372 -1.1657776372716275 2.3437327773868124 35 42 24
12.250531954369649 2.310035427023151 2.1865960857894935 46 51 24
13.848548694641972 1.2304914598106298 2.6300865268882236 48 53 26
14.21397766580216 1.4015815433332002 2.586003209939835 48 53 27
14.160226646468116 1.535280663906092 2.5921479934956793 49 51 27
14.608533680001836 1.3757235351796697 2.679444142638282 48 53 26
12.79188789791033 1.9255485395542147 2.4778475700793816 45 50 23
12.926293217814234 2.607922903965287 2.599948015793051 50 58 29
12.89154058879341 2.5641046579271367 2.46802562477325 49 56 26
12.786593123178456 2.387406970922491 2.4783771902182075 49 55 28
14.000656467724962 -2.813991722049502 2.776133300067824 53 63 37
13.833871622322484 3.083771405289648 2.6319797626418335 53 63 33
11.37197318657361 -1.3138221819353886 2.2423918516946433 47 52 37
11.592656032120699 -1.339568114744516 2.1224885513033542 46 51 44
10.026264625083847 -1.0109386794740944 2.7027107551183827 43 53 25
10.4281340512854 -1.1145385956974212 2.6266938452773205 41 49 22
10.257720867083542 -1.3034747460071325 2.656864601265274 45 52 24
11.152261435397584 -1.3034747460071325 2.698659123804447 45 55 25
11.453644603807064 -1.241001843369353 2.485555635633923 42 49 24
10.673129458682421 -1.524026312291909 2.5874736715889757 47 52 25
12.616208897580826 -1.4401635185003219 2.265467410463472 54 58 44
13.45748476365199 -2.6497071488568458 2.5375391232588207 56 64 34
13.848506645301416 -2.579977747921818 2.6300919361012784 56 64 35
19.452670969891475 2.0444062723783194 2.944494990500448 52 61 35
11.647120642265449 2.5608496788148125 1.5773257868169928 36 41 12
11.087100729199546 2.8065746366156716 1.9472651036255495 42 47 16
10.709163842536233 2.5331427851894994 2.064614271998602 42 47 18
11.13292413585194 2.379157178450738 1.8507404732575004 39 43 14
10.593816475879866 2.6759979161224297 1.9657412589746306 41 46 17
11.42219593150789 2.922577080582982 1.8434671138005516 43 47 15
11.493823901983554 -3.079029664567355 2.1277891811528447 46 53 21
11.250121358077438 3.0969865591994425 2.251030812762325 50 57 27
10.73280650042871 2.9838288520777296 2.172586785332367 48 56 24
15.327119157224216 0.9432107939064425 1.9784155240823238 18 21 16
15.668552475887704 1.746825931644775 1.6395261285874652 9 12 7
15.011678436500535 1.8249058512007146 1.7095365833440108 18 20 12
12.357323252598293 2.2473825415413 2.0848329474866714 46 48 22
13.394491350302722 1.8861789548572083 2.42227152248069 45 48 23
14.078004414428708 1.307387700009516 2.4763429965086488 48 50 26
13.343174410068583 1.8544607227553813 2.318833980247028 46 48 24
13.441287443607614 1.8284096752261518 2.215346520556774 44 49 24
12.407195106477849 1.6491688777930424 2.2795875026986723 47 49 24
12.480502142053508 -0.05936931967876738 2.1736170687851435 34 44 49
11.13789282272627 0.28157133413914115 2.25921017494293 38 45 33
11.194002458287226 -0.1720982589068341 2.1445578184045373 49 59 57
11.394413502728742 0.3893403892221856 2.2408274263473023 41 48 36
11.380935308466997 -0.2746576740256936 2.133978447121625 57 70 68
11.972412236814682 -0.25163354723450576 2.57104547423137 38 49 22
11.879337410346572 -0.09709758077783563 2.5833731992100972 41 51 24
11.12113356912934 0.31792194861141465 2.383559135482938 39 47 22
11.14390223538303 -0.25163354723450576 2.5225611742840384 37 49 27
11.170478913603796 -0.3450036653851381 2.378904452243983 42 52 39
10.547722823182742 -0.3948719436931755 2.442874782872904 41 50 30
11.560482221158988 0.04716595057824677 2.344222735593793 40 51 37
12.268888098820016 0.07397327797158276 2.696975220615815 42 51 23
13.708951387929764 1.155046395479438 2.51144892292084 46 51 22
10.513912399148838 -0.6345580299594001 2.3090775776159593 38 48 24
10.45166058536963 -0.8173417931345338 2.314510804057046 38 48 28
11.162149802722862 -0.37163077552456963 2.0428939779609387 21 35 36
13.335470690542335 1.6702544509955468 2.550927667701656 46 49 24
13.182712596719373 2.800705885365533 2.568438991141359 51 60 30
12.586175599119784 2.675420644425193 2.49903343222252 52 59 27
13.322137545602551 2.100029218343201 2.55242194719567 43 48 21
12.87242581036393 2.1770792531524044 2.6069439384463857 44 51 21
13.92178145862231 -2.9070280697910285 2.6207923264733424 54 64 35
13.441768819917487 2.9039033347854715 2.686902848553322 52 62 33
13.232017278184157 -2.6380345647107766 2.7204894337645524 54 64 37
13.03855470775323 2.938136881316675 2.5858036270111 53 62 32
12.978594060444857 -3.0513000327152517 2.5932871541567897 54 64 34
19.303533493177586 2.1993862558518926 2.98791877965547 52 62 36
10.773035106324993 2.62550983360444 2.170024509920167 46 51 22
11.181570303464147 2.636039984436171 1.6671796327533093 37 42 13
11.731082238368725 2.4512835443564014 2.115242529749538 45 50 19
10.831163142084973 2.4512835443564014 1.9566239548337094 42 46 15
10.773035106324993 2.62550983360444 2.170024509920167 46 51 22
11.019545389803344 2.7286533749317967 2.2680779598233016 48 55 25
13.760768739426524 -2.8162573275748306 2.5063040065530666 54 63 32
14.357563499661888 0.9124637051738954 2.168195953654946 36 38 27
13.236692033424571 2.084818838720898 2.326324866635967 45 50 23
14.79444598102518 1.7587815148328192 1.7115872266639935 19 21 14
15.182311655915585 1.8249058512007146 1.7748161523360195 24 27 18
12.102010780475643 0.3645728267154026 2.554569057172132 40 49 21
12.268888098820016 0.07397327797158276 2.696975220615815 42 51 23
11.87007412990708 0.062194626466876186 2.5846241315220535 42 51 23
10.722266553177468 -0.8087542042326754 1.7656473071615018 45 54 57
10.76324759922312 -0.46130003065039726 2.2881952430323076 40 49 30
11.824999715437693 -1.2724733737588705 1.922712936064358 52 58 57
13.375393320103758 3.0737221378558677 2.697162021534688 53 63 35
12.494993737569027 2.302436709281187 2.383828940899779 50 55 28
13.375393320103758 3.0737221378558677 2.697162021534688 53 63 35
12.286380909432719 2.0390264143040806 2.4019479457748645 44 49 22
11.55606541058299 -1.7014959979361077 2.629921144672535 50 55 27
11.105073179151153 -1.7294154215752082 2.7077031503368847 50 56 28
11.789418377477132 2.5331427851894994 2.214551696479296 45 50 21
11.068689860801628 2.999802280391987 2.047210130222908 46 51 20
12.582682077814653 0.20910544519678576 1.986042823155505 9 15 15
11.324922712020332 -1.2818041169336123 2.3647375569879006 42 49 25
13.848506645301416 -2.579977747921818 2.6300919361012784 56 64 35
12.55561963993895 -1.5434804134643108 2.2694950204265796 64 66 54
10.4281340512854 -1.1145385956974212 2.6266938452773205 41 49 22
10.685003943324205 -0.7193946238034203 2.4277174794365304 38 49 25
19.239322953960873 1.8700762546516805 3.0112200464221126 52 62 36
11.250121358077438 3.0969865591994425 2.251030812762325 50 57 27
13.737405146880818 1.1446641924134493 2.2925225301430636 49 51 26
13.897479033390203 1.539510809493273 2.4930792598192193 49 51 27
13.798396033302913 1.545530177174066 2.288638872081301 43 48 22
13.197507485837868 2.2918473115090303 2.5667044293573222 47 53 26
11.273161126455058 -0.9980378866711994 2.369419429998417 41 48 27
10.744339665441121 -1.3494273401825256 2.5768538144311877 46 51 23
12.279936763769923 0.04716595057824677 2.4025232568100545 35 46 33
11.443800251694913 2.439549704994033 1.5774417965082956 38 42 13
12.072121100477702 1.8544607227553813 2.197092507847054 43 48 23
10.907480823557494 2.8745880262942207 2.1616297591029667 47 54 22
