15.447174119235196 1.7456984227160723 0.8869437705959395 49 54 25
15.64221413720253 1.732270881520711 0.9764385040158521 52 57 30
18.240221762685945 1.992468856252854 1.2495535390613333 35 43 11
18.838774266978895 2.0194698437877743 1.4237995255472347 37 44 13
18.835322264195295 1.9700084353181087 1.3153489359047699 36 43 12
19.62047631242206 1.9972705450289516 1.4810103663568293 37 44 14
16.031630735402096 1.879819984357525 0.9927667430458228 43 48 19
15.892083066512024 1.8586733867491636 1.1314769628164183 44 50 20
19.164482136956373 1.949709182935107 1.5311669690165337 35 42 12
19.54292663219394 1.9972705450289516 1.5831142742772046 35 44 14
10.293245235605092 1.8758994581240303 1.4969646455710912 29 34 3
10.039110369908864 1.7804717704442417 1.4950921006424651 31 36 5
9.880110149088239 1.6810175489429704 1.4938714059492246 32 37 6
9.016314461087154 0.6058206394484513 1.9384519913331488 45 49 47
10.32299913642041 0.17869449254244527 1.789599213697979 42 46 45
9.65468367913376 0.19823988456377073 1.9131055861342716 12 14 12
9.889142858496928 0.3033684479096386 1.904669855932151 47 51 49
9.944643316624774 0.40202608239387994 1.7980673449227462 96 98 100
11.429035169447554 -0.026380205010371298 2.3760897325447097 34 40 19
10.814109869236004 0.07960965707169589 1.973760896866778 48 51 50
11.218029597250068 -0.021061466938851026 2.0568832107150365 31 37 36
9.115500974875232 0.383562170974616 2.1833079040306753 37 42 31
9.895716121729446 0.3389650590205867 2.1289194721615887 35 38 31
9.661416460862613 0.22250687069979558 2.1441331746897507 12 15 11
8.322554954037694 1.212616360147523 1.599724490705571 34 37 13
8.890630824296641 0.7746956351318147 1.943902729398962 95 100 90
7.494273596810325 1.165165577075239 1.7371181856599494 39 42 13
7.84318372666694 1.047687171242327 1.6014931042739227 41 43 18
9.029555118786396 1.3561591857823532 1.4866089028164655 37 39 12
8.482916179460522 1.047687171242327 1.9627875005620763 34 36 13
8.521060537359675 1.165165577075239 2.0917130191980444 38 41 11
8.636616120240603 0.7724908649923098 2.2228283025647446 25 29 16
8.390882208867573 1.023993925442157 2.4094599572272033 38 43 16
8.337127110834965 1.104270887105398 2.2505488149180133 41 43 17
9.46772092682894 1.2512155963331226 2.441495971222089 37 42 11
8.765942505839037 0.5698653018748809 2.2116131945783795 33 37 21
11.830783928539828 -0.2858974425243861 1.8482659157579677 64 68 69
11.360820066479588 -0.1996495476398143 1.7693304639610263 52 56 55
11.209391692440509 -0.11029070314491063 1.7720490232686492 43 47 46
11.599555073166611 -0.1996495476398143 1.8539481614736133 73 77 78
11.281044212002254 -0.12130885106851065 2.05393407796578 25 29 28
10.950368226080107 -0.13475797701386233 2.1771924608985773 41 45 42
11.524429767474532 -0.48865773999012735 2.2501538940817456 31 39 20
11.524429767474532 -0.48865773999012735 2.2501538940817456 31 39 20
11.57729781105084 -0.40139281115228675 1.9458219941551624 68 74 75
12.42161938620687 -0.7315441468571385 2.296173540437028 35 44 26
12.063082993832872 -0.608267287978106 2.020216166514478 0 2 0
11.197977986988636 -0.3851060671327634 2.2739280932862287 33 39 19
11.696571295367535 -0.24284322708314085 2.238324469968014 36 41 36
12.366609898700352 -0.4836655484574033 2.008410923500612 60 66 65
11.92603253114061 -0.5819680920627017 2.2232474856312914 29 37 24
12.41649219737734 -0.8706416280656956 2.0974179777647213 72 79 70
13.099123976659788 -0.9266175501254843 2.0673780254656164 69 76 70
12.392915216286525 -0.738654039168064 2.0985243988543 50 57 47
12.840251825425458 -0.7441064974361458 1.9073836852915573 75 81 82
12.948000764598076 -0.8706416280656956 2.164235522976977 71 78 65
11.893855078858394 -0.8095137437414851 2.336237906536301 39 48 23
13.715258110631408 -1.0851310257539946 1.9628736559715327 22 26 24
12.445141988151708 -0.8835529947512134 2.294498966886207 38 46 24
12.661835058246917 -1.385235115786413 2.1795605595912972 43 50 22
12.85126089460312 -1.2925333076872896 2.169322037546358 43 49 24
12.910868854297515 -1.0455595658204726 1.9887767476560736 3 7 4
12.442583504285901 -0.9462902726421278 2.191897226384201 38 45 30
12.505428496712124 -1.3656192928515747 2.290247065143939 47 54 22
12.505428496712124 -1.3656192928515747 2.290247065143939 47 54 22
12.351921941612535 -1.168682558186061 2.1971593690490394 45 50 30
12.978544832277276 -1.2346533243802567 1.9864619249762672 59 62 56
13.123858225746673 -0.999733808464682 2.155223959928402 21 28 20
13.15641409112021 -1.3162519850187098 2.065019926102983 15 19 7
12.273290125138333 -1.1256398812155533 2.306940496926299 43 50 27
11.991697584450394 -1.2294290539187476 2.3284272776052566 46 54 25
12.416548089502788 -0.1730368798737483 2.540581165107124 36 43 8
12.285867187608222 -0.5466717943468548 2.422103512139764 37 46 16
11.980182055510564 -0.43439546051435746 2.451731009054207 36 45 14
12.553423315068537 -0.30912981837123044 2.52485786249636 34 43 9
12.727601325045518 -1.0603892611138708 2.653388985862674 46 54 25
12.727601325045518 -1.0603892611138708 2.653388985862674 46 54 25
14.025124459591247 -1.1435211709276711 2.805564147177338 48 59 26
12.325914191051769 -1.1316671522653476 2.551391324712912 47 54 24
14.586469399869058 -0.392952102625591 2.9234299253314133 46 55 19
12.99325498203607 -0.9260976241448675 2.6161855790002986 45 54 24
12.497042420293287 -0.8142747422925045 2.5312500442431523 40 49 19
14.025124459591247 -1.1435211709276711 2.805564147177338 48 59 26
14.723036064316139 -1.0324213083195484 2.884923455159614 48 59 26
12.03144203279065 -0.3573218144921581 2.5889940009421633 37 46 12
14.537882255775175 -0.8561752194661553 2.939056827448235 49 60 26
12.60003968978178 -1.0080538033002873 2.5196586414805546 43 51 24
12.68156037837489 -0.5782621100647395 2.660269725846738 39 49 18
14.196371214008508 -0.9648380202294142 2.7725790917388355 45 56 23
12.970726429107156 -0.708017540129391 2.6191891988220997 40 51 19
12.709451793010267 -0.9722571087839654 2.384847997176265 40 48 24
12.669376132021563 -1.3109646188183284 2.5120641596179265 48 56 26
12.709451793010267 -0.9722571087839654 2.384847997176265 40 48 24
9.581910242022618 1.9081489387008204 1.8068311734168574 34 39 10
9.308374907849526 1.8035120371731017 1.813905101611544 35 38 9
8.84202869350676 1.4669276185583733 1.598024512930235 37 39 12
8.158561914342986 1.4537106192379303 1.8490186505496824 37 40 9
9.618105313987453 1.832111527142902 2.147043494174924 39 42 13
10.533517321687516 2.0600792960137495 2.4691996838218135 45 52 22
8.058709177252824 1.4366626578754838 2.124955537159762 37 41 10
11.114729717717832 1.997022230647335 2.4059856623514833 43 50 18
10.733261190138318 1.7290211004847258 2.446156546459344 40 45 14
10.447801472297842 1.9476609110283865 2.210956625470706 40 45 14
10.785347285351744 2.0535634064415573 2.1878439260933726 40 45 14
10.531317438721068 2.2133774030416435 2.205063132052196 43 50 18
10.573923717144051 2.2912235918994917 2.325086568674516 45 52 22
10.370145519507295 2.2766378202341153 2.48924089013206 46 52 23
9.765286756703267 2.0535634064415573 2.0200185338984973 40 42 15
10.06109503207044 2.3858035051842004 2.3741310275737244 45 51 24
9.625144347630506 2.500812698020017 2.4222994491002217 46 53 23
11.54544985186776 -3.115757719920555 2.365653630808963 45 52 22
11.013387802313874 2.8939292612119005 2.4162104811714133 45 52 22
10.398309911962784 2.500812698020017 2.4857034817309467 46 53 23
10.959110892613525 1.7557682874043354 2.574004494850851 41 48 16
10.856067563678938 2.14266203058254 2.589070463709566 45 52 20
10.856067563678938 2.14266203058254 2.589070463709566 45 52 20
11.496455444986802 1.9810091250269943 2.6698378249490715 43 50 20
10.45332355834894 2.2536368982821293 2.6551437498876305 47 54 24
11.670215364980503 3.030370654397107 2.484581300526359 45 52 22
11.207541913174394 2.855264909598259 2.5401308033426377 46 53 23
12.453639726838817 -3.1121125444580713 2.5362507801362044 46 53 23
11.263711719784357 -1.6671684028252938 1.5921694754243005 43 52 22
11.329282723054778 -1.6671684028252938 1.6805310965695734 43 52 23
12.357995905832395 -1.5798721197464416 2.3007475093601837 48 55 25
11.898442688783298 -1.7933074438023533 2.225020417470402 48 55 25
11.816793696362383 -1.8193671521608508 2.3425230428766133 50 57 26
11.54377120211831 -1.8939097958768103 2.141962941640966 51 57 29
12.019262125197908 -1.4892194359810074 1.9313872389389906 42 51 26
11.249283219349211 -1.7721260609973446 1.9573268077123225 47 54 24
11.10761956892819 -1.676541305490821 1.9625231595358055 46 53 23
11.965573227051898 -1.5789831524203288 2.1194705511562857 44 52 22
12.515465418078708 -2.421903575588403 2.289544685461928 52 61 30
11.63989041370138 -2.6615453818552566 2.2421686613360663 52 63 27
11.977884377886973 -2.346001200318527 2.329518738124392 53 62 31
11.977884377886973 -2.346001200318527 2.329518738124392 53 62 31
12.050688949713749 -2.5075359985313805 2.323806667485293 51 62 29
11.316769785349807 -2.7637068006414824 2.265063460472941 51 63 28
11.22131022859284 -1.9513049109814946 1.7718323372594 49 56 26
11.622605719347858 -2.032807758310464 1.7648010681540103 49 56 26
12.06163170859304 -2.226479833756164 1.8428190027296276 50 57 27
11.496747540964598 -2.1252702014737115 2.1445935761425323 52 60 30
11.972567163385254 -2.2085751246228478 2.119113501173224 53 60 30
11.090899132152463 -2.0324087179169674 2.1684308867157003 51 58 28
11.00325944453321 -2.086192572664861 2.289025770283035 52 59 28
11.752086162743469 -2.0751966858625717 2.0330202671281747 51 58 27
11.89142713579408 -2.2717385099545853 2.225472936695042 53 60 29
11.87820501904623 -2.347427507783521 2.1239729518096437 52 60 29
12.656825830019994 -2.3485036632053755 1.997709445335006 50 58 29
12.500356592337289 -2.4133300113825378 2.093521872722526 51 59 30
12.367877941920232 -2.226479833756164 1.9207794933022009 51 58 28
12.87415732698113 -1.4242562326377244 2.632368475515886 51 58 28
12.024841058806244 -1.7435770905753059 2.58988479669373 52 59 29
12.36653239237835 -2.031752256010287 2.5465057261803095 51 57 27
12.15582012661621 -1.894567881850689 2.572618806881737 52 58 28
12.40769511689397 -1.7020384708904124 2.4109675467660847 50 57 25
11.755798855170708 -1.4443509078469938 2.4751997968067516 51 58 28
11.770009670574764 -1.7199911606621914 2.4736659721705583 49 56 25
11.903793013427222 -1.852158270099376 2.459545544462463 49 56 26
12.394215473018207 -1.4596191247903167 2.412182122599292 49 56 24
12.678493137932294 -2.3410849346119953 2.6607331282570996 52 65 28
13.000570538505523 -2.433498418378355 2.4778845842517025 52 64 30
11.851043754460619 -2.839316696255642 2.465045394962858 50 61 28
13.04461416512452 -2.235682653365971 2.609433810863476 53 64 30
12.65299505543404 -2.1525651183282664 2.513843727360191 54 61 30
12.336097170090538 -2.656213993774685 2.5501601421631745 51 64 27
12.238627334036833 -2.2568714356032413 2.426520107300248 54 61 30
12.64629128964852 -2.839316696255642 2.5145745865524387 50 61 26
12.380742263971174 -2.6054673599069433 2.413400418329474 51 64 28
11.851043754460619 -2.839316696255642 2.465045394962858 50 61 28
20.47532548523996 -3.0739548493854056 2.9900685373450773 51 62 27
19.54898141150778 -1.4531100056353718 0.9879825987929762 61 63 47
18.630062390697898 -1.5762917584383802 0.9551058518483988 44 49 22
19.902542373930515 -1.6847273686861264 1.170312830488121 45 50 21
19.331593203405223 -1.5175938705447776 1.1005489193300244 42 44 24
19.813212041252513 -1.6336796320418925 1.0557626935689801 45 50 22
20.295683423280877 -1.5756530953908932 1.0120467117245446 41 46 23
19.82281595750222 -1.6302345546009909 1.1686094687324806 47 51 23
19.098161237378566 -1.5753863740438587 1.2644659586723361 43 45 25
18.709275084730027 -1.6847273686861264 1.3684878980022426 44 49 23
20.20662317840765 -1.780266002664792 1.333031872822977 49 53 23
20.496911633435214 -1.8775089159045113 1.3863451849613377 52 57 28
20.687999792700033 -1.8295125016767713 1.288681655601975 51 56 27
19.652821719136448 -1.780266002664792 1.5321521886759943 48 53 24
19.677303985789347 -1.780266002664792 1.6338916707391644 47 52 21
13.504775122870509 -1.2603820174018034 1.8902169390688421 0 2 0
13.110998814468907 -2.6309614590333914 1.820560935629503 50 57 27
12.668090599795775 -2.702261139740788 1.8294898508008193 48 59 24
12.18715962051103 -2.54200719304005 2.0153112815457277 49 58 26
11.478457802475102 -2.8020146334533593 2.1456237937861813 51 63 28
11.797150672580756 -2.707691737796928 2.1282210692160923 51 62 28
11.720794931559372 -2.746176942008306 1.9410070248881692 49 60 26
12.649438917529686 -2.54200719304005 2.0867443002833617 51 60 28
11.824494423328659 -2.903049258686321 2.229825288044621 49 58 26
11.478457802475102 -2.8020146334533593 2.1456237937861813 51 63 28
12.18977171484124 -2.6209317951286706 2.108265768877854 51 61 28
12.11589056966259 -2.6647762899444025 1.9283816122535486 49 59 26
13.194136010976688 -2.4583224780841633 1.741450606247561 50 57 27
12.812060721065945 -2.520927752650635 1.8265174251688487 48 57 25
13.712095034385621 -2.401502146497465 1.6614040678943574 54 56 30
13.686097676631515 -2.297931775229917 1.515289827631248 50 56 29
13.169133433779368 -2.4707558169570585 2.0644995769225054 50 58 27
15.806518388791186 1.8073547215799333 0.9834475974282001 47 53 25
16.2573338348748 1.8265850634007113 0.847564818564295 46 51 22
18.431827240430913 1.9700084353181087 1.4205296799477802 36 43 13
19.010996043597668 2.0194698437877743 1.371742161467752 37 44 13
16.031630735402096 1.879819984357525 0.9927667430458228 43 48 19
9.880110149088239 1.6810175489429704 1.4938714059492246 32 37 6
9.427844921805107 1.2504747845566018 1.3830916321565758 37 39 14
8.965809570412041 1.5803033932642778 1.3732941399610283 36 39 10
8.999396300570353 1.104270887105398 2.3370768039544956 39 42 8
10.885439532622181 -0.023422745709597615 2.1813353698258737 44 50 48
10.54260597301092 0.2743657150388523 1.7849696714870802 46 52 53
9.404453851731958 0.3389650590205867 2.038600037252334 40 43 39
8.789600585632071 1.2957532078025664 2.2096072607583714 39 42 11
7.920166134780813 0.8669068500637402 1.857626777591643 5 7 0
9.398041994382424 0.5698653018748809 2.2970121364108653 31 35 16
9.804425837350909 0.5442432760226419 1.9076685183326056 35 39 34
8.714501261392105 0.6806878510153724 2.0790223695303847 47 52 41
8.387393546815234 0.9441774707623911 1.5995008003831095 15 18 3
11.490892714356011 -0.15153539999264115 2.3705041791307417 36 42 19
11.166128710495764 -0.4410284962520083 2.059340716689293 70 76 76
11.953194456186989 -0.6454941062738917 2.331478748718901 39 47 25
11.252379932147312 -0.31295890045847585 1.9572148004177983 23 27 28
11.431523475964196 -0.2191720931420274 2.0470408230797292 8 12 11
11.638659108385772 -0.2721050847358319 2.3575256531803044 35 41 21
12.06572194939983 -0.5287135457441251 2.1144045646042313 16 22 20
11.977127997735247 -0.4836655484574033 1.932714086016621 79 85 86
11.668927786727357 -0.4410284962520083 2.1350856272225336 72 78 77
12.44465208603698 -0.5594054976732059 1.9185285824801943 57 63 62
12.225150161530566 -0.6798996988165182 1.9250442853526666 39 45 46
12.950459398961929 -0.8061002779420112 2.260523401911666 40 48 29
12.41649219737734 -0.8706416280656956 2.0974179777647213 72 79 70
12.445141988151708 -0.8835529947512134 2.294498966886207 38 46 24
12.445141988151708 -0.8835529947512134 2.294498966886207 38 46 24
12.62800419839663 -1.031175426678428 2.281774440227754 42 50 30
12.589928546562929 -1.204482448286776 2.0894273704027 50 54 41
12.93596306219467 -1.121991034748446 2.074225400820378 75 80 71
13.299784227689331 -1.0804151715169192 2.2390462128764113 47 53 38
12.697187933762516 -1.2640930860184192 2.2770912405882293 45 51 23
13.31448329836107 -1.1574478129130303 1.9753523564376336 77 81 75
13.15641409112021 -1.3162519850187098 2.065019926102983 15 19 7
13.618857543927845 -1.0603892611138708 2.687836290996795 48 57 24
13.93266611878568 -0.8331090145895325 2.8251120056912837 45 56 22
12.1460884024864 -0.7218868300678817 2.4353385293293655 41 50 21
13.618857543927845 -1.0603892611138708 2.687836290996795 48 57 24
12.983711581006668 -1.271415804357878 2.6174547756711872 49 56 25
12.170143565730063 -0.9010532045927648 2.4330245638885613 40 49 21
12.60003968978178 -1.0080538033002873 2.5196586414805546 43 51 24
9.581910242022618 1.9081489387008204 1.8068311734168574 34 39 10
10.734194513167498 2.112180129065024 2.3111477269812246 42 49 19
10.87980037669923 1.8684888310722754 2.430169209327247 41 46 15
9.268531934914984 1.4366626578754838 2.309491477242359 38 43 12
9.367186767213115 2.3858035051842004 2.2999414096625 45 51 23
10.370145519507295 2.2766378202341153 2.48924089013206 46 52 23
10.838396581411555 1.832111527142902 2.302397808268484 41 44 13
11.332979858748137 2.0600792960137495 2.5241873279767115 44 51 21
11.64524354118015 -3.1121125444580713 2.487366449450751 47 54 24
11.207541913174394 2.855264909598259 2.5401308033426377 46 53 23
11.780329205784362 2.8939292612119005 2.4725563279607794 45 52 22
11.703897501333346 -1.4892194359810074 1.8513550860470407 43 51 25
11.355367396762258 -1.9881808696470205 2.0505035082316967 51 57 29
11.355367396762258 -1.9881808696470205 2.0505035082316967 51 57 29
11.764598503865972 -1.6879245615699054 2.233774728487849 48 55 23
11.430963733225306 -1.5782527936786332 1.7680960918868838 43 52 24
11.374796844564477 -1.9749915457387133 2.3810645293437367 51 58 28
12.000324253571065 -1.4812694049258288 2.117701330056902 44 51 23
11.475778724750716 -1.5789831524203288 2.045052527483967 45 53 23
11.145944917221106 -1.8641315757490542 1.865810608043498 47 55 24
11.371997555881947 -1.930127396372264 2.2610270483737542 50 57 28
10.897276851820688 -1.8641315757490542 1.7778958352200473 48 55 25
11.977884377886973 -2.346001200318527 2.329518738124392 53 62 31
12.042760465539704 -2.282741294246161 2.0210302895646737 52 59 29
11.316769785349807 -2.7637068006414824 2.265063460472941 51 63 28
11.97621150566644 -1.5842569045711556 2.5965181428038333 51 58 28
12.15582012661621 -1.894567881850689 2.572618806881737 52 58 28
12.36653239237835 -2.031752256010287 2.5465057261803095 51 57 27
12.766941617156084 -2.105301359612102 2.6476181651673603 52 64 29
12.557079757480755 -1.4443509078469938 2.524447277010763 50 57 26
12.65299505543404 -2.1525651183282664 2.513843727360191 54 61 30
12.63317315080763 -2.5363618749530805 2.5160091416356005 51 64 28
12.755412556058431 -2.5075359985313805 2.3810397891727906 52 64 30
12.970850713582543 -2.79330456704453 2.6191725569391946 50 64 26
12.64629128964852 -2.839316696255642 2.5145745865524387 50 61 26
12.077458695375904 -2.716243988054583 2.4420262496130647 52 65 28
20.47532548523996 -3.0739548493854056 2.9900685373450773 51 62 27
20.046156473899728 -1.5143183419281625 0.9439296304413756 38 40 19
19.80477342635969 -1.5175938705447776 1.0555215161607507 39 42 22
18.709275084730027 -1.6847273686861264 1.3684878980022426 44 49 23
20.496911633435214 -1.8775089159045113 1.3863451849613377 52 57 28
20.687999792700033 -1.8295125016767713 1.288681655601975 51 56 27
13.350988728675 -1.187971461761163 1.7394263512963093 78 81 76
12.963975712253452 -1.3363136178574408 1.8234549707006775 72 76 65
19.99029005542217 2.0428628318777187 1.5328048808031602 38 45 15
12.668090599795775 -2.702261139740788 1.8294898508008193 48 59 24
12.668090599795775 -2.702261139740788 1.8294898508008193 48 59 24
12.118518025739279 -2.746176942008306 2.01801091939759 49 61 26
11.709359040846069 -2.6209317951286706 2.0348390891147856 49 59 27
12.664892811530486 -2.4067338507086307 1.8295566666927543 50 57 27
13.410242916102456 -2.564928386045218 1.7386741507957535 50 57 25
13.061538185208198 -2.4583224780841633 1.6659303101094907 50 57 27
13.66713996880103 -2.297931775229917 1.58841048052091 51 57 30
15.26016346715601 1.7907700244442086 1.1838027793249761 46 52 23
8.10914905951883 0.8855149728827314 2.2734863841213286 36 41 16
9.585205057422522 0.6970743995146926 1.9156896988897023 124 128 127
8.955062380691734 0.5014083332601353 2.0641200386752816 67 70 62
10.885439532622181 -0.023422745709597615 2.1813353698258737 44 50 48
8.802860545826615 0.6568770126608736 2.358794081951803 31 35 14
12.85126089460312 -1.2925333076872896 2.169322037546358 43 49 24
10.828880824489058 -0.34545372179719674 2.0759682791971 47 51 51
11.281044212002254 -0.12130885106851065 2.05393407796578 25 29 28
13.000081462300038 -0.8035332251469689 2.0715109771056257 78 85 78
13.040012607328045 -0.9753378874189774 1.902028508567764 88 94 91
12.60003968978178 -1.0080538033002873 2.5196586414805546 43 51 24
14.70315816488714 -0.6482178926021278 2.8901261421153452 45 56 21
12.254524383131832 -0.49696594013685796 2.560145530009039 36 46 11
13.523621921376467 -0.821377029043924 2.7024968222279835 43 54 22
10.394987801119342 1.997022230647335 2.3413868129126256 43 50 18
10.868401337243037 2.1849675030407956 2.4313867930948025 45 52 22
10.838396581411555 1.832111527142902 2.302397808268484 41 44 13
11.013387802313874 2.8939292612119005 2.4162104811714133 45 52 22
10.239251474260422 2.0535634064415573 2.1081061377653505 40 43 14
9.136666950479666 1.6934363162070265 1.8185688158944548 35 38 9
10.856067563678938 2.14266203058254 2.589070463709566 45 52 20
11.102669589684082 1.916165231468479 2.554035613918492 43 50 20
11.181295247343092 2.2766378202341153 2.543559781196412 47 52 23
12.502903254033413 -2.4866165963976314 2.188449223598302 52 61 29
13.080710981372661 -2.240528363202307 1.6657904480709136 51 58 28
11.145350725482745 -1.852158270099376 2.402955125058545 49 56 26
12.674782835805603 -2.291211242311425 1.8293501334189173 51 57 30
13.028444275817828 -2.4133300113825378 2.1600763796480615 52 60 30
12.656825830019994 -2.3485036632053755 1.997709445335006 50 58 29
12.432747073233456 -2.347427507783521 2.1924634813149537 53 60 30
11.823588470728412 -2.1546015747749223 1.9376350592807938 51 58 28
11.97621150566644 -1.5842569045711556 2.5965181428038333 51 58 28
12.394215473018207 -1.4596191247903167 2.412182122599292 49 56 24
12.52387370172776 -1.5823898649249386 2.5281936319743408 50 57 27
12.563744420576317 -2.3440206515877016 2.5237001199147464 53 63 29
12.077458695375904 -2.716243988054583 2.4420262496130647 52 65 28
11.705958636599098 -2.9725609082757645 2.480632732498631 47 56 26
13.04461416512452 -2.235682653365971 2.609433810863476 53 64 30
13.035004745288417 -2.450047437639164 2.6106871410548886 51 65 29
20.48953838567736 2.8904520762228425 2.985591324631865 50 58 26
19.423138709704187 -1.5753863740438587 1.215358038976405 45 47 23
20.025372651642897 -1.575952726422774 0.9431776654661008 43 48 22
20.659476793929443 -1.5753863740438587 1.0787987910571144 43 45 18
19.340238279404254 -1.6336796320418925 1.1007761058390928 47 50 19
13.127674397372429 -2.349344509034287 1.7423231311485157 51 56 29
11.300058348480887 -2.707691737796928 2.0530515502424262 50 61 28
11.23998323196394 -2.903049258686321 2.159430115996451 48 57 24
12.578258017881883 -2.5896783945908135 1.9146812073695365 48 57 25
12.900265291865322 -2.6309614590333914 1.7453776687059994 49 56 26
16.2573338348748 1.8265850634007113 0.847564818564295 46 51 22
9.35652373846639 0.44661954564653805 1.9244841298026738 95 98 96
9.486388870577798 0.25339890848877794 2.288771074697185 31 36 25
8.75307461349337 1.1050088408847205 1.4839430989385967 36 40 18
11.839196640384646 -0.6650970985615527 2.126008751578672 20 29 19
13.501475378961842 -0.801532517345502 1.8902977741888747 66 74 70
12.89329448592956 -0.3573218144921581 2.6297164074963044 35 44 10
12.0774370543192 -1.1863659223454481 2.4420283788580166 46 54 28
11.980182055510564 -0.43439546051435746 2.451731009054207 36 45 14
9.072569784955757 1.5803033932642778 1.820356442729163 36 39 10
10.790696635371983 2.3933173378798176 2.598975468233464 46 52 25
11.653382929191936 -2.6054673599069433 2.3562596077418227 51 64 28
11.412224974333643 -2.18499206536738 2.2581199050573586 50 59 28
12.391646474438938 -1.471608158207587 2.298320157319125 47 54 23
11.606686984250256 -2.9931445497301423 2.3602914649124367 47 55 25
12.686652808464839 -2.346001200318527 2.3867530577029714 54 63 31
20.028491201612418 -1.7299671944586543 1.3308758769466644 48 53 23
19.876163865503518 -1.4598910597899535 1.0575543780215644 61 62 46
11.478457802475102 -2.8020146334533593 2.1456237937861813 51 63 28
12.347598340231414 -2.4707558169570585 1.9213790476375485 48 57 25
9.404453851731958 0.3389650590205867 2.038600037252334 40 43 39
8.17674034616632 0.9761672805830782 2.116046989562606 30 35 13
9.724906340703303 0.383562170974616 2.267542651670128 33 37 22
10.32299913642041 0.17869449254244527 1.789599213697979 42 46 45
7.764933214776778 1.2957532078025664 2.0013275172257003 37 40 8
12.521060134254675 -1.4014603887840542 2.0026473792099324 44 51 28
12.507974125753087 -1.3414473407256509 2.402064324211892 47 55 24
12.357075921914017 -1.0731295668669731 2.4155509061067195 44 51 28
9.883071905639913 1.9476609110283865 2.129718437828388 39 42 13
8.4878488336367 1.4537106192379303 1.9625472770022723 37 40 9
11.780329205784362 2.8939292612119005 2.4725563279607794 45 52 22
11.142493794025183 -1.8193671521608508 2.27815659889424 50 57 27
12.037641767030133 -2.5691794409221806 2.2161821937875548 51 62 28
11.75299762693481 -2.8748487276277115 2.347818351103809 50 59 27
11.496747540964598 -2.1252702014737115 2.1445935761425323 52 60 30
12.071467358084705 -2.18499206536738 2.322194637748323 52 60 29
18.7281847427642 -1.4454503511237167 0.9588074065869221 57 61 44
8.7001104721451 0.8669068500637402 2.079943988835338 22 26 15
11.496455444986802 1.9810091250269943 2.6698378249490715 43 50 20
13.099123976659788 -0.9266175501254843 2.0673780254656164 69 76 70
11.317751238906107 -1.7933074438023533 2.1548499480048333 49 56 26
12.360571898286066 -1.5809776535139481 2.415232391110346 50 57 26
11.670215364980503 3.030370654397107 2.484581300526359 45 52 22
14.025124459591247 -1.1435211709276711 2.805564147177338 48 59 26
20.48953838567736 2.8904520762228425 2.985591324631865 50 58 26
12.44986241418491 -2.702261139740788 1.7517621535741434 49 59 26
11.89142713579408 -2.2717385099545853 2.225472936695042 53 60 29
12.55353091066986 -0.6183298048985415 2.5248457736697594 39 49 16
11.478457802475102 -2.8020146334533593 2.1456237937861813 51 63 28
