13.398209175380208 -0.030673139462103184 1.9439352241085115 60 64 66
12.067802198467376 0.45364587423695374 2.0801278677480757 37 41 23
11.721650960510258 0.36486489262830796 2.096697768422997 37 43 17
12.12407040770861 0.4036156292371145 2.2787649468175593 42 49 20
11.801994513860803 0.5536156587794357 2.302365797530941 46 48 21
11.608335516231088 0.6447499133854334 2.205623126628027 37 43 20
11.85155948402012 0.4990889867940227 2.1905902494040825 41 45 24
12.275757038348802 0.5855839351775964 2.1661421782847037 40 46 28
12.15815345983957 0.4509514289735367 2.3901698189737215 47 50 19
11.643928278692089 0.7149472981679371 2.3146204347022117 45 47 21
11.422255497671221 0.898613741675385 2.4619478568744606 48 50 23
12.309961931285459 0.6803179914632724 2.655525588934814 53 53 23
12.20419186628377 0.7010404260191925 2.5147793163080405 50 52 23
13.202406313199445 0.6803179914632724 2.690916836828314 53 56 25
12.390733699717568 1.0877928228507938 2.4942808742344433 43 46 17
12.390733699717568 1.0877928228507938 2.4942808742344433 43 46 17
12.730432147618753 1.0173958313191789 2.596296484834002 52 52 20
12.321897337821886 0.9262775182921361 2.653695428202491 54 53 21
12.543384831805225 -0.11996004223553873 1.9707583053636655 50 51 49
12.026371550193367 0.05889570505182101 2.0820528628709987 38 43 20
11.724385909941454 0.0650979240529492 2.1983521692287615 44 49 19
10.981021287716901 0.21321421801763304 2.371696332638519 47 53 20
12.472820519035151 -0.03334535443656069 1.9731511943541444 61 64 63
11.684330786505054 0.18867361963345447 2.31144342566584 46 50 19
12.400003925472731 -0.14497055998694633 2.259868282771621 47 49 27
12.389799351678853 0.2243443899487812 1.8896714704582924 43 47 45
11.684330786505054 0.18867361963345447 2.31144342566584 46 50 19
12.472820519035151 -0.03334535443656069 1.9731511943541444 61 64 63
11.172178712435397 0.3370017492700598 2.3542042382414046 47 51 20
11.99711308139752 0.26964393219452043 2.181959077422416 38 43 16
12.738740035182955 0.2243443899487812 1.9642840534584733 65 68 58
12.482227379813557 0.05377147627950752 1.9728304966568875 44 46 43
12.118925749611776 0.1532600860641141 2.077773465845153 35 40 18
12.21770761286907 0.14008093716292014 1.8943252490296492 31 33 31
12.536635661576387 -0.03652737807804616 2.1521136858985224 36 40 21
12.280979534018257 -0.04514151587614101 2.379525154407247 49 54 26
12.280979534018257 -0.04514151587614101 2.379525154407247 49 54 26
13.090304784946134 -0.16180370322122803 2.426567507353222 51 56 29
12.494781628324457 0.21321421801763304 2.4833443836074864 50 55 24
12.290533225872593 0.0727576151501739 2.378711036184797 46 51 25
12.692586591292512 -0.20480738037930651 1.9657940730657337 80 82 75
12.550910273380023 -0.2464719007421595 2.2500034897970087 54 54 34
13.536297774366203 -0.31248186817893725 2.192532910698528 10 11 4
12.917701255105552 -0.2867722342572174 1.9585395717835654 41 44 41
12.090386880653922 -0.4251842096349869 2.3961886551795213 55 55 36
12.504117761456401 -0.27420373570452555 2.361005858257217 52 54 25
13.233341630196085 -0.27420373570452555 2.4142069725622277 51 53 33
12.732565033451293 -0.379943863603042 2.3430521607129635 54 56 37
11.829795512646587 0.09512749994905016 2.5598985251912163 51 58 28
11.84742248099487 -0.2999541629809898 2.735563589020577 62 64 38
12.100147073223498 0.3843937557552745 2.526751098049962 51 54 23
11.819869424394266 -0.05906618659370347 2.56117682010229 55 60 31
12.100147073223498 0.3843937557552745 2.526751098049962 51 54 23
12.964134517872978 0.5296841068406474 2.7305310126329787 53 58 25
11.84742248099487 -0.2999541629809898 2.735563589020577 62 64 38
12.772227258872823 -0.2999541629809898 2.766492207455101 63 68 39
11.89430807354625 -0.21051933439180942 2.5517015288258698 57 62 35
12.702934220627803 -0.08538323577992538 2.7805993234459168 60 65 36
13.097329646995906 0.11238217276730672 2.7077916174391885 52 59 29
12.772227258872823 -0.2999541629809898 2.766492207455101 63 68 39
12.79976699538717 0.3471464322906246 2.761065146310963 53 58 25
11.699948878100392 -0.7754862558988285 2.5769984778760735 59 58 39
12.051548277591747 -0.352827345793165 2.532485061577 61 63 37
12.005276789057374 -0.48968276171794095 2.7059919495727978 63 63 37
12.556160777055776 -0.7754862558988285 2.6196257671266308 59 59 38
11.990648799999011 -1.0575143556574402 2.708620571386771 61 61 39
11.792553150978105 -0.5538052422784275 2.564718767484621 59 61 40
12.005276789057374 -0.48968276171794095 2.7059919495727978 63 63 37
12.24303565789861 -0.6477597044055712 2.66597549995469 59 61 39
11.662349990727455 -0.9400137943167473 2.774223417468625 57 59 35
12.628605124509711 -0.9981297305358101 2.609737100536284 59 59 35
12.051548277591747 -0.352827345793165 2.532485061577 61 63 37
11.906605393167453 1.6506610510732942 2.5501604010856207 47 48 20
11.985356348601423 1.352148827171029 2.5404474478743335 45 45 18
11.906605393167453 1.6506610510732942 2.5501604010856207 47 48 20
11.90411732955377 1.4998333065641876 2.5504716684382718 45 45 19
11.985356348601423 1.352148827171029 2.5404474478743335 45 45 18
12.336222592461958 1.3147846171495674 2.6515117588501114 51 53 22
13.155578388863182 1.6648011543152783 2.698329815501332 50 50 21
13.153326581237996 1.4872548214384786 2.6986905394677945 51 52 21
12.986689604489646 1.9359250973314077 2.564592924470085 47 47 21
12.160827980620732 1.9359250973314077 2.5197197482918083 42 42 16
11.861797148955644 2.107267833915915 2.2978488394899323 44 44 16
12.278496414292515 2.1987087418897207 2.2680479976160695 33 32 5
12.527449072507743 2.0547435156767793 2.251516407890103 44 42 18
12.728087930238852 2.1710466230447585 2.459991271087935 45 43 18
12.859017763282873 2.3495198297937736 2.333517650838564 32 35 6
11.968118175000638 2.1710466230447585 2.407323945707066 40 40 14
12.859017763282873 2.3495198297937736 2.333517650838564 32 35 6
12.283861248407689 -2.0759433982080244 2.5058787809266523 58 58 34
13.576137204768921 -1.8060140555235447 2.637003283375476 55 56 33
13.576137204768921 -1.8060140555235447 2.637003283375476 55 56 33
13.84227622276228 -2.094277217509541 2.7673510351525947 58 58 36
13.13568612840661 -1.847674640576837 2.701530277523387 58 58 34
12.645013465415778 -2.1511985018508897 2.6075359363805872 58 56 33
11.407405160327412 -1.4326251087922062 2.8375475811347757 60 60 38
11.55313779618132 -2.2847091620169775 2.32187554060521 61 61 36
11.76767229778122 -2.3696643774873487 2.426397608152212 63 60 36
18.080817802949657 1.3929804663335013 2.993978336023033 54 57 24
12.078498615296436 -2.0167696174602887 2.3972555762158043 58 59 35
11.509642677648124 -2.2136601367566766 2.2119535528378678 53 55 30
11.754908902795217 -2.0662069510499363 2.196469924721194 49 51 29
12.036902027901682 -1.9693283682544422 2.284980489396024 55 57 35
12.487719353497312 -2.020562670571323 2.154689645507662 45 45 26
13.064437059166709 0.20688426840192517 1.793396210735797 51 55 57
12.87402505154145 -0.1104217994819395 1.7967453073832027 76 78 79
11.447808779146232 0.4509514289735367 2.3305003721697997 45 49 20
11.801994513860803 0.5536156587794357 2.302365797530941 46 48 21
12.35509238552841 0.509777673922614 2.498106511262219 50 51 21
12.390733699717568 1.0877928228507938 2.4942808742344433 43 46 17
12.640012318467104 0.8015718873959263 2.6082053612243215 52 53 21
11.78989150509405 0.8015718873959263 2.5650657991431927 50 53 22
12.494924780003556 1.1564782853691136 2.6282105751092604 53 53 21
11.886779755510476 1.0173958313191789 2.552648325351711 50 51 21
12.975280109471619 1.2135019300203904 2.565945291180486 45 50 17
12.482227379813557 0.05377147627950752 1.9728304966568875 44 46 43
12.5459946744932 0.05889570505182101 2.1516236189765383 38 44 18
13.179562009373347 -0.13129154552271796 2.2120655068660473 36 38 23
11.898989322278844 0.3370017492700598 2.4137834193231567 49 52 21
11.719692753242427 0.21321421801763304 2.431123716028577 48 53 21
12.755302285265644 -0.22374850244159444 2.1408908429604967 23 23 11
12.778521042324629 -0.34305648827372265 2.235705012352194 64 65 55
13.327992175315337 -0.2867722342572174 2.0280557247055144 88 91 88
12.778521042324629 -0.34305648827372265 2.235705012352194 64 65 55
12.692586591292512 -0.20480738037930651 1.9657940730657337 80 82 75
13.214849868797323 -0.36496507801002215 1.9493729019974815 103 106 105
12.504117761456401 -0.27420373570452555 2.361005858257217 52 54 25
12.84312363223993 -0.4251842096349869 2.449025055199421 56 55 37
13.233341630196085 -0.27420373570452555 2.4142069725622277 51 53 33
12.616678378016248 -0.3087439153863187 2.4709495003288837 57 59 37
12.45958151366138 0.44627011717061915 2.633264457644292 51 56 23
12.054062140556367 0.5296841068406474 2.6973757186429776 52 55 24
12.964134517872978 0.5296841068406474 2.7305310126329787 53 58 25
13.182366727692749 0.28747076610764283 2.6940686986468925 52 57 24
12.712170801043376 0.13723528106363655 2.778679642239162 56 63 31
13.73325907588268 0.3471464322906246 2.7881130293737164 57 62 31
12.45958151366138 0.44627011717061915 2.633264457644292 51 56 23
12.712170801043376 0.13723528106363655 2.778679642239162 56 63 31
12.288411908209364 -0.4817100759148488 2.5053770951023715 57 58 38
11.412499987624253 -0.7673179258208462 2.836128031365947 68 68 40
12.117324835017863 -0.6754453058457807 2.524746408433287 59 58 40
12.746622262579749 1.4998333065641876 2.594206379583836 47 50 21
12.259725650943935 1.6648011543152783 2.663339082922349 51 51 21
12.343423983208005 1.8366523419389584 2.650419291627248 48 48 20
12.407456619592512 2.0607954169842775 2.4925000827712473 46 46 20
12.407456619592512 2.0607954169842775 2.4925000827712473 46 46 20
12.223393911645882 2.0047084727996776 2.3844742249056887 51 51 24
11.906605393167453 1.6506610510732942 2.5501604010856207 47 48 20
12.859017763282873 2.3495198297937736 2.333517650838564 32 35 6
11.825180812052713 -1.2470954435880457 2.739961049175283 60 61 40
11.839937502108814 -2.1879893836842177 2.4193989266043556 61 61 36
11.56585423527714 -2.45218566145201 2.3208495404421297 63 60 33
11.492156016128678 -1.1607505664709732 2.81486250909196 61 62 39
18.082456000673226 1.7704488627497352 2.993370309027602 53 56 23
12.175266974725284 -2.1539273455258816 2.171743225065868 42 44 22
11.712429367275966 -2.1211206465259207 2.309252232520697 59 60 36
12.148642895819208 1.2135019300203904 2.5211205082619936 44 45 16
13.202406313199445 0.6803179914632724 2.690916836828314 53 56 25
12.707317583065095 0.5842542134593757 2.5993023553950083 53 53 23
12.227911643715103 0.6447499133854334 2.271518059353001 40 46 21
12.275757038348802 0.5855839351775964 2.1661421782847037 40 46 28
12.466568170735906 -0.18301015043015031 2.486276526355177 54 59 32
12.187572584877747 -0.06983127523672969 2.674888313050184 56 61 32
11.772687378185388 -0.08538323577992538 2.7505928592066864 58 63 34
12.24303565789861 -0.6477597044055712 2.66597549995469 59 61 39
11.714370503954992 -0.04038039996849181 2.198972483343105 43 48 22
11.724385909941454 0.0650979240529492 2.1983521692287615 44 49 19
11.914326028500259 -0.7725938174971287 2.722694324865061 59 61 37
11.669872037631846 -0.6016492466662396 2.772552141126443 66 66 40
12.290533225872593 0.0727576151501739 2.378711036184797 46 51 25
11.864161773584037 0.29969602997249645 2.2976715442369016 43 48 17
12.412390107834101 -0.4107728907910142 2.6401305659535437 60 62 37
11.992768428575037 1.797958844859906 2.5395468603517224 46 46 19
11.992768428575037 1.797958844859906 2.5395468603517224 46 46 19
12.381239648904407 2.266883569535029 2.371077744040552 33 34 7
12.621390052964543 -2.2949579496533974 2.245503278339473 47 47 20
11.355529329053073 -0.9010451724652112 2.62686991144633 60 60 38
13.075870451309694 0.04946687644977186 1.8723978406377675 42 42 41
11.923875650657227 0.2449466116145918 2.54800734772952 51 56 25
11.819305124521346 0.1691505159895828 2.1925389827452832 43 46 17
13.16104618640695 0.12897731390887937 1.8703851431412644 39 41 42
12.227911643715103 0.6447499133854334 2.271518059353001 40 46 21
12.616678378016248 -0.3087439153863187 2.4709495003288837 57 59 37
11.849416781481633 0.7986548634248654 2.4184913146314875 48 50 24
12.259778825507446 -0.24756306292399924 2.6633307161376325 58 63 36
11.669872037631846 -0.6016492466662396 2.772552141126443 66 66 40
12.405032014396877 0.0824555969394531 2.4927577176773434 50 57 27
12.906369360531974 0.05377147627950752 2.0441943719280014 58 61 49
12.259778825507446 -0.24756306292399924 2.6633307161376325 58 63 36
12.965526319740079 -0.11996004223553873 2.0418585660916295 70 73 65
11.921186468096776 0.6198067627776044 2.4116960388872712 48 49 19
12.352639784826252 -0.16180370322122803 2.373465932156497 50 54 26
12.395566571032909 -0.051174327030767935 2.4937653067599537 53 58 29
13.289299931028562 -2.01012483689938 2.6775873906640424 57 57 33
12.760122130630885 2.279456146088366 2.2368359698388662 35 37 10
12.748945905356866 1.6506610510732942 2.5939074255715617 48 48 20
11.608335516231088 0.6447499133854334 2.205623126628027 37 43 20
12.381112859415389 0.18867361963345447 2.371088294108794 48 53 22
12.063757106738151 -2.367578200380991 2.2830524519692275 56 57 32
12.29240049729532 0.2449588563181993 2.069952415246153 32 37 15
12.868658604781677 -1.9481342713274536 2.5788408083389984 57 57 33
12.472820519035151 -0.03334535443656069 1.9731511943541444 61 64 63
12.571425894570199 0.14008093716292014 1.9698155360633913 64 67 57
