10.59137908312791 1.2838599206995018 2.191135949286396 30 40 12
10.486170424377793 1.246924211976513 2.3219844108442915 31 44 15
10.701252198721733 1.4167197753813772 2.073613599798918 24 34 10
10.570819715408625 1.1995750686604478 2.452215338041638 31 45 14
10.671055208639832 0.8922791518451262 2.6023649136291183 39 49 18
10.29994951343273 0.9922418497069502 2.4847678856083304 34 47 17
10.840880441285561 1.137024007024892 2.5767316724888896 36 47 14
10.29994951343273 0.9922418497069502 2.4847678856083304 34 47 17
11.188295590422001 1.3450425830855564 2.5294781154501984 32 45 16
11.20954408316482 0.7595466029227179 2.704752691900596 40 49 23
11.109864763062035 1.2454339448632479 2.7243818912276434 41 50 22
21.32879676457638 -0.0991256350206259 2.1772723223545976 44 48 26
11.175057705377345 -0.22904910222244906 2.3890002817779674 53 58 35
11.39802015719501 -0.3133372686706661 2.2496567260366125 40 46 19
10.467479781696849 -0.22904910222244906 2.3236531294394918 50 56 31
10.467479781696849 -0.22904910222244906 2.3236531294394918 50 56 31
10.678801923836176 -0.35223797462020023 2.305269235672514 39 44 17
10.790717793835668 -0.30867697115907733 2.5841099862887744 44 51 27
10.995829575548022 -0.46582584588210435 2.5548713499955897 46 52 29
10.537087599484027 -0.5520846291470907 2.6240051003502307 49 56 33
11.218242551006078 -0.11355438964694144 2.52568604281139 49 53 32
15.27756644200307 0.7213876614937642 3.0158206798079727 51 57 35
11.544899076916527 -0.13420140333318936 2.6461808854797226 46 52 29
11.590829978892723 0.22863117543661216 2.6388964853480243 49 53 33
10.326056125236079 -0.5255493263053729 2.3365638168286225 44 50 25
10.839690614934309 -0.6993932748401401 2.5769048986966014 50 56 32
9.08938114141686 -1.030579035607067 2.3149804510723375 48 52 30
9.08938114141686 -1.030579035607067 2.3149804510723375 48 52 30
9.794418373350492 -1.030579035607067 2.3901594138262245 49 54 32
9.794418373350492 -1.030579035607067 2.3901594138262245 49 54 32
10.469997118060654 -0.8265428164186774 2.6353733087445197 51 57 35
10.038711842772063 -0.942570700754654 2.5192989268717967 49 55 33
10.074140512218095 -1.3249247021517858 2.514413252944985 49 54 32
10.038711842772063 -0.942570700754654 2.5192989268717967 49 55 33
9.751180804509746 -1.0986489983798866 2.254152980273592 47 51 29
10.710233444726956 -1.1957013010159598 2.073152474853135 45 51 29
10.782707277313802 -1.4075081679548596 2.178515815314166 46 52 30
10.182148675757867 -1.2653168039615252 2.220154096273368 48 52 31
9.751180804509746 -1.0986489983798866 2.254152980273592 47 51 29
11.8522713732496 -1.4487718092450885 1.4996013825463612 43 48 31
12.256934472197567 -1.2857059547741465 1.5019556699491392 43 49 28
11.476284691584375 -1.2607521791508642 1.7598640411378363 44 50 29
11.217266037096444 -1.3473725185334842 1.7642844758391978 45 51 31
11.4778939368622 -1.142949726915109 1.941385797459889 45 51 28
11.12942030164022 -1.2311952109138815 1.9535806243769414 45 51 29
11.109530684878171 -1.4240293829576403 2.053511938090008 42 50 28
11.525355549888161 1.9046907579970525 1.2308375739239346 40 49 35
9.254937389178554 1.977582275980304 1.8060122763712303 18 29 15
9.441835077237693 2.0750187429835147 1.5874136568601864 20 31 17
10.315201237924596 2.0750187429835147 1.985574464051468 26 35 20
10.316065380363112 1.5177316874590954 2.2103351863407243 28 40 16
9.758553695007704 1.6385603661323285 2.127568067136931 29 41 18
9.86667711253652 1.7574485041608912 2.1207612268207177 26 38 17
10.942348316070348 1.5177316874590954 2.283728193619523 29 39 13
11.044404950906793 1.7574485041608912 2.275765754200903 32 42 19
11.229462486883241 1.8712495096091974 2.2618267606810414 33 43 22
11.697488093392742 1.510444856709199 2.469962477920424 38 48 21
11.793011563823377 1.7824220315464976 2.4598369650408367 39 49 26
11.489353073850484 2.0265007107411748 2.3602265832827483 41 50 32
10.802381789092454 2.0265007107411748 2.2949863645942106 40 49 33
10.613140234885723 1.5234496376188158 2.0781852691580474 31 43 20
11.10404904723317 1.5008420000362572 2.5403694242906965 36 46 20
11.387086823128653 1.9588071778484177 2.505035288132956 42 54 33
11.449120688067534 1.487613341758495 2.6618913886015148 42 51 24
11.454445056598745 1.6769303064616312 2.6609986480913044 43 52 27
11.942097260600464 1.5008420000362572 2.5877533417654104 38 50 25
11.94720193209877 1.6600896611216651 2.587062800568308 40 52 27
11.95260740660849 1.4682363538119774 2.774646648528578 45 51 24
11.030547996492936 1.7015551197138226 2.740914200230503 46 52 27
12.453974268499792 2.087604715833666 2.5244825509988904 46 55 38
12.205717023417817 1.9588071778484177 2.553755556880278 44 55 35
11.72383067107532 2.023467371433188 2.6186349252494607 46 54 34
11.982076307082584 2.165413369579043 2.5823811625829216 49 55 36
12.03567950017979 1.8149574011456742 2.575304899266991 43 53 30
12.03567950017979 1.8149574011456742 2.575304899266991 43 53 30
11.310034622066427 2.1114875799319686 2.6860954629318576 48 54 32
11.903753292088902 2.2358365572247565 2.785477360973322 46 52 30
10.998917459169993 2.5749459560416925 2.747758577938464 49 53 32
11.903753292088902 2.2358365572247565 2.785477360973322 46 52 30
11.669105363617739 2.4173022040690757 2.844204475323445 48 52 31
11.669105363617739 2.4173022040690757 2.844204475323445 48 52 31
11.903753292088902 2.2358365572247565 2.785477360973322 46 52 30
11.064796876349071 2.3052725900296744 2.0556318665023476 63 68 68
11.028216747436637 2.2240666044736157 2.1631138619866346 43 51 39
10.785675381914048 2.8828740306829586 2.178324425569781 40 45 35
11.039117532472053 2.777171273080738 2.162449525473735 32 39 32
9.969989023710163 2.809089647293102 2.3714960327016392 48 56 38
11.728579072554728 2.6797544012587546 2.466634632269438 47 56 40
11.303853669195854 2.56510724647403 2.376910814897256 46 53 44
11.692638951635312 2.2966800519186448 2.3428513072309514 45 52 40
10.964131940169286 2.379213787916483 2.1670522595814647 51 58 50
11.59026040372449 2.449604257048001 2.1308273367955133 62 67 67
11.937347483418394 2.38346419018133 2.44507228501152 47 56 39
11.66690171008224 2.533269137291239 2.2311996574233794 35 42 37
11.045118762965677 2.4652846813160445 2.2757107696622354 39 46 39
11.081643099037192 2.533269137291239 2.159873148976237 50 55 54
11.786634837778852 2.5901605404397947 2.120414953986981 64 68 71
11.786634837778852 2.5901605404397947 2.120414953986981 64 68 71
10.654699815461933 2.850455108294743 2.307313821888733 47 52 40
12.045367969176942 2.56510724647403 2.43441749925568 47 54 41
11.799155873325914 2.754704686588134 2.6076653578821034 50 58 40
11.923119440890801 2.3896389660921664 2.590332594579144 48 56 37
12.031267671145319 2.6106036436700637 2.5758819612709694 49 59 39
11.343292343149502 2.8124550460203204 2.0427421837928046 37 43 39
11.97593229087921 -2.2843122460049554 1.8375516699770518 48 51 44
11.267398843008465 -2.3448604399327455 1.8547771147076888 45 48 44
11.34052671456829 -2.4750560288998646 1.8528955504624087 42 45 39
15.215977898726122 1.2369080036038202 3.0534366729230644 51 57 35
15.215977898726122 1.2369080036038202 3.0534366729230644 51 57 35
11.49545852302449 -1.411594714714208 2.8982903071729753 65 74 52
11.49545852302449 -1.411594714714208 2.8982903071729753 65 74 52
10.766315078531942 3.067127061023842 2.8035188679755763 49 55 33
11.769086953909667 -2.3234667962040185 2.8176339370970442 52 61 40
10.901875777443717 -2.688366187832101 2.7697640075923675 51 61 40
11.57768241835955 -2.5463204310141805 2.871158267879136 52 62 41
11.104934624531067 -2.4867570823031313 2.7253846683344545 51 60 38
10.425893358557365 -1.8892851400152537 2.643056805604841 51 59 38
11.254757047840284 -1.6431997900172963 2.381468548263879 49 55 35
10.84433808570335 -1.890551143374679 2.2915693946552107 50 55 38
10.510683556511564 -2.3324350359670363 2.6284344943087254 52 58 38
10.546744874269304 -1.5140938878223418 2.316634433971223 49 53 32
11.160946184429259 -2.0572007930002094 2.390351425596466 50 55 38
11.305947639005064 -1.6349344476635226 2.2562444597667515 47 53 33
11.399403451085835 -1.7476461068606222 2.2495588290360518 48 53 36
11.263947414283916 -1.9579213494389405 2.149096767480878 48 56 40
10.081139054448968 -2.2156774936780783 2.5134560785360236 49 57 38
10.818779175470864 -1.6683130954624232 2.579963408927293 51 57 37
10.692185262252012 -1.7985670925148045 2.4385575821327365 51 57 37
10.90610592161187 -2.2156774936780783 2.5673637477245355 51 57 38
10.916406454154474 -1.8365715846882054 2.5659068805771614 52 58 37
10.587636288777167 -2.1265076634940807 2.450290686509756 50 57 38
10.592491617066102 -1.6539049111877437 2.449736963097424 52 56 35
10.586733756589528 -1.505696229272992 2.4503937121716453 51 55 33
11.494998089908291 -2.066653863924923 2.654275329689012 52 60 40
11.220119742569077 -1.6887367796969661 2.702738380599481 52 61 39
11.214684124525528 -1.4783283977582358 2.7037721278847373 49 57 37
11.86836712662185 -1.9667275405336164 2.793581207527958 55 63 42
11.773455066499013 -1.453768798994455 2.8165308464586984 56 65 43
11.120535218176345 -2.171921819857465 2.7222223051462278 53 60 39
11.214684124525528 -1.4783283977582358 2.7037721278847373 49 57 37
10.414412285587428 3.106471252323342 2.328438164028504 47 53 35
9.899421624083075 -3.010300089557978 2.5391898501553305 49 59 38
10.716513084084298 3.093856514631577 2.595317464859981 49 57 37
10.487673989302845 2.9757364322267517 2.3218505424187224 48 53 37
9.736873922249677 -3.0301312679563384 2.3965067115105825 46 55 34
9.778286100549932 -3.0447740609740106 2.251898017355753 46 54 35
10.25623630797094 -2.981957794880941 2.674346314834575 51 59 38
10.8937679975985 -2.832437904274358 2.1714423101887337 43 49 39
10.086826501649346 -2.7467236392469325 2.3596252082512494 46 54 37
11.056657963699276 -2.6846058915454685 2.5466469005822443 50 58 39
10.023334078023064 -2.8392756164445263 2.5214407441607403 51 61 40
9.86282876897296 -2.883162144380163 2.3827644938822017 46 55 36
10.023334078023064 -2.8392756164445263 2.5214407441607403 51 61 40
9.86282876897296 -2.883162144380163 2.3827644938822017 46 55 36
11.205659723846377 2.870905518043586 2.705495676424751 49 54 32
11.114248879746743 -2.624147417398192 2.394861196239695 48 56 38
11.482315209331396 -2.1036111280339886 2.2437479786395214 48 53 38
10.402535576611621 -2.624147417398192 2.329518746165265 47 54 39
10.723395711759995 -2.3431556511442007 2.0724782890924924 50 53 46
10.833969033468216 -2.166104623263643 2.2924104457776435 50 55 40
11.559045647547682 -2.636438325748037 2.1325214069566263 47 50 42
11.276085380984851 -2.4233251652828502 2.25841191497658 48 52 39
11.86480825287829 -2.2742976574873404 2.116383823201516 49 52 42
11.48891664645743 -2.516522643921115 2.3602648784152107 47 54 37
11.61888369751831 -2.0520369634166857 2.1292834774198006 46 53 40
10.964487640019236 -2.2427133209763945 2.4097394195381527 48 54 35
10.80020764001328 -2.492729085603729 2.068581550488369 48 51 43
11.276085380984851 -2.4233251652828502 2.25841191497658 48 52 39
10.476226021800011 -2.3375458252791406 2.46324345058597 49 55 35
10.94866469869925 -2.436314952354692 2.4113497440089775 48 53 37
11.186726899937986 -2.7302697459384024 2.1536092215973754 45 49 41
12.451000644266026 -1.8654299482726955 1.7449049675818524 46 49 42
12.451000644266026 -1.8654299482726955 1.7449049675818524 46 49 42
11.894105315484003 -1.703045995977127 1.6682162508713172 42 47 35
11.743596785829146 -1.533399945196049 1.5841564190558142 45 50 33
12.494655468755681 -2.0487830659554045 1.8262240702341084 52 55 51
12.381770874817708 -1.9725785588215334 1.913172910161378 46 49 43
11.792555106806885 -1.8049960064900998 1.9310389449219474 46 51 38
11.616471448868355 -1.7152027951318947 1.936754881296951 44 49 33
11.197532457407101 -1.5299198509795413 1.856598701944084 43 50 30
11.95665168318006 -2.0898258221805452 1.9258742812546505 43 46 38
11.57719340607934 -1.9214907571383792 2.0324567511558813 49 54 41
11.623308257576296 -1.7298000740977704 2.1290456402656672 46 51 34
11.024682265850256 -1.5257260669053612 2.057549560517184 45 51 31
16.212333735548473 1.2369080036038202 3.0588672466771083 51 57 35
10.043083647179195 1.2838599206995018 2.1100280023367377 30 40 14
10.299597914180875 1.3752682196015138 2.339036690244889 31 43 14
9.848120438385267 1.3984270011671704 2.1219168108983837 24 34 8
10.671055208639832 0.8922791518451262 2.6023649136291183 39 49 18
10.687289169355843 0.6342670326441217 2.5998317585859394 41 50 24
10.29994951343273 0.9922418497069502 2.4847678856083304 34 47 17
11.360282179327807 1.1995750686604478 2.508234158430488 33 47 15
10.845288489983485 1.0688219494447266 2.422059950070795 36 49 18
11.31373541656366 0.47192975372088886 2.6854281532762743 46 51 28
11.530846348175512 1.3040251899262876 2.64844097698837 37 48 16
11.20954408316482 0.7595466029227179 2.704752691900596 40 49 23
10.977499172253308 -0.4652406893508177 2.2809628493612975 41 47 21
10.977499172253308 -0.4652406893508177 2.2809628493612975 41 47 21
10.53583702148135 -0.26310401690076723 2.45625337724691 44 49 25
11.544899076916527 -0.13420140333318936 2.6461808854797226 46 52 29
15.22736726877346 0.18255635690382463 3.0453445710194065 52 62 38
10.432212012092705 -1.2984872288701002 2.087853119543101 45 51 29
10.887232954833157 -0.716240722545606 2.4176741461709748 47 52 28
10.469997118060654 -0.8265428164186774 2.6353733087445197 51 57 35
10.63540692302003 -1.3868429054582179 2.3089598704501735 48 52 31
10.423712795233213 -0.8175794105208499 2.4695188791054363 49 55 31
10.91689129010116 -1.2029829256797115 2.766252756723982 58 67 45
11.67344771519148 -1.178676437775528 1.6700637487679908 44 50 24
10.862133458730147 -1.3252915863842263 1.9635085974038606 42 50 28
11.15474192832702 -1.142949726915109 1.8577261109692704 44 50 25
11.67344771519148 -1.178676437775528 1.6700637487679908 44 50 24
9.537696148226594 1.977582275980304 1.9081498245635413 21 33 17
11.702699462934541 1.6478523264298475 2.4694024697186707 39 49 24
10.372811156695127 1.977582275980304 2.0911126317051543 29 38 21
10.947919149085411 1.6385603661323285 2.2832883067064764 34 44 20
11.21977214701324 1.909675513965353 2.3847541174946527 40 50 30
10.613140234885723 1.5234496376188158 2.0781852691580474 31 43 20
11.449120688067534 1.487613341758495 2.6618913886015148 42 51 24
12.158177884190577 2.399426374677842 2.732909607205587 48 54 32
11.729339086846025 2.0166864173243226 2.8278824417004937 46 52 30
11.942097260600464 1.5008420000362572 2.5877533417654104 38 50 25
12.205717023417817 1.9588071778484177 2.553755556880278 44 55 35
11.903753292088902 2.2358365572247565 2.785477360973322 46 52 30
11.942097260600464 1.5008420000362572 2.5877533417654104 38 50 25
10.559337933968138 2.131366251961763 2.193305466801805 36 45 29
12.266054102719718 2.5097853060419175 2.096643052663798 67 69 74
10.654699815461933 2.850455108294743 2.307313821888733 47 52 40
11.375123662951404 2.6793314100629906 2.142730293582385 30 36 35
11.251012090519447 2.6279368175971785 2.260243669675252 35 42 37
11.188676561666899 2.38346419018133 2.3877013804364062 44 53 39
11.045118762965677 2.4652846813160445 2.2757107696622354 39 46 39
11.71786798979651 2.4652846813160445 2.340757104390594 39 46 36
11.799155873325914 2.754704686588134 2.6076653578821034 50 58 40
12.316334667970551 2.2846050328276934 2.540411849987949 48 57 39
10.605922832980335 -2.4139557478195206 1.8730302093520173 45 48 44
11.688232926721692 -2.215045833849788 1.9344031021510222 44 47 38
11.11092481991591 -2.5514079320919194 1.9542509659927267 44 47 39
11.500761439108274 -1.7731472620790683 2.896439606355776 58 67 46
15.215977898726122 1.2369080036038202 3.0534366729230644 51 57 35
11.592646837714987 -2.0895272031242547 2.8665403847929243 54 63 43
10.617388965377062 -2.5463204310141805 2.845994053053239 51 61 40
10.83719810753358 2.8000925185186287 2.785381465083196 50 54 33
10.081139054448968 -2.2156774936780783 2.5134560785360236 49 57 38
11.123021870954839 -2.0022741141472853 2.2697674801935386 47 52 37
10.90610592161187 -2.2156774936780783 2.5673637477245355 51 57 38
10.621732408073273 -2.066653863924923 2.610176215425609 51 59 39
10.546744874269304 -1.5140938878223418 2.316634433971223 49 53 32
10.29446915380913 -1.9908218058210139 2.4854586479718304 53 59 39
10.323628494831995 -1.6887367796969661 2.661568491214349 50 59 38
10.988838170027341 -1.85600986610163 2.1655272279989077 45 53 37
11.300553304649323 -1.5205741722365798 2.2566348581061457 47 53 33
10.65259224284553 -1.7699449077580105 2.307493228139689 50 56 36
11.314284513935993 -1.8892851400152537 2.685329257114901 53 61 41
11.214684124525528 -1.4783283977582358 2.7037721278847373 49 57 37
10.610804543688568 -2.883162144380163 2.447656342641361 48 58 39
10.589038591937003 -2.601535211751488 2.6154523911375023 53 62 41
10.620709533374955 2.994815052915978 2.189164369059865 45 49 36
10.819327641432107 -2.7467236392469325 2.424802632756895 49 57 39
10.620709533374955 2.994815052915978 2.189164369059865 45 49 36
11.378044345988792 -2.2742976574873404 2.041183836631535 47 50 43
11.291449510264467 -2.261050704583297 2.257294846811664 50 55 40
10.476226021800011 -2.3375458252791406 2.46324345058597 49 55 35
11.060501500717493 -2.6828397109072686 2.2745281927871854 46 51 39
10.80020764001328 -2.492729085603729 2.068581550488369 48 51 43
11.276085380984851 -2.4233251652828502 2.25841191497658 48 52 39
11.238549609681575 -2.3431556511442007 2.1505725994129707 49 52 40
12.049327905397073 -1.8911091724263116 1.9230238596170155 47 50 42
11.804566668502549 -1.6185661034663748 1.6689575628172086 41 46 32
11.743596785829146 -1.533399945196049 1.5841564190558142 45 50 33
11.57719340607934 -1.9214907571383792 2.0324567511558813 49 54 41
11.57719340607934 -1.9214907571383792 2.0324567511558813 49 54 41
11.799289888605362 -1.8280533077655219 2.1197580771804203 47 52 37
10.29994951343273 0.9922418497069502 2.4847678856083304 34 47 17
11.188295590422001 1.3450425830855564 2.5294781154501984 32 45 16
11.283046930187961 1.0513841437753573 2.6910029156803295 39 49 20
10.425297469987397 0.47192975372088886 2.643161807724592 42 49 26
11.175057705377345 -0.22904910222244906 2.3890002817779674 53 58 35
10.745814966372347 -0.40157496957987904 2.432689004177848 43 49 24
11.576857070460573 -1.0863468029345056 2.871415552741478 64 73 52
11.5245831659064 0.04880473860052496 2.6494531304713425 50 54 33
10.125278062612603 -1.2233143454282456 2.3558088041858793 49 53 32
9.489603695462163 -1.1686402665675355 2.4252042792263597 50 54 33
12.014757162774806 -1.3658606016730306 1.500565809447424 44 49 31
11.043052312277652 -1.4375326246627376 1.767376532070204 44 50 30
10.904540019218608 1.977582275980304 2.17076570695476 31 40 22
11.064796876349071 2.3052725900296744 2.0556318665023476 63 68 68
11.685532805121365 2.3761095450561047 2.027849401332462 65 68 73
11.71786798979651 2.4652846813160445 2.340757104390594 39 46 36
12.046107996606997 1.9215998933536518 2.7549551349284624 45 52 28
11.95260740660849 1.4682363538119774 2.774646648528578 45 51 24
11.652797661599282 2.087604715833666 2.4748018781960046 43 55 36
11.251482508034037 2.2000234907333636 2.3817747252853745 44 53 35
11.55534382611446 2.379213787916483 2.2387206290096398 45 52 42
10.998917459169993 2.5749459560416925 2.747758577938464 49 53 32
11.096799481402238 2.9089148777712284 2.054113288086569 28 32 27
10.825785236665537 -2.3234667962040185 2.788225656699484 51 59 38
10.78805904315133 -2.93822493721742 2.797831830236624 51 61 40
11.398279833189235 -2.3036332861542137 2.9354235966421265 56 65 45
10.813141810912246 -1.4943844312383554 2.5807925089688517 50 57 36
11.263947414283916 -1.9579213494389405 2.149096767480878 48 56 40
10.813141810912246 -1.4943844312383554 2.5807925089688517 50 57 36
10.587636288777167 -2.1265076634940807 2.450290686509756 50 57 38
11.300553304649323 -1.5205741722365798 2.2566348581061457 47 53 33
12.040767636533047 -2.171921819857465 2.7560459870373735 54 61 41
11.778632825059738 -1.719901725364593 2.815229005986309 55 64 42
10.493831307776349 -3.0301312679563384 2.461164473646992 47 57 36
9.712776957672348 3.1011236315223227 2.399200147722385 48 56 34
10.37588843199638 -2.7782217289974613 2.6519826190656213 51 61 40
10.610804543688568 -2.883162144380163 2.447656342641361 48 58 39
9.79128993959407 2.951025980013307 2.3905014648081293 49 56 35
10.669410470170272 -2.4233251652828502 2.1859206734937273 49 54 43
10.801917606192216 -2.516522643921115 2.2950243745697976 48 53 40
11.342474503073186 -2.194159110080096 2.1445842840279523 51 55 41
12.202682902493596 -1.7856730741027496 1.7484853558856468 44 47 38
11.524776002060527 -1.6230085470223519 1.939805719537621 43 49 29
11.197532457407101 -1.5299198509795413 1.856598701944084 43 50 30
11.531667174608268 -1.628360970679252 2.1340163254622126 46 51 34
11.486993689395774 -2.769232003235082 2.036367246667617 40 43 37
9.741544153106092 -1.0950802935644182 2.563177952415742 51 56 34
10.678801923836176 -0.35223797462020023 2.305269235672514 39 44 17
10.45043261617926 2.1630194675981533 1.87767259070911 27 35 24
10.91118465654897 2.73388363395303 2.2862003528782973 42 49 39
11.362135903884356 2.6805488392564274 2.676822099098258 49 54 33
11.94720193209877 1.6600896611216651 2.587062800568308 40 52 27
10.932403484905947 1.510444856709199 2.413012565672917 34 44 16
11.602993353012105 2.5202083451282475 2.6369931217687554 49 56 34
12.205717023417817 1.9588071778484177 2.553755556880278 44 55 35
11.72383067107532 2.023467371433188 2.6186349252494607 46 54 34
11.362135903884356 2.6805488392564274 2.676822099098258 49 54 33
10.78805904315133 -2.93822493721742 2.797831830236624 51 61 40
10.725117924505856 -2.3408472695167895 2.301376475567564 49 54 38
10.883233559334402 -1.9341930644038492 2.4180899363078616 51 57 37
11.773455066499013 -1.453768798994455 2.8165308464586984 56 65 43
10.55449375151571 -2.916112859669742 2.3159563740626727 44 53 34
10.764107761402197 -2.794587358006947 2.2981358107812753 43 50 36
11.567481301600576 -2.1377502568805036 2.0328745131289936 45 50 38
11.024682265850256 -1.5257260669053612 2.057549560517184 45 51 31
10.839261471954053 -2.5821634541529273 2.174891426909356 47 52 41
10.55449375151571 -2.916112859669742 2.3159563740626727 44 53 34
10.47147639866376 3.1011236315223227 2.463806443741998 48 56 35
10.491099268642454 -0.601663851781249 2.461486287903292 47 52 28
11.218242551006078 -0.11355438964694144 2.52568604281139 49 53 32
11.156580418044847 0.2777513875483052 2.715033192171117 47 51 30
15.27756644200307 0.7213876614937642 3.0158206798079727 51 57 35
9.969989023710163 2.809089647293102 2.3714960327016392 48 56 38
10.25623630797094 -2.981957794880941 2.674346314834575 51 59 38
12.453251242049046 -2.163860745924528 1.9111278799015388 49 51 45
11.531216002146971 2.4872553578033507 2.4883148746585926 48 57 39
10.45241302252474 -2.0572007930002094 2.3250045590092068 50 55 38
10.942348316070348 1.5177316874590954 2.283728193619523 29 39 13
10.890198154754856 -2.4555174159336217 2.569625589308104 52 59 39
11.996234424471586 2.2000234907333636 2.4392234594725144 46 55 39
9.931928456746329 -1.360277504122306 2.375455374741496 50 54 33
10.586733756589528 -1.505696229272992 2.4503937121716453 51 55 33
11.546699033894619 1.8589875228401262 2.645892478747772 44 52 29
11.310034622066427 2.1114875799319686 2.6860954629318576 48 54 32
11.577513989498986 2.2663994864743127 2.640992409572914 48 55 35
10.233362382748227 3.0834117845597193 2.6787964851871773 51 57 35
10.94866469869925 -2.436314952354692 2.4113497440089775 48 53 37
9.997820508099668 2.1630194675981533 1.486366762687703 22 33 21
10.316065380363112 1.5177316874590954 2.2103351863407243 28 40 16
11.525605079482341 -2.0089646135436663 1.9397779012684153 46 51 39
10.554836859764734 -2.5502333780333495 2.4540544489890825 49 56 37
10.406692938067447 1.3984270011671704 2.2038729900593097 25 35 8
11.214684124525528 -1.4783283977582358 2.7037721278847373 49 57 37
11.123021870954839 -2.0022741141472853 2.2697674801935386 47 52 37
9.59997304837228 1.8712495096091974 2.0186264819640543 25 37 17
