18.642952698025944 1.2041631506420705 1.9238848751578264 47 54 35
10.165448604720073 0.5724801562177213 1.3169015683404843 31 37 12
9.352141303173052 0.4823214572262004 1.5115973148303499 35 41 14
9.667972262141541 0.2462559688257813 1.7209973957207076 41 47 24
9.956416484171937 0.3448682845667132 1.716614385987723 37 43 15
8.921549213063894 0.7901223885291785 1.6208854557393912 35 41 18
9.866280253582307 0.3448682845667132 1.5146855489093223 38 44 17
9.24017226707292 0.7901223885291785 1.8387802895393464 31 37 14
9.84969340037034 0.5724801562177213 1.616162108947659 27 34 8
9.360878487448748 0.8764763583071736 2.065792955026784 35 43 20
9.963376100495212 0.38279471970569656 2.033426246560303 39 45 17
10.272006904763861 0.4295176679187475 2.2492597653420323 36 43 16
8.929315453871562 0.8764763583071736 1.9670842772608448 31 37 14
9.992676533680253 0.3101562476099538 2.272004195444931 43 48 25
9.675781842801396 0.4295176679187475 2.168710149794572 39 45 20
9.886973635854948 0.7910136494965099 2.2810660977247137 36 43 18
9.869161905983953 0.704507164641727 2.155424556457491 37 43 18
9.675139367221888 0.274629584050468 2.0483401247421833 41 47 23
10.09876614806827 0.6877544124681053 2.399988140055898 38 44 17
10.06386088011145 0.5371594313347176 2.142674520851095 34 43 15
9.476768759275801 0.14251849369211908 1.7240515634896627 45 50 28
9.406809396776408 -0.07211590240455366 1.725200447879964 45 50 24
8.702420796725448 -0.3122335901661511 1.6221478045453355 43 48 23
7.850982855644845 -0.22573643257942613 1.8877155602930846 42 47 19
9.593850955380983 0.03561001029554431 1.82867138872091 44 49 26
9.109258372143994 -0.09185373322118025 2.2117106488477782 43 48 19
7.637360879547519 -0.4025005402491406 2.039009825695525 42 48 18
8.96626271663008 0.03991122652842213 1.965360696989143 43 48 25
8.548989209751303 -0.09185373322118025 2.1178131800246707 43 48 19
9.109258372143994 -0.09185373322118025 2.2117106488477782 43 48 19
9.80780519596569 0.1809607031108547 2.2880288887316373 44 48 27
9.48408035765273 0.15947476494818374 2.05879360464009 43 49 27
8.68473804807559 -0.22573643257942613 2.108321226678956 42 47 18
9.236647166289606 -0.6623024416960405 1.510856213886233 44 49 23
8.518339699831282 -0.5294769910154548 2.120005894739503 41 47 20
8.271848471054893 -0.4674209888804092 1.74659309926535 43 48 20
8.465668421577343 -0.7351066483761123 1.6235852262716013 44 49 24
9.32263946101588 -0.9687036549737743 1.5114097571434981 43 49 24
8.4738524850106 -0.821851093183158 1.98968303045763 43 49 25
8.421045195893898 -0.6082017187691546 2.274170216335892 42 48 21
8.652720034839303 -0.5709171312939071 1.622443026476984 44 49 20
8.192363916044425 -0.6400911268632837 1.874078754389657 43 48 19
8.041687612665045 -0.5294769910154548 2.013741537401007 43 48 21
8.32827047258337 -0.7250106385796626 2.1340341588092873 43 48 21
9.173092956738632 -0.902030065002854 1.9559900529112373 43 49 23
11.575500784864234 0.3557954431452041 2.5254143613890463 44 49 25
11.034463665403665 0.4882021068215476 2.4425867509199115 40 46 21
11.034463665403665 0.4882021068215476 2.4425867509199115 40 46 21
10.857184224991343 0.6877544124681053 2.4622426271791316 39 45 19
8.606102034194935 1.0432565164512433 1.7396982550870703 31 37 14
8.19922517617616 1.3991470613630457 2.0046463641563133 35 40 16
8.412417852324396 1.2703952350709098 1.9929368991167287 36 40 19
7.918931746783401 1.8024673222288439 1.884902654430858 34 40 17
8.734889521267903 2.1437675493276296 1.6219567573770983 32 38 16
8.132916587836771 1.669956091939557 2.0084269325298436 34 40 17
17.569603126002697 2.070371627652268 0.9264730667154892 25 36 17
9.316026369834272 1.2263819686665165 2.3350515276787687 38 44 21
9.1239720895552 1.3726890623765267 2.355429588343469 38 44 20
8.398993082021812 1.0938919385243058 2.128725827616384 37 43 18
10.10465925331759 0.8953095517964289 2.399351697631937 38 44 21
9.435103463170202 1.168071834988869 2.4803882526311667 38 45 20
9.161780181591123 1.5200469638638252 2.5197372511199614 39 45 21
9.039103166714996 1.5280532234631015 2.364848753987077 38 44 20
8.355358428965559 1.5280532234631015 2.2808564569566494 37 43 17
8.271910091875146 2.2124301710728265 1.8710708367558242 38 44 22
8.798886441838473 2.0440217234984153 2.3930340843014415 39 45 22
8.484429880779993 2.181279259198714 2.267851405441597 39 45 22
9.429195609592837 2.528063901262917 2.4811939650162316 40 47 23
8.66119843104484 2.528063901262917 2.410309343039509 41 45 23
8.786052201422034 1.9507354718763465 2.58216247349323 39 45 22
9.207409381451 2.3063986670342747 1.9544793937931604 39 45 22
9.036217829028233 2.133179625283664 2.53939584643948 39 45 22
7.926896090496209 1.8374632902496688 2.166343469919448 37 43 20
7.707193355238182 1.9778596558794117 2.0344329312075136 35 41 19
9.186769588017903 1.7067668960986784 2.515951927138227 39 45 21
9.013437057648405 2.494379169315683 2.219664649670052 41 45 23
8.785645825953269 1.9778596558794117 2.239478882431452 38 44 22
8.785645825953269 1.9778596558794117 2.239478882431452 38 44 22
9.419452374341613 -3.025224488325086 2.4825267882403934 45 49 27
9.767548307686274 -2.705528248761904 2.4377954828958703 46 55 29
9.419452374341613 -3.025224488325086 2.4825267882403934 45 49 27
9.542826703222554 -2.85800845290215 2.4660117503175663 48 54 31
9.996141314467813 -1.1130832809563138 1.3125039134116545 42 48 21
8.97329341211874 -1.314634479806129 1.6205963787287416 45 51 26
9.674862062319237 -1.1130832809563138 1.6169824777104367 43 49 23
9.290141970068923 -1.314634479806129 1.8373036329960875 45 51 26
10.251569578542458 -1.2426503397755209 2.3838578588871817 46 52 29
9.430992111954618 -1.062723984732647 1.9449273002334804 43 49 24
9.449629789855063 -1.1676998910970604 2.060729808374923 43 49 24
9.362682660925804 -1.382529145604146 2.3302855653035737 46 52 27
9.279997089263308 -1.5302262001286835 2.338779867593053 46 52 27
9.410867805359493 -1.5355111247313884 2.188010419984865 46 52 27
9.410867805359493 -1.5355111247313884 2.188010419984865 46 52 27
9.74733398028241 -1.5395782400806584 2.044511045646208 46 52 27
9.0223129841125 -1.1676998910970604 1.9627752365845055 44 50 25
9.612018358522063 -1.0012583553223628 2.17323522600089 43 49 24
10.077360675853175 -1.382529145604146 2.4023098958320444 48 54 27
9.914469274798064 -1.0475520559374119 2.420512008793001 45 51 29
9.630951166341235 -1.1898568979912287 2.454673723189422 49 55 32
10.000585860776694 -1.5302262001286835 2.410769111423131 46 52 25
9.033568043475473 -0.8299958605032979 2.365472378504534 44 50 23
9.435856331664073 -1.8244803448498135 2.3229479841522833 46 52 27
9.669224585215701 -1.9592093254181508 2.3005983668562577 48 54 29
9.554367536927696 -2.4816813978941434 2.4645058719827078 47 56 30
9.80160621322657 -2.2660013005512187 2.28858063010626 51 57 32
10.14538103246183 -1.8244803448498135 2.3949859371206252 46 52 27
9.997620889335348 -2.080623697914614 2.2715866903983226 49 55 30
10.412057568723354 -2.1875791255729617 2.2384635218090776 48 56 32
9.981252300485414 -2.3625281140199097 2.4129325713753147 51 57 32
9.807677873556457 -2.457731933794509 2.288040211396288 50 56 32
10.048067381620923 -2.12334226132954 2.0292270410361755 48 54 29
9.61795917739619 -2.0233681402504065 2.0514191544871783 47 53 28
9.728136108457015 -2.3614168757396787 2.16504931997165 51 57 33
9.749247007134624 -2.0194323339915656 2.440009967178826 49 55 32
9.770825916507922 -1.6547144037773733 2.043278878134842 46 52 27
9.37289105965717 -2.5719077031291286 2.329251955084003 45 53 30
9.794896168543906 -1.9126716337341843 2.1604507876521586 46 52 27
10.048067381620923 -2.12334226132954 2.0292270410361755 48 54 29
9.702551887308704 2.5378655157746586 1.825717683436337 38 45 22
9.360363660627465 2.8807263030842205 1.835256139223823 40 48 25
9.27577627020897 2.682038118282272 2.198384971831431 43 47 25
9.154626992821337 2.569801256392794 2.077995539526214 41 46 23
9.216541198070072 2.8487722621433194 2.0742664388291576 41 48 25
8.965460605580699 2.8082273779361695 2.2237294252900734 41 49 25
9.250641347518247 2.4716851743562134 1.9525935064684785 38 45 22
9.841771819910978 3.1076595477499196 1.7183253470716937 44 46 27
10.054516527037622 -3.0728644651960892 1.8166062307730408 48 50 29
9.162743383640228 2.9903640063746137 1.8411014183523449 41 47 25
9.308164369625237 -2.8090167303599287 2.068852622276547 46 52 30
9.60186633205985 -2.928835021480735 2.17396253578917 46 51 30
9.408940153224972 -3.0650203217013448 1.9458476671682865 42 48 25
9.342977620544394 -3.0423943705963032 2.33228999806355 46 50 28
8.923202819964258 3.0988886951532595 2.0924660306787137 43 48 26
8.758934999500052 2.946424461799533 2.2418906703619434 42 49 25
9.93785614930343 -2.9525959895764675 2.03470736780748 47 51 30
10.197677041656506 -2.6503764743953915 1.8130857414462425 47 52 28
10.498490671338624 -2.7809078870541297 1.7090356078711137 47 52 30
9.66578860002766 -2.5981180759048343 1.9354075403270854 49 55 33
10.082056675271422 -2.360637367549961 1.9196953390706375 49 55 30
9.402990726450009 -2.642334817562607 2.1886050854869117 46 53 31
9.495843624084944 1.5083548831176723 2.667076708321445 39 45 20
9.576665743646895 1.2853547326922874 2.6509006125816716 40 46 21
10.420048564941535 2.5830929452571945 2.705922671146197 41 49 22
9.957035697497707 2.683774087255961 2.5835879506450894 40 49 22
10.501176332772342 -2.5202835354549595 2.6896114471187658 53 62 36
9.7036557671316 -3.0009141222130413 2.626941089342325 46 50 28
10.041904807230623 -2.62767524029771 2.570191020520749 52 61 35
10.292484924289683 -2.720621856691176 2.7333593726544887 52 58 33
9.77149007759263 2.867392579832132 2.614794862293346 42 49 24
9.686148707909599 3.0718702343503703 2.630146450119062 45 49 27
10.352744110269947 -2.4816813978941434 2.525060655909435 51 57 35
10.352744110269947 -2.4816813978941434 2.525060655909435 51 57 35
9.915096242358583 -1.1181944700527677 2.5904019328443812 50 56 31
10.563051792918031 -1.7257124804758812 2.677692151810727 52 58 35
10.678791249359808 -1.9254511972889086 2.656477509144799 50 56 33
10.199223012224271 -1.6987173423981294 2.546630187139335 48 54 31
10.252175930894651 -1.350312820169439 2.5390407320216752 49 55 32
19.52709097797756 1.2411788442326506 1.696423504906659 39 43 24
9.143657520677348 0.9474073870496349 1.7296813859842008 29 36 13
18.32119847932448 1.2041631506420705 1.8726480607216556 44 50 30
10.289121284205102 0.4882021068215476 2.3800083066374023 38 45 18
10.566249062847328 0.7910136494965099 2.3528832715025656 38 44 20
9.090606670361879 0.04539343709404672 2.213242063908383 44 47 26
9.98164248827835 0.604356678798327 2.2729379425657474 36 44 16
9.867272127775207 0.2462559688257813 1.8213699357639723 38 44 17
7.87934125881381 -0.3519043426541865 1.7554487902257438 42 47 20
8.472105164199617 -0.2602348829032982 2.2690700333135387 42 47 20
8.137730198677891 -0.4025005402491406 2.148889873291532 42 47 18
9.650674639297826 0.7163610212066187 1.6170983164491928 26 35 9
9.675781842801396 0.4295176679187475 2.168710149794572 39 45 20
9.417980127615103 -0.9687036549737743 1.7250158413401158 43 49 24
8.652720034839303 -0.5709171312939071 1.622443026476984 44 49 20
9.059336961308325 -0.4176026850886511 1.6201230031789606 44 49 23
7.666509510700367 -0.5294769910154548 1.89561766436123 41 48 18
9.165533278502643 -0.8162210441978707 1.619551024429515 42 48 23
8.62316016486447 -0.902030065002854 1.7393609330974915 43 49 22
7.95119204590579 -0.6400911268632837 1.753761220260011 44 49 19
8.391476817136551 1.1511099885882106 1.8666619400098368 32 38 15
7.954535045853876 1.9272217226666073 1.7536834576915488 34 40 17
8.23649048935413 2.0414177205849646 1.6250554854642243 32 38 16
18.285280844165236 2.0382848680494345 0.955564261613656 36 49 29
8.798886441838473 2.0440217234984153 2.3930340843014415 39 45 22
9.401416094251031 3.084010055230097 2.485007449463487 45 49 27
9.216641501949082 -2.62767524029771 2.5114795713743767 49 58 32
9.064430783344966 1.6854926859431598 2.362009887419275 37 43 20
7.770274271992548 1.6854926859431598 2.1800661666934893 36 42 17
8.528133043729754 1.8374632902496688 2.2635684257196025 38 44 21
8.726614150973074 2.9134462927990064 2.4019930670426963 42 49 24
9.1239720895552 1.3726890623765267 2.355429588343469 38 44 20
9.245262442433331 2.615055938980664 2.342414649209696 42 46 24
8.355358428965559 1.5280532234631015 2.2808564569566494 37 43 17
8.93388695276115 2.7552967047256973 2.376905836271873 41 50 24
8.587940402948405 2.1031739632815905 2.115053297468082 38 44 21
9.067041399052306 2.2124301710728265 2.083371410745572 38 44 20
9.724333292991945 1.020425051748533 2.4430473891870323 40 46 23
8.615009021420189 2.2817607822927224 2.416305022105556 39 45 22
9.245523064070584 1.3367640855234755 2.5072086491809786 39 45 20
9.082814835860848 -1.0012583553223628 2.08239440361327 43 49 25
9.835791166659202 -1.114869639650632 2.285549925283119 45 51 26
9.362682660925804 -1.382529145604146 2.3302855653035737 46 52 27
8.94714694577649 -0.9252165730142634 2.225295899488379 43 49 27
9.588785640077102 -0.9252165730142634 2.3081281420562636 44 50 28
9.033568043475473 -0.8299958605032979 2.365472378504534 44 50 23
9.959361161608083 -1.1676998910970604 2.1494425854746013 45 51 26
9.151722380669717 -1.2829532907404322 2.078171914560619 45 51 26
9.549937551715505 -1.2426503397755209 2.3118288619184226 46 52 27
9.74733398028241 -1.5395782400806584 2.044511045646208 46 52 27
9.37289105965717 -2.5719077031291286 2.329251955084003 45 53 30
9.435197518732004 -1.6655941772427552 2.186181535174061 46 52 27
10.075035313767302 -2.152599842676376 2.4025630683472756 50 56 33
9.853056328768325 -2.2804889507871304 2.0390180883622264 48 55 31
9.657999244354269 2.7771297459570436 1.826919985258638 40 47 24
9.506436933109931 2.6309186599959085 1.941813269041624 40 46 23
9.518674970838923 2.734764445118102 2.0568653871980773 42 48 25
8.77788471521993 2.8487722621433194 1.974313679320284 41 48 25
10.192097326896784 -2.8737823963157334 1.7132192428101713 46 52 30
10.170189823583444 -2.9716290529632006 1.813753760292374 47 51 31
10.054516527037622 -3.0728644651960892 1.8166062307730408 48 50 29
9.479260446020929 -3.055159972818854 2.182899116327336 45 49 27
9.6938200792303 -2.763904560572128 2.2983309532603853 47 53 30
8.663625152366333 3.092552197126821 2.250656610241119 44 48 27
9.46734858728889 -2.898375040235863 2.319840232473123 47 52 29
9.479260446020929 -3.055159972818854 2.182899116327336 45 49 27
9.757411117579514 -2.84478959646744 1.9318260209156717 46 52 30
9.342977620544394 -3.0423943705963032 2.33228999806355 46 50 28
9.224316278466231 -2.698320526524035 1.9537395968330937 47 52 30
9.859096303930128 -2.441440370557575 2.03870828689776 51 57 34
9.909887682605978 -2.6503764743953915 1.615886362278474 48 54 32
9.759815951031309 1.0878295212527564 2.616855069785636 39 46 21
9.759815951031309 1.0878295212527564 2.616855069785636 39 46 21
9.8234613910899 -2.802191222224871 2.6057686373509164 50 56 31
10.798803768345156 -2.3642400721434185 2.6357985854135024 49 58 32
10.346992302135044 -2.244684847746861 2.5258454880174472 51 57 34
10.199223012224271 -1.6987173423981294 2.546630187139335 48 54 31
19.67741481100208 1.2411788442326506 1.7468640792116836 40 44 25
18.958731067281978 1.223615095957562 1.80754736627864 41 47 27
8.560726654324577 -0.19920633447368846 1.7406021861846934 43 48 21
9.24017226707292 0.7901223885291785 1.8387802895393464 31 37 14
8.529112383665526 0.04539343709404672 2.1192330686894425 44 48 25
9.181485238237892 0.1809607031108547 2.205855204396791 44 48 27
9.559052868244214 0.38279471970569656 1.9396727995780296 36 43 14
8.192363916044425 -0.6400911268632837 1.874078754389657 43 48 19
8.421045195893898 -0.6082017187691546 2.274170216335892 42 48 21
8.054526835269403 1.2703952350709098 1.8794385547965726 35 39 17
18.187841609801104 2.070371627652268 0.882500606131569 33 45 26
8.541772839922292 1.8845057936651815 2.4260305011787846 39 45 22
8.115377303771055 2.1031739632815905 2.0094383932713953 36 42 22
9.000512071816287 2.3922553294562814 2.0875359555223714 38 45 22
9.435103463170202 1.168071834988869 2.4803882526311667 38 45 20
8.062357233426527 1.2263819686665165 2.1550016616887553 37 43 18
9.492413469840903 -1.4066053183011236 2.1819266580418186 46 52 27
9.554367536927696 -2.4816813978941434 2.4645058719827078 47 56 30
8.46258757232222 -1.1676998910970604 1.7425908816734188 44 50 25
9.415871110715253 -1.4252605343914335 1.9455578942497316 46 52 27
9.378552262778477 -0.9597930541391481 2.488177397737772 47 53 28
10.023484270766403 -1.6797024365678654 2.408224225286494 45 51 24
9.032613132587382 -1.7925538378018797 2.0855176374377336 46 52 27
9.61795917739619 -2.0233681402504065 2.0514191544871783 47 53 28
9.304669007776162 -1.6797024365678654 2.3362222405109434 45 51 26
8.77788471521993 2.8487722621433194 1.974313679320284 41 48 25
9.893106495618097 -2.5087087591728316 1.8207016098520106 51 57 34
9.83644717654461 -2.534942708346593 2.1576272350690187 49 55 33
9.7036557671316 -3.0009141222130413 2.626941089342325 46 50 28
10.798803768345156 -2.3642400721434185 2.6357985854135024 49 58 32
9.34139832214087 0.632605228905386 1.8358059762746097 27 34 9
10.05228659444998 0.632605228905386 2.0290199182737014 34 40 15
8.449418279859982 -0.19920633447368846 1.62368684594427 44 49 23
9.569551508796375 0.2462559688257813 1.6174911126214235 39 45 20
9.378710610991936 0.3101562476099538 2.1904459463023667 42 47 25
9.55970314561108 0.5371594313347176 2.0545991808969837 33 41 14
10.161517151764333 0.2462559688257813 1.9168521284404494 42 48 24
9.656197461296811 0.7163610212066187 1.5134634629278925 37 44 21
10.289121284205102 0.4882021068215476 2.3800083066374023 38 45 18
8.104678454891085 1.5338785492501692 2.0100577642152757 35 41 18
7.762149228318098 1.669956091939557 1.8914713661220075 33 39 16
9.245262442433331 2.615055938980664 2.342414649209696 42 46 24
8.969061810992674 2.2965199842803865 2.223422366070394 39 45 21
9.092683861582675 2.4002068432172052 2.358871281925052 41 45 23
10.119214906310214 -2.0233681402504065 2.1391577614128883 48 54 29
10.14538103246183 -1.8244803448498135 2.3949859371206252 46 52 27
9.669224585215701 -1.9592093254181508 2.3005983668562577 48 54 29
9.630951166341235 -1.1898568979912287 2.454673723189422 49 55 32
9.557276563076712 2.386736540981958 1.8296808489745247 39 45 23
10.563051792918031 -1.7257124804758812 2.677692151810727 52 58 35
10.272006904763861 0.4295176679187475 2.2492597653420323 36 43 16
8.800811609627507 -0.7351066483761123 1.852514850411779 44 49 24
9.680006079482443 0.14251849369211908 1.8263246763241674 43 49 27
9.553750839707655 0.7901223885291785 1.9398873432115629 35 43 18
9.651044591162611 0.4823214572262004 1.8271087001433455 34 40 14
8.786052201422034 1.9507354718763465 2.58216247349323 39 45 22
9.015768969476232 2.9711540021323444 2.086574615029428 43 49 26
8.398993082021812 1.0938919385243058 2.128725827616384 37 43 18
10.251569578542458 -1.2426503397755209 2.3838578588871817 46 52 29
9.608841134908662 1.0938919385243058 2.30623416412555 38 44 20
9.794896168543906 -1.9126716337341843 2.1604507876521586 46 52 27
9.124099314409746 2.683774087255961 2.525522792405526 40 49 23
10.176720035726166 -1.5230806772741599 2.5499054489859025 49 55 32
10.319044016798257 -1.8668326938167619 2.5296840195036654 48 54 31
10.030041392382541 -2.0997093469774093 2.572033294275731 50 56 33
8.374052723942523 1.6581170451888454 1.6241633052025568 30 36 13
8.96945987651598 2.4126521967888928 2.5503107223055568 40 46 23
8.378018491402623 0.9772846336220451 1.9947818015219656 35 41 18
9.27577627020897 2.682038118282272 2.198384971831431 43 47 25
8.271910091875146 2.2124301710728265 1.8710708367558242 38 44 22
10.495505869642054 -2.21026762519749 2.690725546094611 50 59 33
18.200100804567782 2.10673228363213 0.8096681928005988 29 41 21
9.819446338210746 -3.0650203217013448 2.040749862558328 46 49 28
9.390883683217549 3.1037757793660417 1.9466047457970708 43 46 26
8.548989209751303 -0.09185373322118025 2.1178131800246707 43 48 19
9.642685434421697 -2.698320526524035 2.0500826127737315 46 53 28
9.39546338018388 -1.2100459352435693 1.4047077942732862 45 51 26
