6.694158524468053 0.9862496105022176 2.2222275191986025 33 42 13
6.694158524468053 0.9862496105022176 2.2222275191986025 33 42 13
6.951458773521284 2.083576878430214 2.0264261916994433 34 42 18
7.421366799424088 1.8807619285388433 1.9956266593124654 32 40 17
7.421858373519037 2.014719934096152 1.8518849991697224 32 40 17
12.76312232349899 1.9120337595145935 1.2568725246416523 18 19 11
7.446324513615709 2.2122831834497174 1.9941109485269883 34 42 18
7.395528559234028 2.4216713770353855 1.9972077305132954 37 47 21
8.339045917154783 1.5848703417872991 2.580135360387117 35 45 18
7.789220309858014 2.0057106119426726 2.462032021612693 39 48 22
7.585972802046972 1.8057064596861852 2.4959104915463204 38 47 20
7.503878063375297 1.763697396541508 2.3106271220462182 34 43 17
7.163981243442233 0.5250390768438824 1.8622941754749736 35 41 14
6.057181772435042 -0.09413120887370152 1.7465058712624733 37 43 19
6.309288720723358 -0.09413120887370152 1.9032023959613658 37 44 22
6.200580825357563 0.23784233368853386 1.7424014285250773 36 40 20
6.741198074723501 0.389826101136429 1.8811664304071398 35 40 19
6.299682526539196 0.07387571326188494 1.9037288523555265 37 42 23
6.047175108929425 0.07387571326188494 1.7467996669138977 37 42 21
6.9429787641375125 0.5250390768438824 1.7238984044359362 34 40 18
7.110655709551933 0.389826101136429 2.015484544453449 36 41 21
8.363136537463376 -0.7526258941453615 1.3365504754775457 36 42 20
8.087601263887182 -0.6549802444516397 1.9586615523754456 44 50 30
7.222914705313786 -0.5401783536537007 1.8598469357488785 43 47 26
8.26473349780587 -0.9256297795320046 1.4566717080546938 47 53 31
6.014224073556502 -0.3061268860153193 2.104354749751739 39 45 22
7.71606862170586 -0.8446773026123097 1.8408929457625132 46 53 32
6.993234407355284 -1.0847841229940842 2.023501055172623 48 55 33
7.51132756826289 -0.8446773026123097 1.7122327134679793 49 56 34
6.014224073556502 -0.3061268860153193 2.104354749751739 39 45 22
6.597818363922281 -0.37734006290689004 2.4445497231868556 41 48 24
6.551731959206137 0.28366891652857934 2.2389094334993396 39 44 22
7.203816641809372 -0.7169444016764392 2.57003471944852 49 57 33
6.551731959206137 0.28366891652857934 2.2389094334993396 39 44 22
6.786055976345883 0.8639450925237157 2.412043855759864 34 43 14
6.146604929619118 -0.8809876898975201 2.2920650326502807 47 53 33
6.207629036310573 -0.5765853749835992 2.2834534229274617 44 50 28
6.635532921953291 -1.2355130770614948 2.049893610026432 47 54 31
6.237998398621013 -1.2355130770614948 1.90715035572125 46 54 32
8.151013837175958 -3.07217714754001 1.7010669100042706 44 54 30
7.829888550512941 2.940531864757894 1.9721464923898393 41 52 30
8.07378662631048 2.8090146565572156 1.9593607208920645 37 49 26
7.611828727632935 2.6255406429341317 1.98433590726509 39 49 24
6.967464223814616 -2.889649356123069 2.025300847919959 47 58 40
7.5201631800857305 -2.924122064735119 1.8481126744237435 46 57 38
7.828024561377639 2.7022130417301584 2.6945724123358588 43 55 32
9.428271944162962 1.203883270390301 2.8607283188022277 39 51 27
9.441517421331532 1.9815646270124778 2.855905718360724 42 53 29
7.707080689845883 2.999074834268935 2.7285152419966225 47 59 38
9.428271944162962 1.203883270390301 2.8607283188022277 39 51 27
8.826293324715389 1.8704094011783319 2.721494234629106 40 50 25
8.071978958549623 2.4689557992095534 2.635172461760379 43 54 30
9.233816948779662 2.206653904037758 2.946604933123239 43 55 32
7.610390722155892 2.2982836880471122 2.491663832567775 41 51 26
10.204465160726546 0.9935032464413055 2.972446921736985 41 53 29
10.344377194126945 0.6389608491433616 2.9060872512051183 37 49 22
10.253158721127717 0.22303168458952344 2.9465922004208314 37 48 23
10.11198464411144 0.4383170199758863 3.039020146282288 43 54 31
7.2897920489669366 -1.072447924498194 2.5519507128930474 49 58 34
5.480026598934937 -1.313334684054892 2.404848490655982 49 56 35
6.4052202201946145 -1.1690601032617107 2.2570926147566635 48 54 33
5.779757829819427 -2.095824876811561 2.3493497356274893 48 56 36
5.502783921730053 -1.860787965772078 2.4003009125941253 47 57 36
6.965893200099687 -2.670315351690089 2.6255648358661876 48 60 39
7.255673111535468 -2.445220247995425 2.5590166635733986 48 59 38
7.561179630006743 2.6925574326334845 2.303731371883277 42 53 30
8.026053283252038 2.9084756638133324 2.2527383374464263 43 55 33
7.908138563016237 3.0692344198218198 2.264904275729622 46 58 37
7.907677218177535 3.055006879609713 2.4436979305434314 47 60 40
7.343387739242495 2.4390559607725675 2.330762374085747 41 51 26
7.3172472023979465 -3.04939073565871 2.1587920498968494 46 58 39
8.026053283252038 2.9084756638133324 2.2527383374464263 43 55 33
7.316249963679448 -3.004473487290706 2.5465670845677852 48 60 40
6.287639915684711 -2.5791950676584294 2.2725084447623827 49 59 38
7.460779506677857 -2.889649356123069 2.1460207642596694 46 58 39
7.325021112753449 -2.8425751134989636 2.3331480638222613 47 59 39
7.488913799276951 0.6420229244785837 1.7126588805570557 33 39 16
7.791849467622854 1.7126549159255655 1.8382012794017233 30 40 16
6.534365360876686 1.2286108933473214 2.0579531098893984 32 40 15
7.685661235483491 1.7343195576894659 2.127163840333992 32 40 16
7.093340717531164 1.9332199841090612 2.1799868760448495 36 44 20
6.749931588050165 2.174668309998253 2.21594247070857 37 47 21
6.741198074723501 0.389826101136429 1.8811664304071398 35 40 19
6.447082728561775 0.23784233368853386 1.8958333852347988 37 41 21
7.561345642765856 -0.6549802444516397 1.7112908900569679 44 50 28
7.46862489311852 -0.9546450649638208 1.9927660574111843 46 53 32
6.617224065957729 -1.0847841229940842 1.887181265884934 49 56 34
8.134949232694096 -0.7526258941453615 1.5780289572453199 46 52 30
7.392488099445122 -0.37734006290689004 2.5314978177402496 44 52 28
6.416185792027107 -0.11304717583790533 2.255693485914677 39 45 22
6.385710694330114 -0.7169444016764392 2.48522159296623 47 54 32
6.406739880122089 0.08876592750557916 2.2568983353466825 38 44 22
7.70897392262533 3.0794513371908283 1.978812424652958 43 55 33
7.5201631800857305 -2.924122064735119 1.8481126744237435 46 57 38
8.143580437839994 3.0871425026659973 1.7011864982045388 42 51 26
6.635532921953291 -1.2355130770614948 2.049893610026432 47 54 31
7.257181404402147 -2.741958691305735 2.0058851922784706 48 57 39
6.237998398621013 -1.2355130770614948 1.90715035572125 46 54 32
7.707080689845883 2.999074834268935 2.7285152419966225 47 59 38
8.118543613167079 2.1109639756701744 2.624926335822908 41 51 26
8.442195922184645 2.5322677872618455 2.8390771674622943 43 55 32
9.381752583350226 1.596405169446653 2.8784620121634354 41 52 28
8.668883882155034 2.2726577838456485 2.764198189503691 42 53 30
10.204465160726546 0.9935032464413055 2.972446921736985 41 53 29
5.399598244975509 -1.5883436762617633 2.4214206883809326 48 56 35
5.779757829819427 -2.095824876811561 2.3493497356274893 48 56 36
8.156228444685906 3.033841873512975 2.616851228927537 48 60 40
7.6927715384125 2.75903407462952 2.126589130342719 40 51 28
7.300175451555436 2.8645693309271296 2.3364031956445217 46 58 36
7.691822986278895 2.6008208315381953 2.4778603369108887 43 54 31
8.270606883151912 2.8010704847965577 2.593432448926949 44 56 33
7.3438845329864435 2.5448283289793308 2.156375933086443 40 50 25
6.975104934439288 -2.5791950676584294 2.3822232779623924 48 59 38
7.459801455622211 -2.7748331839733185 2.518706478518312 48 60 39
12.76312232349899 1.9120337595145935 1.2568725246416523 18 19 11
7.003884719921092 1.1592822016281927 2.377904294154387 33 43 14
7.258549863813406 2.3118861209522055 2.1641928171217972 37 47 21
6.859002954135416 -0.25701782050547994 2.0330421488159898 38 44 21
8.134949232694096 -0.7526258941453615 1.5780289572453199 46 52 30
6.895289081674116 -0.9546450649638208 1.7249657397785496 48 55 33
8.203357370957205 -0.7526258941453615 1.7002309980604142 46 53 32
8.355455222368837 -0.581543612995155 1.4579161679051764 38 44 22
6.146604929619118 -0.8809876898975201 2.2920650326502807 47 53 33
7.750377884339722 2.8090146565572156 1.839667543859587 35 45 21
7.7168259774327606 -3.062386907035541 1.9783726167495745 45 57 36
7.300175451555436 2.8645693309271296 2.3364031956445217 46 58 36
6.444153874973122 -2.445220247995425 2.4735364859131286 49 59 38
10.068624688846722 1.7120421255106684 3.0974950733128734 46 58 37
9.172698935507604 1.614178287208706 2.9838653765718384 43 55 31
7.714934671535398 -2.960555144333245 2.72619867194085 46 59 38
8.112879411932258 2.5095289741088154 1.9573888846732226 35 45 19
7.421366799424088 1.8807619285388433 1.9956266593124654 32 40 17
7.110655709551933 0.389826101136429 2.015484544453449 36 41 21
6.859060450109419 0.5546615029794532 2.4002177009893013 36 45 16
6.207629036310573 -0.5765853749835992 2.2834534229274617 44 50 28
6.385710694330114 -0.7169444016764392 2.48522159296623 47 54 32
7.495964352658435 2.940531864757894 1.8490317186254848 38 48 22
6.445286049066569 -2.673322536956275 2.0652889061716406 49 58 38
6.975627956780652 -2.673322536956275 2.1918097535408987 48 59 39
8.156228444685906 3.033841873512975 2.616851228927537 48 60 40
7.178774970426365 -3.031313245006498 2.3527874926888477 47 60 40
7.569481091143567 1.3626753914793779 2.4988078531407476 33 43 16
7.503878063375297 1.763697396541508 2.3106271220462182 34 43 17
5.736350916996469 -1.072447924498194 2.3568415926900155 49 55 35
10.11198464411144 0.4383170199758863 3.039020146282288 43 54 31
6.385710694330114 -0.7169444016764392 2.48522159296623 47 54 32
8.07378662631048 2.8090146565572156 1.9593607208920645 37 49 26
7.585972802046972 1.8057064596861852 2.4959104915463204 38 47 20
5.570829616329193 -1.368050694194565 2.1520605535454624 48 55 34
