12.050056270601987 0.7437835215611117 1.5881478158364841 38 43 18
13.52311810927262 0.31254340255532953 1.5862575729524213 63 64 52
14.375979102291808 0.4463629966502136 1.4458942866373092 42 43 33
12.617566566104106 0.5155445082175567 1.4283764102021919 37 39 19
11.60710911915823 0.6791562614694694 1.7622853791896815 37 42 15
13.884226635770316 0.3812438409597392 1.5137998164145088 54 53 40
12.747536765007512 0.3654238939742849 1.9917531387762502 33 37 16
12.291540861789969 0.48167384994852847 2.00842583674428 32 34 12
12.604603464974462 0.6276014095697121 1.828225773266515 37 42 13
12.747553828579083 0.48167384994852847 2.079539298266493 37 39 16
12.453208895475719 0.6070130635142502 2.0927705642453094 39 42 17
12.747536765007512 0.3654238939742849 1.9917531387762502 33 37 16
12.368468079481362 0.5579474218948307 1.9180396624443794 36 38 12
12.974873489098417 0.08972799917557192 1.6641176729898315 37 42 17
13.249888515220475 0.24065651480162226 1.58657642975978 33 37 18
12.924092398561042 0.012247435745937606 1.6644854238986047 41 44 20
12.924092398561042 0.012247435745937606 1.6644854238986047 41 44 20
13.249888515220475 0.24065651480162226 1.58657642975978 33 37 18
13.017777499580005 -0.06538016749845717 1.4327833523060143 42 47 20
13.041291590938883 0.014501319086126957 2.15650310415187 41 46 18
12.480622137973763 0.17985782304609327 1.8308419861205487 35 39 17
12.699901179440559 0.19600587781276102 2.081633163632536 35 40 16
12.986789421066371 -0.07087211575521096 1.9835199645370092 42 47 20
12.907465580009164 0.2827937550373329 2.0726429919380536 34 39 15
13.091618085304003 0.1061284794542208 2.153955198635875 39 44 17
18.133994928298918 1.241341721553318 1.5823260840764488 37 43 20
11.792102433157554 1.0470527989541747 1.6735095208812956 38 43 18
10.942508947335375 1.0010501779361403 1.6815158865141795 39 44 19
11.447848913956598 0.9274171389304641 1.5890606796800963 39 44 20
11.731816906967632 1.0470527989541747 1.5886185446136878 40 45 20
10.935624842441227 1.2070848035474855 1.6815858722698203 35 40 15
11.429373460109899 1.2674438777364376 2.1451068039519026 37 42 17
11.958531581569266 1.3193288919950423 1.8424764700624876 31 36 11
11.769775000685502 1.2957509479547809 2.0292709316250246 35 40 15
11.332439914050072 1.2070848035474855 1.8579004579726675 36 41 16
11.222536272381884 1.171289196604578 2.0534847179665157 36 41 16
11.25630422372234 1.4932964389924563 1.6784171791485016 30 35 9
11.2800086736459 1.672043713379192 1.6781901441550802 27 32 7
11.314553790196587 1.405050445546792 1.5892758737367694 31 36 11
12.114460643966025 1.7597353793244197 1.9256384073681037 32 37 12
12.314385800726445 1.5827654313313677 2.007558014192382 31 37 12
11.93649723841829 1.485701828499296 2.1178529999200095 36 41 16
11.95653964754835 1.4932964389924563 1.9305367428231477 31 37 12
12.507291036782252 1.6819331240746864 2.185100287106465 38 43 18
11.68687042995988 1.4764619341430845 2.2355338431461216 37 42 16
11.701786206663431 0.8061553671649593 2.130115503199921 37 42 17
12.31522208391671 0.7382515041366868 2.099227315315539 37 42 17
11.552767909219806 1.1281892258265342 2.2446639680091205 37 42 17
11.811608002651155 0.9473399860020045 2.1243056081345015 37 42 17
11.4380239230932 0.7382515041366868 1.9476424996224742 39 42 18
10.956655261019678 1.1281892258265342 2.1732847026093465 36 41 16
12.319402140529911 0.6641438201069502 2.1958991605728913 39 42 17
10.8334222295216 1.0329140499780118 2.072401773654893 37 42 17
10.547967957947472 0.9473399860020045 1.8799330676549197 38 42 20
13.02173203350747 -0.14222815543507686 1.5100201418706103 48 48 24
11.415449787990287 -0.6572573606969115 1.765541292844537 63 68 42
13.7149132690807 -0.29020686039845955 1.365869448783799 47 49 25
12.818160135663588 -0.3874489132392437 1.5871079656936227 52 54 31
13.86368710344795 -0.3599621277781926 1.4412533768278883 51 53 30
12.396584563406446 -0.4933167217310614 1.6684846134551392 53 56 34
12.594245579225088 -0.5346270250492651 1.9972092736534266 51 55 30
12.41102770130671 -0.4998826352038007 2.1905817574913433 46 49 25
12.907679580332069 -0.2351038000358445 1.9029617281471418 47 49 25
12.270294204591204 -0.3398812332932645 1.9209367863076687 48 53 27
13.144067222604036 -0.45625719432697653 2.1513250874412826 46 51 26
12.617053550375884 -0.2351038000358445 1.8279659951993306 47 49 26
12.428336182584037 -0.6063522636047738 1.8319615102269662 58 61 36
13.089748726983105 -0.15403237328995642 1.9800783961630477 46 48 23
11.827177480705164 -0.5826306913310337 2.0268769272437033 51 54 29
10.944698151836283 -0.8620417190678993 2.174036315844914 45 49 25
11.243482691022994 -0.7158899522472507 1.9544995316269422 50 55 29
11.046140982851732 -1.1116094182035057 1.6804729390364657 53 57 35
11.325388363355605 -0.7838680635477535 1.7671100608654355 61 67 42
10.680135902428095 -0.9850279107993377 1.6842474607946214 56 60 38
10.966864694011043 -1.158585961138674 2.0657412095122196 47 51 29
11.178433634569888 -1.2573150249582954 2.1597019632813437 47 50 28
10.906405406299914 -0.8516531604397499 1.8694541665303592 56 58 36
11.081782215870344 -1.2874007744088136 1.96039739042296 47 51 29
11.092929642243936 -0.9285499768910247 2.059617258894861 45 47 24
11.332413805507151 -1.112750166786191 2.2602899355934913 49 51 29
11.922801857809263 -1.6662253443799326 1.5044104784908294 48 53 26
11.123076797296326 -1.6749659221583897 1.7707286021088975 49 54 30
10.124416243397944 -1.4829906665572663 1.7907587157958589 49 54 29
10.258493983977933 -1.3833884871456366 1.7878374928267846 48 53 28
11.977810602728805 -1.5820733431240808 1.42071337442712 49 54 26
11.977810602728805 -1.5820733431240808 1.42071337442712 49 54 26
11.116284947470168 -1.7650923203392839 1.679778115756912 49 53 33
11.4415794922943 -1.4731204734615704 2.252448675772494 50 52 31
11.464900879598868 -1.6982959016342998 2.2507992695000434 52 56 34
10.299195967042865 -1.4731204734615704 2.101076444026435 48 52 31
10.431027375924355 -1.362770933950041 2.0936825975844195 48 52 30
10.263554112383327 -1.585898833241455 2.1031136607418706 48 52 31
13.451144966024348 -1.3511942436284006 1.3617920120491218 55 59 37
13.990051190994361 -1.4367692397226512 1.5142314157040029 51 55 34
13.84981017385919 -1.2085797053256273 1.4411228481465348 55 60 36
13.451144966024348 -1.3511942436284006 1.3617920120491218 55 59 37
13.015025898121058 0.21529033199514633 2.253300655024831 37 44 15
15.950974456904152 0.12982405094674085 2.5465144062035714 39 46 14
15.11241472453058 -0.09472677190541579 2.5113488676334965 43 48 21
13.52270378990584 -0.08517483178822526 2.319935265027868 46 48 22
13.83244130019928 0.48167384994852847 2.206154019550257 38 43 18
15.089740108357542 0.017771748915023165 2.5134116561219892 39 46 15
13.52270378990584 -0.08517483178822526 2.319935265027868 46 48 22
12.299113697840511 1.5853791236359134 2.301578977083767 39 44 18
12.482083506087655 1.7996949746407667 2.288516168972395 40 45 20
12.287700042875024 1.0755171229604723 2.4180345439861406 37 42 15
12.37074005820447 0.8842105936042964 2.2964012460036796 38 43 17
11.92273893323327 1.2328889611074578 2.3302462980049863 37 41 19
16.383956212164136 0.26769431032229946 2.62045931141776 41 48 16
13.469465793275562 1.860493115093043 2.5538314035330254 42 47 20
12.33304773468596 1.4649794072733837 2.413881968697572 38 43 18
13.347636618740854 1.7278626052746542 2.5676738864044344 41 46 19
11.811933933281553 1.315712022604242 2.4648897384392106 39 44 18
12.354686451973595 1.7088690094746446 2.4119179762332275 40 45 20
13.240979368321565 1.8266082742331682 2.451239559670402 41 46 21
13.068638939529242 1.5871664573869457 2.467364301137927 40 45 20
11.60542608311189 1.4649794072733837 2.3565358050635985 37 42 15
11.722576897606817 1.34586900161291 2.3465847556914863 38 43 19
14.339890411158194 1.9630335020008354 2.741800829253468 42 50 22
21.66632192947081 0.5089864386808391 2.935783772400669 51 61 33
21.510383804147626 0.6452299886517442 2.9740195097115105 50 62 34
20.688435274229878 0.5089864386808391 2.925905675869212 48 58 30
13.145912310331823 -0.28049341458254284 2.245234303532554 47 49 25
13.792503845437293 -0.28049341458254284 2.3018937835399766 46 48 24
13.348598804560185 -0.40893479395955373 2.332134565355732 44 49 24
14.057142024628419 -0.40893479395955373 2.383655263932444 43 49 22
14.032746865629584 -0.3713718408044607 2.2866424900505833 44 49 24
13.621612975634278 -0.18460883886878637 2.313203452217981 46 48 22
14.316650862315422 -0.18460883886878637 2.364693778147477 45 47 21
11.825488977290574 -1.1740837102980233 2.463463931545956 53 55 34
11.364723148686176 -1.0564560593138335 2.377961416217473 49 52 30
11.709349254548115 -1.2203751489987502 2.3476935184201424 50 52 30
13.535624817525004 -1.5936515259670683 2.6951662490767223 54 56 34
12.290714289995341 -1.590312220632702 2.551040306087106 54 56 34
13.306484428011096 -1.9858034156390836 2.7326160852450965 56 58 36
13.18314918305308 -1.8007443086227377 2.7547696521070524 54 56 34
13.678853575921549 -2.214690084922309 2.8787552610371545 56 59 37
12.819095063453872 -1.9209331871931816 2.635003691900353 54 56 34
13.92105805676911 -2.0776720408189955 2.8203878743627238 55 57 35
13.562670598024937 -1.4235664190866797 2.691018093875551 55 57 35
14.095366732992956 -1.3937410719937247 2.7850863087927555 57 59 37
13.678853575921549 -2.214690084922309 2.8787552610371545 56 59 37
12.430906920163078 -1.3044986883103264 2.5344220003581768 53 55 34
13.181309307653512 -1.7349709179435406 2.5874967857558446 53 56 34
13.757239785632828 -1.6055398715022635 2.8583509154757594 56 58 36
12.126880172616229 -1.4607603345300795 2.4331770099848686 52 54 33
12.148886106204552 -1.7143435178821638 2.4310654630052393 52 55 33
18.88400587948572 2.063292970591438 1.1455256761106485 29 36 15
19.32198249775332 2.0371514698922404 1.211665076393197 28 36 14
18.2708586603947 2.1775962112379124 1.0688364730636246 30 35 18
18.562262948658883 2.1437437379350626 1.1376612337130891 25 31 12
11.867636383957667 2.114034159926355 1.5884145565439773 33 37 15
11.383043876378899 2.0387473295786767 1.5891646725000668 28 34 11
11.616217235706582 1.844588399521102 1.5026556876633266 27 33 8
11.719610464403042 2.0817253728794074 2.0313846251643604 39 45 20
11.47955012954238 2.160949926498208 1.854118786493999 38 44 19
11.837661773693887 1.8700272257817003 2.0264424831609573 38 43 18
11.426330907500653 1.957273094348729 1.8554751366423905 36 41 16
12.025352813493733 1.844588399521102 1.8409288863320308 32 37 12
11.368954431905838 2.3545126009022934 2.0467476624686256 43 49 23
12.495499224400193 2.2155014930645054 2.185766066464103 42 48 21
11.625409702494286 2.289325097338507 1.941271370567112 42 47 21
11.285215948250814 2.4294925888944308 2.153394763420206 45 54 26
12.0362118383118 2.1324802268518033 2.212984215951647 41 46 21
10.176836774418854 -3.0240456695680327 2.3579978730718207 47 53 28
10.233872095132394 3.12221991991489 2.222721834417484 46 55 29
10.267276188355114 -3.038388290517874 2.2202409924612 47 53 28
15.75959152083773 -2.6032876466149637 1.3278668626188967 50 44 34
17.227741918362042 -2.54903326695304 1.1656150296810792 40 43 27
16.280342354265617 -2.54903326695304 1.3357861862729719 9 8 1
11.238651867857705 -2.54522209571038 2.267188129609627 56 58 36
11.116382784875082 -2.455370601205544 2.1634351974857857 55 57 35
11.116382784875082 -2.455370601205544 2.1634351974857857 55 57 35
11.67946209778094 -2.301620160884854 2.2360310595478863 54 58 35
10.307901289864894 -2.888841992055126 2.3453173216869265 50 55 31
11.962199719308856 -2.0967992676196574 2.1165448629958004 52 56 34
11.831236751902324 -1.9113657060366622 2.226006165226339 52 56 34
12.4242234193893 -2.177248907900421 2.094112981448532 51 55 33
11.824870050519255 -2.1503904984665665 2.2264199811611958 53 57 35
11.962199719308856 -2.0967992676196574 2.1165448629958004 52 56 34
11.759444004430202 -2.6186008564885856 1.6737957884736976 55 57 36
11.060426330477926 -2.779164906883528 1.7718765633434808 53 54 32
11.060426330477926 -2.779164906883528 1.7718765633434808 53 54 32
10.224117777868633 -2.942544755584878 1.9950942792902895 47 52 26
11.00301595922517 -2.868124972146712 1.8667521073278186 46 51 27
10.765789746813663 -2.743376705047822 1.972479057747865 54 55 33
10.397200709633255 -2.9188320689013563 2.2107861417536845 48 53 29
10.620103806688174 -2.805392432255046 2.1952486450118904 50 53 31
11.288176106646594 -2.5186835976417976 2.050439934522389 55 57 35
10.804540598573947 -2.604590161751733 2.073868262935031 56 58 36
16.560292285263014 -2.49846947669036 1.704591097635059 32 26 20
16.509714508478538 -2.49846947669036 1.4621054600447776 11 8 2
15.933795871763651 -2.54903326695304 1.4581604829279717 33 27 18
16.353161226690176 -2.7496123349829524 1.208827154571769 46 47 27
12.691316484242844 1.9004885156280886 2.274211761385452 41 46 21
13.78087977508914 2.2657481681984772 2.5207332876123854 44 55 21
13.135545965101302 2.0945121241253184 2.4610157980153824 43 49 22
14.028420735435343 2.0415328516314935 2.6266278897746274 43 51 21
12.743293192738252 2.1929848763316375 2.378440174032033 43 49 22
13.881658538078165 2.46085309037709 2.6456306644143943 48 55 31
11.643111579232624 2.6139000751446595 2.353302100834677 47 56 30
14.522381431924153 2.116757252938948 2.7130367288315975 43 52 24
12.69537270926369 1.9375449188953293 2.3823947902912184 41 46 21
13.779135498795416 2.442416431611092 2.5209103047056516 47 56 30
13.438401693750118 1.9375449188953293 2.433639065808177 42 47 21
12.69537270926369 1.9375449188953293 2.3823947902912184 41 46 21
12.036495543887614 2.5155938614419346 2.3213112732826833 48 57 31
12.660511335336574 2.1324802268518033 2.2762772481608033 42 48 23
12.662679381347065 2.3542389265182337 2.3851195344804514 45 54 24
12.941707967761939 2.868540407034452 2.8035024826932435 51 59 36
12.357443232906295 -2.9789432315237776 2.707069294437716 54 58 35
12.357443232906295 -2.9789432315237776 2.707069294437716 54 58 35
12.32970319943133 3.110904473184733 2.711942602895127 52 58 35
12.632907195472978 -2.878966238968742 2.881827084332246 51 62 34
11.087456506490998 2.847883783176186 2.404451266490714 46 54 29
11.087456506490998 2.847883783176186 2.404451266490714 46 54 29
12.055816778814116 -2.4990588633167783 2.580769247991817 55 57 34
12.652116336462068 -2.635918708347339 2.659323389056725 55 57 36
12.031643072436186 -2.2773850990418794 2.5839762730900366 56 58 35
12.172844854045719 -2.063096071606752 2.5656444413151256 55 58 36
13.177435676744398 -2.2549276748286196 2.755835455312686 54 58 34
12.913592453682465 -2.4990588633167783 2.621968794454325 55 57 36
11.333946453557187 -2.4732899101082286 2.380801941385244 57 58 37
12.053804830249078 -2.2917012627594797 2.440282382704885 56 59 37
12.465601691171429 -2.7970148236209846 2.6887352419555373 55 57 36
12.683176814548544 -2.000250296402271 2.5063546676040858 53 57 35
12.194750005797646 -2.114230665414332 2.4267055577256835 54 58 35
12.549651971649892 -2.3926806618201546 2.6751600342472415 54 57 33
11.777584330693566 -1.9509276169104466 2.3420133836184096 51 55 33
12.082160324911573 -2.0558699773009455 2.3177924140007375 53 58 33
13.779946960852078 0.24065651480162226 1.2920980336918293 57 60 48
13.126054635346787 0.41000429486625467 1.7398981216945708 37 37 18
12.643927517776424 0.09724373971960715 1.9101663116575862 39 44 18
12.449038822168012 0.4431499360331608 1.8315170697186018 32 34 11
12.743514212673759 0.5579474218948307 1.991894468456325 38 40 14
12.68367428909869 0.5155445082175567 1.7458559766176773 33 35 12
12.907482432156334 0.39880610523040694 2.1633957838343942 35 40 14
13.08186295794473 -0.06538016749845717 1.7404748987452603 42 47 20
13.370571577563053 0.4786589671038301 1.5864339865521568 31 32 17
11.39687143005082 0.6791562614694694 1.5891423841199148 38 43 16
13.806529898237674 0.31254340255532953 1.3672484551932649 63 64 52
13.216456962296437 0.08972799917557192 1.358024152651066 40 42 19
13.017777499580005 -0.06538016749845717 1.4327833523060143 42 47 20
12.098263819699081 0.8610955196893797 1.5053746631883818 39 43 20
11.477758365631233 1.1240123656571297 1.7644706351786466 37 42 17
11.72980501679038 1.3193288919950423 1.76025791921073 33 38 13
11.191964218991663 1.0823364961603754 1.9563585887634636 36 41 16
10.918444295557668 1.2674438777364376 2.0681364376830476 36 41 16
12.050429904053168 1.3890743865463315 2.112104552498762 36 41 15
11.978858511725273 1.672043713379192 1.9298360779735537 31 36 11
11.803212909898813 1.3697359058323628 2.2278319622147817 38 43 17
12.314385800726445 1.5827654313313677 2.007558014192382 31 37 12
12.261727132909428 0.8061553671649593 2.1992976883379733 37 42 17
11.867132185265124 0.8711259301550355 2.02522590309343 40 42 18
11.257599735936948 1.2328889611074578 2.2657816356116527 36 41 15
11.257599735936948 1.2328889611074578 2.2657816356116527 36 41 15
10.893933169308289 0.9473399860020045 1.9674877374447286 37 42 17
10.889185953786864 0.8711259301550355 1.775083069031847 39 43 21
12.067611054238947 -0.6063522636047738 1.6711565372749764 58 61 37
13.16984931184719 -0.16795321153051987 2.150041550255936 46 48 23
13.86368710344795 -0.3599621277781926 1.4412533768278883 51 53 30
11.907086881302797 -0.5346270250492651 1.8436802274901698 55 58 34
12.809437180606313 -0.3713718408044607 2.168558520806879 47 51 26
12.321801421877813 -0.4192136047834626 1.834273049122757 51 54 31
13.451213688338438 -0.29020686039845955 1.5119629341496137 47 49 27
11.521724053403117 -1.03329543744927 1.675928690615998 58 62 40
11.123773880905329 -1.0154182310247222 2.162987840431508 47 50 28
11.081782215870344 -1.2874007744088136 1.96039739042296 47 51 29
10.910434461230885 -1.5831133261891737 1.6818427223360177 48 53 28
11.123076797296326 -1.6749659221583897 1.7707286021088975 49 54 30
11.600318291574451 -0.6388127757808711 2.1356005791016814 45 49 23
11.178433634569888 -1.2573150249582954 2.1597019632813437 47 50 28
10.590973140157601 -1.067682158094285 1.8786364936231412 45 49 27
11.541428399044777 -0.8620417190678993 2.2454488118011335 47 51 27
11.898376191567014 -1.6662253443799326 1.588369034633252 48 53 28
13.530866465315597 -1.278359415779722 1.4380483715326764 55 59 37
13.990051190994361 -1.4367692397226512 1.5142314157040029 51 55 34
16.054555859829144 0.23870360953818245 2.5370494855752854 38 43 14
13.015025898121058 0.21529033199514633 2.253300655024831 37 44 15
15.089740108357542 0.017771748915023165 2.5134116561219892 39 46 15
16.282470433891355 0.14610662305800529 2.6314214934258096 41 49 19
14.729142362527165 1.9043421966484495 2.6832763793480736 43 50 20
13.817323171734095 -0.3102295398641034 2.402174279727682 45 47 23
11.742649905196643 -0.9525809865409288 2.34490926368595 48 51 29
11.709349254548115 -1.2203751489987502 2.3476935184201424 50 52 30
12.976043525068318 -2.0776720408189955 2.7960552565842756 54 57 34
12.691024103499242 -1.762436669019706 2.653499440892884 54 56 34
13.562670598024937 -1.4235664190866797 2.691018093875551 55 57 35
13.678853575921549 -2.214690084922309 2.8787552610371545 56 59 37
13.133156879203279 -1.590312220632702 2.5934510431846354 54 56 34
14.069345002089939 -1.5983691360411472 2.7900861576183247 55 57 35
13.306484428011096 -1.9858034156390836 2.7326160852450965 56 58 36
12.239040700591035 -1.3371488971271894 2.4225466775534454 52 54 32
12.096624660262107 -1.5878242299169651 2.4361012608247083 52 54 33
12.282611248093732 -1.8364208245502713 2.418503671208473 52 56 34
19.44284611236799 2.085294661202733 1.2683635660362504 29 37 15
11.81102518169127 1.9947972930743245 2.124336101181159 40 45 20
12.068610617952068 1.9004885156280886 2.2109778111853764 40 45 20
11.408572918472249 2.0387473295786767 1.5014135024812745 27 33 10
11.032893287654295 1.957273094348729 1.6806051642796358 30 36 12
12.02365595841452 2.289325097338507 2.018876033143111 42 48 22
10.207759900991755 2.980721115994079 2.3549621723938676 47 53 29
10.09196522325038 -3.049620282746323 2.001017664917917 44 51 26
12.413276303445794 2.3545126009022934 2.1904525011197418 44 50 23
17.16659889092145 -2.6032876466149637 1.0997240542525022 48 50 29
10.532694397448012 -2.7624175051170234 2.3246418780868114 52 55 32
11.238651867857705 -2.54522209571038 2.267188129609627 56 58 36
11.350722289071323 -1.8521392418017393 1.6775185339642598 48 52 35
11.831236751902324 -1.9113657060366622 2.226006165226339 52 56 34
12.4242234193893 -2.177248907900421 2.094112981448532 51 55 33
12.134466141113624 -2.008082100458322 2.2069415878284664 53 57 33
12.498411145809754 -2.249635313275335 2.000695387902829 50 52 32
10.450713210310761 -2.8398876211305732 1.9853209911994547 47 52 29
10.862999952094187 -2.5186835976417976 1.9686808815812658 53 56 34
10.930298583902776 -2.700255675396624 2.174944161306181 54 56 35
11.307241995906793 -2.572517377673833 1.8585585057004494 55 57 36
11.161856975478257 -2.654094912920202 1.9574536170455739 56 57 36
15.878926489200667 -2.54903326695304 1.6470135271085011 20 17 9
16.313820566830497 -2.6350113135852316 1.706624918130039 27 22 11
16.164913788072123 -2.6350113135852316 1.5837306214148932 46 41 30
20.713718084463167 -2.752600370820379 1.6292003062786828 56 49 37
13.364036427812342 2.3538588798298035 2.5657785374768753 45 54 28
13.543756433040642 2.353295483698522 2.693913548939615 47 55 30
13.66358716466833 1.9834538917806885 2.5328385917418097 42 48 21
13.440444260707762 2.161995660398156 2.5570799256623102 44 51 23
14.028420735435343 2.0415328516314935 2.6266278897746274 43 51 21
14.28508641138236 2.161995660398156 2.595716750578888 43 53 21
12.8907962279786 3.103486793355609 2.814921326611405 51 59 36
13.700121106520777 -2.610071362944211 2.8730462694879915 54 60 35
11.855837435571628 -2.2144605744340957 2.3356174320242626 54 58 36
12.077934180461918 -2.4732899101082286 2.437920104938646 55 57 37
13.177435676744398 -2.2549276748286196 2.755835455312686 54 58 34
13.02083990870543 -2.7223028637368394 2.786621622511962 54 58 35
13.199511134756863 -2.5392077936691195 2.7517378465870244 55 57 36
11.333946453557187 -2.4732899101082286 2.380801941385244 57 58 37
12.514384669435596 -2.5819458144949037 2.5248854782242196 56 56 37
11.795896086374105 -2.3805001961683216 2.3405055207283523 55 59 36
11.893057733553343 -2.000250296402271 2.4564418904571443 53 57 34
14.370709575627352 0.3812438409597392 1.3038416705989322 61 62 54
12.147480636534624 0.6791562614694694 1.9246314109121985 38 43 16
13.166607646036557 0.012247435745937606 1.3572061353553742 42 44 21
13.047772527684787 0.1661452702628309 1.5868208915659512 34 38 17
12.249070364656607 0.6276014095697121 1.6696648878393214 38 40 14
12.320116445549631 0.6276014095697121 1.4249135969503255 39 41 18
13.217626179576438 0.19600587781276102 2.1476790772929064 38 43 16
12.97675939570477 0.33700002944622265 1.8206829357597814 39 43 25
11.362634012907952 1.2957509479547809 1.9502696977484864 35 40 15
12.28618210156736 0.9763655832384026 1.506376690821651 40 44 20
11.2800086736459 1.672043713379192 1.6781901441550802 27 32 7
11.374956794763083 1.5827654313313677 1.766243501019881 29 34 8
13.584773600365116 1.3562928605157247 1.4385782398268645 48 53 29
11.257599735936948 1.2328889611074578 2.2657816356116527 36 41 15
11.396890515856144 0.8035652193135694 1.6770845689195748 38 42 20
13.178333706367347 -0.21742437294433253 1.5866621186468528 47 49 25
12.162655936981704 -0.45625719432697653 2.0133897239693894 51 54 30
13.184079820711071 -0.14222815543507686 1.7391467504492586 46 48 22
11.560390816413639 -1.362770933950041 2.2441375033973965 50 52 31
11.606509278387518 -1.8075572026835158 2.2409718068834237 52 56 34
11.957822036287274 -1.6662253443799326 1.6720811294013365 48 52 31
11.050820773781593 -1.1964815678529546 1.8654333576047628 48 52 29
11.004597236113238 -0.7836448360742739 2.0638914151208896 46 50 26
13.644715478301347 -0.07736931379250571 2.2163370241474363 41 48 18
12.010606886995324 1.1898791043753663 2.444551943327064 38 43 16
12.30329922729311 1.5871664573869457 2.416600444989063 39 44 17
14.729142362527165 1.9043421966484495 2.6832763793480736 43 50 20
13.469465793275562 1.860493115093043 2.5538314035330254 42 47 20
12.30329922729311 1.5871664573869457 2.416600444989063 39 44 17
12.473807304060498 -1.8730551914314126 2.529488926892036 52 56 34
12.320493184447894 -1.444837774879142 2.5474443638888973 54 56 34
11.825488977290574 -1.1740837102980233 2.463463931545956 53 55 34
18.95497125722402 2.113105539606192 1.2043862521146975 25 33 12
19.851255306164393 2.0134691548009975 1.274776195793679 30 38 15
11.746454352832323 1.957273094348729 1.9372719882401424 38 43 18
11.44516665440202 2.0387473295786767 1.6766345560041762 35 40 16
10.94691614196814 2.3545126009022934 1.9654611307629073 41 46 22
10.143134844057313 3.1195050285659045 2.3613381182405004 45 53 28
16.341637376186995 -2.460075902103255 1.273252516717653 10 7 4
10.450713210310761 -2.8398876211305732 1.9853209911994547 47 52 29
10.845389506074325 -2.647513566314472 2.29790648589624 55 56 36
17.10825977471375 -2.6907252269795467 1.1626176106273611 44 46 28
16.652473474325284 -2.7169645542441203 1.6434666582825297 56 53 39
12.8907962279786 3.103486793355609 2.814921326611405 51 59 36
12.978428012567083 2.039799551277147 2.3596811250794945 42 47 21
13.02291456226816 -2.063096071606752 2.6074775624467206 54 57 35
12.467768737466061 -2.186543476450515 2.5301791470719888 55 58 36
13.870044722414217 -2.4048747670396065 2.8316320594150404 56 58 36
12.643927517776424 0.09724373971960715 1.9101663116575862 39 44 18
12.456533371227524 1.583943642743799 2.1879773362904347 37 42 17
18.133994928298918 1.241341721553318 1.5823260840764488 37 43 20
12.094679932663517 1.7778318058649267 2.109906397323102 38 43 18
11.317947329477375 0.9473399860020045 2.049072174483701 38 41 17
11.348179988815895 1.0329140499780118 2.149743381854333 37 42 17
10.903510156257681 -1.6749659221583897 1.5899726048182359 49 53 30
10.659968864509194 -0.9285499768910247 1.9766996012899458 47 50 26
11.650349596368182 -0.6572573606969115 1.849852957392754 60 65 38
10.263554112383327 -1.585898833241455 2.1031136607418706 48 52 31
12.299113697840511 1.5853791236359134 2.301578977083767 39 44 18
12.096624660262107 -1.5878242299169651 2.4361012608247083 52 54 33
15.415764325276616 0.34212346990469317 2.4848520382389436 38 43 10
13.266277022278219 -1.2029064397247486 2.739666317022314 58 59 38
15.415764325276616 0.34212346990469317 2.4848520382389436 38 43 10
14.339890411158194 1.9630335020008354 2.741800829253468 42 50 22
11.45867344661014 2.2155014930645054 2.0427157749610094 42 47 21
11.296003763495081 -2.6958140742042467 1.6780374889185297 55 56 34
20.713718084463167 -2.752600370820379 1.6292003062786828 56 49 37
13.883389933625555 2.2464211595622037 2.645400226380775 44 53 26
11.324613437768866 2.7248769470156513 2.381668062596958 46 55 27
12.60600973455525 -2.1451343263213927 2.666357368675028 55 57 35
11.097596763172803 1.0010501779361403 1.7711938835411263 38 43 18
11.36167017970187 1.7597353793244197 1.5891992311281442 28 33 8
11.265106896469304 1.1240123656571297 1.589356996882464 37 41 18
12.97675939570477 0.33700002944622265 1.8206829357597814 39 43 25
12.456533371227524 1.583943642743799 2.1879773362904347 37 42 17
12.960396490797919 0.013279425491497384 1.984411836579297 41 46 19
10.325097988304488 -1.6982959016342998 2.099606274310598 51 55 34
11.086099702116659 -0.9850279107993377 1.8644677770833946 47 51 29
12.667150851948449 -0.313150391278711 1.746086696390935 49 52 28
13.678853575921549 -2.214690084922309 2.8787552610371545 56 59 37
12.350518337409033 1.6939527474512388 2.2978545387707445 39 44 19
11.929053400749508 0.9736878037295752 2.3297438643039765 37 42 15
11.722576897606817 1.34586900161291 2.3465847556914863 38 43 19
12.48620770197455 1.8266082742331682 2.400216393011476 40 45 20
11.704363206741998 -2.455370601205544 2.2343630637843783 55 57 35
16.736508129671414 -2.6907252269795467 1.2174860439051498 51 49 34
12.49961899382893 2.2792998880587967 2.2872920483748915 44 50 23
12.917331367573631 -2.940547537272156 2.8089115222933354 53 60 35
13.438401693750118 1.9375449188953293 2.433639065808177 42 47 21
11.955136856570206 2.3542389265182337 2.3276765815214513 46 55 27
13.450350049905943 -2.3926806618201546 2.70860055221911 54 57 34
11.777584330693566 -1.9509276169104466 2.3420133836184096 51 55 33
12.691773189056223 0.2600675458521897 1.826418003107352 31 35 14
13.644715478301347 -0.07736931379250571 2.2163370241474363 41 48 18
12.30329922729311 1.5871664573869457 2.416600444989063 39 44 17
12.287700042875024 1.0755171229604723 2.4180345439861406 37 42 15
13.803215276509581 -1.8576695978960824 2.847123868864013 54 57 35
13.162872463185828 -1.3937410719937247 2.758569050144713 56 58 36
11.37800831088454 2.5155938614419346 2.2569905007001463 48 57 25
10.397200709633255 -2.9188320689013563 2.2107861417536845 48 53 29
12.289078151835362 2.039799551277147 2.302311179614632 40 45 20
12.747553828579083 0.48167384994852847 2.079539298266493 37 39 16
11.75897882631218 1.405050445546792 1.8472069686633406 32 37 12
21.510383804147626 0.6452299886517442 2.9740195097115105 50 62 34
11.377050554810799 1.405050445546792 1.6772706235252286 30 35 10
12.381173185698472 -0.2558445023461523 2.0050412804351923 48 50 26
10.307901289864894 -2.888841992055126 2.3453173216869265 50 55 31
11.602128624407747 -2.385370515670323 2.4877299387382674 56 59 36
