11.789585546478323 0.2060507498033724 1.5436212876319064 46 45 15
12.568144475059084 -0.046933763305124915 1.6249004696646694 39 38 6
12.549949197255847 -0.13686435652856405 1.952910011802241 52 51 19
12.115558057843735 0.03563083840559003 1.8793840470538248 36 35 3
12.19053588383398 0.12172676828102487 1.8774240586588569 43 39 9
12.71529813931396 -0.22075378778075785 1.9476896278265565 53 52 20
13.077922132797791 -0.20364689827077803 1.777157141647657 50 49 19
12.661657455120238 -0.046933763305124915 1.7038454802400538 41 40 10
10.805416411233228 0.3801867287073469 2.1242524733679726 45 42 11
11.201049276737914 0.31311811197826617 1.7213194132894407 44 44 14
11.417517889083284 0.2249813481999234 1.898935124403686 44 43 13
10.892527725133949 0.2476639500863537 2.01486918413405 45 44 13
11.095232802202359 0.31311811197826617 1.6320913684598155 46 44 13
10.416696858056358 0.5295827264057061 2.1474782645297115 41 35 5
12.074297923646643 -0.14966966033238502 2.060531626019379 52 52 21
11.61450001637259 0.13314997987631746 1.9854959811317876 39 36 4
10.334167548860245 0.5936922149392202 2.2736088019437393 49 47 15
10.645746324739203 0.4810263421405105 2.3765931150311577 47 46 16
10.368678639471696 0.35342588763992727 2.4048472465663258 50 50 20
11.889734571154197 0.2476639500863537 2.167356763480848 48 47 15
12.187915875424846 -0.06886882986292558 2.363356177988479 53 55 24
11.694480339550754 -0.08984269143694587 2.545813625766254 54 57 26
12.276924505118181 -0.1840238697434408 2.356028673821814 54 54 25
11.787215630931568 -0.2384604027147346 2.5343064068841783 56 56 28
11.927015459124338 -0.2650883692550257 2.165235594168989 55 54 24
11.169454788984646 -0.37712754802412374 2.4608232441030045 59 60 36
11.65755265595289 -0.06166615881052295 2.1809454070909764 53 54 19
11.501993001168355 0.05451237118656185 2.4258741787314655 54 54 22
11.727888560624951 0.14692217720957654 2.1767585514532497 51 51 19
10.85167946062469 0.18511993643657687 2.3570237932453737 52 52 21
10.956568468796181 0.21265097767351143 2.4851815243509683 51 51 21
11.65755265595289 -0.06166615881052295 2.1809454070909764 53 54 19
11.782554423924418 -0.3308959262157064 2.3989044177720262 57 57 29
11.96311139495139 -0.37712754802412374 2.5134585328181944 57 57 31
11.65755265595289 -0.06166615881052295 2.1809454070909764 53 54 19
11.489490741701779 0.04813666216921835 2.302861441035944 53 53 21
11.649933562401802 0.043095351991155495 2.181402720511433 51 50 20
12.94892492227343 -0.3785931438768803 1.8589338124381314 53 53 27
13.366696795308538 -0.3509019614528093 1.621665303680693 57 57 31
12.955940285814048 -0.30160589793852133 1.9403484079876918 53 52 22
13.147255046762307 -0.2788228729342635 1.698903682166885 58 57 29
13.095530710733664 -0.4511449781557438 1.7768756649782182 56 54 28
12.907544749839163 -0.6046218227337126 2.026424100048883 59 58 40
13.054615253702238 -0.6721807816519186 1.9374222434546162 59 58 38
12.426871269598081 -0.5301190320089757 2.0454679692198248 59 57 36
15.302322655328727 -0.9749486146200034 1.6807827831001556 129 127 122
13.678429505325074 -1.0177892601912775 1.9989889435772046 56 55 32
12.759942725805615 -0.8506001612652118 2.0321003266485893 60 58 40
14.914708315721825 -1.0313902676953324 1.7514426291090872 116 114 108
13.354660640527683 -0.8434224839867492 1.8499410139736265 61 59 39
14.103818691589952 -1.0572775493385789 1.9090081043804639 53 51 35
13.45339066123399 -0.9047056058630659 2.006637296386294 57 55 35
12.980876247376296 -0.32829764675957096 2.111310273234114 56 56 30
11.342259770691 -0.4444463435257995 2.3145885627221805 60 60 36
13.292130381080243 -0.41076176299167 2.0973157211960003 57 57 33
12.029909607948193 -0.3979962576580688 2.2631884480359243 59 59 35
11.770173878430974 -0.4932616704227145 2.1742713001637877 59 59 35
11.794570111667857 -0.6121249039407896 2.3977953784978636 60 60 38
12.194858549669085 -0.579697985483627 2.1504613413488722 60 58 37
12.514346231348549 -0.44850327537078566 2.1338369985881203 58 58 34
12.03413015114955 -0.718442701878248 2.1592306938357293 60 59 39
12.692658660072546 -0.9203023127690306 2.1249942583899397 59 57 39
12.62082865377785 -0.8598005479316763 2.2249536065165327 59 58 38
12.046067158624082 -0.7894254049319442 2.2620765212901146 60 59 39
12.046067158624082 -0.7894254049319442 2.2620765212901146 60 59 39
12.394016247326427 1.192448594625123 1.7067362329300726 44 34 15
12.83034341566717 1.270313829774219 1.9441429740917315 30 26 3
12.28279945905904 1.1599162333064068 1.9616660696938162 44 31 10
10.699874594113593 2.493332880564853 1.4470830064881501 30 36 9
11.356437342092061 2.2880389915190773 2.094541353281304 33 39 10
11.442311632057917 2.7054302298962347 1.9921304736469598 39 46 12
10.951007816138773 2.493332880564853 1.8180014559217983 33 39 9
10.69866664925656 2.5727651614831544 1.9219017845311501 36 42 10
10.730622117230732 2.3602997561415937 2.1285648972983777 36 41 12
11.483425336738868 1.743131016938323 2.3033361948115694 42 47 21
11.399163387460721 1.6259127496136576 2.3100053136387055 39 43 16
10.31000088035408 0.9550541218674222 2.2755960983859715 48 43 13
10.037985134782538 0.9920022513635786 2.441930218525649 46 46 15
9.910814784029267 1.066783981175227 2.3103748073311237 36 34 5
9.549250120902723 0.6448061432800967 2.505151013569023 44 46 15
9.950406823523466 0.7714588409150283 2.4524528336696867 44 45 13
10.573407313818548 0.41077754198562083 2.53377275768221 50 50 21
10.84524597720002 0.5522417799896957 2.498623487295079 47 47 17
10.29440621385352 1.2411090337320452 2.2768852411871587 36 32 5
10.094698154291546 1.3664444561660478 2.293879559115234 47 45 19
10.320450337974988 1.1941346635556653 2.410013429380003 46 45 15
11.516143397680695 1.3664444561660478 2.42446219697942 44 43 14
11.447452370656407 -0.4374211919137947 2.578433954238269 63 65 42
11.711277870317296 -0.33691322750384256 2.7187160141324185 62 64 40
11.158468534016306 0.07414380907813531 2.6208939938226314 54 57 26
11.447452370656407 -0.4374211919137947 2.578433954238269 63 65 42
11.23983265474596 0.24960194494261884 2.6084070540913498 51 54 23
11.263506730166617 -0.27948423473992146 2.604856520369885 58 58 31
11.543818380594574 -0.6319709213689325 2.752202557661493 64 66 42
11.16642296989373 -0.10595967045237961 2.619653198679547 55 58 27
12.06131501246275 -1.0353165596414453 2.8893568248232793 63 65 41
11.886872503393016 -0.802312189533781 2.9545996926199876 63 68 43
12.217360309539872 -0.16500244631091338 2.8438071821899458 57 62 35
13.169875663043506 0.11577425712441897 2.867892202762608 53 58 29
12.937300974718678 0.16075369681154023 2.9416863198570087 55 62 32
12.056931880934295 -0.5596852145425194 2.8907712659019733 66 68 44
11.220646257825656 2.008032888877121 2.324606936166169 40 43 12
10.953299544558512 1.8917771031513464 2.3477735376673428 38 42 11
10.682626449144578 1.6333314238016792 2.3730036720490864 42 43 14
16.47367683261362 2.0802120872750476 2.829850579681462 49 55 21
16.23451909676813 2.196361275751569 2.879392715664373 52 60 29
16.053141351226767 1.706007705506357 2.925461774811526 53 60 28
16.23451909676813 2.196361275751569 2.879392715664373 52 60 29
16.053141351226767 1.706007705506357 2.925461774811526 53 60 28
11.522007790188807 -2.4998042602889887 2.7568419034778366 58 60 36
12.042020762050104 -2.568892737411188 2.895650590104349 55 60 33
11.877799985822904 -2.3153619587680123 2.958680756564295 58 63 38
12.787232497207013 -1.8549781080036056 3.011788565339515 60 65 42
11.972116892626872 -1.7481720586045548 2.920104361090715 62 64 39
12.05237380855543 -2.0854923757301203 2.8922515912386766 59 61 36
12.94123512655709 2.656016688594464 2.541427730230075 48 51 20
12.481707034012619 2.4319294204172013 2.2335285196486696 39 42 12
11.2918362097422 2.3602997561415937 2.2037730964535123 37 42 12
11.375405554936297 2.2061006517713238 2.1983936820108774 34 40 10
13.240014527291759 2.5427629077603435 2.509207030459116 48 51 20
13.240014527291759 2.5427629077603435 2.509207030459116 48 51 20
11.945085608800753 2.7129182789732216 2.3842002186730804 49 49 18
11.582235290253637 2.607822427942446 2.2956886249443773 44 48 15
11.384694920638614 2.514305418082279 2.1978018837032116 45 45 15
11.945085608800753 2.7129182789732216 2.3842002186730804 49 49 18
14.015835505528372 2.726009900988868 2.701392775898788 52 55 24
13.118091742063173 2.726009900988868 2.6689036548774143 51 54 23
14.069136221319646 2.8291324365447674 2.550193846390715 52 52 22
13.338168878644762 2.583497817692782 2.6375902902356545 50 53 22
12.901143158226821 3.066477276758815 2.702927779437339 50 55 24
13.932629900057877 2.9547312860246864 2.564945188860367 52 52 24
13.423488533222486 2.9266491634229475 2.626183305863415 52 52 24
12.161891295241848 -1.3553656489138437 1.7929514141873708 65 60 39
13.669156272999198 -1.1251495315143112 1.920214886758951 55 54 36
13.09360234370584 -1.2969721819186597 1.6227272275480566 64 62 46
13.229798383292874 -1.0890670523242023 2.014522654866973 61 59 39
9.793869090007957 -1.8847551147625878 2.1894263664561686 58 57 37
10.08653259080185 -1.8501855902889348 2.053246422677178 59 58 38
9.457837713242544 -1.7396358440643516 1.970406230845677 58 58 36
10.902404951731596 -0.5751594731727981 2.4916576815234563 62 62 40
11.714168672867288 -0.5751594731727981 2.5433390359260915 63 63 41
11.808358256848896 -0.7928168010383891 2.7008030432689956 62 64 40
11.271202937108352 -0.6921220682997432 2.4497530004277497 61 61 40
11.723189608341427 -1.0066910711007298 2.5422109757199145 63 61 41
11.71399153010699 -0.7901494112285722 2.4053024404375525 61 60 41
11.71399153010699 -0.7901494112285722 2.4053024404375525 61 60 41
11.723189608341427 -1.0066910711007298 2.5422109757199145 63 61 41
12.222732079423022 -0.8720163995589435 2.3604708221369335 60 59 39
11.456502195095107 -1.0782533584034522 2.430452833743562 60 59 39
12.38954772918391 -1.032058662904759 2.346982288819145 60 59 39
12.15108026550852 -1.3025936911086748 2.644360069623188 63 62 42
11.461296005406878 -1.1448252601367779 2.576523731117023 62 61 41
11.190065647011105 -1.4751941705014568 2.6159912600945656 62 61 41
11.724810007027502 -1.2478033626450586 2.716158665484894 62 63 41
11.89718614507065 -1.065931041817498 2.6852324210068366 62 64 42
10.910354583491438 -1.4896347068825175 2.490699687369029 61 61 39
11.18836780217071 -1.203386661343118 2.4587388213535513 60 59 39
11.80496319327547 -1.248294388671773 2.396838999688644 61 60 40
12.230332508898883 -1.4225562268391734 2.840370508231717 63 63 39
12.314743267636466 -1.1664034830519836 2.819038224287798 63 65 41
13.026069048322464 -1.0849046082300782 2.3000720171666904 59 58 38
12.930943403691941 -1.0472098161179941 2.113629285293773 59 58 38
10.224127651468915 -1.7894493627419932 2.4205696461962303 61 61 39
10.68678236175362 -1.9990187923846974 2.24597796717993 57 57 35
10.889021137884667 -2.1256647836821614 2.4932764404415284 56 56 32
10.907060496208125 -1.6411128191838897 2.4910963354548006 61 61 39
11.701713349169978 -2.1256647836821614 2.5449025067747737 58 58 36
11.186853923907707 -1.6536413657775229 2.616486447930063 61 61 39
11.882074558873002 -2.0635845284487035 2.687829916095001 59 61 37
11.715611989656615 -1.8796396530712094 2.717894715784342 61 61 39
10.69528163698337 -2.054832154417475 2.371780732620511 56 56 32
11.17229751343949 -1.9286710822797761 2.4605091512440924 59 59 36
11.532827663009567 -2.1724726339787144 2.7545316074695987 59 61 37
11.361249155539522 -1.9581417271068278 2.793447988112917 62 62 40
11.186853923907707 -1.6536413657775229 2.616486447930063 61 61 39
12.5573383615557 -1.6715839536370376 2.7654979315540467 62 62 40
10.482850209717746 -2.443042746483976 2.392919208610438 51 54 25
10.085264825548265 -2.5604529108480314 2.436378895501104 53 55 28
11.61450001637259 0.13314997987631746 1.9854959811317876 39 36 4
11.976372844609548 0.039009396532863914 2.0648951950241146 46 45 13
10.775447292805513 0.34353706371356185 1.9192930806616741 44 43 11
12.052216584311893 0.13314997987631746 2.061508499029187 48 47 15
10.843125401711795 0.4332726847459458 1.8205131501222744 45 41 10
11.850208145350804 0.03563083840559003 1.7988966060206733 33 30 0
12.46289063322648 -0.05099547789111244 1.9557188025038976 46 44 12
11.983784395216702 -0.05582600978261735 2.06456207965566 52 50 18
12.346474387820045 -0.16509445560191888 2.242106175964329 55 55 25
11.603922045360461 -0.20778572679550125 2.415829891229451 55 55 27
11.7505793833433 -0.16509445560191888 2.1754211047608205 55 54 24
11.103779523339359 0.2753045722728092 2.2162564604028225 47 46 16
9.948497416487301 0.4810263421405105 2.3069245829794705 48 45 16
10.63223726764143 0.4250630156171448 2.250092595259599 47 43 14
11.732571485730407 0.2753045722728092 2.2843951055388896 48 48 17
11.568526941046235 0.16384364023296583 2.2967387130339842 50 50 18
11.501993001168355 0.05451237118656185 2.4258741787314655 54 54 22
10.873084867201076 0.06283229707424513 2.4952136562458254 53 56 25
11.49721615964444 -0.06886882986292558 2.302257771946967 53 54 22
12.514512045103265 -0.2650883692550257 2.2314842002027153 55 55 25
11.509710027488275 -0.07797271366282353 2.425103429549639 53 56 25
13.209806888093823 -0.48771017356677504 2.015242150516775 59 57 37
12.187405097047188 -0.6573633187252111 2.0555910720825934 59 58 38
12.759942725805615 -0.8506001612652118 2.0321003266485893 60 58 40
14.183486954966904 -0.9522678862731606 1.9827949542137238 43 41 21
12.495752645793463 -0.32829764675957096 2.0426374473431292 56 55 26
15.84787068419049 -0.9225162538118119 1.487386051335708 131 129 122
12.81170106019834 -0.48771017356677504 1.944713028558935 57 56 33
12.038521584612301 -0.8598005479316763 2.158987298173654 59 58 38
12.609435769008265 -0.7888928721163144 2.1290841903862816 60 59 40
12.029909607948193 -0.3979962576580688 2.2631884480359243 59 59 35
12.514346231348549 -0.44850327537078566 2.1338369985881203 58 58 34
11.529533905242802 -0.7074397992811272 2.299744726860071 60 59 39
11.44265276066308 -0.5021413271285031 2.431858876132186 61 61 39
11.697197896238817 -0.5469534780120336 2.287016372738305 60 60 38
11.082453791320692 2.5727651614831544 2.0067313916966385 43 44 14
10.895644477881463 2.4319294204172013 2.014733093431145 34 39 10
11.03045654869545 2.622193957784037 1.7236655063312423 34 40 10
10.854439586674339 2.3597478028145438 1.8202473164639774 31 37 9
10.754230815765023 1.5071656728334792 2.240966023426763 17 17 0
9.910814784029267 1.066783981175227 2.3103748073311237 36 34 5
10.610540214719363 1.066783981175227 2.380055602786453 49 48 18
10.84524597720002 0.5522417799896957 2.498623487295079 47 47 17
10.573407313818548 0.41077754198562083 2.53377275768221 50 50 21
9.71975823108992 0.8731646933152105 2.3284579205674443 48 48 16
11.88829724029989 -0.5186188769550257 2.6867578431003025 63 65 41
11.277760164792669 -0.795711857890225 2.8144554583050274 64 66 42
11.158468534016306 0.07414380907813531 2.6208939938226314 54 57 26
12.133667946064472 -0.27948423473992146 2.647010738129077 60 60 34
11.9751180102866 -1.3666589578801662 2.9189941665010646 62 64 40
12.306155973782332 -0.4222941736241251 2.8211326060898494 65 67 43
12.306155973782332 -0.4222941736241251 2.8211326060898494 65 67 43
11.886872503393016 -0.802312189533781 2.9545996926199876 63 68 43
12.056931880934295 -0.5596852145425194 2.8907712659019733 66 68 44
11.220646257825656 2.008032888877121 2.324606936166169 40 43 12
10.682626449144578 1.6333314238016792 2.3730036720490864 42 43 14
16.354017758794306 1.891253362887334 2.8534200575933033 49 53 21
16.113084086322452 1.9762127995128302 2.9091252628965627 50 55 24
11.877799985822904 -2.3153619587680123 2.958680756564295 58 63 38
12.510450162109734 3.049736511872013 2.7751059843231634 52 57 26
12.21424766211919 -2.3315154070633106 2.844638637303547 58 60 36
12.994875999734829 2.607822427942446 2.4111551857096507 48 50 19
12.71428914720652 2.784561280260104 2.5680294103284593 49 52 21
13.56511933171313 2.784561280260104 2.6080418362586584 50 53 22
13.932629900057877 2.9547312860246864 2.564945188860367 52 52 24
10.376235889557403 -1.9541649566991506 2.0386790241257873 57 56 35
9.591232466256988 -1.7613796190854518 2.204547624287738 59 58 37
9.66327199971439 -1.8501855902889348 1.9614445609121 57 56 36
11.461296005406878 -1.1448252601367779 2.576523731117023 62 61 41
11.370733827812254 -1.1664034830519836 2.791156878655985 62 64 40
11.18836780217071 -1.203386661343118 2.4587388213535513 60 59 39
11.803529599903065 -0.9678764171259343 2.396970760860206 59 58 40
11.004894620444187 -1.3417731578227026 2.479502140639945 61 60 40
11.461296005406878 -1.1448252601367779 2.576523731117023 62 61 41
11.271202937108352 -0.6921220682997432 2.4497530004277497 61 61 40
11.633033187640912 -0.791190790777111 2.553650226922577 62 62 41
12.062547121677628 -0.8890144162930561 2.5021952418202478 61 60 40
11.80496319327547 -1.248294388671773 2.396838999688644 61 60 40
12.133154883971901 -0.9405524610207067 2.25615156043104 59 58 38
11.282262080539827 -1.3025936911086748 2.6020691458610195 62 61 41
11.54839626322732 -0.9556369821147802 2.7512376480954153 62 64 40
13.095676492826138 -1.1289439097083627 2.1974368650604448 59 58 40
10.785236712923457 -2.3424179214514385 2.50608765981795 53 55 27
11.715611989656615 -1.8796396530712094 2.717894715784342 61 61 39
11.445608929878377 -1.986052153483967 2.5786891080064587 60 60 38
10.68678236175362 -1.9990187923846974 2.24597796717993 57 57 35
10.129395574421016 -1.6411128191838897 2.4312761059838888 61 61 39
11.186853923907707 -1.6536413657775229 2.616486447930063 61 61 39
10.399218674297297 -2.464460698716945 2.558284460299647 55 57 31
10.390277516023387 -2.1662781107778057 2.2690430333011293 52 52 28
10.995094369689376 -1.7894493627419932 2.480646502486165 60 60 38
12.305986199370258 -1.9581417271068278 2.821174175674806 62 62 40
13.077922132797791 -0.20364689827077803 1.777157141647657 50 49 19
12.549949197255847 -0.13686435652856405 1.952910011802241 52 51 19
12.63341172091219 0.11210115317951193 1.6246206836983375 38 35 6
12.257970790108695 -0.06166615881052295 2.2478548860545713 54 54 24
10.645746324739203 0.4810263421405105 2.3765931150311577 47 46 16
10.873084867201076 0.06283229707424513 2.4952136562458254 53 56 25
12.818791522713546 -0.41076176299167 2.0298196393309453 57 57 33
12.408146603661198 -0.41076176299167 1.957506869189817 56 56 28
14.856046737256044 -0.9359471737441845 1.82108896937251 125 123 111
12.755799658095533 -0.7267270090167568 2.03226178211051 59 58 40
14.5941621943437 -0.9942257958096915 1.8972147814069504 70 68 55
13.246240894154022 -0.9203023127690306 2.189231947154172 58 57 38
12.046067158624082 -0.7894254049319442 2.2620765212901146 60 59 39
13.38959169575581 -0.9725111298638477 2.093090038116529 57 57 36
10.890792218200623 2.2880389915190773 2.0149450013446346 32 38 8
12.79388553991946 1.1191143063604638 1.7024623388410247 47 36 17
11.106650166433642 2.661153586788178 2.1075797345732044 44 47 14
12.89365159096465 1.1191143063604638 1.3898504231061648 43 35 15
10.685989721197195 1.4986079750392487 2.372678227355305 52 52 24
10.370510683491167 0.6448061432800967 2.56249277511856 48 48 17
9.536179920914535 0.8950930859887944 2.507007934494121 45 45 13
10.320450337974988 1.1941346635556653 2.410013429380003 46 45 15
10.391079065325693 0.24960194494261884 2.5594725559753293 52 53 23
12.043600620554223 -0.10595967045237961 2.6610614800533714 56 59 30
11.447452370656407 -0.4374211919137947 2.578433954238269 63 65 42
11.447452370656407 -0.4374211919137947 2.578433954238269 63 65 42
12.543355268933789 -0.12908411062346953 2.7683311045053407 57 61 33
11.568536379926725 2.112934452201358 2.2967379888028963 35 40 10
16.23451909676813 2.196361275751569 2.879392715664373 52 60 29
10.097829822190274 -2.616070410768897 2.605197861819571 54 56 29
12.042020762050104 -2.568892737411188 2.895650590104349 55 60 33
12.05237380855543 -2.0854923757301203 2.8922515912386766 59 61 36
12.862404381298946 -2.3153619587680123 2.9728227256409916 58 64 41
12.971580970379993 2.888844914342894 2.691492434247902 52 55 26
10.217954653173132 -1.9174686642328378 1.637361425373151 54 52 35
11.276075524171366 -0.6693465559278381 2.602986115405457 64 64 42
12.222732079423022 -0.8720163995589435 2.3604708221369335 60 59 39
10.88921170104917 -2.3385119823746985 2.6657821109663264 58 60 34
12.062547121677628 -0.8890144162930561 2.5021952418202478 61 60 40
10.49474148833055 -2.2447766830493787 2.3917005008171537 53 53 27
11.258441872133305 -2.2174243274993293 2.605613086788552 58 60 34
12.222732079423022 -0.8720163995589435 2.3604708221369335 60 59 39
11.904325066437748 0.2060507498033724 1.7123650973278643 44 43 13
12.917215853022817 -0.12606680903962025 1.7797623164933443 45 44 14
12.24607089098034 -0.24093754532357964 2.0530694471323656 55 54 22
12.074297923646643 -0.14966966033238502 2.060531626019379 52 52 21
11.132505667732278 0.4332726847459458 1.9076642533659594 47 41 11
11.77035017565178 -0.294464621477647 2.2816195050742403 56 56 26
11.026394025165498 0.3096680467557884 2.3412759182248513 49 49 19
10.334167548860245 0.5936922149392202 2.2736088019437393 49 47 15
11.649933562401802 0.043095351991155495 2.181402720511433 51 50 20
12.98186014678038 -0.7884847271661208 1.939575136479379 58 56 36
14.435257381615783 -1.0919173523854613 1.757512124510378 97 95 87
13.336125320369943 -0.4511449781557438 1.8503394096612635 59 56 22
11.342259770691 -0.4444463435257995 2.3145885627221805 60 60 36
12.758941713362164 -0.35994838870370555 2.21667946071723 56 56 31
10.62292945917468 2.493332880564853 1.5406359467833197 31 38 8
12.536274545683446 0.09040873105212986 2.769776032454421 53 58 29
12.690326401098696 2.7129182789732216 2.4383647117500478 47 50 19
11.280762060924168 -0.9142667628492461 2.6022912569524594 61 63 41
12.782450052958922 -0.9982595479775606 2.2152939934342637 59 58 38
11.724810007027502 -1.2478033626450586 2.716158665484894 62 63 41
11.272702969797459 -1.827003768720619 2.6034870120742704 61 61 39
10.405728504869664 -1.8847551147625878 2.2677974524762403 59 59 38
12.22739403179026 -1.6993925207727762 2.841145010389727 62 62 40
10.809907728126417 -1.5002915633594012 2.3609019580952135 60 59 39
12.560199647942193 -1.4545310167483037 2.7649214702086766 62 62 40
11.51706154263614 -0.6381155655288689 2.1894995740170775 61 59 39
10.828294624324318 2.514305418082279 2.122947551013742 38 42 11
11.711277870317296 -0.33691322750384256 2.7187160141324185 62 64 40
10.444255091828767 0.6728061914735507 2.396905013080507 47 47 14
10.062805093070692 0.5522417799896957 2.4390049527268625 46 47 16
11.158468534016306 0.07414380907813531 2.6208939938226314 54 57 26
9.490184860757504 -1.6318717475987499 2.2123949912959024 60 59 39
11.434525056128804 -2.054832154417475 2.4326866899308124 57 57 34
12.95985925884158 -0.558860819425527 1.8586837588593133 55 54 36
12.819136736484205 1.192448594625123 1.861935927282294 37 31 8
12.06131501246275 -1.0353165596414453 2.8893568248232793 63 65 41
16.113084086322452 1.9762127995128302 2.9091252628965627 50 55 24
11.461296005406878 -1.1448252601367779 2.576523731117023 62 61 41
12.298468391395234 1.192448594625123 1.6260880419299166 39 32 12
16.23451909676813 2.196361275751569 2.879392715664373 52 60 29
