8.792006509239902 -0.7745612941902141 1.9488688774166243 37 43 21
9.191779802580488 -0.6960133046735796 1.8175761343954937 33 40 18
8.623247111672137 -0.6791933832991068 2.085548785073685 36 44 22
9.709837580584411 -0.7745612941902141 2.141487916420937 35 42 21
9.472209311992813 -0.6546204648984022 2.4416986156211076 34 44 23
9.126498663191827 -0.511183834652927 2.487968290441371 34 44 21
10.460162638799279 -0.14664007982247382 2.654862323227853 31 41 18
8.716737680333297 -0.8872971326143099 2.369543551377152 34 44 23
9.002362360968778 -0.7688245722512714 2.5061891511553744 34 44 25
9.409656132722265 -1.2592933106058857 2.4496302536233863 33 45 25
10.067382532489166 -1.4248378132640827 2.530497968819784 36 48 29
9.266143068400234 -1.4248378132640827 2.468537814252941 33 44 25
10.033542240079122 -1.598766740206261 2.535329032081923 37 49 32
13.570860985969395 0.5963057353347302 2.6959405446066946 32 43 21
13.978862679805452 0.5367827094545705 2.816214799035876 37 49 26
14.582487296109983 0.42492053651096545 2.9261578719466037 38 50 29
14.809765592784549 0.32294007214537207 2.864635091450645 37 51 28
12.365921681994923 -1.6637637531259817 3.001858547576771 41 54 36
11.844187526198168 -1.613809977000962 2.8222561438506335 39 54 37
11.27935130516393 -1.604694956701522 2.7100740866758737 40 53 37
11.598932189076852 -1.2706961422202516 2.8940586747491697 40 54 37
10.285919791291576 2.127805117733156 1.8917987133739 31 41 19
9.885378143766237 2.187056712071586 2.014693012133452 29 41 17
8.770533254826537 2.109659068668957 2.3632641041660136 30 41 18
9.182672667019917 2.1554664697654426 2.1787964737729624 26 38 14
9.05930612898029 2.344206089831287 2.1883052379039327 23 36 12
10.374847365428833 2.485260124921629 1.691126031297778 23 35 17
10.290185014225955 2.3475256278544525 1.6921209082757471 25 37 18
10.57810117145249 2.618268241294121 1.5939965076908464 22 35 18
10.266592492873233 2.574649888509131 2.5033237941697246 28 40 16
10.034137673518362 2.5154897775309637 2.7424480412237253 30 42 21
9.482201101185039 2.574649888509131 2.440448228490142 25 38 14
9.421431088680373 2.3367671730728956 2.6365917418900344 26 40 18
10.392482748559388 2.639270955156941 2.6673153712595634 33 46 22
9.991631138892298 2.7246912752384316 2.5414052916855345 32 44 21
9.164692173278233 2.448548781207451 2.320555131870014 23 37 14
9.389493463141108 2.341367296158582 2.452225752434833 24 38 15
10.21926949835778 2.8419635410286013 2.701475678832787 33 47 23
9.730993557576978 3.0863928933914098 2.5817392799998524 33 46 25
9.540116012387264 2.037674506776307 2.6145261354401628 30 42 19
10.572609911084662 -2.3052035330373726 2.325809583899443 42 52 39
9.753051164562084 -3.0039223490474036 2.578141100063788 35 47 27
10.209814707330745 -2.5989139538183323 2.3597972043965045 41 54 39
10.122267606815265 -2.2000055190530485 2.368547381801179 39 50 36
11.081620424415654 -1.9321428806489447 2.55765752121407 39 52 37
10.282158493378192 -2.7505766391528406 2.6886617277562106 39 52 33
10.495358721068591 -2.5633679185328324 2.648562817428912 41 54 36
10.098591477056999 -2.6572430594599936 2.526100327168619 39 51 36
10.79732958119144 -2.4126444742938644 2.598794166735907 41 54 38
10.809305834437781 -2.401228714576614 2.4384361980628606 42 55 40
11.1808808904233 -2.2937394443585695 2.5443563716065865 41 54 39
10.26214049501467 -1.9321428806489447 2.503908811034823 38 51 35
9.375944722620847 2.7588529385406995 1.9242502208043686 27 39 18
9.362135061197462 2.6022850011377368 2.041444485033802 23 37 13
8.948706292256103 2.711426671192838 2.0650945961890312 23 37 13
10.358936392181306 2.704024669042777 1.7892895519356273 23 35 14
10.487902608041246 2.920358857240737 1.6898227324528325 30 43 24
9.704597932286418 3.106665911227634 2.1418345499296363 31 44 26
9.505273583162143 3.101792633946759 2.2876883988303667 31 44 26
9.165145901589971 2.8326564325517194 2.1801279686165063 31 44 21
9.587515553562293 2.963995682149498 2.280236059954034 32 45 26
11.027478278685036 -2.5837823284613033 1.7758481408820912 30 37 32
10.801217036858176 -2.6662292395459257 1.8759768752938781 34 42 35
11.66130645791025 -2.70710106207236 1.8528245459396986 31 39 32
10.096894914463299 -2.467962012224543 2.0047541917622533 33 41 33
10.121165326427425 -3.063705303678711 2.0036432026685813 32 44 27
11.340957155142734 -2.8804774054838935 1.9544829549833915 30 41 31
11.142579287073598 -2.6662292395459257 1.9616806715070483 36 44 36
11.190088715428784 -2.756302292435375 2.0586752944768065 35 45 36
10.628232163517492 -2.820402222774859 2.198914105282542 32 43 33
10.329595944860998 -2.9065083182025555 2.348185068272896 35 47 32
10.41775155782986 -2.9344468301253253 2.2136665598394982 32 43 31
10.606558484992487 -2.559255628416663 2.2003989129362274 41 52 41
10.050288513478598 -2.559255628416663 2.1198902407026936 39 47 37
10.211306526744144 -3.0420765641249967 2.359650063950992 32 45 25
10.300474557985437 -3.0542060463772573 2.222222052626529 32 44 27
11.110065351756937 -2.097438112725383 2.7444554909239884 41 55 40
11.626469179539034 -1.9745570268946184 2.884854120074785 40 55 38
11.626469179539034 -1.9745570268946184 2.884854120074785 40 55 38
10.857890593774261 -2.644367966799884 2.8041050065635833 40 55 35
11.578635196334405 -2.470539853141798 2.901093133786993 40 55 32
11.578635196334405 -2.470539853141798 2.901093133786993 40 55 32
11.434378609343398 -2.1654834405063283 2.959528521700923 39 55 37
11.483175672316053 -2.0003658105910396 2.6730091980904787 40 53 38
10.214610953095157 -2.0653123104730007 2.1100765675532025 38 47 34
10.66105321959681 -2.1602899700881544 2.085198427201824 39 48 36
10.514183904521467 -2.3131139009790114 2.093110636040972 32 42 33
10.069721406947492 -2.125432713267962 2.2398130312697755 38 48 36
10.111899685468348 -1.8820015540654111 2.3695989169923397 37 49 32
11.941241358374658 -2.323317234017575 1.5913477178208264 56 64 59
11.349309658108604 -2.3189005509517258 1.9541858751032333 36 44 37
11.34743363242895 -2.258552077489769 1.6807688295914471 38 47 38
9.201181280670344 -0.7722932167287953 2.3168688060761577 34 43 22
10.84962821868654 -0.2456470034114976 2.4340632679139036 28 38 12
9.409656132722265 -1.2592933106058857 2.4496302536233863 33 45 25
9.82513673032562 -0.7688245722512714 2.566632467910977 35 46 27
10.108148619296259 0.048781286835358664 2.524764501095755 30 40 15
14.582487296109983 0.42492053651096545 2.9261578719466037 38 50 29
14.70439268858962 0.6775312663859384 2.8910772521538854 37 49 26
14.809765592784549 0.32294007214537207 2.864635091450645 37 51 28
12.365921681994923 -1.6637637531259817 3.001858547576771 41 54 36
12.365921681994923 -1.6637637531259817 3.001858547576771 41 54 36
9.159695555811755 2.432479094908233 2.052721717198159 24 37 15
9.367023692715446 2.6516555568119946 2.300625592844465 24 37 13
10.14215166919855 3.0731607612976295 2.71790950911514 37 51 28
9.596429510668077 2.9359165999468373 2.426464361948506 33 46 24
9.90546777174794 -2.393651668992064 2.1288605327895773 36 45 34
10.518141773498012 -2.0758806008148096 2.471752574784362 37 50 35
9.958880663386932 -2.488297291762053 2.2486438373466573 41 50 38
10.282158493378192 -2.7505766391528406 2.6886617277562106 39 52 33
10.860528771445148 -2.2000055190530485 2.4328905028361234 41 52 38
10.412075740285864 -2.517599554583927 2.4847213745687093 41 54 39
10.614616703347718 -2.488297291762053 2.3220921008697406 42 54 41
10.163316972425298 -2.9714029785682827 2.713315308082825 37 50 30
9.074034981341152 2.868544714760828 1.936554017398221 31 43 22
9.518239195362861 3.002204438193949 1.8089451691508833 28 41 23
9.464149618242002 2.711426671192838 2.1582436045523696 28 40 17
11.143946239722352 -2.9743789389013315 1.9616301238505975 32 42 30
11.702799692379369 -2.9029564276973687 1.7638614029575737 23 32 25
10.336212765841152 -2.617647311163087 1.9940508092447824 36 44 36
11.66130645791025 -2.70710106207236 1.8528245459396986 31 39 32
11.294082384343499 -2.791051094182671 1.8622587743054646 31 39 31
10.201436736783938 -2.662981536758854 2.229645225419853 39 50 37
10.579639467216404 -3.063705303678711 2.0895528300492905 33 44 32
10.541836831646085 -2.779162513919953 2.32856006934571 37 48 34
10.628232163517492 -2.820402222774859 2.198914105282542 32 43 33
10.300474557985437 -3.0542060463772573 2.222222052626529 32 44 27
10.211306526744144 -3.0420765641249967 2.359650063950992 32 45 25
10.387410968628451 -2.7143716616959455 2.1001503305642277 35 46 35
10.857890593774261 -2.644367966799884 2.8041050065635833 40 55 35
11.059998171217424 -2.431798323553876 2.7553913752307078 41 54 36
11.337704560151813 -1.8120122613788852 2.699028756343987 40 53 38
10.746490165986906 -2.2445865978535657 1.9769176831439221 37 45 36
9.946393136257528 -1.7418425348751092 2.386844554878614 34 45 27
10.111899685468348 -1.8820015540654111 2.3695989169923397 37 49 32
10.52231286559759 -2.225985844619163 2.2062440878375598 36 47 35
12.003500692313208 -2.323317234017575 1.6747357624300165 43 50 46
10.24861997108407 -0.28561107787142154 2.505691445338794 32 42 17
13.846967050569052 0.7246529780265528 2.65586927531423 34 44 20
14.479608129777285 0.5963057353347302 2.7257141459871823 35 45 22
12.365921681994923 -1.6637637531259817 3.001858547576771 41 54 36
10.077186918075348 2.2726981368026236 1.898693926474822 26 38 16
9.472540198475556 2.5057149908171565 1.9204905061191901 24 36 17
9.788179744945833 2.4211661247567378 1.8022557846740614 25 37 16
9.178345842361908 2.237618959989266 2.3191708545953396 26 37 14
10.21926949835778 2.8419635410286013 2.701475678832787 33 47 23
9.876830383251857 -2.8207279790255955 2.558605067828846 37 50 33
8.991262907199722 2.2061915189975387 2.5078650888691065 26 40 18
10.78554950070435 -2.617647311163087 2.078686876628608 37 47 37
9.155357872171084 2.533793519618961 2.1808743169044016 23 37 12
9.730993557576978 3.0863928933914098 2.5817392799998524 33 46 25
9.513827515132816 2.639270955156941 2.619293563291005 28 40 17
10.828991907915473 -2.5306230185398277 1.9736437742227066 30 38 31
10.034137673518362 2.5154897775309637 2.7424480412237253 30 42 21
10.518141773498012 -2.0758806008148096 2.471752574784362 37 50 35
10.099096430445446 -1.7710357770527443 2.52602962211862 38 51 34
11.346952496079904 -2.2756398116395102 2.697312120622387 40 53 37
11.899771299639848 -1.8734329047106828 2.8084186711282233 40 54 39
11.578635196334405 -2.470539853141798 2.901093133786993 40 55 32
9.6994592831535 -2.010631984623626 2.2703689106464227 38 49 34
12.005274196936162 -2.3842192781909586 1.9322423882832278 41 48 43
12.241897063952516 -2.5575782767076682 1.6727045587696032 33 41 37
10.033542240079122 -1.598766740206261 2.535329032081923 37 49 32
10.020128263760869 -0.5665404944031952 2.379052550173407 34 42 21
10.24861997108407 -0.28561107787142154 2.505691445338794 32 42 17
11.569572453413613 -1.62962198608192 2.904308251884199 39 55 37
14.17670026557296 0.7076633616362707 2.7771066527032264 35 47 23
9.770887947069928 2.3461325679652476 2.0202726874859835 26 38 15
9.802200905242508 2.4731564823328047 2.5702535575109957 24 38 14
10.061407284833408 2.6516555568119946 2.3747674575016777 29 41 17
9.914095855929544 -2.3052035330373726 2.2522860865044345 38 48 35
10.214610953095157 -2.0653123104730007 2.1100765675532025 38 47 34
9.134746024426136 2.1524103344095162 2.6966619998864183 30 42 19
10.098591477056999 -2.6572430594599936 2.526100327168619 39 51 36
10.189051942445479 2.704024669042777 1.6933311680833916 20 33 12
8.663189068967124 -1.2592933106058857 2.3759128618679513 30 41 20
10.129384971988282 -0.121803655787538 2.5218141867957016 31 41 16
11.872868201397853 -1.348390337492432 2.8150293694056914 40 52 35
10.033542240079122 -1.598766740206261 2.535329032081923 37 49 32
9.099015238317417 -1.028635240931158 2.4919220082776756 34 45 25
10.90574412435034 -2.1860874163635273 1.7781702000106738 38 47 33
9.876830383251857 -2.8207279790255955 2.558605067828846 37 50 33
10.41775155782986 -2.9344468301253253 2.2136665598394982 32 43 31
9.191779802580488 -0.6960133046735796 1.8175761343954937 33 40 18
11.45448602984313 3.010347344491463 2.950228301172303 38 51 30
9.78067931956978 2.786362643042537 2.4050362587909233 32 44 21
10.848609065582968 -2.1612371476629657 2.5910085998191716 40 52 36
9.287554357039875 2.985384100749136 2.045534357616515 30 43 24
