9.832387827165421 0.5121941962478996 1.4674302553807324 31 42 46
9.550508482323195 0.6560869127639503 1.4643680448419427 29 42 47
10.233960918084662 0.5121941962478996 1.271800154682955 32 43 51
8.92171897695436 0.5671542897284145 1.569168117171917 31 42 47
8.975968842370209 0.5671542897284145 1.6808083166272412 26 42 48
11.266410935841945 -0.019660906915626986 1.2064624207669878 32 44 49
8.934787187295035 0.2073093933567301 1.7948854373973395 30 41 32
9.067264158227207 0.09276031559110834 1.9063144810572832 30 41 28
8.561684288077435 0.09276031559110834 1.5690996478758676 30 41 32
9.034887348076829 -0.024271870606996107 1.9075643392084656 31 41 26
8.711402170221795 0.2073093933567301 1.569128807752427 30 42 37
9.454494125035868 0.31661343804843184 1.8920675098928208 31 42 35
8.711402170221795 0.2073093933567301 1.569128807752427 30 42 37
8.584130420813297 -0.024271870606996107 1.685851799627069 31 40 24
9.745117169710594 0.1860712958410972 1.466501223115146 32 42 40
10.747895257132013 -0.4584279360938883 1.085400024262059 28 41 30
10.783683033339418 -0.11417778159143266 1.3828798415634185 32 43 37
10.831678090751971 -0.12604448104249175 1.0894757731355431 31 44 51
11.177260958555447 -0.5483201286855963 1.1055573097822136 29 41 19
11.47903363457003 -0.2276867641923581 1.0193055666867867 31 44 51
10.492614770747888 -0.32477120049808555 1.2793897051766787 31 44 31
10.940828571954661 -0.20669493280158935 1.3856104478802218 30 43 33
11.328986073458912 -0.11417778159143266 1.2085679954241426 30 45 49
11.55711817425855 -0.4159146600063512 1.1219896188031546 27 41 40
10.434225263360684 -0.5483201286855963 1.277710799680918 29 41 20
10.82238502234436 -0.32477120049808555 1.1907682391417662 29 43 34
10.940828571954661 -0.20669493280158935 1.3856104478802218 30 43 33
9.123327335265918 -0.5097830309352575 1.9041724919041088 34 46 22
10.461872161118691 -0.4159146600063512 1.4736699944141356 29 43 21
10.184684218168993 -0.5483201286855963 1.7669997342456905 34 46 20
9.625435665141467 -0.6053140905293927 1.88616294927854 37 47 24
10.412574910705013 -0.4159146600063512 1.5694012418029528 32 45 19
9.123327335265918 -0.5097830309352575 1.9041724919041088 34 46 22
9.0269630769002 -0.2533228948056592 1.7925587524538493 32 42 20
9.298226150571558 -0.2533228948056592 1.897665875437557 34 44 22
10.037770941218339 -0.5483201286855963 1.669131265156904 33 45 23
10.24449610789047 -0.32477120049808555 1.7658394165161733 32 44 20
9.964177321881962 -0.4584279360938883 1.8750913695082394 33 44 21
9.112798662859054 -0.140645782396927 1.9045726267136998 33 42 25
10.459094770891827 -0.4159146600063512 1.6651579883939152 30 44 21
8.707536482211449 -0.4028706483707973 1.9207570110358165 35 45 19
9.47357240739014 0.805532307899859 1.4635004088146748 26 42 48
9.88899616178458 1.0955403744765928 1.5693273781513806 22 33 23
8.21481458545398 1.092148746218697 1.9427385733986964 19 29 11
10.163936798118634 0.873740678855361 1.5693671141278656 26 40 40
8.70187269256805 0.2339205840984996 2.0465424316212233 32 43 33
8.600251077135049 -0.15904095856306621 2.052639900996714 32 44 23
9.106880132362335 -0.15904095856306621 2.150098792802254 33 45 22
9.09901855941049 -0.4028706483707973 2.024181682143905 34 47 20
8.796489564998618 -0.28528801089580147 2.041008522860563 35 46 22
9.202909078824739 0.2339205840984996 2.1432878711746683 34 44 27
10.135779844462046 -0.4028706483707973 2.202510712135261 35 47 23
9.791103888652227 0.46689690194842837 2.105032754785637 29 42 30
9.958764781704447 -0.5097830309352575 2.0951015084665316 35 47 23
8.961510937352838 0.35541345163107996 2.031671706687587 30 42 33
8.022136234061833 1.3499823088456597 2.0907149441336346 21 30 9
8.6286804222222 1.092148746218697 2.050917665275511 18 30 9
8.607864507468825 1.2627806306857368 2.5175489081482256 28 38 16
7.818208504733566 1.2627806306857368 2.442740609203384 27 37 14
8.94245447163141 0.809089003240322 2.032730115970361 22 34 22
8.26453998565706 0.8141714569408799 2.2183494408495545 21 34 15
9.02391988495377 0.63356007719142 2.0282405820850444 28 41 29
8.903570538271579 0.8141714569408799 2.308047470788331 22 35 12
10.675380809097977 1.7203033148159215 1.9533956930098841 31 37 15
9.697830885887418 2.043659132492226 2.235971727962357 28 33 18
9.406514187497336 1.9745795966279005 2.407771641407761 28 33 16
10.406675002928704 1.8451842487580479 2.0703855213418647 23 33 9
9.96634022403048 1.8451842487580479 1.9821968547294138 20 32 9
9.325600380854942 1.6696038156831101 2.59885108782353 31 41 15
9.429586121771484 1.8693625200049135 2.5808361604053216 31 44 17
9.636771575190984 2.0474789373325555 2.5474810769634253 29 41 16
8.442504893561185 1.4936846206362642 2.2025001794153027 26 33 12
8.985388497045696 0.6016357634203742 2.29980968276353 30 39 23
8.88980678701391 0.1209487487883203 2.3094542870379766 36 46 25
8.856781288244933 -0.03170727838704014 2.312855157057755 37 46 27
9.034088478262296 0.26818201989641327 2.2950053178041685 36 45 25
8.941469892047692 0.1425672511005129 2.467453228926791 40 46 28
10.314284710958491 -0.03170727838704014 2.456270146230887 39 47 29
8.360631303609729 0.1735016374153625 2.559874578795338 39 47 27
8.971075109024657 1.1885533968971036 2.668439038720837 32 41 21
8.307984569356664 0.6700796016953614 2.569582371717763 37 45 25
8.828580108070902 0.8357852513234154 2.70100825531097 35 43 23
8.695326188666037 0.8220289801663958 2.503711930196139 33 42 21
8.340202005455561 0.9834935810261335 2.5636099483322554 32 40 19
8.731281978737298 -0.05864558823346741 2.7252694763927376 39 47 27
7.864504292032808 0.2213010913666628 2.6642699973819037 39 47 27
7.641124894054474 0.6175089766247438 2.724311984897448 37 45 25
8.987641736580814 -0.21507975929344736 2.461049349364278 39 49 27
8.936245568759434 -0.18291030782256662 2.3047321640107126 34 46 25
9.634699373650735 -0.18291030782256662 2.3818784222739913 40 47 25
10.799361061230108 -0.45682258712576645 2.403033664062266 40 50 26
10.443618254835192 -0.5726809776142264 2.3034905097524234 37 51 26
11.356114147371754 -0.6507943481116054 2.483639356027763 40 53 30
10.443618254835192 -0.5726809776142264 2.3034905097524234 37 51 26
11.018361559236048 -0.7557837955605351 2.3814567538183513 38 52 27
10.799361061230108 -0.45682258712576645 2.403033664062266 40 50 26
9.177648276462362 1.2860297389703415 2.9365906306560454 36 44 24
10.062416390968384 2.148959210407277 2.6747055137130906 33 44 21
9.524487479024403 2.056706504561242 2.803555909995252 37 45 25
9.524487479024403 2.056706504561242 2.803555909995252 37 45 25
9.42418791244559 1.3850443979566582 2.8352670632747525 35 45 23
9.177648276462362 1.2860297389703415 2.9365906306560454 36 44 24
9.28061268534894 2.259225586085398 2.8887223880176514 37 45 25
9.998913299011216 -2.7308031897090905 3.0897386390712795 38 46 26
9.998913299011216 -2.7308031897090905 3.0897386390712795 38 46 26
11.85559473795255 -1.9080431499739499 2.7560824625375697 44 54 33
12.021039828362259 -2.102601014642057 2.7234725014428878 43 52 31
11.114605319111357 -2.102601014642057 2.6869319652189376 43 55 34
11.70860745254126 -2.2281056559943515 2.78830156964479 41 48 28
9.807096063531313 -0.689716396998797 1.4671627248560766 33 44 21
10.591069612920798 -0.6293372732297307 1.6639787151035477 33 45 23
10.545131975953694 -0.6293372732297307 1.5694187786617086 31 43 20
10.967923439626956 -0.689716396998797 1.0959528409191988 31 42 22
10.20112355680218 -0.689716396998797 1.8678050893974312 37 47 24
9.960330619205275 -0.689716396998797 1.3671363886996806 34 44 22
9.568264884230524 -0.9167545174814569 1.2502820822271232 38 45 25
9.859846028081533 -0.7604337076451937 1.1514547789977456 34 44 23
10.518102194542616 -0.8350296699215181 1.1791854561140749 35 44 27
9.877250151150168 -1.010152457380236 1.0383013358692879 37 46 26
8.971136475851473 -1.1159131392941868 1.1068356057547724 38 46 27
9.100352678093119 -1.272336678786504 1.2331642360571178 38 46 27
9.090770143304475 -1.272336678786504 1.9054129841729546 41 49 26
9.149911621345819 -1.165122705240433 1.7895301028566486 39 49 25
9.57969784042982 -1.0669210361955777 1.7795680766456652 38 48 24
9.922507581632864 -0.8350296699215181 1.7722542340180771 41 47 25
10.169911693963469 -0.8350296699215181 1.8687445404261647 38 47 25
9.893353548646976 -0.9782891474926346 1.5693280251293835 39 47 25
8.405383956250489 -1.3870897588457092 1.6883097415241324 39 47 27
8.986096790207974 -1.165122705240433 1.6806838237799775 40 48 28
8.642928177850928 -1.272336678786504 1.6850656417736463 40 48 28
9.771653368397203 -0.8350296699215181 1.6718183071151311 38 47 23
9.137482542019189 -0.9167545174814569 1.4595378386365383 38 48 25
9.426439903143498 -1.0669210361955777 1.4629618418461765 38 46 28
9.559151417752437 -0.9167545174814569 1.888426076419926 42 48 26
8.56025231850823 -1.1159131392941868 1.9270440285676473 41 49 27
8.98932929712109 -1.165122705240433 1.457696392113372 39 47 29
8.347426687101832 -1.3870897588457092 1.5690560983209187 39 47 27
8.466871320041243 -1.5069297415135139 1.3305617837700447 37 45 27
9.631981545028893 -1.5069297415135139 1.0232285800316383 38 46 30
8.902904151759541 -1.772689997393343 0.972487183439575 38 46 30
9.137231408263178 -1.9713431359254623 1.3484954239623672 38 46 28
8.466871320041243 -1.5069297415135139 1.3305617837700447 37 45 27
8.79900644763149 -1.863711243790663 1.7984039268442635 38 46 24
8.45706630791396 -1.628626082070254 1.8077792628396807 39 47 25
8.460005825763355 -1.5069297415135139 1.8076953445758448 39 47 26
8.748865396575898 -1.5069297415135139 1.919033398476749 40 48 26
8.06150911412645 -2.0200963031742876 1.6933471605489299 38 46 24
8.27955454001 -1.628626082070254 1.690104121751853 39 47 27
8.572083769688328 -1.863711243790663 1.5691017062549728 39 47 27
8.746022964291067 -1.628626082070254 1.9191513853413713 42 48 26
8.184103588270787 -1.9016125731501956 1.944202846763277 39 47 25
8.399964347221793 -1.7486395241251689 1.449723280635894 38 46 26
9.917072298968668 -0.9167545174814569 1.9843654033840992 40 48 26
9.39673320614538 -1.010152457380236 2.0088016708301026 41 49 27
10.293448795061565 -0.7604337076451937 2.076398794449546 39 49 27
10.359501442561072 -0.9167545174814569 2.072872454447353 40 50 27
10.359501442561072 -0.9167545174814569 2.072872454447353 40 50 27
10.240913397569143 -0.8434730465446592 2.195019070692971 41 51 29
10.240913397569143 -0.8434730465446592 2.195019070692971 41 51 29
10.855747527092015 -0.8434730465446592 2.269834287032496 39 51 28
11.52467793595195 -0.8434730465446592 2.3363025675523987 41 53 30
11.821142950128573 -0.9408718913995014 2.4342923282254096 41 55 33
11.080093568734933 -0.9408718913995014 2.3756143854513665 42 54 31
8.375524511395442 -1.3622891619978377 2.0667238527349934 41 49 27
9.780734992286918 -1.165122705240433 1.990491403952586 41 50 28
9.427179738339394 -2.0200963031742876 2.128030028189868 38 48 25
10.694421405945697 -2.0811915741984968 2.4138761337212937 42 54 31
9.427179738339394 -2.0200963031742876 2.128030028189868 38 48 25
8.24923964799138 -1.6366284831405242 2.0750249803358276 41 49 28
9.296706669409499 -2.0811915741984968 2.2702860243903107 39 49 26
8.59944758103682 -1.9016125731501956 2.0526887644555556 38 48 25
8.36661381530763 -1.772689997393343 2.0673001519496546 39 48 26
14.860626070410648 -1.4980972429105655 2.6337947336698524 48 60 39
9.673919439462 -2.6808388895133066 1.361018049516245 38 46 23
9.778548491331934 -2.9127521104602 1.6717468306869643 39 47 24
14.591550906944818 2.337786467314265 2.149891610439195 32 36 17
9.581073174021936 2.3219068140494534 2.3877890998618634 29 37 17
13.946716190212543 2.626895395489438 2.3688133047324555 27 32 15
10.531239770088138 -2.280753124320289 2.4314444904719608 42 53 30
10.077377002704598 -2.8868466854125114 2.088308211169034 40 44 24
9.689928459887277 -2.464328738640155 2.1112214251571704 39 49 26
9.822037763456693 -2.4864351844799066 2.362005900133213 40 50 27
9.382848211414947 -2.6817344084333605 2.2625860616806404 40 48 26
9.901198783424393 -2.2204776632511205 1.153315838778748 38 45 27
8.21378021346973 -2.195469323469274 1.9427876995775712 39 47 25
8.712585627533345 -2.126475701912369 1.800702009445832 37 46 24
8.543787617370933 -2.126475701912369 1.451771147584385 38 46 24
8.712585627533345 -2.126475701912369 1.800702009445832 37 46 24
9.186261726901952 -2.2936317177026373 2.019559512790876 39 47 24
9.662212566001479 -2.2936317177026373 2.112943427332524 37 48 25
10.360983255318958 -2.195469323469274 2.3106901815950067 39 51 28
9.363656582143756 -0.6053140905293927 1.784458701690489 35 46 22
9.385614548933797 0.418637281142586 1.4624909469875955 31 42 41
9.557349810015342 -0.4584279360938883 1.6740915147647946 32 44 20
10.60017030910117 -0.4159146600063512 1.7592150292984914 31 45 18
10.902507931341177 -0.500282802718235 1.4776070977695501 29 43 19
9.711533480684373 -0.4584279360938883 1.7766929317555935 33 45 19
9.034887348076829 -0.024271870606996107 1.9075643392084656 31 41 26
9.19416790052648 0.31661343804843184 1.3498949744008122 32 43 46
8.65753278319066 0.46689690194842837 1.8021905433025303 30 42 36
8.527388106922249 -0.024271870606996107 1.5690928240204252 30 41 27
9.123327335265918 -0.5097830309352575 1.9041724919041088 34 46 22
8.978401171084254 0.8879909412413993 1.793778434626152 25 39 31
8.948481754006686 0.7260569350055575 1.7945366519644597 27 42 40
9.061315886254148 0.10500232899533113 2.1533918074043794 33 44 26
9.321736329832952 0.46689690194842837 2.012573030805765 27 42 40
8.517652758383354 -0.02749589643336233 2.0577179351723873 31 43 24
9.865096197099959 -0.28528801089580147 2.222739773993852 36 47 24
9.194141460467375 1.820136450082976 2.433762438730885 27 33 15
8.270695121532665 1.2149362715776821 2.0735940741170324 20 30 9
8.073048510877705 1.0859576000702238 2.4059718326648407 26 37 14
8.94245447163141 0.809089003240322 2.032730115970361 22 34 22
9.680297185432602 0.6016357634203742 2.376932508749416 32 40 21
8.307984569356664 0.6700796016953614 2.569582371717763 37 45 25
8.564913122851406 0.6175089766247438 2.7716478235634368 37 45 25
9.632597493840256 0.5265722171793342 2.241295153367797 31 40 24
8.412588595632098 0.3043365099642572 2.821572446890495 39 47 27
8.093777947059612 1.1885533968971036 2.612107274824816 32 40 18
9.802969708066716 -0.5726809776142264 2.2275860279280897 36 49 22
10.382599827407349 -0.18291030782256662 2.4482606741455237 42 48 28
11.763300497968412 -0.7557837955605351 2.440063991126996 40 54 30
9.226443948879783 -0.5726809776142264 2.141644773008503 35 48 21
9.810267177706876 -0.32615797671046187 2.3632204968392294 37 48 24
9.41723446771432 -0.45682258712576645 2.259565186984902 37 49 25
9.42418791244559 1.3850443979566582 2.8352670632747525 35 45 23
9.177648276462362 1.2860297389703415 2.9365906306560454 36 44 24
9.421549223646242 1.7392972560295912 2.8361538155399146 35 45 22
10.146760031191363 -2.159308336153644 2.476723278556677 41 53 30
10.951149998335142 -2.159308336153644 2.5330902500906562 42 54 31
9.629399796886654 -1.628626082070254 1.0230650875291045 38 46 30
9.509991550282965 -1.3622891619978377 0.886093460451891 38 46 30
9.417633982794857 -1.165122705240433 1.893370358116517 41 49 26
9.487528328582103 -0.7604337076451937 1.8909089687103928 39 47 25
8.282557057847333 -1.5069297415135139 1.690060665091007 39 47 27
9.57969784042982 -1.0669210361955777 1.7795680766456652 38 48 24
10.82934298037368 -0.7604337076451937 0.9819624959061803 33 42 24
10.090606460933465 -0.9782891474926346 1.7688531801861629 39 49 25
9.721844598462535 -0.8350296699215181 1.569302121911075 37 47 22
8.58029292084171 -1.3870897588457092 1.8043120786189615 40 48 28
8.63189857442155 -1.863711243790663 1.452991790214242 38 46 28
9.100352678093119 -1.272336678786504 1.2331642360571178 38 46 27
9.40909228904942 -1.010152457380236 1.1299947220820734 38 46 28
10.420610509607524 -1.010152457380236 0.9555300219503993 36 45 29
8.586574423600855 -1.272336678786504 1.5691045660896394 40 47 28
9.928361802721971 -0.8350296699215181 1.3664713488172897 36 45 26
9.8480526471532 -0.7604337076451937 1.9874433664725144 38 48 25
8.375524511395442 -1.3622891619978377 2.0667238527349934 41 49 27
10.183933671467143 -1.0669210361955777 1.9728935223611503 40 48 26
9.8480526471532 -0.7604337076451937 1.9874433664725144 38 48 25
10.507047683268034 -0.8350296699215181 1.9598514423899605 40 48 26
8.36661381530763 -1.772689997393343 2.0673001519496546 39 48 26
8.634077068399202 -2.628980560763516 1.6851832967744365 35 48 20
9.082355483791828 -2.628980560763516 1.905735132808869 38 48 25
9.540820127238657 2.153320457178896 2.1206252891179087 27 33 17
9.63926287372033 -2.3812948773775364 2.240746881129666 41 51 28
14.582632363583908 2.9720641020243814 2.325058442173965 34 33 15
9.215409182574597 -2.464328738640155 2.018037035286937 38 49 24
10.290108643942316 -2.3812948773775364 2.3169960693146434 39 50 26
9.186261726901952 -2.2936317177026373 2.019559512790876 39 47 24
9.963449099584983 0.6560869127639503 1.2634204788608168 31 42 51
11.52994103147301 -0.6053140905293927 0.9167850081892251 29 41 30
11.814201545063227 -0.4584279360938883 0.9351014246650641 31 42 33
10.098453017622537 -0.32477120049808555 1.668538471199038 31 43 21
9.208765891133554 0.2073093933567301 1.9009613004620598 30 42 34
10.050263986268048 -0.32477120049808555 1.5693509491061985 30 43 28
11.00261488143491 -0.2957656427588882 1.5694760564182528 30 43 27
10.840151050824144 -0.4159146600063512 1.2889922993271097 26 41 25
8.390904689702793 -0.28528801089580147 1.9345649557347977 34 44 20
9.227570074297113 1.0447423671030098 1.7876597145185555 22 31 17
10.986692273017242 1.5222047697121073 1.7525109465528435 27 37 14
9.497686498398627 -0.5097830309352575 2.0038292723363655 34 46 22
9.02891774621127 -0.02749589643336233 2.1557579049448905 34 43 26
8.796489564998618 -0.28528801089580147 2.041008522860563 35 46 22
8.551987981459549 0.10500232899533113 2.055593487515737 31 43 26
9.02891774621127 -0.02749589643336233 2.1557579049448905 34 43 26
8.70187269256805 0.2339205840984996 2.0465424316212233 32 43 33
10.135779844462046 -0.4028706483707973 2.202510712135261 35 47 23
9.56104188586468 -0.03170727838704014 2.390023609470754 39 47 26
9.725518073014149 0.26818201989641327 2.372097991530355 36 44 24
8.731281978737298 -0.05864558823346741 2.7252694763927376 39 47 27
8.412588595632098 0.3043365099642572 2.821572446890495 39 47 27
7.522501069215725 0.9834935810261335 2.490919116070894 32 41 21
8.360631303609729 0.1735016374153625 2.559874578795338 39 47 27
9.723228785706288 -0.6735308719492721 2.1091677698303686 37 48 25
11.356114147371754 -0.6507943481116054 2.483639356027763 40 53 30
9.177648276462362 1.2860297389703415 2.9365906306560454 36 44 24
10.095966478037004 -3.0022068388626932 2.993509683044816 37 45 25
9.998913299011216 -2.7308031897090905 3.0897386390712795 38 46 26
10.468669603951515 -0.763821761794675 1.4737332586662222 36 46 23
10.209663994883714 -0.689716396998797 1.271066531015315 31 43 17
9.754490266271459 -0.689716396998797 1.5693071226185507 35 45 22
8.571595096652489 -1.7486395241251689 1.8045534432355719 39 47 25
8.986096790207974 -1.165122705240433 1.6806838237799775 40 48 28
9.954495198938574 -0.689716396998797 1.7715980139576517 36 46 22
9.804133185051999 -0.689716396998797 1.6714824969966928 34 46 23
9.774626092142958 -0.8350296699215181 1.4668172242381516 38 46 23
8.399964347221793 -1.7486395241251689 1.449723280635894 38 46 26
8.587062244192328 -1.3870897588457092 1.3339890687892932 38 46 28
8.283062783179524 -1.628626082070254 1.4480059584720468 38 46 27
8.958173190555023 -1.1159131392941868 2.0318567220066113 42 50 28
8.252253195672647 -1.4980972429105655 2.0748234837299524 42 50 28
8.938723100281358 -2.0200963031742876 2.032937952704672 39 47 25
9.252655453637782 -2.8868466854125114 1.899336126339632 40 47 25
8.367253129666894 -2.464328738640155 1.6888477636729837 37 46 24
9.329970816356514 -2.5331724529646364 1.3531624650395526 36 46 22
10.531239770088138 -2.280753124320289 2.4314444904719608 42 53 30
8.540386476129015 -2.126475701912369 1.686443749436768 37 45 23
9.050830126054608 -2.2204776632511205 1.5691913437924903 36 46 22
8.335140253696029 -2.2936317177026373 1.6893047186380725 36 46 22
9.714886868180534 -2.195469323469274 2.234595280702076 39 49 26
9.382518572966655 0.418637281142586 1.6760233582142288 30 42 40
10.461872161118691 -0.4159146600063512 1.4736699944141356 29 43 21
9.98928917956198 -0.5483201286855963 1.5693421264877383 32 44 21
10.605650473221198 -0.4159146600063512 1.3796867293170274 28 41 21
8.34332176504828 1.6526315016181004 2.370854973006301 27 33 13
8.439421798587933 0.9366969296693068 2.359198752375303 24 36 13
8.442504893561185 1.4936846206362642 2.2025001794153027 26 33 12
9.156783889633916 2.198128913579349 2.438543217869037 29 38 16
8.027235992671166 0.47057133378207994 2.626448126982262 37 45 25
9.958503487530535 0.4044611488777217 2.3482377109370907 35 43 22
9.591642813715064 0.1209487487883203 2.3866159405198846 37 46 27
7.93554532273441 0.8357852513234154 2.647240850369526 35 43 23
8.59616767455875 1.0710675282868687 2.7623827282327484 35 43 23
9.634699373650735 -0.18291030782256662 2.3818784222739913 40 47 25
10.271909519395146 -0.6735308719492721 2.192847208227348 37 49 25
9.785123971651183 -0.21507975929344736 2.5253970086463524 40 48 28
10.582550797075516 -0.6507943481116054 2.4258234751295658 38 52 27
9.250417875087273 -0.6735308719492721 2.0162225389138344 37 47 24
10.082422931783801 -0.45682258712576645 2.336211994108664 36 48 24
8.856097367140071 1.4332941342595682 2.6944636209248376 30 40 15
9.421549223646242 1.7392972560295912 2.8361538155399146 35 45 22
10.02817815377132 2.110574905604931 3.0492727326232583 37 45 25
10.124950817079553 2.6483131789460312 2.9754159929275388 36 44 24
8.45706630791396 -1.628626082070254 1.8077792628396807 39 47 25
8.646288982944249 -1.272336678786504 1.4531887673854456 41 46 29
9.371697626525796 -1.0669210361955777 1.5692462951283688 39 47 27
9.426439903143498 -1.0669210361955777 1.4629618418461765 38 46 28
9.559151417752437 -0.9167545174814569 1.888426076419926 42 48 26
10.096363212940549 -0.9782891474926346 1.369918168244289 37 45 27
9.771653368397203 -0.8350296699215181 1.6718183071151311 38 47 23
10.813234264178671 -0.7604337076451937 2.157395854488527 40 50 29
9.138577180439874 -1.5069297415135139 2.022073634794156 41 48 26
8.79866224830175 -2.2936317177026373 1.9169795494737438 38 46 24
9.272304549560005 -2.2204776632511205 1.3517869658911537 37 45 23
8.934787187295035 0.2073093933567301 1.7948854373973395 30 41 32
8.584130420813297 -0.024271870606996107 1.685851799627069 31 40 24
10.190387823925425 -0.5483201286855963 1.3717966109127604 31 43 20
8.563037832060596 1.3499823088456597 2.1922387580426577 23 31 11
9.998913299011216 -2.7308031897090905 3.0897386390712795 38 46 26
9.284440993172641 0.4044611488777217 2.27139814029559 32 41 24
9.034088478262296 0.26818201989641327 2.2950053178041685 36 45 25
9.954495198938574 -0.689716396998797 1.7715980139576517 36 46 22
8.912401029972653 -1.9713431359254623 1.5691664148714572 39 47 25
8.184103588270787 -1.9016125731501956 1.944202846763277 39 47 25
8.856815999918382 -1.7486395241251689 1.9146121459958243 40 48 26
14.929431845856193 -1.3622891619978377 2.6255733028317483 45 58 37
9.466416901544603 -1.272336678786504 2.0053568781370283 42 50 28
9.921243644063479 -2.628980560763516 2.097289938714704 38 49 25
11.52467793595195 -0.8434730465446592 2.3363025675523987 41 53 30
11.328085035433281 -0.8553724805088035 2.4868476315776475 41 54 33
9.448789628081883 0.35541345163107996 2.126605590803346 31 42 27
9.106121339761142 -1.9016125731501956 2.1501533044513836 40 48 26
9.513020487077725 -2.6808388895133066 1.674574587059423 37 47 24
8.81312400020236 -1.272336678786504 1.798032913771884 40 48 28
8.86523399369129 -1.3870897588457092 1.9142721931626916 41 49 27
9.764818467141215 1.695412289158928 2.7393580303543086 30 42 16
8.61820079855217 0.09276031559110834 1.6853949445287928 30 41 30
8.79269187285178 -1.6366284831405242 0.9639177932574134 38 46 30
8.338485965092854 -1.7486395241251689 1.5690542324048742 39 47 27
10.55667433343582 -2.4864351844799066 2.4286467902040685 40 48 26
