6.3455304825329515 0.9049521093245821 1.9731581952105424 45 50 23
5.642591222819995 0.9429688852620867 2.236483598384713 47 52 27
5.302156915476184 0.7832919270839979 1.8546413875247731 41 46 20
6.614124392889314 -0.07271576861416276 2.125724236382892 52 57 31
6.916466666382276 -0.21003495346729156 1.7871658671401018 46 52 27
6.352690462896986 0.4329742873455474 1.8067164334289478 42 47 22
6.614124392889314 -0.07271576861416276 2.125724236382892 52 57 31
5.991617584840731 0.3326509317871567 2.191518923408788 43 49 22
5.089148448700328 0.6230594595109908 2.0808991778622037 42 47 20
6.331085520579835 0.5124370374114532 2.153683821846493 43 48 21
6.627956251404832 0.10512351637570289 2.124431074458456 46 52 27
6.33586932424899 0.27659295064661665 1.9738072244763043 43 49 23
5.798741215507231 0.7824815789654134 2.4550153182659846 44 50 25
6.797340385696679 0.08930388658481717 1.7910197814382902 42 48 22
6.783853899746082 -0.06173990051732311 1.7914648315821278 47 53 30
7.854049567555163 -0.07271576861416276 2.3438837932755465 51 57 32
7.302119277870258 1.8149941665981117 2.232151072138797 48 54 31
6.148858720951214 1.4627091884793049 1.9868104937894615 47 51 30
6.7546430167824125 1.7790995349333305 1.6426403369057696 45 49 28
6.783944250481483 1.4790068601505548 1.7914618439983017 44 48 27
6.27546753821932 1.8149941665981117 1.9779144485635616 47 53 31
6.570236483548958 1.97521440224103 1.9586473991058948 47 53 31
6.850131238803737 2.0512811716758588 2.284597901161611 49 55 33
6.447073297962017 1.4394150829638457 2.340111304076857 47 53 28
6.616512637544156 1.2341818041361945 2.315601890015577 48 53 28
6.616508908232332 1.4627091884793049 2.1255008446612242 48 53 28
7.009831239927091 1.97521440224103 2.0910951011672227 49 55 32
5.966160984825884 1.1501370063883016 2.4214577557835475 47 53 28
6.616508908232332 1.4627091884793049 2.1255008446612242 48 53 28
5.42327523835326 1.0158111115514024 2.54448593000056 47 53 28
6.82333306506882 2.33412489180372 1.9435393642330823 48 56 34
6.939828971772419 2.5540938714530164 1.936983798500571 49 57 35
6.92443428259875 2.6936481356292483 2.0981756483199963 55 61 39
7.477801595156753 2.6936481356292483 2.2139936249049095 54 62 40
7.192659738275259 2.8546320147005217 2.2440504644983355 55 61 38
6.434155090322561 -2.8313578361208465 2.3420573286079365 59 61 37
7.002280189648967 -2.924758585072141 1.9335658581939736 57 62 37
6.87132377641116 -3.0777966169908546 1.940809839366467 58 60 35
7.026238605310811 -3.0660092645114347 2.263086970321834 57 62 37
6.4483691707425494 3.0323403656706365 2.141739091047566 56 61 36
7.039260722880135 3.0323403656706365 2.261553995046658 56 61 36
7.041407218171609 2.897605432344298 1.9314575520762547 54 59 35
6.291384133260873 -3.04889419334708 2.364361329544699 59 61 37
6.979316726257081 2.158581040118602 2.4749044795311965 50 58 36
7.506306381549676 -2.33728462360971 3.0659879032317647 58 63 38
6.924444973008308 -2.9725670268819053 2.783358457165164 57 63 40
6.780727171313099 -2.3507829987582483 2.845099435725092 58 63 38
7.009841800101407 1.3408178625008351 2.752117213600272 49 57 34
7.054415326467323 -2.609676054444859 2.737000552185421 57 63 38
6.601633408658072 -2.748167958242094 2.5514014238157827 61 63 39
6.9508426831573615 2.4893529994521204 2.4801278430545035 53 61 39
6.601633408658072 -2.748167958242094 2.5514014238157827 61 63 39
7.342861526452498 2.968987214422629 2.6533361670910565 57 62 37
7.490045259047456 2.7030164578738853 2.6175384692636716 56 62 39
6.959463430863424 -0.982649063341843 1.9359021156813458 60 60 36
7.276908334990753 -0.6369902502533658 2.234850264582096 58 62 40
7.429478698189031 -0.5462184799755324 2.0590212326289916 52 58 35
7.075857313684022 -1.1844687122667723 1.7822170909298594 61 60 37
7.187095975514325 -0.3495684368909082 1.778896348717459 46 52 27
6.677351300774002 -0.8850865656624687 2.119865039039473 61 62 38
6.706986532963809 -0.6369902502533658 2.117163883224225 56 60 38
6.706986532963809 -0.6369902502533658 2.117163883224225 56 60 38
6.843301776550186 -0.7634027728382088 1.9423986180160404 56 59 35
6.963917771727674 -0.9178932605475572 2.4777196747098174 61 63 39
7.556869991225259 -0.4817231192079422 2.3830097027303636 60 62 38
5.844659925690707 -1.221287977418348 2.2096148900869457 61 62 38
5.6521291805379175 -1.4340229028155846 2.2351591646793603 62 63 39
6.49074542787459 -1.221287977418348 2.3336163334983357 63 63 39
6.49074542787459 -1.221287977418348 2.3336163334983357 63 63 39
6.606117314780469 -1.4763987174445927 1.7975042942470647 61 61 37
6.771578202319529 -1.3251366154771824 1.7918715060644332 61 61 37
5.9827815541824085 -1.4590785782058342 1.999108229245175 61 61 37
5.9827815541824085 -1.4590785782058342 1.999108229245175 61 61 37
5.430402447236407 -2.182970884704337 2.267550884279371 62 64 40
6.441220388172949 -1.8769072523188126 2.3409915758506017 62 64 40
6.120375584998943 -2.182970884704337 2.3931886463555 60 65 40
7.0130978741330114 -1.7848753096022545 1.932980440473343 59 59 35
6.576131988332083 -2.3539654265577816 2.3212779352306883 63 63 39
6.11789788357794 -2.524342346566393 2.3936248716569732 63 63 39
6.150233477142213 -2.0952529553128563 2.672135117345944 62 64 40
6.469597716313165 -1.68566662948464 2.5826013186126078 64 66 42
6.6545221735221425 -1.1302859759726025 2.5396390839456306 62 64 40
6.024618705134365 0.9049521093245821 1.8198283253303804 41 46 21
6.168656343267302 0.7832919270839979 2.1711455793120935 46 48 22
7.976559307405024 0.12771740407083543 2.5200652653146784 50 56 30
7.968872694659545 -0.24610858508601968 2.329919977473878 53 58 31
9.326582491149539 -0.37228654735997146 2.7134790633987094 61 61 34
7.302119277870258 1.8149941665981117 2.232151072138797 48 54 31
5.984021467231006 1.2341818041361945 2.1924268398866316 48 53 28
6.131474390122748 1.6410109610619874 1.988063460117473 47 51 29
6.60035641153045 1.6410109610619874 2.1270178455769733 47 53 28
6.148858720951214 1.4627091884793049 1.9868104937894615 47 51 30
6.6210790402814315 1.6303862348327045 1.6440921880440755 44 48 27
6.659161966301654 2.4562589464094122 2.1215370786303187 51 59 37
7.099643344448705 2.4363119611837134 1.6391435602302575 47 55 33
6.996750822794184 2.1162381851353183 1.9338658389584007 49 55 32
6.688877787256106 2.2072312763225774 2.1188110631260866 48 56 34
6.4341512553141 -3.0660092645114347 2.1431590652299004 57 61 37
6.434155090322561 -2.8313578361208465 2.3420573286079365 59 61 37
6.573822312044724 -2.8861529983864984 2.1295291865147132 58 62 37
6.615483923954915 2.8546320147005217 2.1255968461027654 55 61 38
6.791980717729958 2.6086329271116155 2.2920376988344526 53 61 39
6.4341512553141 -3.0660092645114347 2.1431590652299004 57 61 37
7.332433306757191 2.756472732368683 1.9165295288660613 52 60 38
8.527075114926749 0.7727466725502478 3.0420495026373606 57 62 37
6.780727171313099 -2.3507829987582483 2.845099435725092 58 63 38
6.27547933415732 1.0158111115514024 2.634201331132378 49 55 32
7.330378763115406 -3.02180703554362 2.6565519298925406 56 62 39
7.205384517608522 2.7940217306792494 2.435984475168626 56 62 39
7.624378671092268 -2.856441749013986 2.9499958283759735 58 63 38
8.645306981430258 -0.24891874616451135 2.948635860123219 56 61 36
6.214281441280903 -0.8850865656624687 1.9821640603765143 59 60 36
6.8075885292048595 -1.036790931336747 2.2900235795330164 61 61 37
6.8845498883845435 -1.6320852042705893 1.9400647817237342 59 59 35
5.633212129859975 -1.6597668057000308 2.2377916971378093 61 63 39
6.164994768736787 -1.2820189388714462 1.985654435669291 62 62 38
5.964913222468421 -1.6433806565999842 2.0004763739384614 61 61 37
5.802799554950854 -1.9588396082205015 2.4541624460542133 60 65 40
5.7896108268617565 -1.8769072523188126 2.216695434321357 60 62 38
6.317934063915849 -1.4340229028155846 2.3600990317790536 65 65 41
6.589939347456518 -1.6320852042705893 1.7980706230586019 60 60 36
6.724224054892933 -2.6401263165750652 2.300932531117994 63 63 39
6.450727590735336 -2.3530369794956596 2.5872953007157022 62 64 40
6.606225036845008 -1.9588396082205015 2.5503645852864016 63 65 41
6.48607585404389 -1.3946287381746705 2.5785530853567282 62 64 40
6.311805213875739 0.6230594595109908 2.3610781413223974 44 49 22
5.840626448112877 0.5124370374114532 2.0102494912860847 41 46 20
6.5817718045906 -0.2967052038052591 2.320479191137954 57 59 35
7.197724481367508 -0.21003495346729156 1.9232791108639082 52 57 32
8.318568205384873 -0.1127572351405074 2.690056425759373 55 60 34
6.7546430167824125 1.7790995349333305 1.6426403369057696 45 49 28
7.662307789794097 1.813030442696489 2.925963149603331 54 62 39
7.167152732349417 -2.8313578361208465 2.4422692019707837 58 63 38
7.052262293808252 3.0077411497684765 2.4618670354418635 57 62 37
6.147767809196853 -2.609676054444859 2.672926351708794 59 64 39
6.643120608575406 2.7030164578738853 2.5421418624429317 53 63 40
6.4977415978198625 -1.1216694068579702 1.9632097784171276 63 63 39
7.5020825173482555 -1.0581689722457794 1.7700387648317537 59 59 35
7.075857313684022 -1.1844687122667723 1.7822170909298594 61 60 37
6.063842262119886 -0.7571349263884448 2.183028428644005 59 61 37
6.865606856045637 -0.4817231192079422 2.2826471541467566 57 60 36
6.706986532963809 -0.6369902502533658 2.117163883224225 56 60 38
6.194637602028191 -1.036790931336747 2.1682768670660146 59 61 37
6.963917771727674 -0.9178932605475572 2.4777196747098174 61 63 39
6.30101622458644 -1.6597668057000308 2.362808722513227 63 65 41
6.441220388172949 -1.8769072523188126 2.3409915758506017 62 64 40
6.956076401603568 0.23639821919964082 1.7859143799737454 41 47 22
6.7070705612637695 2.1162381851353183 1.7940336331839415 48 54 31
6.32629029872203 1.290984760195473 1.9744528714090204 47 52 27
6.688789841396664 -0.7571349263884448 2.30568482924423 59 64 39
6.959463430863424 -0.982649063341843 1.9359021156813458 60 60 36
6.992338570949935 -0.5887553499899879 2.4725413279813018 61 63 39
6.150233477142213 -2.0952529553128563 2.672135117345944 62 64 40
5.490281481299082 0.5124370374114532 1.8446598973129713 40 45 19
6.791980717729958 2.6086329271116155 2.2920376988344526 53 61 39
6.672904167558919 2.3278086217409903 2.3078384389285604 50 58 36
7.965069729677623 -0.08842553057811708 2.522082153644594 52 58 33
7.2999620992306395 -0.2967052038052591 2.4209094130636384 59 61 37
6.87132377641116 -3.0777966169908546 1.940809839366467 58 60 35
7.016225991538796 -0.5462184799755324 1.9328115176138363 53 58 33
8.078314998358495 -0.2967052038052591 2.5026881375488856 58 60 34
7.039264228223478 -3.04889419334708 2.464154972236492 57 61 39
6.884638917633683 3.049323333557639 1.9400597769257233 56 61 36
5.6521291805379175 -1.4340229028155846 2.2351591646793603 62 63 39
6.783853899746082 -0.06173990051732311 1.7914648315821278 47 53 30
