11.048834409315099 0.8777827784539373 1.7093757547336983 30 42 18
9.905193290513587 1.0356528212949474 1.7254980020772002 30 40 16
10.242837276148508 1.1700011228847564 1.6221958452925973 29 39 16
9.433341937065439 1.5717548589543116 1.6266109524977945 25 35 11
9.487149005922833 1.677520164724793 1.6262940693802237 29 39 15
9.653154951402957 1.128112530332739 1.8355810485055368 29 39 15
9.592829310322763 1.465968183863997 1.7305780435430058 25 33 10
9.763426309575728 1.3385676485160916 2.0528410587524104 32 42 18
9.012186906282267 1.3385676485160916 1.8549178767307821 28 38 13
10.358010474243857 1.128112530332739 2.0230349053438266 30 40 16
8.845200336496092 1.4536239895577117 1.8604353680051378 31 41 17
8.615172144324548 1.6900836036670341 1.7488941643401166 34 44 20
9.609503080883036 1.4536239895577117 2.0612403341438656 33 43 19
9.9617212744671 1.128112530332739 1.9326190201971651 29 39 15
9.339318461157953 2.0152298881772923 1.6271734586697435 31 42 18
10.354056760638356 2.1907081700550775 1.5250248619715727 35 45 21
9.06958121383318 1.9140697255824806 1.7398826403115664 32 43 19
9.345813378410714 1.8050552044860042 1.957683462127755 33 43 19
9.345813378410714 1.8050552044860042 1.957683462127755 33 43 19
9.660634026174254 2.0152298881772923 1.8353711343165373 34 44 20
13.187898468672698 0.034899400294956445 1.1427887639583676 37 45 24
10.293022422081068 0.23751390898179373 1.6219450200636278 32 42 19
10.321792712236466 -0.05812222352135667 1.8180568051460178 23 29 7
10.20595440893338 0.14105005637296517 1.720903979266745 25 31 9
10.511209237824326 0.9785868860252066 2.124390301920686 29 39 13
9.774804314647147 0.5958736741088401 1.7275785737067642 31 41 19
10.374496039024088 0.8198477761228631 2.1325556920815254 28 38 12
10.501996792049995 0.8150693335542927 1.8137277747097407 29 39 15
10.012236217314724 0.2939068522012908 2.1554961959646217 22 30 7
10.673306184520921 0.5051090775082404 2.1150306594321986 29 37 14
9.474280669549934 0.5051090775082404 1.8407039641517833 29 37 14
10.663220437221087 0.5958736741088401 2.009175676236218 26 34 11
10.55635282863506 0.6767118668030432 1.8124518879962326 29 39 15
9.799473417257971 0.4042515078137354 2.0509174019129786 22 30 7
10.074707779420939 0.04652951270597485 2.0367422970412137 22 27 5
9.76138012910888 0.15649558947943507 1.9403985271583404 25 33 10
10.68412631740551 -0.3790638243650993 2.008258557034641 35 43 20
10.354762264757076 -0.42133505707555274 2.133755641876072 32 38 15
10.020072968796693 -0.580108887565168 2.1549786040574017 45 53 31
10.741685442286286 -0.5205678101264405 2.1111825572105767 32 40 18
10.741685442286286 -0.5205678101264405 2.1111825572105767 32 40 18
10.025571138195732 -0.6737436317909843 2.0392084914395987 38 46 24
9.25071891456273 1.5720132702850802 2.2110332696640675 32 45 18
9.303641452531565 1.4380039063759962 2.2068025887690914 32 45 16
9.72222361187468 1.1875606776168064 2.1753728348277295 34 44 14
10.074898302231567 1.0772400623547085 2.15138496820037 33 43 15
9.473218117556303 2.3232461417466364 1.9522101606478306 38 46 24
9.668204406851302 2.2515989237970206 1.7293217725131302 35 43 20
9.875559056936165 2.2515989237970206 1.8294795486786741 35 43 20
9.196601474394157 1.9561237924401298 2.085371376116176 32 44 21
9.271302838250946 2.407810932552943 2.0808217886503892 43 51 29
9.219082947557746 2.3169327081849076 2.2135919322303086 44 51 29
9.282901008538394 2.5075435017826013 2.208453273816126 47 53 31
9.148189507679756 2.3232461417466364 1.8505792333243603 38 46 24
9.466356889227173 1.8352609727933855 2.194169730585162 32 44 20
8.28615501173417 2.909751729745405 2.300870819390414 48 54 31
8.28615501173417 2.909751729745405 2.300870819390414 48 54 31
8.28615501173417 2.909751729745405 2.300870819390414 48 54 31
7.68739152042333 -2.8842644077090602 2.200355080094152 48 57 35
7.68739152042333 -2.8842644077090602 2.200355080094152 48 57 35
9.09942284426471 -1.144238328187861 2.223476914819189 46 54 32
9.475306852009671 -1.0256797967485929 2.1934907468853218 47 55 33
9.701885564367513 -1.5718483843093605 2.0561627794214052 44 50 28
9.264942744150096 -1.0862371629496812 1.9612422909849578 49 57 35
9.32253776853382 -1.1950256424692929 2.0777501078314473 47 55 33
9.795375357759015 -1.1354770370132616 1.831646252323457 50 55 33
9.488834541277324 -1.3428183972638235 1.9515502075430275 45 51 29
10.254804609521953 -1.4558258948415022 2.1399190523610323 43 51 29
9.433891720710209 -1.4408214528620313 2.1966463052740366 45 51 28
9.754211380889169 -1.687842683499681 2.0533354083105446 47 53 31
10.20681506340042 -1.5718483843093605 2.1429297924515387 44 51 29
9.960038342080107 -1.675721232215901 1.8272358200367396 45 49 27
9.904327592743272 -1.365915450264383 1.7255116328619324 46 52 28
9.367326551040525 -2.39307695933841 2.0750966410508584 51 61 40
9.907708908827148 -1.8007699673288209 2.045236746368982 48 54 34
8.581481587993927 -2.39307695933841 1.8696065169034717 51 59 39
8.331950404980375 -2.604123013675832 2.145087206170952 49 59 36
9.315644947571732 -2.3022051146577494 2.205851530010813 53 62 44
9.802745925059616 -2.0078441632846618 1.8314455548580804 58 64 44
10.402652837446217 -1.8007699673288209 2.1308530018580227 51 59 39
8.808183815772734 -2.490195372531322 2.1104840795520694 50 60 39
9.431287253014293 -2.1546594058822177 1.841965359487032 55 63 41
10.497811296564917 -1.9670803609410132 1.7167004274227229 54 60 40
10.158050298128128 -1.8750930883147103 1.7216172721084304 48 52 31
16.961804817574663 -1.2608058601812566 1.303883700365653 39 45 20
16.961804817574663 -1.2608058601812566 1.303883700365653 39 45 20
19.47472308640571 -1.67849860482526 1.2858877489529799 37 35 16
10.8261353269602 0.4548161559941731 2.3394836104426293 42 50 28
11.288064534428333 0.3330777098181077 2.4269580876316437 45 51 28
11.510471203507645 0.3837052110402387 2.5456425148315396 44 50 27
11.023112241366492 0.4512555682770539 2.614367427728813 43 49 28
10.38486219838711 0.7352786213483439 2.250340213353901 42 48 26
10.535179699553899 0.5636533218829968 2.238865805959918 39 47 24
11.284781739332654 0.600564832828555 2.575806504369981 43 49 27
10.553099577803847 0.3330777098181077 2.3648186785377225 45 52 30
10.53166222743825 0.8264597406318139 2.366891796371208 38 46 24
11.11679385051314 0.20020712145368827 2.4449017846213383 46 52 27
10.414416396854493 0.17570069800768148 2.2480496385272124 27 35 12
11.09056684149241 -0.19536816380625482 2.316674130908681 30 35 14
10.635360229565523 -0.31245231533264267 2.2314542704761404 29 35 13
11.700019594795467 -0.07262319212102487 2.3872731024445764 49 56 33
10.99263245470451 -0.07262319212102487 2.3249371101817218 30 38 15
11.693064351880126 0.05234223311853856 2.3879063044429376 47 54 31
11.261276858756066 0.06976635180873061 2.5791018332736413 44 50 25
11.09056684149241 -0.19536816380625482 2.316674130908681 30 35 14
10.264608825783725 -0.5387940454545734 2.3938457225730527 49 56 34
9.36775762570967 1.2700213622422778 2.3415428822797573 37 47 19
9.207222115981926 1.417616241814836 2.3586175109022838 37 47 19
12.385350691266192 1.7953034766919134 2.766941519534425 44 50 28
9.985928630631784 1.0145175375044015 2.2830538628425217 37 47 21
10.09623521080183 0.9359748540658688 2.41200699737285 41 47 25
10.918777708194161 0.9757441914286603 2.631019216463368 43 49 29
10.862157044814333 0.9359748540658688 2.4734109959943735 42 48 26
11.233950795778513 0.8362099338843507 2.5829721586772694 43 49 27
10.09623521080183 0.9359748540658688 2.41200699737285 41 47 25
9.942914142512334 1.726722826392784 2.4294226356760604 35 45 19
9.338451970734393 2.418734872835171 2.3445949435890965 48 54 32
9.851090326878797 2.3169327081849076 2.2949338370788306 47 53 31
10.103386298846292 2.20777468288279 2.411215786534741 45 51 29
8.86377619572376 2.598750019507908 2.5850782068558313 46 53 31
10.093542381362294 1.874135418429984 2.412305409750826 35 45 21
9.635619530106347 2.0091695402489873 2.3148884368853686 36 46 22
8.86377619572376 2.598750019507908 2.5850782068558313 46 53 31
9.011158019756758 -2.8842644077090602 2.380728559918019 49 59 37
9.177984687959361 -2.835794758511274 2.5322640135593097 49 59 37
9.15135450019571 2.865602253217129 2.536446047861887 48 54 31
9.439657431624221 -2.9975856734286728 2.6980492463360912 47 57 34
9.050414010952226 3.058207820736105 2.5527630123394127 46 55 31
8.8811913443102 3.0720352618627778 2.3962254909449725 46 55 31
8.916755071848744 -0.8541600980478715 2.3919143087880936 43 53 30
8.916755071848744 -0.8541600980478715 2.3919143087880936 43 53 30
9.469489193865124 -0.9500378644338857 2.331162212197323 45 53 31
9.093364710145163 -1.078853268502476 2.3712801660605964 46 54 32
9.672694104835287 -0.8541600980478715 2.462418784852903 44 52 30
9.579135041592924 -1.2281487416674632 2.4746094982303886 46 54 32
9.479981144078637 -1.2770318257085587 2.3301100572010607 47 53 31
12.111917618476127 -1.8454224280413183 2.8293431816318044 57 66 46
11.957067672517104 -1.749650098543052 2.6473678079350753 45 55 34
12.444326135960134 -1.7875820046322666 2.7550684587602365 51 61 41
11.584901906281502 -1.8298383256481028 2.3979080258953944 46 54 33
10.098434504713925 -2.1179163223124693 2.2734735815016607 55 64 45
11.751584481726356 -1.8670724185500776 2.516031993830975 46 54 34
11.751584481726356 -1.8670724185500776 2.516031993830975 46 54 34
12.082612444506305 -1.9163108666985773 2.628416336360171 46 56 35
14.77429902928114 3.0406700242476123 1.2631602164767555 23 30 8
14.903597123688952 2.970628824890714 1.2659154613928107 21 30 7
10.277183617978325 2.4659824714424197 1.6220239174570523 34 44 20
9.489514884817252 2.637438791727281 1.8402598508865737 40 48 25
9.535335455198737 2.483473562617347 1.9495988904905077 41 49 27
9.489514884817252 2.637438791727281 1.8402598508865737 40 48 25
9.789570875855853 2.5467669463566835 1.7273401313604553 37 45 22
8.73935363238863 2.8483110214658813 1.8640467859801533 47 53 31
9.06717140736604 2.7381567095484916 1.8531474742648912 45 51 29
7.857235210308422 3.081933752925937 2.036206693184131 47 54 32
8.259797751414657 -2.78871799518305 2.0118766512915998 49 57 35
7.867582203669594 -3.0588387249234636 2.0355463308765493 47 55 33
8.516983415114321 2.9662799932284534 1.8719400580339283 46 52 30
7.9732954647825744 2.941887670564231 2.0289098355948036 47 53 31
8.418100477905245 -3.0691326155520064 1.8755904690653997 46 54 32
14.514072263778772 2.68323938821327 1.5381494554852377 29 41 17
10.242837276148508 1.1700011228847564 1.6221958452925973 29 39 16
9.999313069357186 1.263309635485871 1.7240302919733919 24 34 10
9.641152824409925 1.3624768759627846 1.6254066817128443 24 32 9
10.01531013716153 1.2294260393908585 2.039726941642752 31 41 17
9.127327943385763 1.5718687170817254 1.96745570567268 34 44 20
9.18292826635903 1.6900836036670341 1.9649209505284837 34 44 20
9.653154951402957 1.128112530332739 1.8355810485055368 29 39 15
8.845200336496092 1.4536239895577117 1.8604353680051378 31 41 17
8.789517913499898 1.5718687170817254 1.8623238835791898 34 44 20
8.788586190925745 1.8050552044860042 1.7453434796146718 33 43 19
10.356591217041245 2.1907081700550775 1.6216307976467317 34 42 19
9.485245592108436 1.465968183863997 1.6263052176196124 25 34 11
9.06958121383318 1.9140697255824806 1.7398826403115664 32 43 19
9.788487341759325 0.5051090775082404 1.939325909307937 24 32 9
10.514733552038608 0.7427439276760947 2.0158063577271794 26 36 12
10.429516598871182 0.6593676596196574 2.1292387534438015 29 36 15
10.429516598871182 0.6593676596196574 2.1292387534438015 29 36 15
10.362629724556234 0.6767118668030432 1.718617654758869 33 43 19
10.133678888342946 0.4567873396770291 1.721982780871697 32 40 20
9.945181880076934 0.36334898932032106 1.8276275426437256 30 38 16
10.165482391865952 0.15649558947943507 2.0322568113978923 22 28 5
10.864637169241501 -0.2795848686665754 2.1044067758845046 29 36 14
10.67134650537953 -0.17410156331265073 2.1151418017235786 23 28 7
10.67134650537953 -0.17410156331265073 2.1151418017235786 23 28 7
9.41864605696495 -0.9219722724793298 2.072091985956593 51 59 37
9.466356889227173 1.8352609727933855 2.194169730585162 32 44 20
9.305582012707948 1.7059792002112852 2.2066486231180527 32 45 18
10.074898302231567 1.0772400623547085 2.15138496820037 33 43 15
7.534625354023941 3.0720352618627778 2.2152052060368526 46 55 31
7.655578008492391 2.909751729745405 2.2033855304687426 48 54 31
9.907708908827148 -1.8007699673288209 2.045236746368982 48 54 34
9.795375357759015 -1.1354770370132616 1.831646252323457 50 55 33
8.338561740376198 -2.490195372531322 2.007421972026674 48 58 35
9.330382473978368 -1.4558258948415022 1.9583573609600244 44 50 28
10.157792672674406 -1.9080476960957027 2.0326332925632093 55 63 43
10.110411462185448 -1.7774830300980757 1.8233378881382831 44 48 27
9.590633807997238 -1.3139810188099719 2.1848835033854104 46 52 29
17.051019228916754 -1.2037262572606466 1.365632952334065 44 50 27
18.055106912894257 -1.1717950108980972 1.4890800374514415 42 50 27
19.52827288432156 -1.783294449618102 1.339652407423353 13 7 1
18.340290731753697 -1.848348297325858 1.4903534612351919 19 13 2
11.276674041888372 -0.31245231533264267 2.3015312525283127 51 57 34
10.53166222743825 0.8264597406318139 2.366891796371208 38 46 24
10.211270056086517 -0.4773161529928639 2.558899679182143 46 52 30
11.342559319138111 0.23251479002804976 2.5678350986634344 44 50 25
10.822712418271708 0.7246496921770987 2.4780421350462607 42 48 26
10.38486219838711 0.7352786213483439 2.250340213353901 42 48 26
10.967030250300931 0.5185463502355642 2.461386993431627 43 49 27
10.005365139610902 -0.3068361685997259 2.5909096233862154 45 51 28
11.792080524656619 -0.19536816380625482 2.3790014066371885 53 59 35
9.714949845745071 -0.6224182695017925 2.457048807443361 47 54 31
10.921244974544434 -0.42133505707555274 2.2112675805959747 45 51 28
9.15374214471938 1.5722028650484081 2.3645057624452077 36 46 20
9.629996198081109 1.134731844930546 2.3154261569964745 36 46 18
9.941097994054868 1.417616241814836 2.429634278720781 36 46 20
10.862157044814333 0.9359748540658688 2.4734109959943735 42 48 26
8.575085677268142 2.691752702057513 2.435758216984441 48 53 31
9.910839589494833 2.5075435017826013 2.289614471766999 48 54 32
9.749890181162552 2.077707003681363 2.452669893688697 42 48 26
9.66549947108147 2.542710364153314 2.463341356105736 47 53 31
10.093542381362294 1.874135418429984 2.412305409750826 35 45 21
9.402026776913823 -2.6657485289839307 2.4989116207088555 51 61 40
8.348341089933813 2.865602253217129 2.468250002997666 46 54 31
9.431035353821462 3.0375435377013806 2.699977369719003 46 55 31
8.644607164542947 2.8014803395450247 2.627275680081387 46 53 31
9.059398343765904 -3.026048703756906 2.551279750084493 47 57 33
11.622464526603927 -1.7229279364953576 2.531579903203972 41 49 29
9.72423838124059 -2.5208839330408237 2.455879357004952 50 61 40
10.203184390640736 -1.8298383256481028 2.2648108945217875 46 53 33
12.082612444506305 -1.9163108666985773 2.628416336360171 46 56 35
10.052402858643282 -1.4408214528620313 2.2773579652429903 45 51 29
12.111917618476127 -1.8454224280413183 2.8293431816318044 57 66 46
10.217007983891076 2.3278108732246374 1.5244104554525733 35 45 21
9.212498684330713 2.483473562617347 1.8485741357392205 40 48 26
9.625743461833586 2.4001336194834133 1.7300270147993635 37 45 22
8.003846219967409 -2.9196915078236385 2.027028534513576 48 56 34
8.40843095201004 3.0893682100753495 1.8759522698415647 47 54 32
14.634537828698404 2.970628824890714 1.3311419447681878 22 34 11
9.604891821835137 1.2294260393908585 1.9467181352361957 28 36 12
9.818736102609986 0.17570069800768148 2.1685977236274683 23 31 9
10.11554298980607 0.04187810214985369 1.7222559291716486 23 29 7
9.647245576287496 0.26278745656883135 1.835747144788537 26 34 12
10.166734137056423 0.8914651456561802 1.9249977590354326 28 38 13
10.278705164484215 0.5958736741088401 1.9209723613073204 28 36 14
10.263104593964252 -0.5205678101264405 2.027532341776264 35 42 19
9.878391723371942 -0.7500164476357377 2.1644914122047836 51 59 37
9.370737946051896 2.1291013062673003 2.201526065881324 38 46 24
8.82635633113603 2.407810932552943 1.981781999966159 41 49 27
7.953533363836766 -2.735849951359053 2.1761903039201997 50 59 37
9.570555618030431 2.0662382780405175 2.0634145473279752 35 45 22
9.753371814232391 -1.9080476960957027 1.940716638395318 51 57 37
8.927167326731016 -2.39307695933841 1.9768658877361738 47 57 36
8.927167326731016 -2.39307695933841 1.9768658877361738 47 57 36
9.75236009102913 -1.4558258948415022 2.053434851865739 45 51 29
9.908799504315384 -1.5717385817654654 1.828591974759735 44 47 25
10.110411462185448 -1.7774830300980757 1.8233378881382831 44 48 27
8.8101495650388 -0.9500378644338857 2.248824988732196 44 52 30
10.202381770596993 -2.05721852638322 2.1432096507312024 56 64 43
11.26849861653907 -0.09673518644100035 2.578086066785741 44 50 27
10.59704507424988 0.2939068522012908 2.234267282782966 41 49 27
10.425963478599305 0.9098803002471505 2.247159359432524 34 44 18
10.868976940094022 0.4042515078137354 2.2148563626207736 35 43 20
9.406937060082589 -0.7426321779880205 2.337506125019634 46 54 31
9.406937060082589 -0.7426321779880205 2.337506125019634 46 54 31
10.87860920280585 -0.4734252263060886 2.3348290641943463 52 58 36
9.604224033471056 2.3076286055639392 2.4712986541144426 47 53 31
10.879538366280105 0.7083105245297547 2.637495976297218 42 48 27
9.553524847290996 -2.7658818036995316 2.6735901111655047 48 59 37
9.382213196753737 2.20777468288279 2.3400477249562663 44 50 28
11.914420303404128 -1.5724138687719111 2.654052405902178 44 53 31
9.441282596074178 2.5791036441121262 2.070778599952751 44 50 28
9.135211118719011 2.9854056361205727 1.6284344701659343 44 50 28
14.83263270219473 2.902239002065456 1.3344040337120706 23 32 9
10.402780137597132 1.0356528212949474 1.9166196973577527 28 38 14
10.637071410770229 0.9523068031093765 1.8105819834389087 30 40 16
9.609503080883036 1.4536239895577117 2.0612403341438656 33 43 19
9.914303591896196 2.10752534068246 1.725354702544311 33 43 19
9.807570302757753 2.10752534068246 1.5224725010962707 33 43 19
9.290306433519333 1.9140697255824806 1.8461867715227218 33 43 19
10.082779449244779 -0.06456967480291531 2.036339765130615 20 24 5
9.798446129511305 2.407810932552943 2.1700083932146423 48 54 32
9.620867983837211 2.164679411113923 1.9460628053858975 35 43 20
9.462541313953594 1.308600660403608 2.194459688444079 33 45 14
9.428226510655746 -2.221359901865179 2.0715352371045404 53 63 42
9.264942744150096 -1.0862371629496812 1.9612422909849578 49 57 35
10.4557317889367 -2.7658818036995316 2.7167477388899393 49 61 40
11.033848381058842 0.059812619854356486 2.4539357880514263 46 52 28
10.697591181775632 0.3837052110402387 2.4931490879272413 43 49 27
9.985928630631784 1.0145175375044015 2.2830538628425217 37 47 21
10.446196813596794 -1.9486262237397831 2.245605640936698 55 63 43
9.177984687959361 -2.835794758511274 2.5322640135593097 49 59 37
7.9732954647825744 2.941887670564231 2.0289098355948036 47 53 31
9.747816411522768 -1.2354199208184096 1.9409376436967616 48 54 31
9.31537951874141 2.233463075869245 2.078176920413176 39 46 24
12.876740723995594 0.11776224129061533 1.2159682740731745 39 47 25
18.63824885240659 -1.9001332640515602 1.491642165934877 39 32 23
10.32583040091497 0.05234223311853856 2.254967609222609 28 36 13
11.24054511756697 0.2939068522012908 2.304415650786308 45 53 31
11.584901906281502 -1.8298383256481028 2.3979080258953944 46 54 33
11.792080524656619 -0.19536816380625482 2.3790014066371885 53 59 35
12.40335425677891 -1.5727669387961989 2.7632673733765283 49 59 38
10.054198901475429 -1.703112125726357 2.2772054971677878 44 50 29
9.135211118719011 2.9854056361205727 1.6284344701659343 44 50 28
9.475306852009671 -1.0256797967485929 2.1934907468853218 47 55 33
10.104900551853625 0.14105005637296517 1.6228981045736117 30 36 14
9.305948592130107 -0.8411822876786986 2.2066195475782653 49 57 35
11.233950795778513 0.8362099338843507 2.5829721586772694 43 49 27
10.585865939792201 0.6354860660174888 2.3616745540402424 43 49 27
8.516983415114321 2.9662799932284534 1.8719400580339283 46 52 30
8.003846219967409 -2.9196915078236385 2.027028534513576 48 56 34
19.14126108488985 -1.7313406963642266 1.388305155624446 33 31 14
11.830511608208578 -0.08296668582813356 2.506854195156828 47 53 30
11.068539159322098 0.17570069800768148 2.3185144170877785 45 52 29
9.303641452531565 1.4380039063759962 2.2068025887690914 32 45 16
9.798446129511305 2.407810932552943 2.1700083932146423 48 54 32
