19.350580461251468 0.16319901052078695 1.4569782904086985 48 59 26
10.999915993618535 0.011271563567702515 1.6437987208032316 37 44 10
11.369091057806001 -0.25643049252547206 1.6414241841335486 48 53 20
11.369091057806001 -0.25643049252547206 1.6414241841335486 48 53 20
11.1581153550235 -0.16940531737451625 1.6427618919902982 45 50 17
10.05275349669201 0.655139256730604 1.551129514533876 8 13 5
9.745855339879093 0.47747212967828634 1.971586552638305 36 46 8
9.366663734250471 0.3735304296112852 1.9888039086703484 36 43 11
8.755386021241076 0.8890256902279791 2.0200374337518427 38 47 15
9.467560641430579 0.8732855780316405 1.7623318670883474 36 45 13
10.478560512500051 0.3036205766594527 1.647437876507772 26 33 1
10.037963118294858 0.7963057144658465 1.4511950669302538 36 45 13
9.126854711150932 0.9616394538101348 1.8828772877101059 35 44 10
9.667729973133191 0.3351028629848547 1.758318477121122 33 42 9
9.183238669229798 1.3328964085019064 1.9976936808497872 39 48 14
9.951904636658963 1.160381873025492 1.550930192361597 35 44 12
9.593472945447434 1.4648857217133546 1.8672240433833234 38 47 14
10.12562814537455 1.573767486617132 1.5512710756135808 39 46 13
9.219670689208609 1.1162402953974275 1.7675482722923506 32 41 9
9.544363850802837 1.5740931389876358 1.8687959473782862 40 49 17
10.315426749070594 1.37861194328595 1.5516303747086313 39 46 14
10.155439901659296 1.573767486617132 1.6498814358183513 39 46 16
10.357004322861409 0.012402009895188077 1.8447826442087896 45 52 18
10.158267105027415 -0.3103067559688928 1.954445305099019 51 58 26
10.393278200281328 -0.08767371967806309 1.8438018627141388 51 58 24
9.971305057700125 0.23247232594083336 1.962025415075403 44 53 19
9.725732619631069 -1.0078989190906729 1.863073186166361 52 59 27
10.485374756381159 -0.4079106971418762 1.9418843248699502 52 57 28
8.803519421411824 -1.0472127820898605 2.017403106939227 54 61 29
8.803519421411824 -1.0472127820898605 2.017403106939227 54 61 29
8.588966729065612 -1.3257179760188813 1.903149412819278 53 60 28
9.254730312118008 -1.1039293161256436 1.8784226803885904 52 59 27
10.58007255570706 0.561120591140423 2.553446022567281 47 56 24
9.591859891993213 0.4213243569525943 2.220461624895267 48 57 25
9.57436935818337 0.48205997113930077 2.3609629151882654 46 55 22
9.290384337821282 0.6044830170635976 2.2453511992588107 50 59 28
9.77540525706028 0.709261145892162 2.20627374031463 47 56 24
9.791119082953115 0.8890256902279791 2.205090577572409 43 52 17
9.436991206778258 1.574498964242715 2.104680916802716 43 52 20
10.35352875763398 1.1192273055374031 2.4243015428904884 44 53 18
9.152672722313495 1.575708237525583 2.408643484885578 46 55 23
10.143376793669203 0.9115972860159155 2.4483879408403872 45 54 19
10.609093514416747 1.0454751678969063 2.549356610503539 46 55 22
10.230991228644449 1.3837075655192757 2.606766432400818 47 56 24
10.184956538055511 1.5766668907969965 2.6144458043297525 47 56 24
9.187715194720385 1.5750187250931138 2.2543197603485203 44 53 21
10.499780961564513 0.8043902660425215 2.5650134911736244 48 57 24
8.436041945365673 1.575708237525583 2.3292498795792196 44 55 18
9.090050701566142 1.1757980574011426 2.127397742797914 41 50 16
9.238720275980638 1.4354734611502196 2.249831231785987 43 52 20
10.63440864103714 1.5780904770031632 2.743375626653634 49 58 24
11.027361774391837 0.6666587868544943 2.6657515335524113 48 58 28
10.708074797310596 0.8106214341424092 2.727328230789182 48 58 30
10.67850593402866 1.3397861924315468 2.733671365531811 47 57 24
10.815282281179963 1.125137132826691 2.705333108836881 46 56 23
10.15502583322562 -0.39138935052088597 2.3047981774439465 54 59 31
10.269361092793803 -0.3463523320137813 2.171243519931767 52 58 26
9.439109441551102 -0.3609961260747024 2.543824165890786 57 62 35
9.825031423804848 0.020709775008924926 2.4883635010202223 49 58 24
10.462843032239022 0.017739143459656097 2.4124048381263377 48 57 23
10.175309588453562 0.01378446552892842 2.0623053999972387 48 55 21
10.051161926335 0.34176639755266414 2.459506424359771 46 55 23
9.2429440456105 -0.3045239543661395 2.3978591158731626 55 60 32
10.34612544048357 -0.20620868017893532 2.0534877610938396 50 57 23
9.863261919031954 -0.14575270734617118 2.4833154635990535 53 60 27
8.807956265624124 -0.44898714808824264 2.289962392647703 57 62 35
10.236416952049277 0.12461988836423199 2.0591124261296083 49 56 22
9.778505165112577 -0.12507630429098604 2.3401049867887203 51 58 24
9.687594141697533 -0.5246486715000613 2.507132187875622 58 63 35
10.175309588453562 0.01378446552892842 2.0623053999972387 48 55 21
10.170709006424877 0.22235243884727451 2.6168573676682483 49 58 24
10.522280699192521 0.1598393734297181 2.4061046563504864 47 56 22
9.825031423804848 0.020709775008924926 2.4883635010202223 49 58 24
10.304047785791479 -0.700475120530633 2.0556289219694674 54 60 33
9.655752634225585 -0.7774992728284404 2.091340054594072 54 60 32
9.063423092186182 -0.7758949176497655 2.265541074296928 56 61 32
9.76835234659362 -0.6104757524919819 2.084744236993881 56 61 32
10.030063482297884 -0.6624023099243228 2.462100738084237 57 62 35
10.08007223193603 -0.4526859139926415 2.067370111927843 53 58 31
9.1832884514111 -0.5758920387153433 2.2547124501709974 56 61 34
9.273486895505544 -0.6624023099243228 2.3942859250582176 56 62 34
9.749174852237886 -0.9449605614920242 2.0858551122436024 54 61 30
11.259345741736384 0.36169965062105114 2.855692101312733 52 61 29
10.63522891679651 0.27582709138241224 2.743192330633747 51 60 28
10.786816069072072 0.49120420375679286 2.711028315330104 50 59 27
10.786816069072072 0.49120420375679286 2.711028315330104 50 59 27
10.786816069072072 0.49120420375679286 2.711028315330104 50 59 27
10.638563112227022 -0.7693937080786782 2.742448393194073 58 64 37
10.740864663828711 -0.4415216823933571 2.7204393590719227 57 62 36
11.183931843889434 0.8229351068042334 2.8796062669087545 52 61 29
11.895284658751546 0.858697236769599 3.01648039363387 54 64 30
10.981152849228105 0.06268849391232632 2.9608662919652766 54 63 31
11.051718855012744 1.1423658048304324 2.928740195520219 52 61 27
11.015371582601455 -0.41857449946865266 2.9445893789216706 57 66 36
11.006873419320174 -1.0937045936289507 2.9484958985489533 61 69 40
11.015371582601455 -0.41857449946865266 2.9445893789216706 57 66 36
8.776026872999369 -1.1028359753705483 2.2931524828551755 55 64 34
8.776026872999369 -1.1028359753705483 2.2931524828551755 55 64 34
9.81571151339485 -1.407216078201836 2.4896051642935038 60 67 35
10.06281629211284 -1.576964612544769 2.6356869842997463 61 69 39
9.4093220344528 -1.1868681409059718 2.548489738342444 59 67 35
9.672457269098324 -1.5751705811241044 2.350776984903968 59 66 36
8.880910354729766 -1.0237516642383937 2.443309456921617 56 63 33
10.06613650015229 -0.9170296626354352 2.6350919212080193 57 64 34
9.720919270370109 -1.430668974505632 2.3458573305901558 58 65 35
8.897568579250613 -1.1630925765234992 2.140915672309097 56 63 33
8.997322677592512 -1.5751705811241044 2.27167912173423 56 63 31
9.204482048539488 -0.9170296626354352 2.582362699676879 57 64 34
9.22496039620665 -1.5746152210150932 2.118323553757695 53 60 28
8.44316545766029 -1.430668974505632 2.175818619793445 56 62 31
10.117953395634911 -1.5738418849301405 1.351843823893155 50 59 27
9.995870998195828 -1.4729037818731627 1.4506890012801654 49 58 25
9.956237518671271 -1.4729037818731627 1.6514671620800314 51 59 27
9.109258289308563 -1.461957848506348 1.7699649243264828 52 59 27
10.315121664208563 -1.2786878440891334 1.5516298077780475 50 58 25
9.269219407256294 -1.3524065862073407 1.7664828605461027 51 58 26
9.629636976404433 2.1252062288454523 1.4460977026962267 44 53 21
9.68797702153046 1.8914477035718296 1.4468525064973454 52 59 27
9.381149669621902 1.7897368765382171 1.6564242545894436 47 56 24
9.028418850522925 1.6969232140266512 2.0055078022549506 44 53 21
8.855700692086023 1.9278077050184115 1.775747573093391 43 52 20
9.070521726652109 2.031312613590568 1.5489995071692522 42 51 19
8.624694572453627 1.9729673256087303 2.027356047634651 43 52 20
8.904855095701794 2.1856108445558884 1.7746002767475908 42 51 18
8.904855095701794 2.1856108445558884 1.7746002767475908 42 51 18
8.789673827608416 2.2584612660669534 2.0181575756184125 43 53 19
9.557124108456176 2.808560313146825 1.5501094580377113 38 48 10
9.397793579198497 2.348495417649207 1.9873330424865467 42 53 18
9.559167898484695 2.573658621078904 1.6548258251546355 41 51 14
9.735197381711995 2.424995874509122 1.862780663520639 44 53 19
9.999065644446414 2.7132161544913784 1.450727560411672 41 51 12
10.100514019045498 2.490082880114079 1.551222521433051 41 51 14
9.9575330277068 2.808560313146825 1.8560760117686752 42 51 16
9.588703535006532 2.808560313146825 1.654566384913216 39 49 12
10.079827271584016 2.349583304503076 1.4516941693697951 42 52 15
9.379884225710441 -2.139137714291571 1.6564358350099206 59 68 40
9.756610917903643 -2.139137714291571 1.8621210350325887 58 67 39
9.798732462400626 3.1279000083098922 1.9693011003615963 50 59 27
9.338794318446215 -2.7976345306663917 1.9901298639955498 60 67 37
9.479176148404111 -2.8332241829211964 1.549939323829738 58 64 35
10.274124349620642 -2.956658233632937 1.4539569529303065 56 64 35
9.209013484303236 3.1279000083098922 1.7677789546848386 52 60 26
9.44989645153493 2.910614380794908 1.7626943504502672 45 54 20
9.511014389132523 -2.8332241829211964 1.6552522716542677 61 65 36
10.070230990628124 -3.054442114660142 1.5511636518639718 56 62 34
9.837065165707555 -3.0448481145887185 1.9676610050053003 59 65 38
10.094759323295465 3.0300294523211346 1.5512113616132874 46 55 21
9.862173425012898 3.0177944953105618 1.9665942441977156 48 57 23
9.882743709411415 -2.8332241829211964 1.8582961767705075 59 66 36
10.190361788935068 -2.5098469510574746 1.3534246779269719 58 65 34
9.920231891179904 -2.4453496148541705 1.9641500170920378 59 66 35
9.80376720826118 -2.595851940767952 1.860679033573645 58 65 35
9.899639357033875 -2.7361104182254223 1.4495157412764574 57 64 34
9.906594908968142 -2.3672488200331925 1.4496013135154324 58 66 35
9.565506863735108 -2.290718745037685 1.8681171217320394 60 69 39
9.906594908968142 -2.3672488200331925 1.4496013135154324 58 66 35
9.210405860941288 1.7374493207592852 2.4017073039627097 46 55 23
10.00060251223404 2.1528564007038877 2.318817758872787 45 54 20
10.385261479858842 1.9480373336359826 2.582198630574167 47 56 24
10.626091198861412 2.104861136040459 2.546983237646962 47 56 22
9.890647196915634 2.346978995480056 2.329183435687673 46 55 24
8.49864470756656 1.7374493207592852 2.322293180671207 44 55 20
8.351207333709105 2.030287801290495 2.1834535908546515 43 52 20
10.608464398716077 2.5858786040896176 2.549444760262502 47 58 25
8.82778639096141 1.848414433169565 2.1459920362379443 43 52 20
10.944716702325065 2.4548952501083545 2.5052115856519497 47 57 23
11.057627305575352 2.2045011755359583 2.660467362630444 50 59 25
11.057627305575352 2.2045011755359583 2.660467362630444 50 59 25
10.0046637746441 2.611104577424547 2.1894762008739903 45 54 20
10.26891448528819 2.7234664657915766 2.294837358706192 46 57 22
9.635662429140464 2.7234664657915766 2.217012740589466 46 56 20
10.688422128538003 2.5417898759201 2.389085283365266 46 55 23
9.936598501559285 2.5117859328470504 2.0752107491719967 45 54 20
10.434800435817408 2.4372828731173746 2.2808660604944437 46 55 23
10.956971249573218 2.7234664657915766 2.363261365800255 48 57 23
10.538295693653012 -2.622144503400621 2.5594173724131117 60 70 41
11.552568315649376 -2.2023549106329257 2.312268382010999 60 67 38
11.249936112539128 -2.371711705417197 2.4693575540518498 61 68 38
10.115356142533573 -1.778975776319058 2.6263892233221378 61 68 38
10.853956390714806 -2.485016460454947 2.5166160840151752 61 68 38
10.428241039123458 -2.3756360324440773 2.5756501416104984 61 70 42
10.832429014989469 -1.9858497061340468 2.3749922435907074 60 67 37
11.352795887406685 -1.8578679421669508 2.458053842326644 60 67 37
9.858623028123187 -2.100916554697541 2.2000622876189415 59 67 38
10.776515264984546 -1.9034264227429176 2.526646633106619 61 68 38
10.776515264984546 -1.9034264227429176 2.526646633106619 61 68 38
10.853956390714806 -2.485016460454947 2.5166160840151752 61 68 38
11.324910488803216 -2.1719377062052745 2.4610824512431035 61 68 38
9.282243935227152 -1.7008395984923201 2.1145651579250013 54 61 29
9.709807866071367 -1.93804923844615 2.0881514481477534 56 65 35
10.967801387078048 -2.2342689233727038 2.676399474605532 60 70 41
10.734640613682 -2.053231036990102 2.7217355787206934 60 69 39
11.359813399482595 -2.126790453750225 2.61176329454527 60 67 37
9.542798351394765 -2.912046417413705 2.098139091017138 60 69 39
9.960626020965126 -2.8807699761954195 2.3225483365510886 60 69 39
9.534495569914576 -2.696513913181065 2.36519409541064 62 68 41
9.55835496706354 -2.753224566372421 2.223127222503721 61 67 40
10.03785469240614 -2.839924921558517 2.461140473999436 60 69 39
9.157333851457087 -3.0175756716894657 2.257025034321625 57 66 36
9.821475323231963 -3.0175756716894657 2.3358770757173066 57 66 36
10.583768198377555 3.00256482582912 2.2688283809200716 49 58 24
8.986519649929875 -2.753224566372421 2.1345823365386476 61 67 40
9.357329424896628 3.126195093472428 2.109721061119724 52 61 27
9.11614337658029 3.1240052770235627 2.2607313161004736 52 62 28
10.878987465062165 2.802979991345773 2.5134338693793765 48 57 23
10.878987465062165 2.802979991345773 2.5134338693793765 48 57 23
10.010159734531452 2.8482277696923015 2.31793220080259 48 57 25
10.524677785170493 3.126195093472428 2.2735478819288955 51 60 28
9.594489436999234 2.883049382675836 2.0950044726882373 47 56 24
9.811366970403366 -2.5351476666651696 2.0822708678585293 58 65 35
11.479080958184447 -2.369105496425634 2.3181470065178225 61 68 36
9.354690193867938 -2.637679476541095 2.1098897741142233 58 65 35
9.905293679697813 -2.637679476541095 2.1966364861509677 61 68 38
10.943870806861186 -2.3672488200331925 2.025073023333638 60 68 37
15.341614122974185 3.1109196534597108 2.8756561140173655 55 64 32
16.09066748132511 3.1008066473417593 2.951989103545034 56 66 32
15.382211502042473 2.869681550060792 2.8661331714983933 54 63 33
9.962277944885779 -1.6747181766773678 1.6514181426616368 52 60 28
10.436526171047875 -2.0863580692177437 1.358631120883344 58 66 38
9.913595583275383 -1.9969920088125799 1.7536145588815708 58 66 35
9.962277944885779 -1.6747181766773678 1.6514181426616368 52 60 28
10.399907194705767 -1.8684813943313472 1.4553764277962482 55 63 31
11.463175172984812 -1.9582261501306424 1.1958856970365561 56 64 32
9.526997182931751 -1.7956359545774108 1.8693558885800918 54 62 31
9.365015598604705 -1.6863271967015845 1.8746834158475958 53 60 28
10.999915993618535 0.011271563567702515 1.6437987208032316 37 44 10
9.021753189791747 1.4519641801057444 2.0058509009779137 40 49 17
8.998013632894237 1.0623755506750425 2.00707741375997 37 46 12
9.96821537799321 0.7963057144658465 1.5509627030867017 34 43 11
9.64467597099828 0.5713492705181201 1.7587720663616622 3 9 0
9.868213510064272 -0.8558408740323409 1.9663385031578486 54 61 30
8.799722830424184 -1.4482696825062205 2.017609725909976 54 60 28
8.871876425622483 -1.2102135537170755 1.8921635521605566 52 59 27
10.158267105027415 -0.3103067559688928 1.954445305099019 51 58 26
10.357004322861409 0.012402009895188077 1.8447826442087896 45 52 18
10.748284428586242 -0.28087549215485125 1.8345656373263282 50 57 23
9.591859891993213 0.4213243569525943 2.220461624895267 48 57 25
8.814146579137608 1.3010060214314971 2.1469956375301185 42 51 17
11.041293975803976 0.9466310710970007 2.663308769589713 48 57 24
9.945645047066956 0.6044830170635976 2.3239574521709843 43 52 24
9.323420566404195 0.9956221243214578 2.24252079244061 40 49 17
8.943507657487011 1.1192273055374031 2.2767673854989856 42 51 17
10.230991228644449 1.3837075655192757 2.606766432400818 47 56 24
10.373669715154785 1.2037440649175666 2.5839859000102807 46 55 24
10.574872794358656 0.8006277131946133 2.400624940494774 45 55 18
10.148797635459374 0.6666587868544943 2.6205991920233043 49 58 26
9.97651168073597 0.9956221243214578 2.3210607643205114 43 53 16
8.436041945365673 1.575708237525583 2.3292498795792196 44 55 18
9.808223104990837 0.7981093928894496 2.0824507912609183 40 49 19
10.47487584777397 1.0081469446990718 2.781295779636465 49 59 29
10.14636428001274 -0.1745359406060274 2.6210172446253117 51 60 27
10.478850695471333 0.015513764638940478 2.2772579122074768 47 55 21
9.968002992079896 0.29575242325828993 2.3218566922319352 46 55 22
10.212228866684695 -0.09738928984704814 2.060371080575633 49 56 22
9.29215227193926 -0.1745359406060274 2.567464826695612 52 60 28
9.51419651971028 -0.39138935052088597 2.2266774982413304 55 60 33
10.10920446415272 0.0248752231684839 2.6274649743901852 50 59 25
9.4965629485072 -0.44898714808824264 2.3692694645571137 56 61 34
10.478850695471333 0.015513764638940478 2.2772579122074768 47 55 21
9.648081673912884 -0.6849128014248577 2.2160422050551265 56 61 32
9.862688711519816 -0.5075553836459642 2.1997622215723585 55 60 33
9.845679308185543 -0.5758920387153433 2.3335193246966845 57 62 35
10.075428163286409 -0.6270033233934241 2.633432085130071 56 62 35
10.075428163286409 -0.6270033233934241 2.633432085130071 56 62 35
10.41279654502883 -0.5634623690776707 2.7974683033232632 57 63 38
11.139618678727603 -0.7610743582192386 2.894876571996208 60 66 41
11.237359696178796 -0.2869314724981165 2.8624251174461013 53 62 30
11.037799812165344 0.5183744097905427 2.934655899908971 53 62 30
10.63522891679651 0.27582709138241224 2.743192330633747 51 60 28
11.183931843889434 0.8229351068042334 2.8796062669087545 52 61 29
11.402638875597352 0.6207579338839077 2.8156568698230293 51 60 28
11.20381898000099 0.041611216069443326 2.8730664121046354 53 62 30
8.932113296603763 -1.1006181353074889 2.633166794253981 59 66 36
9.4093220344528 -1.1868681409059718 2.548489738342444 59 67 35
9.263390878467037 -0.887506013269519 2.3954629182650744 57 62 32
9.767719829912828 -1.575914952376596 2.4960691072274828 61 68 36
8.61550258452447 -1.2917908830439457 2.1620508467020687 56 62 31
8.997322677592512 -1.5751705811241044 2.27167912173423 56 63 31
9.202359485202676 -1.2473407777544228 2.4026656356137064 58 66 35
9.210401676461258 -1.2917908830439457 2.2523151566547783 57 65 34
9.279362502941012 -1.0472127820898605 2.1147528981829193 55 62 31
9.279362502941012 -1.0472127820898605 2.1147528981829193 55 62 31
9.269219407256294 -1.3524065862073407 1.7664828605461027 51 58 26
10.072829449013067 -1.373921529210148 1.551168717098316 50 58 25
9.908926465045422 -1.5738418849301405 1.6518531759299315 51 59 27
10.612445820802238 2.625489861058199 1.362200501018553 40 50 12
9.599741636002088 1.6832222867320568 1.8670246041039955 41 50 18
9.397793579198497 2.348495417649207 1.9873330424865467 42 53 18
9.357608644587947 2.424995874509122 1.6566401996177194 42 53 17
10.573275988457969 2.8396841704682103 1.4572771953052517 42 52 15
9.335275781748566 2.2732473000327134 1.549617771917777 41 50 16
8.781189876184177 2.348495417649207 1.7775117313412916 41 52 17
8.651063539922628 2.0856376075335668 1.9006729587025364 42 51 19
8.624694572453627 1.9729673256087303 2.027356047634651 43 52 20
9.61569098024238 1.8914477035718296 1.5502354746156324 52 59 27
9.276488352248691 3.0177944953105618 1.766327537600476 48 57 23
9.882743709411415 -2.8332241829211964 1.8582961767705075 59 66 36
10.002046674507968 -2.8332241829211964 1.2453794052101044 57 63 33
10.663287959083187 -2.8623153108445742 1.3632096511001688 59 63 34
9.396808431608028 -2.595851940767952 1.5497564749224875 57 64 34
10.025456172182762 2.910614380794908 1.9597984154624821 46 55 21
10.225413425463222 -2.3672488200331925 1.8484013847612206 59 67 37
9.09706238360997 -2.6918576126256997 1.770235533128625 57 64 34
9.904722904653918 -2.290718745037685 1.9647998887168872 60 69 41
9.209013484303236 3.1279000083098922 1.7677789546848386 52 60 26
9.24979040620662 -3.0448481145887185 1.7668992416751057 57 63 36
17.046011211925602 2.8130536215116426 1.198681741343195 46 56 25
8.763721931467066 2.1528564007038877 2.150738724249873 44 53 21
10.385261479858842 1.9480373336359826 2.582198630574167 47 56 24
10.167072246728038 2.237290453813219 2.4455871926296093 47 56 22
10.157864413169767 2.4548952501083545 2.446672867779357 47 57 25
8.65272525872418 1.7144007980089335 2.1591654907387383 44 53 21
10.615927255849506 2.611104577424547 2.2662896933556977 45 54 20
9.210405860941288 1.7374493207592852 2.4017073039627097 46 55 23
10.343841684910593 2.66363948665571 2.425375826914354 47 58 23
9.864154010963976 2.7706099768368926 2.0792696702567164 45 54 20
10.358195311129235 2.7421037796131387 2.586386094207473 49 58 26
9.718593615799207 -2.622144503400621 2.5028108349844587 61 70 42
10.633584677565928 -1.74432572047417 2.5459419734253728 61 68 37
10.06680321440235 -2.043735164909844 2.0680844766616575 57 66 36
9.709807866071367 -1.93804923844615 2.0881514481477534 56 65 35
9.991237405464542 -1.8230498380009363 2.1904332126365005 55 63 32
11.008789189457895 -2.0468774687974607 2.4973766655979555 61 68 38
10.839783409954828 -2.2614612650861083 2.5184306878502536 60 67 37
11.718095226652034 -2.278756173794908 2.420632359396171 61 68 37
10.509079227660806 -2.126790453750225 2.5636543122226136 60 67 37
10.986771203728267 -2.278756173794908 2.360514231617804 61 68 36
10.265504763613514 -1.9652847657750665 2.6011181370901797 60 67 37
11.552568315649376 -2.2023549106329257 2.312268382010999 60 67 38
11.153549951753737 -2.100916554697541 2.345543975189263 60 67 37
10.967801387078048 -2.2342689233727038 2.676399474605532 60 70 41
9.846623335718087 2.983098178805957 2.333427707674577 50 59 27
9.359416843640544 2.8482277696923015 2.2394666796078244 48 57 25
8.986519649929875 -2.753224566372421 2.1345823365386476 61 67 40
9.306420174896202 -2.8807699761954195 2.243974007701467 59 68 38
9.397462804965468 -3.0328898442672316 2.107169282446593 58 65 37
10.503013785480514 3.1240052770235627 2.4081342516403734 52 61 32
9.905293679697813 -2.637679476541095 2.1966364861509677 61 68 38
16.09066748132511 3.1008066473417593 2.951989103545034 56 66 32
10.0847670153963 -1.7735222999226035 1.5511919537217096 53 61 29
9.867537158855901 -1.7956359545774108 1.9663671233740068 53 60 29
9.75039224201325 -1.9969920088125799 1.5505195611377918 57 66 36
20.098540792903297 0.10594443518677314 1.610725611691953 54 64 34
11.03407653912814 -0.07971702665762594 1.6435723112337086 41 48 14
9.021753189791747 1.4519641801057444 2.0058509009779137 40 49 17
9.691844705739513 0.7208556583538862 1.864125440893029 16 22 3
9.628352835062014 1.2560952412644097 1.6542206178734087 35 44 11
9.092144963469561 1.2203015325093847 1.884109165312879 34 43 10
9.525384031121646 1.0217571699066452 1.550040516254308 36 45 13
10.08741469098542 -0.5490826829135322 1.957282107308496 54 59 30
10.748284428586242 -0.28087549215485125 1.8345656373263282 50 57 23
10.225112401279437 0.2098695217726313 1.6493414460934683 30 39 5
10.08741469098542 -0.5490826829135322 1.957282107308496 54 59 30
10.607008454440946 -0.6353335106812527 1.937426076331509 54 59 30
8.799722830424184 -1.4482696825062205 2.017609725909976 54 60 28
9.297408028138548 -0.9449605614920242 1.9921150502517968 54 61 29
11.057952403698556 -0.3708176774486269 1.8270104399075529 51 56 27
9.888303660086473 0.1860425784284669 2.4800476904034547 47 56 22
10.148797635459374 0.6666587868544943 2.6205991920233043 49 58 26
10.538198076203866 0.1400636099490389 2.272461694010418 48 56 22
9.187715194720385 1.5750187250931138 2.2543197603485203 44 53 21
11.237359696178796 -0.2869314724981165 2.8624251174461013 53 62 30
10.514704232771042 -0.1095167936784833 2.274351566501894 51 58 24
12.031005939158067 1.1423658048304324 2.9462997992387563 53 64 28
10.462843032239022 0.017739143459656097 2.4124048381263377 48 57 23
10.329115571465879 0.4038182070671076 2.590941535278047 48 57 25
10.084458896282992 0.2604080614932641 2.183854241239539 47 56 24
9.815243439076562 0.3735304296112852 2.0820492012367433 47 56 24
9.162886527406469 -0.9766508039135061 2.2565288147010456 55 62 32
9.251783574507082 -1.3744556092125493 2.5742463944809986 60 69 38
9.308241455862078 -1.5741849918565816 1.8765967471834113 52 59 27
10.141857761332112 -1.373921529210148 1.452426064240861 49 58 24
9.356838420117104 1.6832222867320568 1.7646270051958515 43 52 20
10.73263951087007 2.8396841704682103 1.3645704337102753 40 50 12
9.196331067439765 1.8156783322997907 1.99704619684329 44 53 21
8.829942856221964 1.8156783322997907 1.89374495308934 44 53 21
9.409716237139609 2.2732473000327134 1.4431675451852402 41 50 16
9.205161507214633 2.6671829877142352 1.7678624673676016 41 51 14
9.929094592511712 2.573658621078904 1.8569161118827566 44 53 18
9.795112398003965 2.6671829877142352 1.9694567098329552 44 53 17
10.032789193436384 3.129265020605685 1.551090374372845 52 59 25
10.032789193436384 3.129265020605685 1.551090374372845 52 59 25
9.798732462400626 3.1279000083098922 1.9693011003615963 50 59 27
10.11246411220519 -2.5098469510574746 1.7499799295336667 59 66 34
10.254339207895725 2.9329455626279777 1.5515161844593317 45 54 20
9.397410056149791 -2.9367194892594504 1.7637796063981699 58 67 37
9.975998410136713 -2.9367194892594504 1.9618313598355477 60 69 39
16.708414421928428 2.8130536215116426 1.2544646465800624 50 60 30
10.00060251223404 2.1528564007038877 2.318817758872787 45 54 20
10.369558943024023 2.348495417649207 2.16464144759909 44 53 21
9.635662429140464 2.7234664657915766 2.217012740589466 46 56 20
10.684138023539637 1.8155845686273338 2.7324532963992043 50 59 26
10.826401224207679 2.028265863948823 2.703135414425322 49 58 25
10.603278560505123 2.346978995480056 2.397701351826345 46 55 22
9.788651264605141 -2.7976345306663917 2.083573898000402 62 67 40
10.734640613682 -2.053231036990102 2.7217355787206934 60 69 39
9.357329424896628 3.126195093472428 2.109721061119724 52 61 27
10.967801387078048 -2.2342689233727038 2.676399474605532 60 70 41
11.39813048668129 -2.290718745037685 2.2102927851646887 60 68 39
9.783081534985856 3.1240052770235627 2.3396521177107776 53 64 29
11.411610033129433 -2.4453496148541705 2.2094145309335103 61 68 36
10.307890481185803 -2.2023549106329257 2.1686860984871865 58 68 40
10.981809150736414 -2.5217180990295174 2.673864614600374 59 72 41
10.561886924251759 -1.8684813943313472 1.3611871214865512 56 64 32
9.78896488322793 -1.8997583878053026 1.8611301139042324 56 64 33
8.400125735050354 -1.1630925765234992 2.0405300160741993 54 61 30
9.328991919888928 0.8732855780316405 1.6569041778302627 35 44 10
9.506311100302751 1.3581470889591618 1.7615414838508516 37 46 12
11.286620240159186 1.2697268094046466 2.8475830634604167 50 59 27
9.638378045742288 -0.868774709567846 2.2168002470228174 55 62 32
9.574044684479261 -0.7734727631064309 2.5234283204054964 57 62 34
10.63440864103714 1.5780904770031632 2.743375626653634 49 58 24
10.30888756679076 0.48205997113930077 2.4292801486326328 44 53 21
9.76387838034729 0.561120591140423 2.496591663937898 46 55 20
9.89412833555686 0.63390272179127 2.077581949387428 38 47 21
10.315121664208563 -1.2786878440891334 1.5516298077780475 50 58 25
10.25814856416886 2.490082880114079 1.7474082023579605 43 52 17
10.177843754935587 1.6721970913340798 1.5513712590611064 38 45 9
9.9575330277068 2.808560313146825 1.8560760117686752 42 51 16
9.991654404230895 -2.2242027540905425 1.4506380692940195 61 69 40
10.596289926351847 -1.8578679421669508 2.398418322852338 60 67 37
10.608464398716077 2.5858786040896176 2.549444760262502 47 58 25
10.45660576090553 2.5117859328470504 2.1590317947697284 45 54 22
10.432091104850821 -1.6747181766773678 1.2592565761360448 50 59 27
10.524871730957878 -0.1860248156868177 1.8403027442067104 51 58 24
10.417045902706617 0.11223074800849846 1.84316307500705 41 48 14
9.904932880687896 0.43090774127008113 1.6518859291661776 13 22 0
10.171931339569747 1.4752804625552647 1.5513599668565725 39 45 18
10.035291926471992 -0.23121800510679522 2.1873050722804086 53 58 26
11.402638875597352 0.6207579338839077 2.8156568698230293 51 60 28
9.693594406973943 -2.6918576126256997 1.9738720837477834 58 65 35
9.864154010963976 2.7706099768368926 2.0792696702567164 45 54 20
10.522673877521493 2.344718738511159 2.561676494603175 48 57 23
10.428241039123458 -2.3756360324440773 2.5756501416104984 61 70 42
9.739361529195568 -0.3463523320137813 2.086425521961778 52 58 29
9.103789246873 2.031312613590568 1.659039727549065 42 51 19
10.967801387078048 -2.2342689233727038 2.676399474605532 60 70 41
9.970533336746614 3.00256482582912 2.1919153090494525 48 57 23
10.128209507190302 0.6926032888913664 2.4501925505087296 47 56 25
9.1832884514111 -0.5758920387153433 2.2547124501709974 56 61 34
9.918258741775519 -0.2629719134664319 2.326549280945425 53 58 29
9.574044684479261 -0.7734727631064309 2.5234283204054964 57 62 34
