10.350021495864649 0.7451156147563184 1.3129093586438358 33 39 12
9.724918516898423 0.5201457670928846 1.7111396603408189 37 43 16
9.39649744219714 0.8181093111489471 1.7160790652111464 39 47 18
8.701868126277407 0.7384892114181468 1.727768857275256 40 46 19
9.72374874576496 0.6664963122777238 1.2958824250606213 34 40 14
9.47168516905356 0.9682438820477793 1.5032121925736888 35 41 14
11.312931886616115 1.1520140671944072 1.243245966361653 29 36 6
9.82715024572846 1.1105341581095474 1.5056603564498974 32 38 9
9.81179971726233 0.9682438820477793 1.298412688982535 32 38 11
9.637496672832595 2.345649537658565 1.3998325111802075 46 52 23
9.712193370788958 2.198060598257646 1.71132476077066 46 52 24
10.405764961257283 1.3345559685073518 1.3143220540319014 25 31 4
10.434287240275337 1.2404390130146818 1.701541723919261 34 40 13
9.593927844937095 2.345649537658565 1.7130687822105055 47 54 24
10.085700306817062 1.3345559685073518 1.5073324123567822 27 33 6
9.16724022567533 2.108634265701073 1.7197391099287855 44 50 23
9.958340343618238 2.057062614055943 1.5065196423048446 42 48 21
10.771051149525364 2.141825394735864 1.3232056845408549 41 47 20
10.770811702331084 1.9272821116422456 1.3232000650202957 39 45 18
9.94313168488686 1.636531716382937 1.4051370508413257 34 40 13
9.813162798590673 1.5344539754449884 1.505567381391242 34 40 13
10.366083853226392 1.1105341581095474 1.9009283161701767 39 45 18
9.166956255428055 1.0001391246673155 2.0665101691303693 43 49 22
10.086376521185441 1.1105341581095474 1.8070004322202768 37 43 16
9.533820226094038 0.8239758109526621 2.16789547413672 42 48 21
9.593892637213795 0.729256265231586 2.2955598005540256 41 50 20
9.593417852518881 0.6454095877477132 2.163677817936188 42 51 22
9.651673704377163 0.6664963122777238 1.8178556148179594 39 46 17
9.637666639914595 0.7384892114181468 2.040282525810508 44 51 19
10.129878144799164 0.8239758109526621 2.2496231517281764 43 50 18
9.533312077028961 1.060725296760296 1.931021769638959 41 46 17
10.352824571663712 1.5344539754449884 1.9013672235408574 31 37 10
10.969269178205527 1.3345559685073518 1.9795937304100975 34 40 13
10.85225463636701 1.530321786708835 2.197015729510933 35 41 14
10.298093394776979 1.530321786708835 2.1182548051504577 40 46 19
11.35368709025742 1.2059415276257652 2.1654252558099154 38 44 17
10.558120767202613 1.3088226575654558 2.1033086554856073 36 42 15
12.765123859627144 1.6816812288979743 2.668036931126963 48 57 29
12.753822189260172 1.5093791557675769 2.669769091009336 46 55 27
11.701082017695418 1.3088226575654558 2.2511033203447384 39 45 18
12.964689236636216 1.184127025133613 2.6388270102293645 45 54 25
12.25044807576839 1.398388640860314 2.440414056765287 44 50 23
11.442446782258225 1.6533487959757904 2.39006058320377 45 51 24
11.664663227703592 1.276978843103052 2.3698904136337022 41 47 20
11.467001954196625 1.530321786708835 2.267733846997662 40 46 19
10.199857200929731 1.737260338022715 1.8043233636464255 36 42 14
9.772333313597654 2.2471729826642655 2.2795036485158815 50 59 30
10.626191590434479 1.8631357795478407 2.09953783192506 43 49 21
10.970334731687242 1.7557990727492945 2.1892517211263742 43 50 20
9.698773220537099 2.343804581379099 2.15637707044869 48 57 28
9.42937974894238 2.425141633087488 1.9351766501755958 48 57 27
9.276974198555795 2.517371262726165 2.0601083163520997 46 56 27
9.9451916962552 1.7557990727492945 2.024656494302775 40 47 17
12.493508155721273 1.8085145317233344 2.5485764405537736 47 56 28
11.542010010443098 1.7789174625738773 2.38087445641849 45 51 24
11.035655788059255 1.8981919330794217 2.3009188867524055 46 52 25
11.859825025202987 1.9423620840683824 2.480380902492456 48 57 29
10.653752864356678 2.063628444288955 2.333487176081464 49 55 28
11.087594261309846 1.9423620840683824 2.4249686979000633 48 54 27
12.157487300397905 1.9994676401112963 2.5909313616102017 49 58 30
13.25929968988447 1.4965890345486037 2.7712474052989773 47 56 28
9.486780922292764 0.08379697341353998 1.714686774119097 42 51 21
8.815329060626405 0.32181109674921393 1.611685554333804 38 44 17
8.911859464106591 -0.7741317635622547 1.4989595878670725 50 56 30
8.33272468356425 -0.687045192935279 1.7347844479938974 53 59 33
9.333701586592332 -0.36721599531560656 1.2840756341085198 36 45 16
8.33272468356425 -0.687045192935279 1.7347844479938974 53 59 33
8.95991599751673 -0.36721599531560656 1.611025362234417 46 55 27
8.750568730182678 -0.2590330096096837 1.726888053389085 48 57 27
8.975488374320152 -0.36721599531560656 1.4994697203932523 45 54 26
8.50153768325581 -0.5202583733987799 1.495486011806097 49 57 27
18.352848057063476 -1.3229627729554032 1.3152204311571871 44 49 16
19.535897260747138 -1.4265135002521074 0.9948598774991337 36 43 9
10.570224739665457 -1.3441201853196165 1.6998508237324794 52 62 32
11.225600476618396 -1.5390795564739317 1.6029027143599865 53 59 32
11.377451492724461 -1.4504799898598315 1.6906486365944646 54 60 34
17.983432521028146 -1.4347890404119945 1.3098492212321893 42 47 13
17.491895000002444 -1.366710908067488 1.2425167576653635 41 48 13
18.75297395806904 -1.3782671649099603 1.2088892424828361 41 47 12
11.302588113416114 -1.997537225477568 1.6914463471244543 61 67 42
11.415411627198088 -1.7163774000752168 1.6902481770979134 59 65 40
11.869643467732443 -1.8849957497504768 1.6856563326783378 58 67 41
9.104228847420158 -0.02910790940314637 2.2003400507467066 46 57 24
9.008727431765282 -0.02562597899488438 1.9530481134699216 45 55 25
9.857667273882608 0.47531674143099034 2.1457249041434965 43 52 22
9.351625578346056 0.47531674143099034 2.055862269391642 42 51 21
9.799797484494395 -0.16358827826018793 2.2771035576091627 47 58 25
10.115465976092327 0.36203284131322944 2.2507730763972744 45 54 24
9.427201908420358 0.32181109674921393 1.9352647641909062 41 49 20
10.651881988786288 0.21055545849529636 2.210690546645522 45 55 25
9.351625578346056 0.47531674143099034 2.055862269391642 42 51 21
9.087657269381674 -0.14429903360614305 1.9495588008253921 46 56 26
9.457776078917021 0.09377000391126152 2.0499558289528386 44 54 24
9.59276725731578 0.21055545849529636 2.0426584928443536 44 53 23
10.558015899987403 0.23817028497788187 2.3421884336970438 46 56 25
10.43551840831552 0.10642741673912388 2.3536669588657557 47 58 27
11.163517374641977 0.5372145270959447 2.4171960343319574 45 56 23
10.435679999354775 0.5372145270959447 2.3536515525853887 44 54 21
11.454322883119012 0.27391371197794756 2.5273140112077113 50 61 28
11.454322883119012 0.27391371197794756 2.5273140112077113 50 61 28
10.65273718749054 0.27391371197794756 2.4731823119073786 48 59 26
10.865195114669527 0.41309253939999746 2.4487942435109518 48 58 29
10.786408523642683 -0.03996759303546222 2.621536563188545 55 65 35
10.571936610832461 -0.18875959312601007 2.4829211576348156 55 65 35
10.002712153202092 -0.22293429031069317 2.5604000359449994 55 65 37
10.786408523642683 -0.03996759303546222 2.621536563188545 55 65 35
10.531341523834898 0.12301522163362466 2.487917668564176 50 62 29
10.50416579255842 -0.03368442321616016 2.491302532995861 54 65 34
8.384644659614858 -0.29238364154354624 1.9831583504719323 49 59 29
9.198125888920961 -0.7720002229912654 2.1929241370626253 56 61 36
9.321903147294156 -0.66666687975922 2.321702926202085 56 61 35
8.090517414698068 -0.66666687975922 2.1399815948611 54 61 32
8.333508396598377 -0.5854903564521986 1.9858441749270201 52 61 32
8.536495486986642 -0.8594524685788171 1.8509478182533061 55 61 35
8.752232181889394 -0.9594360270858194 2.092316500497747 56 61 36
8.785572548439276 -0.7688740197656314 2.3803134303623437 57 62 37
8.914057647349514 -0.46820296689798424 2.2159695776960673 52 61 33
8.914568614443855 -0.540514824166162 2.365246317578142 52 61 31
9.290977951254668 -0.9594360270858194 2.185775592378745 57 62 37
8.833061145096188 -0.29238364154354624 2.087066548489404 49 59 30
9.3681317241338 -0.39201818009913514 2.474590510889373 54 63 34
10.55896325247319 -0.4702876011341893 2.6604873188506013 58 64 39
9.072442325339173 -1.0275996459223815 1.950226319555151 56 61 35
9.48840939629007 -1.0275996459223815 2.0482792144683275 54 61 33
8.751485966486245 -1.0275996459223815 1.8438867945809412 53 61 32
10.017572908520854 -0.34716004122621774 2.777348114189538 55 68 38
9.50428225233539 -1.075645175734253 2.3039401549333594 57 62 37
9.90295503371561 -0.7544178707928229 2.809027229029798 58 68 41
9.989257721275175 -1.1716237115784256 2.7848569206449847 61 65 41
9.564923066305424 -0.7638451912758676 2.6343013936175037 59 65 40
9.564923066305424 -0.7638451912758676 2.6343013936175037 59 65 40
9.713749282133568 -1.0213624134583335 2.871023069199401 58 72 44
9.564923066305424 -0.7638451912758676 2.6343013936175037 59 65 40
9.989257721275175 -1.1716237115784256 2.7848569206449847 61 65 41
9.989257721275175 -1.1716237115784256 2.7848569206449847 61 65 41
10.679943543784045 -1.2084354409579208 2.4699629325210584 59 64 39
10.130787204976187 -1.1464411806569073 2.541426960430001 59 64 39
9.460069312798982 -1.2595311102316262 2.654615848487048 59 64 39
9.654248012486729 -1.0610561635580162 2.617896007974724 59 64 39
9.916677416020676 -1.2084354409579208 2.407172581864535 59 64 39
9.917766041542311 -1.7686013638144535 2.8047302383146695 62 68 43
8.98005457276123 -1.7686013638144535 2.7679150769221947 60 65 40
10.61387967116005 -1.8539256283489784 2.9225850126247046 62 72 45
9.87411107601998 -1.693721932713432 2.5805373885210887 59 64 39
10.43678179552901 -1.6740941401466949 2.4998383908496447 59 64 39
10.43678179552901 -1.6740941401466949 2.4998383908496447 59 64 39
10.42295579627625 -1.5136030929668687 2.501615616870102 59 64 39
10.42295579627625 -1.5136030929668687 2.501615616870102 59 64 39
10.27141768424973 -1.4865674879075486 2.717228787631465 59 64 39
10.720558098822252 -1.5026654838419733 2.6323657756531595 59 64 39
9.946456717674652 2.6236795724921143 2.2645907540638404 47 57 28
9.277592616950892 -2.960845430404001 2.3261697262073473 53 63 36
9.277592616950892 -2.960845430404001 2.3261697262073473 53 63 36
11.126827175763745 2.685939825801207 2.7682534143022304 50 60 30
10.840566234425097 2.547585720999184 2.84283220450477 50 60 30
10.047003000204848 -3.0828894863045693 2.7697408126243683 56 66 38
10.047003000204848 -3.0828894863045693 2.7697408126243683 56 66 38
9.200538618310913 -2.819980926024028 2.710909297716895 58 68 42
10.721297542222342 2.8527169246286053 2.8813739905393136 50 63 34
10.761176069587998 -2.7111287110736684 2.867801389056784 57 69 42
11.010659730698242 2.9292070444502127 2.7961873716544474 51 63 35
10.694604513247235 -3.0607721569835045 2.8909194399112104 55 65 37
10.244105143058066 2.8351584413119313 2.5254495814418987 49 59 29
10.285747131534057 2.4576683130866024 2.5197550346630373 50 60 32
10.285747131534057 2.4576683130866024 2.5197550346630373 50 60 32
9.68466015671812 2.683099671098056 2.4341110056742825 47 60 31
9.961171555583528 2.6012830964550235 2.566779689376574 48 61 32
10.075187034163973 2.879018459805926 2.3899122738542458 48 61 28
10.018198323312339 2.5507711105320556 2.396017921500135 49 59 31
10.478660758731383 2.973974175394153 2.6753807610833054 53 63 35
10.089518303360142 -3.103665308479695 2.547429936427112 54 64 36
9.640452146211171 -2.885877896167642 2.6203794231159954 59 68 42
9.640452146211171 -2.885877896167642 2.6203794231159954 59 68 42
10.0318809234816 -2.2126035776382853 2.257528980892193 58 63 38
9.490540140975146 -2.500247194664596 2.305244965654079 58 63 38
10.0318809234816 -2.2126035776382853 2.257528980892193 58 63 38
9.960237871369895 -2.308166775485151 2.1390666846169113 57 62 37
9.460553338574178 -2.8199182411484376 2.3081107632337527 55 64 38
9.974903351580195 -2.39577742608203 2.2622211272418378 57 62 37
9.520402079682222 -2.5763600178915906 2.168854025431025 58 61 37
9.669676756546902 -2.404701540259124 2.4359249022170952 58 63 38
8.819631350223267 -2.418814095036668 2.5580970360850994 59 63 39
9.816652295426016 -2.6967089510925066 2.5899217317197514 60 67 41
9.39969041241756 -2.040122520040372 2.470337977778124 59 64 39
10.03247177773887 -2.043639578904637 2.773472617043979 63 68 43
9.385001628819026 -2.5956127906509283 2.6699441007887725 59 68 42
9.758183502333907 -2.209532644673322 2.855064720887905 61 72 45
9.816451017886006 -2.6239285455664247 2.418552481707236 60 63 39
10.089351168196998 -2.5362001658092015 2.5474544565093544 62 65 41
10.299074291971923 -2.101181272726534 2.366936331712937 59 64 39
9.728645243218056 -2.131159061349281 2.6048016826799985 59 64 39
9.669881089177936 -2.418814095036668 2.615103223172634 61 65 40
10.39609708866901 -1.94279165567881 2.691419321906776 59 64 39
9.989120309376592 -1.9731003519729278 2.3991758939433177 59 64 39
9.728442144847842 -2.180786012574791 2.4288644175250367 58 63 38
9.669676756546902 -2.404701540259124 2.4359249022170952 58 63 38
10.54584377676072 -1.8294582439171052 2.4861245600926694 60 65 40
9.106579316413322 -2.043639578904637 2.733945615265779 60 64 40
9.886691271293346 -1.1829518543682875 2.027545036385064 55 62 32
10.08740671011262 -1.2914963307689977 2.1310374167436095 57 65 37
10.394868478866833 -1.527508413777695 2.2292242593923377 61 70 44
10.394868478866833 -1.527508413777695 2.2292242593923377 61 70 44
10.503122122545607 -1.6337824606326068 1.7974607938313674 60 66 41
10.489383566480436 -1.5359767811150995 1.797762870875067 58 64 39
9.901925699293033 -1.255162060358631 2.2683370860336303 57 63 36
10.086307686649924 -1.2215280754346227 1.8070020748712647 53 62 33
10.745814327331711 -1.424702134483797 2.093046454332561 59 67 41
10.665877004440121 -1.532201437329671 2.097365424216716 60 69 43
10.679388511998317 -1.6405971481921258 2.096630101373793 61 70 44
11.124611479557698 -1.6337824606326068 1.9735524328178127 61 70 42
11.18839430563621 -1.4388309452090997 1.9711248828868686 55 65 37
10.312402683760656 -1.5215171347171599 2.36561668921102 60 67 42
10.395058556625687 -1.3850280281181375 2.3575470520453887 61 67 42
10.87771502487834 -1.7303999087764093 1.8848543654390724 61 69 43
11.353479536916343 -1.9134976339663363 1.871272920676231 60 66 41
10.36733734507243 -2.315089532395696 1.9008868847078806 61 63 39
10.144652780414734 -2.234698855943969 2.0150872184492004 59 63 38
10.284871066399532 -2.038551488623722 2.2375245911468915 61 66 41
10.811678304214432 -1.824111202269615 1.790883814475646 59 68 42
10.851799832545288 -2.037661357081162 1.8856301370037225 60 66 40
10.982993782339848 -1.8502577788627412 2.0806611146195575 60 69 41
10.394898653893872 -2.0853777504454247 2.0036580820805696 61 66 41
10.144652780414734 -2.234698855943969 2.0150872184492004 59 63 38
10.463566047642054 -1.9883556136975735 2.1086422830503495 62 67 42
10.518084622480151 -1.7683521213971243 2.2201933241009524 62 69 42
10.640059645561447 -1.9221197613175318 2.334717691045382 61 66 41
18.912873466545584 -1.3360615783222558 1.4307703137435706 45 50 17
18.70789110182976 -1.3885985794004394 1.4292257731015152 45 50 17
9.901290223419576 2.6359546061843173 1.506148771962076 48 55 25
9.120775604192168 2.582222272891138 1.7205035848338148 47 56 26
9.81506134928218 -3.0163549566044505 1.7098423173905042 47 58 25
9.443759628415442 2.7287949806443077 1.6089632306192425 46 56 26
9.81476907764299 2.9584954642969636 1.6075198164966307 46 56 28
10.172090029929125 -2.819894555432678 1.6062292590252254 49 60 29
10.172090029929125 -2.819894555432678 1.6062292590252254 49 60 29
9.988181716212326 -2.9159176702128957 1.7074170564270346 46 59 26
9.75734386757865 -2.6377596309210047 2.0340698234613677 57 61 36
9.975241454253034 3.039152040816517 2.262193072189552 47 60 27
9.975241454253034 3.039152040816517 2.262193072189552 47 60 27
9.383727770731346 2.829825612011442 1.8250639658088028 48 58 30
9.276857448398706 -3.1168213085036256 1.941455065674623 46 59 26
9.230782545853716 2.792115034513596 2.062774913499834 48 58 29
9.595299529632417 -2.8596546282712527 2.1635457012600616 50 63 35
9.50559804745303 2.9120902545204297 2.169915450209468 47 59 27
9.276857448398706 -3.1168213085036256 1.941455065674623 46 59 26
9.844460418483076 -2.542975934026315 1.9191431739813836 58 61 37
9.338794550237921 -3.1135823654699086 2.182163498765262 49 62 30
9.36896016878444 -2.743563630283693 2.05488733261565 55 62 36
9.414957692813005 -2.984072839962847 2.1765042484373556 51 61 32
9.47168516905356 0.9682438820477793 1.5032121925736888 35 41 14
9.650525058788968 0.5201457670928846 1.5044664937207533 35 41 14
10.01580669713419 1.737260338022715 1.7070378853149373 38 44 16
9.365543179429883 0.6664963122777238 1.6092821387994771 36 42 15
9.664954820443672 0.8181093111489471 1.2941662057045555 32 38 11
10.268085084102005 1.737260338022715 1.3108040404817416 34 40 13
10.876677609195815 1.4457505083366085 1.6039330557488907 31 37 10
10.622761834182477 1.0233515311195 1.3196754401434196 30 37 7
8.961209406245032 0.9026372602079558 1.8373377176596326 40 49 19
9.682654084182266 1.0001391246673155 2.157481489886403 42 48 21
9.943616465892358 0.6664963122777238 1.9155242125549703 43 50 20
9.009607370939078 0.8239758109526621 2.0759785155492745 41 50 20
10.611510881063534 1.3345559685073518 1.8930135112923245 35 41 14
10.930829061703973 1.4176877299344623 2.1918258382770337 33 39 12
10.366523250033158 1.2059415276257652 2.004923289964612 38 44 17
11.099307062147398 1.3088226575654558 2.181007357654703 37 43 16
11.504467607503505 1.398388640860314 2.384309135336744 44 50 23
11.429837341294693 1.5251301115816824 2.3912419063528856 44 50 25
12.765123859627144 1.6816812288979743 2.668036931126963 48 57 29
11.467001954196625 1.530321786708835 2.267733846997662 40 46 19
9.771107484140192 1.8631357795478407 1.9218707875648116 40 46 18
10.059841088717052 2.108634265701073 2.0191043712152013 46 52 25
11.164078593489945 1.8631357795478407 2.17695628778364 44 51 21
9.120992233565635 2.425141633087488 1.8325576977500908 49 58 28
9.75783017962051 2.438307919247228 2.2807785321921026 49 59 31
10.69361502317541 2.0085637563084635 2.2077886524500667 46 52 25
8.798314823115327 -0.2590330096096837 1.3833410335216665 39 49 19
8.451236907739931 -0.14429903360614305 1.6134481713723663 44 54 24
9.621365161019128 0.18861044522143586 1.712660314969629 40 49 21
8.36630507242237 -0.02562597899488438 1.6138814249164048 44 53 23
8.141818256625069 -0.41195521688689385 1.7386656813513282 49 58 29
8.815329060626405 0.32181109674921393 1.611685554333804 38 44 17
8.211598440580453 -0.8594524685788171 1.614693665738398 52 58 33
9.456603881599527 -0.022887944363388667 1.715149154948419 43 52 24
9.812595903284405 -0.9930030662629615 1.6075279532276607 52 61 31
17.9118994427452 -1.3782671649099603 1.366174148554502 43 49 14
11.225600476618396 -1.5390795564739317 1.6029027143599865 53 59 32
18.980035191310176 -1.4347890404119945 1.1565395222811203 42 48 12
9.182337807557653 -0.16358827826018793 2.1941577073924416 47 57 27
9.518505596388621 0.36203284131322944 2.1689897729323935 46 55 25
10.435243514531713 0.47531674143099034 2.2262346163153124 44 53 21
9.182337807557653 -0.16358827826018793 2.1941577073924416 47 57 27
9.472227192757737 0.4254106445651951 1.822636539670395 39 45 19
9.275251667442065 0.23817028497788187 2.1869737341188467 46 55 25
10.65273718749054 0.27391371197794756 2.4731823119073786 48 59 26
10.115916258789342 0.41309253939999746 2.3856147907577605 47 56 26
11.138293169116874 0.47963883083019865 2.5687724516616584 48 58 29
10.812874924505797 0.14568518980654216 2.6172779886738753 53 63 33
10.50416579255842 -0.03368442321616016 2.491302532995861 54 65 34
10.326423173358169 -0.04912993495163573 2.7055890045181625 55 65 35
10.40809248403363 -0.02910790940314637 2.3562921612243546 49 60 27
10.531341523834898 0.12301522163362466 2.487917668564176 50 62 29
9.306698109952588 -0.8748535044957323 2.32322879993995 56 61 36
9.136664786615764 -0.6357164873264538 2.507456930483911 57 62 36
9.653509035921985 -0.540514824166162 2.4378928521195364 56 61 35
10.172639535819703 -0.39201818009913514 2.535441518277897 58 63 38
10.600284663984617 -1.411467793840091 2.928423720507434 61 75 47
10.61387967116005 -1.8539256283489784 2.9225850126247046 62 72 45
10.42295579627625 -1.5136030929668687 2.501615616870102 59 64 39
10.50474182523167 -1.3559844257330333 2.491230447270379 59 65 40
9.276821037318564 -0.5832373602749535 2.6933467114610377 57 64 39
9.261541987201626 -0.9383030858583221 2.6967895954778984 60 66 41
9.9459165544894 -1.3164081790566569 2.5691518071480512 59 64 39
9.903215464606069 -1.460548982796308 2.8089510993739153 61 65 41
9.989257721275175 -1.1716237115784256 2.7848569206449847 61 65 41
10.50474182523167 -1.3559844257330333 2.491230447270379 59 65 40
10.200592348342202 -1.075645175734253 2.376850917767697 59 64 38
9.121150960555738 -0.8983081230874671 2.509773205723317 59 64 39
10.354400732440338 -1.2595311102316262 2.6998251981755463 59 64 39
10.285447387482721 -1.7224879505739645 2.7142198048551776 59 64 39
10.600659724312996 2.7744946796903767 2.6530058797402454 51 61 31
9.917967694300904 -3.109369344299953 2.407028509072448 50 63 32
9.728991903875327 2.7744946796903767 2.6047418080965463 50 60 30
10.075411881418043 2.9292070444502127 2.762576655763198 53 63 35
11.126827175763745 2.685939825801207 2.7682534143022304 50 60 30
10.0318809234816 -2.2126035776382853 2.257528980892193 58 63 38
9.520402079682222 -2.5763600178915906 2.168854025431025 58 61 37
10.003319472291329 -2.4762074503839058 2.136319110413721 58 61 37
9.231156041349664 -2.2837911469015353 2.4936679213718422 58 63 38
9.106579316413322 -2.043639578904637 2.733945615265779 60 64 40
10.187789519442406 -2.500247194664596 2.3781615168344765 59 63 39
9.339068131376063 -2.2592084308899003 2.679680365263649 59 63 38
10.14549127849454 -2.2984430702877314 2.382527971538397 58 63 38
9.98931810775578 -1.8762605424950072 2.5624444568056743 59 64 39
9.53595123103353 -2.7677492469704403 2.4525466133273266 59 65 40
9.505689430653215 -1.94279165567881 2.645628461109246 59 64 39
10.54584377676072 -1.8294582439171052 2.4861245600926694 60 65 40
10.299074291971923 -2.101181272726534 2.366936331712937 59 64 39
10.03247177773887 -2.043639578904637 2.773472617043979 63 68 43
11.466001970457496 -1.997537225477568 1.7781352465031262 61 67 42
11.073079557143128 -1.824111202269615 1.8791290096914763 62 68 43
11.124611479557698 -1.6337824606326068 1.9735524328178127 61 70 42
10.61150229880124 -1.7303999087764093 1.7951059238737135 60 69 43
11.11164136636662 -1.5359767811150995 1.9740497893885678 59 69 41
10.612948843755746 -2.234698855943969 2.1002669816439 58 62 37
10.326376703781005 -1.6598570246803521 2.3642386765121763 61 67 41
10.436592477659943 -1.7948816285468352 2.353564569210612 62 67 41
11.060256018600429 -2.120397598454628 1.7858587378238975 60 66 41
10.825611115049018 -1.9474172145149207 1.9853496193182605 60 66 39
10.982993782339848 -1.8502577788627412 2.0806611146195575 60 69 41
10.785997668577474 -1.747380594162465 2.0909035440238037 61 70 42
10.679388511998317 -1.6405971481921258 2.096630101373793 61 70 44
10.517681380232133 -2.1728323091870703 1.8959933307795744 61 66 42
10.312402683760656 -1.5215171347171599 2.36561668921102 60 67 42
9.181789479391696 -1.1829518543682875 1.8307841616036815 54 61 31
9.81476907764299 2.9584954642969636 1.6075198164966307 46 56 28
9.742026718515383 -3.119388937240409 1.7108915735010581 45 58 25
9.742026718515383 -3.119388937240409 1.7108915735010581 45 58 25
9.902159351198694 -2.6879834404893286 1.8114807304302558 55 61 35
9.75734386757865 -2.6377596309210047 2.0340698234613677 57 61 36
9.519685662385415 -2.7856042347634125 1.8213540186151966 54 60 34
9.307617278982052 3.050933801525384 1.9401710696408143 45 58 25
9.53502876396926 -2.89083856241831 1.9309539565780311 50 61 33
9.444754878031507 2.9378662550880987 1.9345558224263437 47 57 27
10.36498644295171 1.2404390130146818 1.5090446643992366 33 39 12
9.024557213959378 1.060725296760296 1.7221119679047605 37 43 16
9.304486071579525 0.8181093111489471 1.609534813118413 37 43 16
9.75523401547072 2.198060598257646 1.4019158664171285 44 50 25
9.229912940482311 2.0085637563084635 1.9434324033733075 43 49 22
9.79921202197763 0.576810876513701 2.031936653953408 43 51 22
13.25929968988447 1.4965890345486037 2.7712474052989773 47 56 28
9.533820226094038 0.8239758109526621 2.16789547413672 42 48 21
12.820747783140733 1.340618798838976 2.659639233697319 45 54 26
9.44438727644638 2.2646073939293685 1.9345706404039933 48 54 26
9.932147110416548 2.341177186189018 2.4054492042112057 50 60 32
10.395679568269944 2.170973870941573 2.2291639040124385 48 54 27
10.825225513516012 1.2059415276257652 2.0888294410252453 39 45 18
8.913092168945784 0.7384892114181468 1.838812008649962 43 50 21
12.122040106549232 2.063628444288955 2.453055361325873 48 57 29
10.3667441044911 1.636531716382937 1.9009064916702634 34 40 13
19.68153640004028 -1.366710908067488 0.9996576650258417 37 42 9
8.702333639542514 -0.41195521688689385 1.9672437251714165 51 60 32
9.260279809993056 -0.33522245402729617 2.3279317395341663 50 60 32
9.756162868870797 0.5372145270959447 2.280925428086708 43 52 20
8.195371475316907 -0.7720002229912654 1.9932837352693797 54 60 34
9.427201908420358 0.32181109674921393 1.9352647641909062 41 49 20
8.03626548485103 -0.29238364154354624 1.8689046509941865 50 59 31
10.53047646637772 0.09377000391126152 2.2193001678186235 45 55 25
10.558015899987403 0.23817028497788187 2.3421884336970438 46 56 25
9.457776078917021 0.09377000391126152 2.0499558289528386 44 54 24
8.670477216539624 -0.66666687975922 2.237285470888439 53 61 31
9.290977951254668 -0.9594360270858194 2.185775592378745 57 62 37
7.982897911859805 -0.5854903564521986 1.8709594392433786 50 59 29
10.187252410902376 -0.5832373602749535 2.7359014890613014 58 66 40
8.70442704256527 -0.7638451912758676 2.5784603844357696 58 63 38
9.713749282133568 -1.0213624134583335 2.871023069199401 58 72 44
9.9459165544894 -1.3164081790566569 2.5691518071480512 59 64 39
9.903215464606069 -1.460548982796308 2.8089510993739153 61 65 41
9.369561924038168 2.879018459805926 2.316966142631838 49 61 29
10.244105143058066 2.8351584413119313 2.5254495814418987 49 59 29
10.560042787996474 -2.505520531078877 2.9468108362265863 60 73 44
9.946745119851574 3.023866887069806 2.403830838719179 50 63 30
10.117807810387289 3.0032545598867895 2.54330397166026 52 62 32
10.694604513247235 -3.0607721569835045 2.8909194399112104 55 65 37
10.451348047141204 -3.0955092451431057 2.680601166971655 55 65 37
10.11783642840852 -2.819980926024028 2.752183973228969 57 67 41
10.840566234425097 2.547585720999184 2.84283220450477 50 60 30
9.743224013534345 -2.6910245966947186 2.2820677285728497 57 63 38
10.088312150485244 -2.3896256789909005 2.0177474282846184 58 61 38
10.54584377676072 -1.8294582439171052 2.4861245600926694 60 65 40
9.98931810775578 -1.8762605424950072 2.5624444568056743 59 64 39
9.989120309376592 -1.9731003519729278 2.3991758939433177 59 64 39
9.339068131376063 -2.2592084308899003 2.679680365263649 59 63 38
9.669676756546902 -2.404701540259124 2.4359249022170952 58 63 38
9.277623826724069 -2.5362001658092015 2.4870796140383846 60 63 39
10.086759271001286 -1.3204874167009775 1.9104332906061554 55 63 35
10.61150229880124 -1.7303999087764093 1.7951059238737135 60 69 43
10.283570509919572 -1.424702134483797 2.008666396252639 58 64 37
10.158632177464172 -1.8822285915008128 2.1266453510412004 61 67 41
10.116633651754883 -2.1427731499576113 2.1292262178082915 61 64 40
10.476873769239667 -1.407215404801892 2.223183250433259 60 69 42
10.837871747413915 -1.4388309452090997 1.8860486885288024 54 63 33
10.40873178678826 -1.6490619675608098 2.2281943324091444 62 69 42
9.974475732393417 -1.9221197613175318 2.2622566138443014 61 66 41
10.158632177464172 -1.8822285915008128 2.1266453510412004 61 67 41
18.912873466545584 -1.3360615783222558 1.4307703137435706 45 50 17
9.593721894610125 2.493695962247076 1.608366349516376 46 55 25
9.18333511041575 2.829825612011442 1.719476127626483 47 57 27
9.771322319848135 3.0602904039811984 1.710468794039405 44 57 24
9.230782545853716 2.792115034513596 2.062774913499834 48 58 29
10.367309415775967 -2.5988244761845922 1.8004830957941282 55 61 36
8.850852809358672 2.6817484850244298 1.8407436761785743 46 56 26
9.547472240947819 0.9682438820477793 1.713765788052275 39 46 16
10.839616780872314 1.7789174625738773 2.3172275991696463 46 52 25
10.865534382114223 1.6439883611300476 2.196131952807302 42 49 17
10.28413725401334 0.729256265231586 2.3684214373902277 42 51 19
10.892490063666525 1.8085145317233344 2.4457808001228813 48 54 27
12.964689236636216 1.184127025133613 2.6388270102293645 45 54 25
11.035889488896904 2.170973870941573 2.3008999310725127 49 58 30
9.195704356721084 0.4254106445651951 1.5011806274963106 30 36 11
9.164266722478338 -0.6166423387807611 1.3909101567092848 49 55 26
9.087320660142273 -0.9321774271009088 1.7210589096798048 54 60 32
9.59369703049678 -1.13540115533345 2.163658212221004 56 63 35
10.93114447014131 0.3218450079207047 2.598861206670948 49 59 29
10.652533842247351 -1.2914963307689977 2.2106449971001974 58 67 39
10.39535282042769 -0.27184793281293956 2.6915674945493286 55 66 37
10.36733734507243 -2.315089532395696 1.9008868847078806 61 63 39
9.354465306726228 -2.929703267051942 2.4764481475103466 59 66 41
9.50428225233539 -1.075645175734253 2.3039401549333594 57 62 37
9.338698951758495 2.6236795724921143 2.1821706743343876 46 56 27
10.50416579255842 -0.03368442321616016 2.491302532995861 54 65 34
8.670477216539624 -0.66666687975922 2.237285470888439 53 61 31
9.121150960555738 -0.8983081230874671 2.509773205723317 59 64 39
10.200592348342202 -1.075645175734253 2.376850917767697 59 64 38
10.367309415775967 -2.5988244761845922 1.8004830957941282 55 61 36
9.53502876396926 -2.89083856241831 1.9309539565780311 50 61 33
9.595299529632417 -2.8596546282712527 2.1635457012600616 50 63 35
9.984549447036347 0.5201457670928846 1.3032422670395496 31 37 12
10.797709133456904 1.5378208628884569 1.6041754891835702 32 38 11
9.80011454310497 1.963980521773181 1.8140372302741514 41 47 20
10.31208680548735 1.6439883611300476 2.1174277730350965 40 47 17
11.979820146520533 1.8476748192886543 2.615582012817357 48 57 29
10.326423173358169 -0.04912993495163573 2.7055890045181625 55 65 35
9.610429019689002 2.7445709598210035 2.2940371192505635 47 59 29
10.017572908520854 -0.34716004122621774 2.777348114189538 55 68 38
9.261541987201626 -0.9383030858583221 2.6967895954778984 60 66 41
10.572078115456764 -1.255162060358631 2.340895865189239 59 65 38
10.93114447014131 0.3218450079207047 2.598861206670948 49 59 29
9.445119912262033 -2.2984430702877314 2.3095957359182284 57 62 37
8.553069845212358 -0.687045192935279 1.850390314933999 53 60 32
10.492195145841077 -3.0120629218365953 2.9828962289029164 59 71 43
10.54584377676072 -1.8294582439171052 2.4861245600926694 60 65 40
8.980309524971444 -2.6967089510925066 2.5315263067566924 60 66 41
9.277623826724069 -2.5362001658092015 2.4870796140383846 60 63 39
9.354465306726228 -2.929703267051942 2.4764481475103466 59 66 41
10.798762568937557 1.4331257796041625 1.986443975796571 32 38 11
10.570655650828513 -1.4388309452090997 1.7959876153569374 55 61 36
9.18398055629516 2.343804581379099 2.0655080545859525 49 58 28
9.975497580651238 -2.4444777434603466 2.788576769468273 59 69 43
9.640452146211171 -2.885877896167642 2.6203794231159954 59 68 42
9.353524941101929 -3.002044726880272 1.9382716407912428 48 59 28
11.314734460075156 -1.6281787280945395 1.6913161984571587 56 62 37
10.984669881754535 -3.0828894863045693 2.8028239752984625 56 66 38
10.42295579627625 -1.5136030929668687 2.501615616870102 59 64 39
9.39701298959786 0.576810876513701 1.9364907029022373 42 48 21
11.54139190484372 1.4176877299344623 2.262350642914817 39 45 18
10.018198323312339 2.5507711105320556 2.396017921500135 49 59 31
10.156937740318936 1.8347014888148165 1.5077781197183153 39 45 18
