18.53978065319629 -0.18062472133595203 1.1809224060632695 42 37 19
18.986358262678973 -0.32798881888384884 1.4628013588410378 41 31 11
9.12627466595525 0.8824011691788471 2.1445389904628227 41 42 16
9.700324399466208 0.6975573848145773 2.2315951765821778 41 43 16
9.811439950146388 0.7904906357078372 2.358476870736535 41 43 16
9.700324399466208 0.6975573848145773 2.2315951765821778 41 43 16
9.556459048338775 0.46154794295483403 2.3856548019518375 44 46 20
8.855439297999864 0.46154794295483403 2.3081138410548467 46 47 20
9.907807713603228 0.5887520845558545 2.348753260494151 43 46 18
12.980638170332819 -0.4372452898194139 1.9623347178929833 47 48 20
12.61345673401846 -0.25393809983044324 1.8071495734093816 37 39 20
12.018081658469173 -0.6737095936741067 1.906005802331126 45 48 21
10.44625575538666 -0.878647551152717 2.0648447031450634 49 52 25
11.13307112429401 -0.8955522264221171 2.3665736558227426 55 60 33
12.600024060883424 -0.34066028872424714 2.6246370966970787 48 50 26
10.454296712232633 -0.9683564867342735 2.176674017029792 51 56 29
10.955882606570988 -0.878647551152717 2.1452919621139506 50 56 28
10.955882606570988 -0.878647551152717 2.1452919621139506 50 56 28
10.40173026109036 1.876495947449914 1.5663309193879456 24 29 16
10.190296401384277 1.7823617441111712 1.6645079566114651 22 28 8
10.203425993856282 1.585423894976207 2.07770766275661 32 37 14
9.821596290243233 1.696868245633874 1.9850825312383638 29 34 17
10.246251305008402 1.908339620177947 1.9669291414105887 30 35 20
10.705161070261266 2.09278555019261 1.8503220765106603 54 61 52
10.350576669694792 1.5839494279944488 1.8601694442075694 23 29 4
10.84064710524142 1.3845097408660603 1.9441037674567787 30 36 11
10.64289239271624 0.9918210808298182 2.4148025670792403 42 45 19
10.768525016930266 1.4249451213829154 2.552519104535795 45 50 26
10.792731033298278 1.7595033629003052 2.5491710685347835 43 49 28
10.542946782746755 1.589651009829251 2.425529138263501 41 46 23
10.385635793472641 1.207620793083018 2.610213816562264 46 50 25
10.545273739836299 1.0608942046784053 2.290816549637321 39 42 14
10.88554519889799 1.364184950367057 2.1494803994872367 31 36 10
10.922568308492007 1.2231688998043708 2.2609068896149815 37 42 16
10.539704295139119 1.5872706411403548 2.291280127533722 38 42 20
11.160260005572267 1.7966759765008466 2.6722694122817576 47 51 30
10.22350540681837 2.2692422382720636 2.462220308924883 45 50 36
10.134109450949548 1.833595531179724 2.1987333984097157 33 37 20
10.02255968145804 2.1800374599294616 2.337534793805298 39 45 33
10.643798509721416 2.108965779527883 2.28272621874728 37 42 32
10.755260990821974 1.8694854216017123 2.403128679993052 38 43 27
10.390434563686847 1.9472389915503334 2.1809384501339304 39 44 33
10.22350540681837 2.2692422382720636 2.462220308924883 45 50 36
9.954620844377184 -2.360276825244739 2.091641417732001 45 55 29
8.900107177692623 -1.8630678668948564 2.16105048505735 47 56 30
10.049615711544188 -2.1978288565264936 2.0862269975636707 49 55 28
9.596232154741779 -2.1978288565264936 1.9954333324575542 47 55 27
8.9402204248595 -1.6027604244583278 2.6673463138719984 51 64 37
10.231333948310892 -2.068508078431748 2.9080381473718275 51 59 36
9.010465987034651 -1.8410537643433997 2.6523766122650585 52 62 36
11.329937536008876 -1.0706487063220915 2.3489903151619766 55 60 33
10.33060193049178 -1.1857604689777528 2.309192036204828 49 59 32
11.028528488801044 -1.1857604689777528 2.3763002409887086 54 62 36
8.791370627444918 -2.1758439331532866 2.701471159048039 51 61 37
9.435785395942224 -2.3680317070595147 2.82050639272734 50 58 35
9.705426414697964 -2.1758439331532866 2.7453833294741066 51 60 37
9.493103399649216 -1.8630678668948564 2.2486786725631234 50 56 29
10.71646275087683 2.5974658177872296 2.051313242833305 31 35 29
11.75065400962922 -3.1336338757514155 2.1020992604121123 56 60 60
10.059531617371736 -2.5225114990834987 2.0856686638923785 46 56 26
10.370536535653265 -2.583074786361131 1.9619219589028103 46 56 30
11.142532530110088 -2.5540722492990446 1.7470310750048554 45 55 31
11.615019771887841 -2.758668754246669 1.9181202344250874 40 49 36
10.47389513517063 -2.359702302919064 1.8566658223718897 49 55 28
11.467051799729536 -2.939026534894502 2.0174848240379317 48 54 52
9.705462052909814 0.8824011691788471 2.231183727858416 38 40 14
13.493507898164493 -0.33113222350693433 1.9466925582265193 45 43 20
13.244689595707273 -0.40444257361980007 1.795686163262911 48 49 21
11.687700680205763 -0.7326787560909296 2.008461718238327 46 49 23
11.039171311675327 -0.800529889199517 2.0361344571422766 50 52 26
11.039171311675327 -0.800529889199517 2.0361344571422766 50 52 26
10.955882606570988 -0.878647551152717 2.1452919621139506 50 56 28
11.054384837222457 -0.9683564867342735 2.251102582345757 51 57 30
10.172919397677726 1.684273414152876 1.7640312085852035 18 24 2
10.594650624905935 2.0044829755477696 1.953214379068591 49 55 43
10.203425993856282 1.585423894976207 2.07770766275661 32 37 14
12.008228500305874 1.5973134195633232 2.7193459823000454 49 53 31
10.252920895681067 1.3958486423630718 2.6326669184432987 48 50 26
10.758998574945739 1.4736165021117338 2.157183804482723 30 35 9
10.12088999721752 0.9042867361873588 2.474873847084159 43 46 20
9.917865400423695 0.9918210808298182 2.3477546347241667 42 44 18
11.160260005572267 1.7966759765008466 2.6722694122817576 47 51 30
10.684858966164544 2.137520990722581 2.56434227209792 47 53 33
10.390434563686847 1.9472389915503334 2.1809384501339304 39 44 33
9.577777398294577 -2.098882549503673 2.114363424213454 46 55 27
10.733416451299298 -1.0040634253237841 2.4053672265528014 56 61 34
10.33060193049178 -1.1857604689777528 2.309192036204828 49 59 32
10.811539977576256 -1.312654025761454 2.3974279589204945 52 62 36
10.651778264113798 -1.0706487063220915 2.282079966956337 56 61 34
10.027625631515738 -1.0706487063220915 2.206464170128243 51 57 30
9.972775839732403 -2.364220280254737 2.6855433459428157 51 61 37
11.160413640404547 -2.7212998415680167 2.0306871014471355 43 52 35
19.013319948444725 -0.2770083387917096 1.3563343733587008 42 33 13
9.120810768394644 0.6975573848145773 2.1449261872897365 40 41 14
9.233501465192925 0.5887520845558545 2.27152822996526 44 46 19
9.290807551282471 0.27245596816209555 2.2663365831104025 44 43 15
12.80015681145783 -0.5100466742139297 1.803637996981319 47 51 22
13.274408355721896 -0.23495291510162855 1.4918824740612404 3 4 0
10.997117578671705 1.9956627887120444 2.379278376078467 37 42 29
11.180561491892364 2.05725906343092 2.4994497428652744 41 46 32
9.971921495147843 1.7125868534450424 2.210592068948121 35 39 19
10.768525016930266 1.4249451213829154 2.552519104535795 45 50 26
10.602579069370977 1.7327442079322117 2.419089136265454 40 44 25
11.22986654551588 1.0608942046784053 2.357812455886372 41 45 17
11.493629972700704 2.647399927692364 2.0163775175859087 52 56 56
10.629900062169968 -2.63381314043686 1.755625867267363 45 54 35
10.5736549739503 -2.4994492513746462 1.853893885229808 46 56 30
13.182183980193345 -0.16028408388005086 1.7195406100272046 29 29 9
13.91163375784314 -0.07775676649376877 1.5674575460235958 28 28 12
9.986226001195497 1.8052627790147378 1.97784462952977 24 29 13
10.713570166793724 1.4833608507127716 1.948753772961251 25 33 7
11.757832415024852 0.9042867361873588 2.5802601031249064 44 49 23
10.684858966164544 2.137520990722581 2.56434227209792 47 53 33
10.734155164645532 1.5928353035310436 2.5573281740684894 44 50 28
9.190912023996807 -1.9870768663124536 2.140000636190779 47 56 30
13.811062200444178 -0.23495291510162855 1.8611173415957512 35 36 16
10.574706169465921 1.461437542800277 2.2883779250125946 37 43 19
10.049615711544188 -2.1978288565264936 2.0862269975636707 49 55 28
11.648476197060205 2.8610175105634443 2.01003798920527 53 57 56
9.120810768394644 0.6975573848145773 2.1449261872897365 40 41 14
18.737390512716555 -0.39739762250662714 1.3531257228836093 33 25 8
10.636467365306247 1.1162983354630993 2.16485653198082 37 41 14
13.196270570111963 -0.16028408388005086 1.4150901825135513 25 25 11
12.018081658469173 -0.6737095936741067 1.906005802331126 45 48 21
10.602579069370977 1.7327442079322117 2.419089136265454 40 44 25
