19.563643932154022 1.1699377315398742 2.0336324064140126 24 37 8
19.563643932154022 1.1699377315398742 2.0336324064140126 24 37 8
10.803276142738685 1.4799331088333414 2.130400133112157 29 40 10
10.925761569178313 1.3726396696959011 2.123393096591448 24 34 4
10.803276142738685 1.4799331088333414 2.130400133112157 29 40 10
10.334335242494198 1.2352663046802514 2.1590858073446224 31 42 9
10.580423084004549 1.4688130430000368 2.2608075546131357 25 36 4
11.033471256934922 1.1374159056316329 2.4843422826299855 41 48 14
11.033471256934922 1.1374159056316329 2.4843422826299855 41 48 14
10.544189388322168 1.454605578009736 2.3943597278778834 30 41 7
10.51200345153416 1.0655491236279453 2.5516051406810787 40 49 15
10.669649493168588 1.3190409863686305 2.3817529465036924 30 41 6
10.82016624305478 1.280021335525555 2.5103281649942857 38 45 11
10.26000191738757 1.1374159056316329 2.424761010327601 41 48 14
10.94243089013294 0.9685303077985239 2.6673725939367325 41 50 18
11.816634946374197 0.6831266353438724 2.7103778363238833 44 51 19
11.149465222494381 1.2272494372493705 2.632381349899832 39 48 14
11.527517578282596 1.3717157903490529 2.7686065514824634 43 51 19
11.527547688467301 1.4358267688822117 2.576412665130749 39 47 14
11.531321303545619 0.8335908305831954 2.767764477064914 43 50 18
11.96343138375946 -0.7287142186941903 1.7163284566975678 44 51 22
11.802485295567573 -0.6620307035953852 1.892783632555446 41 48 18
11.247278714352754 -0.26889821227927274 2.460087767209524 48 54 27
10.714296917342596 -0.3993007586964435 2.377377274982311 45 54 24
10.489586733781273 -0.26889821227927274 2.3999956219912937 49 55 28
11.80615196200661 -0.7891623588721559 2.177860789240983 46 51 25
11.02546538792962 -0.5168344663219964 2.34836772775485 43 50 19
12.396179639215914 -0.5392157101208467 1.962719440855882 40 45 14
11.424414970813404 -0.5575102485790067 2.2012611452071478 41 47 14
10.763631681504089 -0.6205654885531942 2.246839188520955 45 50 22
11.886209909504476 -0.6442611953006384 2.1731902450829743 44 50 22
12.061244870669727 -0.5876262650513193 2.0663100118169573 43 48 17
11.454704512636914 -0.8567517915581568 1.9969380519724482 46 51 24
11.416024509779708 -0.6205654885531942 2.315222287331471 44 49 18
11.424414970813404 -0.5575102485790067 2.2012611452071478 41 47 14
11.381779653174682 -0.1501900273936283 2.596940844460054 48 54 27
10.498663113601054 -0.2263889114401528 2.7578067365357097 47 53 26
11.921325213390658 -0.37156382177145797 2.691670103095208 47 53 26
11.243348024412846 -0.5379679137526638 2.6176203207570246 45 53 25
10.714989168912064 -0.9055110714940965 2.523881251407575 50 55 28
10.344207785391651 -0.7907124844757635 2.415469506812778 49 54 27
11.42506419598031 -0.95879499628332 2.314493633744425 48 53 28
11.039501865211324 -1.0628977047640331 2.3471167692463792 49 54 29
11.196840858160826 -0.5874325600786818 2.465660326901616 46 53 22
11.194299849429061 -1.342584077999768 2.333626239117665 48 53 28
11.194299849429061 -1.342584077999768 2.333626239117665 48 53 28
11.052849469102924 -1.1184199170633005 2.2260221076963838 48 53 28
11.894892277241631 -0.9339067248522115 2.1726883943185067 47 52 27
11.270202711765348 -1.3108115159934737 2.4575840437782404 50 55 30
11.111817283422624 -0.7907124844757635 2.475259138316828 49 54 25
10.904780191599137 -1.1222805996314895 2.499789997410776 50 55 31
10.445375667947387 -0.9935601252895633 2.4046279779262827 49 54 29
10.714989168912064 -0.9055110714940965 2.523881251407575 50 55 28
10.675158317901829 -0.7898050832121942 2.2535049965989327 48 53 28
11.520529033409817 -1.2690724539412916 2.5773740383462345 52 57 32
10.856086886396564 -0.94078686977545 2.683109758347047 50 58 29
11.82227637998398 -1.4022582087172584 2.709341847842358 52 59 31
11.445588242518168 -1.3599960647381377 2.7873496870385015 53 63 33
11.761142424008137 -0.94078686977545 2.720750040349344 55 64 34
11.540260109093088 -0.6769796844891038 2.574678060410419 47 54 25
11.252526430648738 -1.0453698039841042 2.6162104673997737 52 57 33
11.934019967672295 -1.500995771667407 1.6324176104441883 48 51 27
12.320714889206448 -0.9659970835466111 1.794638663432209 48 53 28
11.811229208954883 -0.9152310479611024 1.8925366795960135 47 52 26
12.367843637945887 -1.0789223777037942 1.6302535393140503 50 55 26
12.066829474375572 -1.0377509355673957 1.8854844643336859 48 53 28
10.722052590926397 -1.3876192012072086 1.926596380298363 47 51 29
11.572328295010596 -1.3163137504455498 1.8093866399326857 47 52 27
12.032120113896143 -1.1530218371358607 1.7154917814108654 49 54 27
12.548530060289004 -1.2589276691288567 1.469810116390272 48 53 24
12.217772499785807 -1.3369248547176156 1.5490987150785804 47 52 25
11.608412522646573 -1.2009951129308032 1.990935277759636 48 53 28
12.164496868316482 -0.9152310479611024 1.9706040959185473 48 53 28
12.148732461634534 -1.0726808594980772 2.15840525191635 47 52 27
11.500813863541957 -1.2622796412308237 2.19642149766894 48 53 28
10.730208778992116 -1.3675326083083823 2.1346713156563295 47 52 27
16.755944248663432 0.14066741374863181 3.0914979729842305 51 60 30
9.289168812177941 2.0452682605099177 1.7586680790807172 30 39 20
9.706576166312967 2.1378311942426436 1.440092685441515 28 37 22
9.778914396336253 2.1378311942426436 1.7491552986006518 21 30 14
10.222320073632652 2.22065519110771 1.642752487040958 18 26 13
10.838252937715733 2.4248784963446783 1.54633646977313 63 67 63
10.466076776452967 2.3598075117978867 1.835178780453892 68 73 64
11.460677173411426 2.4248784963446783 1.9027496857520352 65 69 64
11.336627964205778 1.5893576449382105 2.206924411371509 34 44 17
9.644749038731419 1.8319221621015902 2.083956546533732 34 44 21
11.213996202027264 1.5916435611990079 2.3319487165644572 29 39 12
10.768513420418607 1.8319221621015902 2.2464756049655215 28 38 15
10.280963141631082 2.0452682605099177 2.0494139810496605 26 35 17
11.32814184185052 1.7336177856994486 2.451334755690189 36 46 19
10.97879629357145 1.989708082338747 2.3525612098115616 40 48 28
12.43752466128851 1.6118780442415794 2.8038638016398614 48 55 24
12.491218085114557 1.8474758070589754 2.7918296782363328 48 54 26
12.75571411335456 2.04878119657925 2.570993834105008 46 54 32
13.608015695701017 2.04878119657925 2.610696759322259 47 55 31
12.75571411335456 2.04878119657925 2.570993834105008 46 54 32
12.602042718496982 2.2544268796875415 2.5902844655876907 49 57 36
13.188738368847195 2.1252725589804577 2.667634088220575 48 56 34
12.984772243369118 1.9717165092958946 2.699235397526583 47 56 31
13.116632872009962 2.3624234129846937 2.678465474737648 51 57 34
12.833843864928355 2.2267730431632047 2.7247536646506822 49 55 30
13.757929899492938 2.4995214940722725 2.7535262925298825 51 57 32
13.48859242358626 2.364404893865145 2.805727494383725 48 54 29
13.566331991618766 2.6716314597174144 2.7896806291178278 50 56 29
13.754177437497733 2.2267730431632047 2.754194220519607 50 56 31
12.359448732824523 2.5819507889781623 2.2469926547034866 47 51 44
12.405132488707935 2.5216443823035197 2.352004666126442 36 41 31
13.465873679104295 2.5532277835926567 2.182678778849171 67 69 73
11.674135092341174 2.7770217666943937 2.295040301281716 41 44 36
11.321757461500471 2.620249706515165 2.322920060201274 43 48 40
11.250853234018441 2.4988209499842298 2.0051787320955925 66 68 68
10.501013755327598 2.1989299770232185 2.1485344252531875 26 35 17
12.767848563998674 2.673673847913963 2.5695147481103593 51 59 39
12.771917995456539 2.620249706515165 2.4375215613826815 49 54 42
12.606165674315344 2.2723664048079035 2.4531480605490392 50 57 39
12.767848563998674 2.673673847913963 2.5695147481103593 51 59 39
12.561157810514919 2.81093815113346 2.5956007438724473 49 59 38
13.196563796545007 2.598888609628382 2.666479362876782 52 59 37
11.415674835186808 2.9362876508019857 1.9984906666459124 34 36 29
11.642718898747852 2.8441150394394343 1.9896193047070798 52 53 51
11.668957999368311 -2.7175028327212734 2.7387637696085507 51 61 33
12.276894514160531 -2.2159565708835993 2.843350374537658 54 66 36
10.975402532284006 -2.536703793635885 2.6615527978293545 50 60 32
11.963955698291114 -1.8393517830393882 2.3892695305991287 51 56 31
12.18502135822525 -1.953085099765519 2.3700809939439385 51 56 31
11.766869458407628 -1.5922656173362706 2.40734051041498 50 55 30
12.18502135822525 -1.953085099765519 2.3700809939439385 51 56 31
11.963955698291114 -1.8393517830393882 2.3892695305991287 51 56 31
10.840621259308326 -2.277574341248176 2.507751650994931 48 54 29
11.823608856898952 -1.7180605285608315 2.40203941294626 52 57 32
11.121802383775268 -1.5953839043583313 2.4741181738925526 51 56 30
11.044879728561725 -1.5922656173362706 2.3466387321255233 50 55 30
11.579146229691156 -1.924096212506099 2.5694245602333057 52 58 32
11.807418725458332 -2.0649785541772245 2.5400705838318496 49 55 29
12.630058396361203 -2.1154609582466066 2.4508519087963103 50 55 30
12.117811518423116 -1.8761303047039546 2.5037069924069524 53 59 32
12.242118155855106 -1.5995616464715328 2.6401386619767058 52 59 32
11.847173857768889 -2.2554100596882822 2.7048088552997105 51 60 33
11.279370076964545 -2.3918108251613255 2.6121197254084807 50 57 32
11.979267358494626 -1.7390809705198453 2.5194776072100247 54 59 33
11.990902695540752 -1.9889035069916636 2.679801154796092 52 58 33
11.794266757813316 -1.6054490097459255 2.7145185475398366 51 60 31
12.415649719187025 -1.8633269067419964 2.8089171710442824 53 61 33
11.847173857768889 -2.2554100596882822 2.7048088552997105 51 60 33
11.456020782741101 -2.8848275707069 2.4379254190623554 49 59 35
10.713102423751184 -2.8848275707069 2.377493607080984 46 56 30
10.97760836319208 -2.939114933118613 2.1204831311555665 43 51 25
10.357282855814802 -3.0456573044774196 2.0455944687164442 44 51 25
10.583280916347563 -3.019132355285926 2.3903812760414387 48 57 31
10.87261236379067 3.020301487191168 2.126410478807075 43 48 23
11.334711447017035 -3.019132355285926 2.4506331624404525 50 59 33
10.75356798735676 -2.915124868243992 2.2475900925787724 46 55 26
10.547089947794584 3.125185766893275 2.394062929370705 48 57 29
10.933219659791003 -2.7593244385327287 2.3567082140108324 48 58 32
11.334711447017035 -3.019132355285926 2.4506331624404525 50 59 33
10.815656623650305 3.1287639934850304 2.129683268153925 44 50 25
12.431710024293396 2.9623742270216598 2.612987712627182 52 58 34
11.392891217570687 -2.6329350368020377 2.5953329511017857 50 60 32
11.238328199367444 -2.6452758127441096 2.329888169960112 47 57 30
10.86705342998017 -2.4974204406043623 2.5044498436950047 50 59 32
11.731253446454804 -2.2917584742982506 2.4107104003841706 48 54 28
12.075987656983237 -2.4544768766072225 2.265972906012963 49 55 30
11.585693340310694 -2.5175292238529776 2.0886317656706415 47 53 32
11.585693340310694 -2.5175292238529776 2.0886317656706415 47 53 32
10.981570956440702 -2.5437228060895314 2.231019749325434 48 54 29
12.193519424967478 -2.1512381002289396 2.2579600422620274 49 54 29
11.032961513320952 -2.472116055435501 2.34769907084587 46 56 28
10.981570956440702 -2.5437228060895314 2.231019749325434 48 54 29
11.866004851591612 -2.6523067616244673 2.0752247061488713 44 49 31
12.263239213699402 -2.214992792128746 2.3635450215522464 48 54 27
11.263106979759216 -2.38472846208961 2.458357117029464 49 54 29
11.942696640853553 -1.668883082437579 1.5485988733102194 46 50 29
11.222045750071693 -1.5863481981271685 1.816985649793574 46 51 26
11.70816717291741 -1.7675540335515298 1.8954722123430072 49 53 32
12.988375376238249 -1.9366670976989755 2.0281138279346727 47 51 37
12.665031186674101 -1.9700284644137702 2.1314893197783578 50 54 37
12.371924078723344 -1.8811323354960385 2.1464361535549505 50 55 30
11.485540373766302 -1.6885661223571675 2.0936064960636087 48 53 26
10.959437918747026 -1.587921604050554 2.0175507733045723 46 52 30
12.49432411156294 -2.009653941068276 2.238360699290998 51 56 31
12.197115456330238 -1.9135188777155627 2.257718137957282 50 55 32
11.836072252043063 -1.7016815602527406 2.2830012532038375 50 55 30
11.148284539472348 -1.5898491699721842 2.2194599937975297 48 52 30
10.890937145046879 3.0321285699151312 1.9208399068037023 30 34 20
12.233999021371396 -2.6939830100355517 1.968204681116717 35 40 28
16.73619362979678 2.534215789985125 3.129276535975015 51 60 31
17.770911548353556 1.721094309556197 3.077941294167455 52 58 31
9.814715292429277 1.2352663046802514 2.0742244114326116 39 48 17
9.814715292429277 1.2352663046802514 2.0742244114326116 39 48 17
10.199659902395133 1.192266818410508 2.292026087515086 34 45 10
11.029464370373784 1.4098701633867081 2.652222122711492 40 49 16
11.356586863925207 1.0655491236279453 2.600614004829304 39 48 14
10.94243089013294 0.9685303077985239 2.6673725939367325 41 50 18
11.527547688467301 1.4358267688822117 2.576412665130749 39 47 14
11.642386008369641 1.152433106619726 2.7441538554058305 41 50 18
11.531321303545619 0.8335908305831954 2.767764477064914 43 50 18
10.916181238100595 0.6831266353438724 2.6720790108373484 44 51 19
12.125199063798114 -0.6107834884956554 1.7143733020071408 52 57 28
10.714296917342596 -0.3993007586964435 2.377377274982311 45 54 24
11.377945723338811 -0.3526927151087644 2.318309809714139 47 55 26
10.763631681504089 -0.6205654885531942 2.246839188520955 45 50 22
11.252577285339369 -0.7109374229469948 2.2124522393561983 46 51 26
11.764948758416049 -0.4142066933926886 2.1802953319970646 42 50 19
11.74864824791544 -0.5168344663219964 2.409060421737193 45 51 21
12.38427994245393 -0.4609578734575532 2.052264529595446 42 47 15
11.416024509779708 -0.6205654885531942 2.315222287331471 44 49 18
11.902945186156114 -0.8567517915581568 2.0735121976345723 46 51 26
10.890570077618648 -0.4591084970909448 2.5015379577515944 46 54 25
11.452611869385336 0.2838747053083765 2.785695183034008 45 51 24
10.85133099429749 -0.6450539396245693 2.6839985494432734 48 57 29
11.552337615961406 -0.45673053130344443 2.763153912516906 48 57 29
10.868242223823376 0.024346649771392555 2.6808488967663937 46 52 25
10.85206723600689 -0.8832465748567482 2.3642222928419088 49 54 29
11.400606982489766 -1.2260165673144783 2.3164688335964723 49 54 29
11.151501186567488 -1.4506711143693165 2.470746320932359 50 55 29
10.747278303662835 -1.2260165673144783 2.2480603429576203 48 53 28
10.847309581533299 -0.6971030597245981 2.3646680952607273 47 52 25
11.437961874255206 -1.0209783071196845 2.2003970245615663 48 53 28
11.761142424008137 -0.94078686977545 2.720750040349344 55 64 34
11.158678816744317 -0.7920904446170838 2.630904431977415 49 58 29
11.56127072027712 -1.1301631983626734 2.761215307094578 54 63 33
11.93430807608862 -1.2120510448727062 2.6894228416889487 52 59 32
11.404433294091016 -1.4304977483638475 2.5936705552555943 52 57 31
12.487411873834755 -1.2589276691288567 1.5495673005031232 48 53 25
12.045012371893518 -1.417925921775763 1.631849072648046 47 52 26
12.672099719467582 -0.9007092429526057 1.4707981768918639 48 53 28
12.910668047677488 -1.0102653643863606 1.4726519939783629 48 53 24
12.58883923016496 -0.788312328322442 1.4701345702738282 48 53 28
12.03579320674331 -0.9659970835466111 1.6318958960292975 48 54 29
11.975672496615989 -1.1161287402146631 1.9772762987873356 49 54 29
11.500813863541957 -1.2622796412308237 2.19642149766894 48 53 28
11.245459587820022 -1.1636223880187127 2.105954230914081 47 52 27
12.07407728324724 -0.9899067066258326 2.0657356628901593 48 53 28
9.481025521378541 1.9430134202512606 1.9757070923757214 31 41 20
9.155261251779047 2.0452682605099177 1.6511562292606614 30 39 22
11.213996202027264 1.5916435611990079 2.3319487165644572 29 39 12
10.772617368402162 1.5893576449382105 2.1321838530343915 30 40 12
10.772617368402162 1.5893576449382105 2.1321838530343915 30 40 12
11.268908023377927 1.5945714804807698 2.4577249715604923 34 44 13
10.649067047054348 2.1006824124613117 2.2554989154165117 35 43 25
11.474550411184643 1.866625166160847 2.436024542162163 36 46 21
12.43752466128851 1.6118780442415794 2.8038638016398614 48 55 24
12.30743560328835 2.1252725589804577 2.6305413297099296 49 57 35
13.293113034841976 2.5525424238779935 2.85077302785356 48 54 27
13.285370603599246 1.7596472657619058 2.653644649847873 46 55 26
13.55871997765418 2.055669378374192 2.791212736278219 49 55 30
10.542293432005202 2.2849381443290318 2.036594493525354 29 37 22
11.088174547542625 2.5216443823035197 2.223576144580673 50 54 45
11.759512079440423 2.5819507889781623 2.1806181491746455 61 64 62
12.610259757256252 2.4490980049248208 2.4527535359853285 48 55 36
12.967266104640403 2.361212394819969 2.546056611094393 49 57 37
12.606138140446221 2.4689511234798016 2.589756359701405 51 57 35
13.048112061357612 2.5530516830508363 2.5369733907459073 51 56 39
12.99669283409204 2.752786727813667 2.6973029384196185 51 59 35
11.558148633269326 -2.403566250327263 2.7618914315396634 52 62 34
11.823608856898952 -1.7180605285608315 2.40203941294626 52 57 32
11.326243767252436 -2.1873852727358636 2.451537720979021 49 54 28
12.18502135822525 -1.953085099765519 2.3700809939439385 51 56 31
11.794266757813316 -1.6054490097459255 2.7145185475398366 51 60 31
11.847173857768889 -2.2554100596882822 2.7048088552997105 51 60 33
12.54937717575187 -2.080329363692203 2.7793378527549306 53 61 34
12.336120360379152 -2.0023387977470386 2.4802036721760237 52 57 32
11.847173857768889 -2.2554100596882822 2.7048088552997105 51 60 33
11.807418725458332 -2.0649785541772245 2.5400705838318496 49 55 29
11.279370076964545 -2.3918108251613255 2.6121197254084807 50 57 32
11.375394863876362 -1.5995616464715328 2.5978681107217696 51 58 30
11.850874984750845 -1.8058546403617917 2.7041403751601436 52 59 31
11.416654491005815 -1.6143645383264036 2.794266895298843 50 61 31
11.342416337396854 -2.1465547537825542 2.602697213823619 50 56 31
11.342416337396854 -2.1465547537825542 2.602697213823619 50 56 31
10.73019916112492 -2.999530049783013 2.5218888650243954 50 60 32
10.583280916347563 -3.019132355285926 2.3903812760414387 48 57 31
10.624240955063431 -3.033999385162009 2.2574082806266165 47 55 26
10.250143584185931 -2.7593244385327287 2.287703852458785 45 55 29
10.858264254698488 -2.845445066394414 2.5055443329325997 50 60 32
10.75356798735676 -2.915124868243992 2.2475900925787724 46 55 26
10.588189990918663 3.1271938400185975 2.2602022712869654 48 55 26
11.558850404353299 -2.999530049783013 2.572156729397992 50 59 31
11.51047211637639 -2.379995135215668 2.3076892574599 48 54 30
10.574978585504795 -2.6452758127441096 2.2612325608992427 44 54 28
10.981570956440702 -2.5437228060895314 2.231019749325434 48 54 29
11.032961513320952 -2.472116055435501 2.34769907084587 46 56 28
11.56471655507595 -1.6778306257975677 1.899650240442078 47 51 28
11.779392887829605 -1.5898491699721842 2.2871630526413105 49 54 29
12.49432411156294 -2.009653941068276 2.238360699290998 51 56 31
13.456598160712602 -2.1288698865729616 2.0949637022624668 49 52 44
12.862606444827433 -2.097851727155881 2.215985609666464 48 52 30
12.578873013162172 -1.9366670976989755 1.9567240662761822 46 50 32
10.959437918747026 -1.587921604050554 2.0175507733045723 46 52 30
11.870383459158313 -2.776895780414972 1.9810975195253226 33 39 26
17.736122063372896 2.534215789985125 3.129970927183959 51 60 30
10.199659902395133 1.192266818410508 2.292026087515086 34 45 10
10.705458564993991 1.3489804290165184 2.2512056377334018 24 35 2
10.334335242494198 1.2352663046802514 2.1590858073446224 31 42 9
11.531321303545619 0.8335908305831954 2.767764477064914 43 50 18
12.60339175216587 -0.6758420456824161 1.5497626847918566 56 61 34
10.903367260766478 -0.18066432672252178 2.674400717092941 47 53 26
10.856086886396564 -0.94078686977545 2.683109758347047 50 58 29
11.502592606055305 -0.3122718119177991 2.579842880584846 47 53 26
11.074784813650359 -1.4657910703576573 2.3439929964805177 48 53 28
11.381779653174682 -0.1501900273936283 2.596940844460054 48 54 27
10.903367260766478 -0.18066432672252178 2.674400717092941 47 53 26
11.252577285339369 -0.7109374229469948 2.2124522393561983 46 51 26
10.462179437642542 0.03069866134018643 2.7665369707752197 47 53 26
10.597212903038448 -1.4869300988165486 1.9309777490680822 46 50 28
13.025254258225868 -1.1846583473306271 1.3960089386060424 48 55 23
11.856655203630142 -1.2323283736049995 1.8035581594960788 48 53 28
11.666637218365763 -1.2323283736049995 1.7200581196115847 48 53 26
12.153056292304555 -0.8482371290807796 1.7977804604306877 46 51 26
11.317850981775244 -1.2918220378759595 2.002434136526701 48 53 28
11.177912981558995 -1.4775401229760672 2.2174520882610933 47 52 28
10.10590011786039 2.3598075117978867 1.5445635236447561 37 42 34
9.860443929497512 2.0452682605099177 1.9592724381009128 24 33 16
11.268908023377927 1.5945714804807698 2.4577249715604923 34 44 13
13.293113034841976 2.5525424238779935 2.85077302785356 48 54 27
10.772617368402162 1.5893576449382105 2.1321838530343915 30 40 12
12.405132488707935 2.5216443823035197 2.352004666126442 36 41 31
12.833843864928355 2.2267730431632047 2.7247536646506822 49 55 30
11.980012586252768 2.6747178281381854 2.272673688509258 38 41 36
13.754177437497733 2.2267730431632047 2.754194220519607 50 56 31
13.48859242358626 2.364404893865145 2.805727494383725 48 54 29
10.432139866904404 1.9430134202512606 2.152844661429314 27 37 16
10.797236225482711 2.8879551742693623 2.24434516577919 46 53 31
13.196563796545007 2.598888609628382 2.666479362876782 52 59 37
10.646362697951501 3.0056267555505864 2.255706329344333 47 54 22
11.878423762967886 -2.5711938534647727 1.9808031014584118 44 48 32
11.97627303902666 -1.810328035561226 2.272937723100756 50 54 32
13.02848895724906 -2.0527360142342284 2.1140666859216397 46 50 35
11.18182640304983 -2.792371462671073 2.627221639392988 51 61 33
13.34302830933837 -2.014254540086196 2.0150751219606513 54 57 48
12.193519424967478 -2.1512381002289396 2.2579600422620274 49 54 29
11.621736071007398 -2.5437228060895314 2.2990357973692626 46 55 28
12.482517977160642 -2.0573227381291233 2.3458754782055338 49 54 29
11.766869458407628 -1.5922656173362706 2.40734051041498 50 55 30
11.558148633269326 -2.403566250327263 2.7618914315396634 52 62 34
11.263106979759216 -2.38472846208961 2.458357117029464 49 54 29
11.684312993512457 -2.4414855435058396 1.9880351660093312 45 51 31
12.05220713933076 -2.301611133509158 2.2676197750539693 48 54 27
10.628335296130075 -2.5799011090677544 2.3858529363598198 48 58 31
11.461222851807698 -2.4544768766072225 2.1989192948577414 48 54 31
11.642415821476 1.280021335525555 2.5610409274051524 38 48 11
11.72185553951587 -0.7886832472852557 1.8950791841211068 44 51 21
12.049706262598217 -0.5392157101208467 1.8859470567228858 43 48 20
11.80615196200661 -0.7891623588721559 2.177860789240983 46 51 25
11.606416296290591 -0.5050535511232064 2.087614891101757 40 46 13
10.733550716409617 -1.1805831073470865 2.375507649741167 49 54 29
11.074784813650359 -1.4657910703576573 2.3439929964805177 48 53 28
10.733550716409617 -1.1805831073470865 2.375507649741167 49 54 29
11.671434250798011 -0.4602697499520544 2.2952450227658123 41 49 16
10.945267054349399 -1.2622796412308237 2.122294480549158 48 53 28
11.949726023203356 1.7954164016006142 2.6867738050259575 46 55 26
13.289229323775535 2.178698766007701 2.851751035937939 48 54 29
11.825666785655589 -2.9585608482621835 2.0771088193804585 34 41 26
11.516384087890941 -2.5711938534647727 1.9010827423289252 43 48 31
11.804380814652081 -2.0573227381291233 2.285321484109793 50 55 30
12.276894514160531 -2.2159565708835993 2.843350374537658 54 66 36
12.296664852375637 -1.7670117318865473 2.6321055705614427 52 58 32
12.18502135822525 -1.953085099765519 2.3700809939439385 51 56 31
11.021091696555729 -1.5863481981271685 1.728872393839498 48 52 26
11.075496883314983 -2.7045158569814554 2.479440856568644 49 59 31
11.659048426911824 -2.6029020583392484 2.1866510566981625 43 51 28
10.890937145046879 3.0321285699151312 1.9208399068037023 30 34 20
11.044879728561725 -1.5922656173362706 2.3466387321255233 50 55 30
19.563643932154022 1.1699377315398742 2.0336324064140126 24 37 8
10.673693897171514 0.5049903302052319 2.719047801382113 45 51 24
11.898607732312504 -0.7210289876882696 2.0737126422369565 43 50 20
11.252526430648738 -1.0453698039841042 2.6162104673997737 52 57 33
10.847309581533299 -0.6971030597245981 2.3646680952607273 47 52 25
10.97760836319208 -2.939114933118613 2.1204831311555665 43 51 25
12.665031186674101 -1.9700284644137702 2.1314893197783578 50 54 37
12.361628064288933 -1.6143645383264036 2.8218059460798837 51 61 31
12.871625896179408 2.92866188163413 2.7181733668221444 51 57 33
12.336120360379152 -2.0023387977470386 2.4802036721760237 52 57 32
10.466076776452967 2.3598075117978867 1.835178780453892 68 73 64
10.26000191738757 1.1374159056316329 2.424761010327601 41 48 14
11.923268716948458 -1.5953839043583313 2.52605719030365 53 58 33
12.154258342653467 -1.7868769834028688 2.15810244379647 49 54 27
13.040197548019195 2.1690075846554793 2.5378523653483307 49 57 36
10.972873509075054 -2.80239823665644 2.2316353456535083 43 52 26
11.273518544306166 1.7138512457910178 2.3269308662449033 30 40 14
14.01841312459812 2.3624234129846937 2.7103395320294545 52 58 33
13.048138662584005 2.360395615366461 2.412948103538393 45 50 37
12.061244870669727 -0.5876262650513193 2.0663100118169573 43 48 17
10.904780191599137 -1.1222805996314895 2.499789997410776 50 55 31
11.25219168451588 -3.0550415815058147 2.0051235475307387 37 42 26
13.41042809252233 1.911554704785904 2.63635533925178 47 56 29
10.834077740390219 3.1300253891035212 1.9227565802295306 39 44 26
