11.566601854542306 0.5095175498924153 1.365715175885728 44 51 42
11.440603759261938 1.0172223690195978 1.3634238139416155 37 45 24
11.217253843897893 1.0967794996995548 1.2670078773086673 37 44 21
10.72448830240161 0.5561534121877957 1.3493534959329188 44 50 36
11.447361456709928 0.31303222719683205 1.5397362055994162 17 19 16
10.70951857895458 1.0967794996995548 1.537595526582409 38 45 20
10.254605683380246 0.691131064527431 1.6336876574017094 40 48 26
10.570474949182838 0.691131064527431 1.8236604679376276 40 48 26
11.040884559787223 0.8912771425120499 1.447714907325195 39 46 25
10.621515826216665 0.9069239481170714 2.0233603534785516 39 47 24
11.163465961031367 0.994835359897172 2.208311485241689 43 51 21
10.86700889966072 1.0503008995489322 2.0124052427922523 39 45 17
10.223873873524033 0.9069239481170714 1.9352829062567405 39 46 23
11.330528844239753 1.0503008995489322 2.0922803525772813 41 47 17
10.105629229089953 0.47087322518088054 1.7342544052077202 45 50 34
10.315655266665368 0.47087322518088054 1.8300487175350695 43 49 29
9.395318212014994 0.16979730216760755 1.856122085850096 35 39 25
9.917954954969002 0.37750797080182774 1.84069907137166 44 50 30
10.468650929228486 0.5561534121877957 1.5368313363619683 43 50 34
9.254332151221583 0.3512729708431405 2.2267693893642457 39 44 20
9.962623253972732 0.6552585798554825 2.3008946352681683 44 52 25
9.930152005974085 0.27670208264245155 1.946592856248843 44 48 29
10.208776488748095 0.5207961349058178 2.0431143584952802 43 49 25
10.230094425450721 0.37750797080182774 1.935050919569695 44 50 29
9.974688034016406 0.6760505788919492 2.055141183920814 40 48 24
9.689414426996631 0.21773814172479153 2.326427819501009 39 44 20
10.621588748590117 0.8465788362761126 2.374185883419318 46 54 24
9.962623253972732 0.6552585798554825 2.3008946352681683 44 52 25
9.325495195203013 0.6552585798554825 2.2209091855647367 44 50 24
10.568402232817665 0.25327679292078786 2.528647361515331 50 55 30
10.271122162332372 0.5394154631119106 2.410239331310081 47 54 23
9.57546743804292 0.4729620396757043 2.2012053561133933 42 48 23
10.918264427385727 0.3022581304926216 2.653729355716995 52 58 31
9.682377671870839 -0.37293751627498034 1.7414684252513826 85 85 80
9.369917314076455 -0.27180979709614367 1.7472186536203203 39 40 35
9.156542118317182 -0.16466404268665658 1.7513745713262536 24 24 24
9.618424646374145 0.05884123324246329 1.9594126531639997 43 47 29
8.732333098544153 -0.6502283731158117 2.131608306702823 47 50 41
9.70945690564749 -0.06035706664718927 2.1911715683182904 49 50 32
9.65962204778262 -0.08078851832347143 2.483871121690249 50 53 32
8.86507506458125 -0.5335271021881407 2.261023172039527 53 57 40
8.732333098544153 -0.6502283731158117 2.131608306702823 47 50 41
10.468872889229855 -0.08078851832347143 2.5422979688279774 49 53 32
9.583206083884646 0.0758736205600358 2.3369217403158884 42 46 24
11.064169276357406 0.0758736205600358 2.467551703691811 48 52 30
9.384029793242593 -0.7417114447013196 2.357550185498338 56 60 46
9.27025559765723 -0.1850972016317836 2.0955629864798597 49 50 34
9.682149175799251 -0.21123381266034555 2.3271350375358617 50 53 33
10.56174164041921 -0.24579238880769208 2.5295445971001422 49 54 29
9.711872450486185 0.06628227728851777 2.1909938746311566 41 45 24
9.404405500034649 -0.4691399936577035 2.519848481184519 53 57 36
8.86507506458125 -0.5335271021881407 2.261023172039527 53 57 40
9.481071972831364 -0.3042967358131246 2.0827379244281756 50 51 38
9.960646159875097 -0.3982779141084954 2.4456822335704382 50 54 33
9.615985627385827 -0.05357836006240001 1.9595165061876554 42 45 28
9.186966552432201 -0.6718912072684455 1.8627810691564644 58 60 53
9.805016777336744 -1.0479163102674056 1.636575484877837 63 66 61
9.314680350147787 -0.9919745732128785 1.8586624085166492 56 59 53
10.170522300118279 -0.8265053493839339 1.535835320183857 74 74 72
10.457801381367197 -0.5523362719211358 1.632464108306766 76 76 75
9.258731047164838 -0.8423437177768826 2.226403763360878 54 57 47
8.827101833965619 -0.7493938200146879 1.99640612328313 50 53 45
9.907563532986108 -0.8331463273787897 2.0587092191475396 50 53 45
10.066840266693259 -0.9919745732128785 2.0503308936067253 49 52 43
10.824120519212164 0.1067309001684627 2.6703819878863655 53 59 32
10.820174763032355 1.4868190457494566 1.3513439951497317 34 40 14
9.923420586415466 1.4780492070270583 1.840546699129503 38 44 19
9.923420586415466 1.4780492070270583 1.840546699129503 38 44 19
10.697000231158377 1.393477363981331 1.5375566584696294 34 40 13
10.61101099114752 1.5816464654393227 1.4427017213662732 28 34 8
10.620224266669323 1.183390488863857 1.8224502326149445 37 43 15
10.601883232274746 1.676279724766595 1.631624987664396 31 38 9
10.917758151679077 1.3031490301084399 1.5382290073295855 35 42 12
10.543792353036025 1.5816464654393227 1.6319605397310484 31 37 10
10.77466619078802 1.0335681816550637 2.359568312928341 45 53 22
10.62250562079606 1.244337265709437 2.1310154935669017 39 46 16
10.223636257437281 1.5841921378275996 2.155680781721236 42 49 18
9.888225072572304 1.3530540648680958 2.0597474184893527 40 47 18
10.395479621003126 1.3530540648680958 2.1447738605412345 44 51 18
11.186001391412734 1.244337265709437 2.2068201096513214 42 49 16
10.076529948871075 1.4535955460288654 2.2908215841701955 44 53 19
10.213132963182664 1.3251984672864394 2.2791494828576973 45 53 19
10.763426180819629 1.094041343126907 2.2361305305209482 45 52 20
10.455706691073436 1.1543013566621387 2.3907759135226203 46 54 20
9.747069609513158 1.4672414009871741 2.0674682919090346 41 47 20
10.865889086876251 1.4358326643738508 2.490732795714173 45 54 20
10.501838258323186 0.8610794108596034 2.5377180770483614 49 56 23
10.296632097749713 1.4117771738525786 2.567244151142677 47 56 22
10.656635997476632 1.0893383986530951 2.516971565702129 48 57 24
10.656635997476632 1.0893383986530951 2.516971565702129 48 57 24
9.222355725385649 1.921094552791203 1.750071870925808 38 46 16
9.244548329007834 2.1678125457153197 1.74963684572617 39 46 11
9.47368330018506 2.1678125457153197 1.853696563657229 42 49 14
9.09085065004098 1.8447436874460714 2.1070258393443804 44 52 19
9.09085065004098 1.8447436874460714 2.1070258393443804 44 52 19
9.09085065004098 1.8447436874460714 2.1070258393443804 44 52 19
8.622909258278598 1.8447436874460714 2.0071672594837313 42 49 17
8.592148935878098 2.016186954564007 2.141889063122499 44 54 19
9.507969140063167 1.813932450280601 1.9641738188863989 40 48 18
8.489235048534592 2.084181106549131 2.2981575725296155 46 57 20
9.040616475116213 2.5914110704335647 2.5784338029826346 51 62 29
8.321572537941899 2.3088476294568103 2.3162392968741408 47 58 22
8.62027842254675 2.173730247162277 2.450890462830674 48 59 23
9.528555862676098 2.4605964842212953 2.7074249094372687 51 62 31
9.029815666394997 2.3088476294568103 2.3977028481652614 50 59 27
7.755064528058143 2.5383162555053773 2.212921949705883 47 58 23
8.57266923876022 2.4333852205101687 2.4576373310022843 51 60 29
13.261012078463834 1.0793734676226179 2.8354708420230725 51 59 28
12.874805441690764 0.6795096353944294 2.9521640350359863 56 66 38
12.924236888115457 1.2332022300314849 2.9331563778284444 54 63 33
10.444250968498544 2.4605964842212953 2.7477120800234687 53 63 33
10.483363987672188 2.1112390984775677 2.7388295637022892 52 61 29
9.795928499166026 -0.5674162390618736 2.65185976579384 57 61 41
9.798379631920612 -1.8147339121514903 2.6513906742668225 63 69 46
9.878407128127767 -1.4775927155701165 1.841806812827732 62 66 60
10.373466790984557 -1.181660093838633 1.7299974896645884 92 96 89
10.153831776267355 -1.5828450150593842 1.9379160883436208 56 60 54
10.632396097397812 -1.0858290378911306 2.520140958051914 59 64 48
9.80239849188225 -1.2024321419898159 2.1844135208776345 47 52 43
10.858840510269186 -1.7411626507672486 2.49158561292119 58 64 40
10.802131564678138 -1.5884251152619662 2.4985229851155024 61 67 46
11.180381642863246 -1.1516246230646678 2.4546440727557943 57 62 47
10.244685776008865 -1.701490451152336 2.154320844145396 56 61 45
10.357049482773366 -1.351887011502236 2.147174935049968 55 61 46
9.847815621942377 -1.351887011502236 2.0619318649138334 45 50 40
10.019832577232615 -1.5884251152619662 2.4386404149043543 59 65 42
11.180381642863246 -1.1516246230646678 2.4546440727557943 57 62 47
9.555908490588576 -1.3237191892493232 2.202699799661593 52 58 46
10.04155164465104 -1.4528669243834433 2.2938809896449706 58 64 44
10.426501436974423 -1.1516246230646678 2.3937825733814115 53 58 47
10.293752003975515 -1.7715039454635322 2.56767665775257 62 68 47
10.75074428450108 -1.718731749777333 2.361811051659915 56 62 40
10.195111725826115 -1.2874543987721132 2.418586618441869 58 63 46
10.239813799550598 -1.8863276766868122 2.413653071240926 60 65 48
10.239813799550598 -1.8863276766868122 2.413653071240926 60 65 48
9.63850090736903 -1.9392138737896434 2.4867131726346696 61 67 48
10.40879641502275 -0.12202737511873603 2.755990542795073 55 61 36
10.502196423487025 -0.36313215073493094 2.7346413046645353 57 62 39
12.795065535959687 0.2707593615199968 2.9880311803567583 59 69 43
11.090309277209338 -0.9199944831040452 2.857092162669436 63 67 49
11.355529347955063 -1.07377623318486 2.785840582676216 62 67 46
11.198427949759893 -1.6036290561421627 2.8257509541262382 61 69 44
10.312330384930812 -1.8809405709663563 2.7797318647930824 62 70 46
10.669606511131777 -1.3754408872959392 2.6996507234859815 61 69 47
10.929396215612751 -1.616870476288504 2.912765463201482 60 70 47
10.019534473210522 -1.9935632424304361 2.867125463661434 61 71 49
10.690988956877678 -1.8147339121514903 2.6954423890368675 65 71 48
11.25012084929097 -1.2391691718389448 2.600758947370427 61 66 50
10.773865774196201 -2.599738863578419 2.6796211350446297 61 65 49
10.433015519663952 -2.4697572340553533 2.7503114459851026 61 65 49
9.983303813797727 -2.5319424855535715 2.8803239059335004 62 69 50
10.929103068546114 3.0395940083842943 2.6518637392592326 55 65 35
10.498424786417086 3.015040484131217 2.7354756340844757 55 65 38
10.588819424859558 -2.7970193283733686 2.716060692937088 60 64 49
10.865044072032362 2.898881114644856 2.939763639416818 58 68 42
10.467689757287168 -2.1171712982998754 2.7423587456962806 61 68 47
11.015964220127556 -2.8605207002785407 2.6372704242926965 60 65 48
11.015964220127556 -2.8605207002785407 2.6372704242926965 60 65 48
10.241812628897078 -2.6988505418697013 2.798381961412461 62 66 50
10.926956611564691 -3.048680227767373 2.6522323885437173 57 67 41
10.496190256667887 -3.0262771722358646 2.7359709856343675 56 67 42
11.100929712513551 -2.9897470893890343 2.85383868580879 58 69 45
11.456772735607396 -2.5445634430518767 2.571436196337542 61 66 49
11.015964220127556 -2.8605207002785407 2.6372704242926965 60 65 48
11.419540021927226 -1.2156195937018819 1.3630357133026554 112 115 110
10.496970146395512 -1.5816950476206908 1.6322337084664733 68 72 70
11.272158730262618 0.6332750020893543 1.3602787076322735 41 49 31
12.021272581668187 0.3938280070082614 1.3735760506738073 2 5 2
9.228219542079863 0.40503023212232614 2.374627168634092 45 50 24
9.493434110659972 0.3097024715171087 2.0820063673194387 41 45 23
9.608273382710724 0.27670208264245155 1.8496269549820874 38 40 27
11.015792676170507 0.8367373333165342 2.2182778093237134 42 51 23
9.550232929552632 0.5394154631119106 2.3402490930587154 45 51 24
9.98681579628397 0.5812272878142833 2.171466225791412 43 49 25
10.536286007187085 0.624786934260923 2.532994812313332 48 55 23
9.457668226580127 0.5812272878142833 2.0841289605838966 42 48 24
9.724248339582054 0.16979730216760755 1.9549610008981433 44 48 29
11.351806531933931 0.966445477140804 1.992309877157237 40 47 20
11.095296296693245 0.9069239481170714 2.104504338325935 41 50 22
10.487921964999863 0.966445477140804 1.7282455373432766 39 45 22
10.219208467408258 0.8296215145161167 1.633905789077991 39 46 24
10.482445026942914 0.5561534121877957 1.6323189473712936 41 49 30
9.972413819214905 0.40503023212232614 2.4442707703578637 49 54 26
10.890655157709567 0.4291316452478855 1.6300101675079994 48 53 42
10.621588748590117 0.8465788362761126 2.374185883419318 46 54 24
9.794392065481762 0.5207961349058178 1.9520676046114165 43 49 27
9.580758099144186 -0.06909637488512416 2.3371676162178208 49 51 30
10.872495250417716 -0.7587632993677681 1.5380933792175233 0 0 0
9.051855596964087 0.05884123324246329 1.7534864037072462 50 54 40
10.134907840406964 -1.0479163102674056 1.8347816991659638 42 45 37
9.715756775320962 -0.6184413758506767 2.476427312918835 56 60 44
9.357072789995698 -0.41522750041937007 1.9708758040095058 42 43 32
8.98533633161489 -0.576453214260968 1.988437363513442 43 45 38
9.656391545175566 -0.9038860557680711 1.7419322483090753 6 8 6
9.246964313102218 -0.27180979709614367 1.640551510713804 56 56 53
10.47111324849171 0.08870190580027494 2.541984827917984 50 55 31
10.325743636763594 -0.9638623047225148 1.5363610795625688 17 19 16
9.049263873730464 -0.05357836006240001 1.753539316667283 41 45 31
9.480021819347908 -0.8331463273787897 1.9653975847563865 50 53 46
11.117899896342053 -0.6298357710640764 1.719255763609592 104 104 104
9.215501638944609 -0.3982779141084954 2.376060127423626 50 54 34
9.404405500034649 -0.4691399936577035 2.519848481184519 53 57 36
10.821953239713384 -0.09722858892754813 2.6707752130836457 53 58 34
11.22359444080672 1.2170738968092052 1.539116748622548 36 43 12
10.668735873621621 1.676279724766595 1.4433985820300825 29 35 7
10.580320708612454 1.4868190457494566 1.6317491090931835 32 38 11
10.992687331196544 1.2893858001497096 2.475733721951158 45 54 20
9.33665391248632 1.7007792079312234 1.9718008213082194 41 47 18
9.70740628899102 1.5841921378275996 2.069684127771276 41 47 19
10.830323934912744 1.5882983647460631 2.4950570779119623 45 54 20
10.261304373106702 1.4672414009871741 2.1532519721172747 43 50 20
10.597477804932792 1.2765695869251925 1.921866234403517 37 43 16
11.107147046008016 1.204528577222587 2.3298712345396155 46 53 19
9.406158898960797 1.5859724199152136 2.2144044698972496 45 53 20
10.656635997476632 1.0893383986530951 2.516971565702129 48 57 24
8.700790893954325 2.235685330074849 1.879619791210227 44 52 17
9.45202870236846 1.921094552791203 1.8543626150283732 39 47 17
8.561187621966384 1.963253470632435 1.8848264236019805 41 48 17
8.920926799573808 1.963253470632435 1.99164351859136 43 51 18
8.530204731324732 2.133466628447657 2.012241532754528 44 54 19
8.88175961813353 1.8842047215947728 2.2594730374482266 45 54 19
8.052223722885026 2.504632315058151 1.9054252365040416 43 53 17
8.448040999024158 2.618800173792597 2.152888203626076 47 57 20
8.257598859610004 2.4174118276454966 2.1681443580359803 45 56 20
8.363363590881093 2.3177396011668625 2.0216896320771993 45 53 18
10.248681144473956 2.6866230838498053 2.796511442755379 54 64 36
13.03102176551313 0.9290164369892748 2.897422990661235 54 63 33
10.837789232761832 -1.4348670052769374 2.4941449835227263 61 66 49
9.673540588231168 -0.8559224351085867 2.482010707883755 58 62 46
10.858840510269186 -1.7411626507672486 2.49158561292119 58 64 40
10.195111725826115 -1.2874543987721132 2.418586618441869 58 63 46
10.248454046048698 -1.181660093838633 1.5361012793447801 81 84 79
10.632396097397812 -1.0858290378911306 2.520140958051914 59 64 48
10.141925128239114 -1.0914863645423376 2.1610252296319667 50 54 43
10.06426853804532 -1.718731749777333 2.291890681697075 58 64 42
10.293752003975515 -1.7715039454635322 2.56767665775257 62 68 47
10.17499260050193 -0.9536978000357591 2.4208303048490825 56 60 47
10.91063118962612 -0.6642725685623047 2.9202709039542376 63 68 49
11.303388384785691 -0.7092228739176772 2.7984703895015013 61 65 48
10.715447344854908 2.70238660450002 3.0264554735369673 59 69 43
10.96464001921645 -1.227294478577765 2.899350517272175 61 69 48
11.232827678688752 -1.3213074978806563 2.8165099766875747 61 69 46
10.019534473210522 -1.9935632424304361 2.867125463661434 61 71 49
11.126256783415473 -1.4104381225576343 2.619592263076835 63 68 50
11.456772735607396 -2.5445634430518767 2.571436196337542 61 66 49
10.926956611564691 -3.048680227767373 2.6522323885437173 57 67 41
10.952413273038594 -2.5319424855535715 2.9039105251861037 62 69 47
10.241812628897078 -2.6988505418697013 2.798381961412461 62 66 50
11.193951697557202 -2.6906243825097915 2.609173164799801 61 66 49
10.555318713386443 -1.6767485513657336 1.6318936654091114 72 75 73
10.872546533767174 -1.3020073078859054 1.5380935335249635 110 114 108
11.150643318614849 0.761886912423603 1.3579494839738175 40 47 26
10.623015491709639 0.3423786258885602 1.7262268568803356 40 45 35
9.69932105994798 0.37750797080182774 1.7411673632544082 41 46 31
8.98533633161489 -0.576453214260968 1.988437363513442 43 45 38
9.284757845632967 -0.7493938200146879 2.094659001724242 51 54 45
9.28322024521917 -0.05357836006240001 1.8596659846431183 52 51 37
9.241650183040884 -0.345253449375544 2.227826011720052 49 52 35
10.174177091815228 1.0503008995489322 1.8337385947306075 39 45 19
11.0290328392803 0.6332750020893543 1.5385577016733085 40 49 30
9.156542118317182 -0.16466404268665658 1.7513745713262536 24 24 24
10.536138981146562 0.8296215145161167 1.82450263701879 39 47 25
7.942316743642836 2.618800173792597 2.047520701073336 44 54 19
8.911520333506683 1.71782256402851 2.119028608791087 42 49 18
10.430352902445929 1.2417861585707302 2.5477258792254935 47 56 22
9.537353780634865 2.683220502386464 2.5006503787327086 51 61 24
10.580320708612454 1.4868190457494566 1.6317491090931835 32 38 11
9.840746410716303 2.2946133411635623 2.6433830950831183 52 61 30
10.75305998112332 1.7690592242269039 1.630768766360758 30 38 8
10.395479621003126 1.3530540648680958 2.1447738605412345 44 51 18
11.484696610787775 1.1430496483053416 2.1877493143638103 42 49 17
8.973422111176864 2.071216179467515 1.8699417640217704 42 50 17
8.307013972016167 2.2109978017863128 2.164103361425917 47 57 20
9.47122991587401 1.71782256402851 2.2092604328074086 45 53 20
10.213132963182664 1.3251984672864394 2.2791494828576973 45 53 19
9.728412842994759 1.6872606895484163 1.7406529222305973 37 43 16
13.21284062442401 0.7185097714019799 2.8472249703240533 53 62 32
12.766713987876345 1.0441278446419149 3.003114376765919 56 66 38
13.261012078463834 1.0793734676226179 2.8354708420230725 51 59 28
10.190878637592313 2.2681726962279667 2.812653571041806 52 62 32
9.824046939872506 -2.3012698277484365 2.6465169788389313 61 66 47
10.598950429784121 -3.0638092757448496 2.524561194077623 55 64 38
10.080943198065318 -1.7411626507672486 2.43151622182853 59 65 40
10.858840510269186 -1.7411626507672486 2.49158561292119 58 64 40
9.667579850825186 -1.2426571122504617 1.9573317320557928 73 78 70
9.795928499166026 -0.5674162390618736 2.65185976579384 57 61 41
10.003056048980305 -1.5860676306384436 2.297282455024852 59 65 44
9.253339970196848 -0.7298656419298727 2.5430084617037987 57 61 47
10.178624098833133 -1.3237191892493232 2.28205749791067 54 61 42
10.417424381778707 -1.1409626719098136 2.032908395320615 47 52 44
10.312330384930812 -1.8809405709663563 2.7797318647930824 62 70 46
10.862884957290065 -2.9198947925491416 2.9407373455366153 59 69 45
10.179363533477988 -2.277425240182452 2.8159838819441885 60 69 49
11.193951697557202 -2.6906243825097915 2.609173164799801 61 66 49
11.09152653593482 -1.5916432172669768 2.625061838998393 63 69 48
12.401844886192105 0.8242372642108936 1.2119463587122221 39 46 30
9.277843398201735 0.19083850506612204 2.0950895962334783 42 45 23
9.88317699486594 -0.9244939992254898 2.1786684971162833 50 53 45
10.038862354162074 -0.29348335162196965 2.6082326743091215 53 58 33
9.302829828002524 -0.6502283731158117 2.2227630853608016 52 55 44
9.387825362103849 -0.16466404268665658 1.856356213377712 36 36 30
9.984389193106164 0.6110141101329278 1.8388587391725062 41 48 26
10.911472674077187 0.7469064427372654 2.4852668382904244 47 54 23
10.969754778292328 0.9577176146981065 2.478399521566248 47 55 23
10.062102426831425 1.3753073880226427 1.8367379550168388 37 43 19
11.299560642204801 1.2170738968092052 1.4505463812915111 37 43 15
8.392259963751684 2.5383162555053773 2.308491545944194 48 58 21
10.958836424506588 2.5171824944436856 2.9015031298920535 55 65 37
10.190878637592313 2.2681726962279667 2.812653571041806 52 62 32
9.878407128127767 -1.4775927155701165 1.841806812827732 62 66 60
10.184557710686848 -1.5842662674670578 2.158223705320565 58 63 48
10.220811376056774 -2.1786085981878127 2.5788112867605593 58 65 46
10.222369826780065 -1.4666724025959443 2.1557628192250817 58 63 49
10.612147383655573 -1.6878320021251563 2.023789636251289 56 60 53
10.058263964965553 -1.4348670052769374 2.4341431147625765 59 64 45
10.148327552321575 2.9750615819407877 2.825166959604534 58 68 42
10.798709747721631 -1.1720928466781761 2.6750217314075617 59 67 47
11.015964220127556 -2.8605207002785407 2.6372704242926965 60 65 48
10.588819424859558 -2.7970193283733686 2.716060692937088 60 64 49
12.68629468979618 0.5337254881731259 3.060398707514923 60 70 44
10.771195010093704 -1.3926999922175631 1.7240715714277752 82 86 80
10.81351587102258 -1.7699237955055338 1.7234669840078742 74 76 75
9.004009304136078 -0.46754784887617135 2.1127676910380946 49 51 38
9.533024565451617 -0.5335271021881407 2.341999040378619 52 56 36
9.325495195203013 0.6552585798554825 2.2209091855647367 44 50 24
9.583206083884646 0.0758736205600358 2.3369217403158884 42 46 24
10.200319525927783 0.9577176146981065 2.418008212768626 45 54 22
10.690689272499421 -2.904634847234504 2.512566527962419 59 65 43
9.888225072572304 1.3530540648680958 2.0597474184893527 40 47 18
9.772814236717647 -0.5163084401009183 1.952952899189842 54 55 48
9.917954954969002 0.37750797080182774 1.84069907137166 44 50 30
9.806742797959426 0.4201975052214143 2.0641732713645853 41 47 22
10.059550679008408 -1.0303894872248294 2.2923030040804484 55 58 47
10.964912428602469 -1.2874543987721132 2.4789650142763735 59 64 49
8.731168473950902 2.071216179467515 1.760276400080177 40 47 16
10.455706691073436 1.1543013566621387 2.3907759135226203 46 54 20
10.829210087659247 1.0967794996995548 1.7232439948790481 37 43 16
9.884464933507616 1.5827856682331933 1.841636535613294 37 43 18
10.561312156537976 0.7583817921298762 2.0261338815725036 39 47 25
9.711872450486185 0.06628227728851777 2.1909938746311566 41 45 24
11.174303586177663 0.9279605078839289 2.3241849877755256 44 52 22
10.455632611762557 1.1430496483053416 2.0310890673261204 39 45 16
10.633384879201591 -1.5962982994659538 2.706905754232184 62 69 46
9.760193902485817 -0.24579238880769208 2.4706444063704422 49 53 32
9.96175759081118 -2.012023688495945 2.621490927559105 59 67 45
