20.193972435442667 0.9949136994703839 1.0115852444431892 46 52 25
20.062628385327315 0.9614739386495564 0.9473523634890862 46 51 24
19.04945883340959 0.8256818439773576 1.2661905904670854 49 57 26
19.178228249009425 1.0252316849097418 1.213176335361393 46 54 24
19.291473447616593 0.9474638236772038 1.1594678805794758 49 58 27
19.178228249009425 1.0252316849097418 1.213176335361393 46 54 24
19.079332618466697 0.786816521585307 1.1546125358936914 49 56 25
19.519567039215495 1.0741914887073554 1.1080739724934803 44 53 21
18.1721119540729 0.5116090071494571 0.7959550429840926 23 12 3
18.545609566229775 0.5762323435888274 0.8154881231282655 22 16 3
15.423620612662328 0.02492089607238153 1.1913323471349182 19 12 0
15.397958677391856 0.02679069141312143 1.0461264440803173 16 9 0
19.407869214593923 1.0527969093362257 1.3254905663182324 48 57 25
19.113249703005735 0.8615281667115994 1.4283582449281904 50 60 27
18.548014697367805 0.8256818439773576 1.369237270278949 50 58 27
19.07081576115662 -0.41553830544046977 1.6909934590309006 49 54 21
19.866921439635 -0.5079664015977572 1.635609749152814 50 53 18
10.408004735427534 0.034571678808466524 1.6947434683736506 16 15 0
10.314627790022454 0.43721984199749536 1.5015909385284663 20 16 3
10.59179233864649 -0.06221471737679038 1.7884072756189964 18 17 0
10.550833750578583 0.13071639903457222 1.4076928155126374 17 15 1
10.157854340642805 0.5719444838581743 1.7978630958273745 21 19 3
10.59533367501929 -0.2762737368832262 1.987324281057702 22 26 0
10.161570673836101 0.2476517753112729 1.9001676501606535 18 17 0
10.929802855496508 0.22449749406371036 1.3199292204183968 19 15 1
10.534402246417258 -0.3725481131027448 1.888094548306756 30 33 2
10.266457373666844 -0.3725481131027448 1.7954196209671895 36 39 4
10.578359705611401 -0.5958655714621992 1.886730242314468 34 41 5
11.942310056473426 -0.9392689451667179 2.029392815698598 42 48 12
11.49407877128903 -1.0664947466538102 1.8607949142298632 44 49 16
11.989904953971356 -0.9904922617845378 1.8484768515254553 40 47 11
11.939358406726857 -1.0188718359478648 2.1253407926086867 44 51 17
10.691799832210924 1.3502480907348793 1.6914372315940813 36 42 13
11.632737011500634 1.5397174798750592 2.0425745982171133 34 39 6
11.66010611628696 1.454914901712379 1.7681924897032524 37 44 14
10.55087927105601 1.327554586046958 1.9891890925668096 36 41 14
11.827408182793283 1.5424524827083252 1.8523952796153307 37 44 14
12.254514270140154 1.7174865814335927 1.9281637559415243 33 40 10
11.190970572505984 2.24498399474016 1.8688872623387236 32 38 9
11.797083990378939 1.9120283907223008 1.9426821618447447 26 33 3
10.774546625574997 2.24498399474016 1.690506259990357 30 37 7
11.705817042353914 1.7174865814335927 1.76741155310711 35 42 12
11.830204266511322 1.9950438540196511 1.8523269071115465 28 33 4
12.13466439824644 1.6361673351365573 2.115402442113043 32 39 6
12.23135749021342 1.7314180394460343 2.110621016136089 29 36 4
11.48794438353803 -1.239032417203315 2.049015787769455 48 52 21
13.064496144432676 -1.7968745727688398 1.9874085848508278 51 54 25
12.379679822714017 -1.6344153656369633 2.103457350761401 51 55 26
12.379679822714017 -1.6344153656369633 2.103457350761401 51 55 26
12.732533965891943 -1.6409921527619982 2.279476242525894 52 55 26
12.090819306947694 -1.5374180103962922 2.217635788966957 54 54 26
11.540790303712859 -1.3083386004689113 2.254140956721481 49 54 23
11.78277619404453 -1.203849025532297 2.237530905835203 49 54 23
13.756999072178662 -2.2889129952779506 2.3118366430763064 53 63 35
13.227584994381955 -2.3588221843767556 2.3491019770361246 51 62 35
13.173534384802574 -1.8173007913815988 2.1569188753384925 50 55 26
14.336702625089579 -2.2286359551822925 2.2754367825856616 53 63 34
14.36153115668986 -2.176487031007671 2.185858906246406 53 60 30
13.733556319731216 -1.876774632464797 2.0462760754847245 53 54 26
11.399208669801189 2.438392527635867 1.5081845776193337 36 41 14
14.14596532183921 2.676288513776769 2.3850092891557533 46 53 23
12.111047834462024 -2.954477314985829 2.3243435988778516 51 61 33
12.111047834462024 -2.954477314985829 2.3243435988778516 51 61 33
13.286297089291146 -2.5850667674730365 1.899317703801786 47 57 28
13.055867762730365 -2.4731458536419044 1.9053401650673978 51 58 31
12.781968665933315 -2.5850667674730365 1.7506684159922066 49 58 30
19.541455814323907 -2.5028231410515325 1.5342884723844772 27 29 3
13.842060916131938 -2.4731458536419044 2.0422442372330236 49 58 30
12.846424133946988 -2.6137108252389143 2.0821713085703974 50 60 34
12.866061390868802 -2.6503142442455045 2.2706131723948677 51 61 33
13.63955885588871 -2.35847916753422 2.2237712879123164 49 58 30
11.9027741867716 -2.744136693964806 2.2296217602528507 51 61 35
13.259772034312306 -2.5650310648293186 2.245868380419559 48 58 32
13.715231426784477 -2.488245820680097 2.2195577465312595 48 57 29
13.816298903888267 -2.5400511501126743 2.126335971076334 50 59 31
13.759543262002884 -2.4283406853944003 2.311667469508876 48 58 30
12.973745720682691 -2.694277344997175 2.167178538098013 51 61 33
13.665654056340491 -2.2971372709177262 2.1331935627880774 50 59 31
18.784197269913964 2.244159023982146 2.910939768410482 52 60 37
18.631481040523028 2.4198664209638228 2.948925104363336 53 61 39
13.707336873461108 -1.547199829000622 1.6648072343602804 49 52 23
14.833315210516092 -1.965176784299503 1.6576522387291257 49 49 21
13.934727117428949 -1.6931760375098885 1.7356457649933037 50 50 22
19.13350308942645 0.8676710225728225 1.1558635823545036 48 57 25
19.966408575482415 1.0252316849097418 1.1192072478720325 46 54 24
19.54160807298385 1.1001553731230036 1.2201161913624783 45 54 22
14.922151825881876 0.02679069141312143 1.1041593173444262 18 10 0
16.69755132130575 -0.1958513627400879 0.9499576700304533 37 34 8
19.09438085259059 0.9790167810124307 1.3213782732590544 49 57 26
18.57286747217856 1.0252316849097418 1.314219262152222 47 56 24
9.99122277316619 0.3456576967795412 1.6999422482149098 18 16 0
11.831175968655451 -0.8068464221531186 2.0340356566583755 40 47 10
10.89101597949549 -0.6736717261508813 1.7823363967456167 37 43 4
11.818939482229352 -1.0664947466538102 1.9419610148000093 43 49 15
12.117193643947443 -1.1071124632728908 1.7606536326872555 43 49 14
11.815957014306235 -1.1494411350570246 2.0346791029801383 46 51 19
11.528412950602071 -1.1071040741319227 2.147574156829723 47 53 21
11.939358406726857 -1.0188718359478648 2.1253407926086867 44 51 17
12.158005346344375 1.6304256102033263 1.9311294130506962 35 42 12
12.158005346344375 1.6304256102033263 1.9311294130506962 35 42 12
10.691799832210924 1.3502480907348793 1.6914372315940813 36 42 13
11.190970572505984 2.24498399474016 1.8688872623387236 32 38 9
12.13466439824644 1.6361673351365573 2.115402442113043 32 39 6
14.671203591032938 -2.056747080433308 1.7967406007378495 50 50 23
12.158613634700663 -1.434552845645932 2.2134314235861305 53 53 25
12.105533342591286 -1.6409921527619982 2.216718140599239 53 54 26
13.227584994381955 -2.3588221843767556 2.3491019770361246 51 62 35
13.756999072178662 -2.2889129952779506 2.3118366430763064 53 63 35
13.733556319731216 -1.876774632464797 2.0462760754847245 53 54 26
14.034478799818661 -1.9528425080510512 2.035267196667074 54 54 26
13.412607285047379 -1.9035282466533872 2.145130088600535 52 57 27
13.007151194333273 -1.7271724821775911 2.1654361472801247 50 55 26
13.412607285047379 -1.9035282466533872 2.145130088600535 52 57 27
10.637641467277557 2.3775429100903915 1.5977549884835176 33 38 11
14.14596532183921 2.676288513776769 2.3850092891557533 46 53 23
13.385373287369507 -2.412627187722549 1.8188805309820741 49 58 30
12.913287474623852 -2.597713479322846 2.3733914389358235 50 60 34
13.759543262002884 -2.4283406853944003 2.311667469508876 48 58 30
13.66821524905793 -2.4195250551830005 2.133075460717784 47 57 29
13.364284369664478 -2.6137108252389143 2.147471664731071 50 60 34
12.539916946506423 -2.744136693964806 2.292719207816075 51 61 35
12.439638030944863 -2.694277344997175 2.100618386400577 50 60 32
13.30560077901795 -2.5077887878974856 2.343337533934458 47 59 33
12.866061390868802 -2.6503142442455045 2.2706131723948677 51 61 33
13.767085497624505 -2.358215364316317 2.0450225130563893 48 57 29
15.374776393285236 -1.880019097570665 1.5894475552794491 49 49 21
20.312042364930857 1.045476693261579 0.9561547906833371 47 52 25
20.174587490506237 0.9474638236772038 1.068476526914287 47 54 26
18.697444126139004 0.786816521585307 1.2035498962782991 47 53 25
18.881879483694778 0.903042606125149 1.3185105157555985 50 59 28
10.641643626747616 0.43721984199749536 1.3129837033440541 18 16 0
10.550947940037775 0.6523246220908883 1.6930557689044103 40 41 17
10.775227503787455 0.5215801429640133 1.5045536358098661 27 23 7
11.794735101799056 -0.8679550113568634 1.8531967364640314 40 46 9
11.111325349393333 1.3502480907348793 1.8710903262660126 37 42 11
11.540790303712859 -1.3083386004689113 2.254140956721481 49 54 23
12.824720160218792 -1.74308456558982 2.273330440537867 53 56 27
11.130133289334454 2.3775429100903915 1.8705671011492675 36 41 14
11.635721492582679 -2.8459540867434874 2.2475159777676557 51 60 32
12.111047834462024 -2.954477314985829 2.3243435988778516 51 61 33
12.387781453724996 -2.6137108252389143 2.011715240844677 49 59 32
12.874127078508227 -2.5400511501126743 1.993961584566888 50 59 31
12.973745720682691 -2.694277344997175 2.167178538098013 51 61 33
14.226510175674932 -2.4195250551830005 2.1925799870619658 48 57 29
10.414752046993412 0.13071639903457222 1.5983320837077417 16 15 0
11.478727997196879 -0.6736717261508813 1.953522670878575 38 45 8
11.743348520784997 -0.87971276582069 2.135712374207722 42 49 13
12.430975263123925 1.8023691703510505 1.9228684503878608 30 39 9
13.710126129115215 -2.2286359551822925 2.2198401302225124 52 61 33
13.720317421906708 -1.6204522075906898 1.66471802973221 49 52 23
15.374776393285236 -1.880019097570665 1.5894475552794491 49 49 21
19.059021666980822 0.7867101939356987 1.427950195128764 49 58 26
10.817974288071529 0.6523246220908883 1.3172792232420818 36 35 14
11.286764846465251 1.4438408297702805 1.9603791482175432 37 42 9
11.427850964684426 2.116215754993162 1.8625247437963608 26 35 5
13.720317421906708 -1.6204522075906898 1.66471802973221 49 52 23
12.196092585744736 1.9120283907223008 2.0191453554438596 28 35 5
13.305528381211568 -1.876774632464797 1.9794064163838452 52 52 24
13.134602175064975 -2.5203605253696173 1.5926290872869553 51 57 30
