9.651175362119996 0.5355868103045194 1.4462850227537472 25 28 21
8.787352198755535 0.66477966322338 2.0181726337191184 30 34 23
8.915312354978008 0.594069493956461 1.7742565039990676 28 31 23
9.165551724292897 0.3372041680613592 1.881414055069678 35 40 28
8.763655055633237 0.3372041680613592 1.6623726567500245 28 31 21
9.264748806230822 0.22527824500971133 1.9935906547532345 39 44 30
8.273025230141597 0.5574616728485439 2.0482240053769707 33 37 23
8.678192577875329 0.4930074750303965 1.8994950614981734 31 34 24
7.049517819149191 1.6999357147011833 2.140337485058776 36 41 28
9.389118202745074 2.1142080154707252 1.7638561429249975 26 33 19
8.702771756869144 2.345658504675551 1.8985319333995014 37 42 30
9.197098286702557 2.1759878436501676 1.9969026381502735 34 39 26
8.28963736486213 2.6200142911661026 1.9155264198438617 39 45 32
9.11457050410896 2.7855793905825283 2.001016475048181 40 45 30
9.226271777443854 0.8439356854221356 2.118124558445743 34 39 28
8.905595475687104 0.7425626398980909 2.439859599149369 36 41 26
10.163911599323159 0.293907292585241 2.4458236200747434 37 44 26
9.668343548250077 0.43364990473139536 2.3510691683182 35 43 24
8.382790614731254 0.43364990473139536 2.180679047919059 33 39 23
9.38532061162499 0.8567293707969176 2.3813767352133333 36 41 27
8.88636542588838 0.255155766137201 2.141605811409981 34 39 26
9.297394840300564 0.8766594994083959 2.5664186222786993 33 38 24
8.146642399157706 1.0489115723690035 2.55870065396954 35 40 26
7.589314985626995 1.5226552513844864 2.4409371421318338 35 40 27
7.074815143589029 1.9172767902052403 2.3167383346612103 35 40 27
8.668471294649843 1.1418042235581045 2.4728729954600785 31 36 22
8.030198352849377 1.9969078829712346 2.5810760543096016 37 42 28
8.876096369052876 1.0682865345088326 2.2831284937769727 36 40 25
8.48921558291137 2.5425828693666572 2.7362829594706404 37 45 29
8.515990170146946 2.7644396818074948 2.495869605309717 37 45 29
8.393349756881685 2.825192135224846 2.333934492487372 38 46 30
8.34507260128513 2.3434755131633915 2.183840726280034 37 42 29
8.073718434267175 2.08558059140485 2.3725207029537883 35 40 27
8.478547819381946 2.139707184299803 2.1728089479045742 36 39 29
8.453902575295432 2.457241630805671 2.327106022136973 38 43 29
8.691503735791654 2.3401516030515093 2.4695263836521524 37 42 27
8.038662084543603 2.6772462351340844 2.210915717065939 39 45 30
8.292624734236199 2.487315825424625 2.5325170886400383 37 43 28
8.765922280031893 2.3344761096152253 2.6680792745753497 37 43 27
8.084348911567252 2.009809907411918 2.2067136138514076 35 40 28
8.17768425548359 -0.40626661529511143 1.2985965055246111 32 42 21
7.632298227079425 -0.28409350871252403 1.4131033468170546 33 41 21
7.154888467460023 -0.32667962710971254 1.9731005025507034 33 43 20
8.321804222721019 0.1073280915069521 1.6672497023604032 29 34 21
8.275132223407859 -0.013683125755332278 1.6677954100792447 28 35 22
7.179814539056501 -0.5363954410265424 2.128759816274692 33 45 24
8.248685327062748 -0.15258801609779396 2.0497511730232905 34 43 25
8.174070089699168 -0.015573958355022427 2.0544972034327458 35 43 25
7.602320252401479 -0.32667962710971254 2.0944348964105566 33 44 23
8.744033051050293 0.1073280915069521 1.896927995224401 40 45 31
7.565172014953715 -0.5830700866535211 1.4116922543365769 32 42 21
8.40849283844918 -0.5168660380798004 1.4277654176534191 32 42 21
6.897059962931331 -0.6658648933363449 1.8350479677765408 34 44 23
8.050746750636195 -0.8625464437713891 1.546128053362349 34 42 22
7.651750618063128 -0.9648539717976201 1.808453336793415 36 44 24
8.351944444115512 -0.9648539717976201 2.043341647824235 40 48 30
8.300999659949646 -1.143886960461251 1.9150349760701906 38 46 25
9.0439470912609 -1.419669942188545 2.0046028472967783 44 52 32
8.689616769039091 -1.143886960461251 2.023576420417701 40 48 28
10.300301825835534 -1.6462545852548036 1.7465906020160646 44 52 30
9.876610885556842 -1.5449631625504416 1.9658864300325218 45 54 34
9.903358944635281 -1.654498425599107 1.9647603681105394 46 54 34
8.716475586423444 -2.99925713126148 2.0220779077147677 40 50 29
8.517639702961423 -0.01807109520647185 2.3200695099409376 37 45 26
7.948127431336845 -0.17658739835485285 2.2194257682764245 35 44 25
8.148504001248016 -0.32667962710971254 2.2009138403994015 34 46 24
10.279222092761229 0.1678847171729303 2.598731711148836 40 48 28
8.728853205090008 0.12202369137726912 2.153236403881441 36 42 27
8.19343837728017 -0.8789642486443247 2.1969200548689893 41 49 29
9.020306948403945 2.6756639266142006 2.9208459067799746 40 49 32
8.71887699634132 -1.2201966983731167 2.29880763278145 43 53 32
9.22771564999696 -1.3713687329399937 2.399512817059299 43 55 34
9.103142134474101 -1.006586809344004 2.4145616379832306 42 54 33
8.59798513162317 -1.3336955615370785 2.4833171424238647 44 57 38
9.261386487589387 -1.3988140597754692 2.247734999989006 46 54 36
8.867996370806335 -1.2662798113663967 2.142936441239575 43 51 33
9.50767180900812 -1.419669942188545 2.1001841237255534 46 54 34
8.141694414235316 -1.9760895984784785 2.5596230726424336 43 59 40
8.141694414235316 -1.9760895984784785 2.5596230726424336 43 59 40
8.543038096999716 -1.719233622020986 2.4916792907171637 43 58 36
7.931565513194416 -1.9031249716709842 2.391219826381338 41 56 35
8.46203542193561 -1.6952239928488944 2.3261996595470738 44 57 38
9.458011145636442 -1.664758526866016 2.1032590206762785 46 54 36
9.458011145636442 -1.664758526866016 2.1032590206762785 46 54 36
9.429999948536343 -1.5417805622618612 2.105010193956603 47 55 37
9.210397997680595 -1.6778744162070527 2.2521917602812507 47 55 39
8.560146194954566 -2.8388726657039984 2.166273932938119 42 54 33
7.7987688460487785 -2.724223674458486 2.4096679286689495 43 56 37
8.542150337443616 -2.489057542629482 2.722074983190203 45 58 39
7.589163835398158 -2.912167974590673 2.440960756832193 43 55 35
8.296103138933587 -3.12493468307967 2.1879991389928266 43 52 33
8.351224137448495 -2.758943114459919 2.776708478509735 45 57 40
8.179186740044347 -3.122045632571771 2.3592879858256435 43 52 33
8.662945953998811 -3.111665938928319 2.691830906953811 41 50 32
8.959718308809313 2.988866369612791 2.432742918417423 40 48 31
8.226403098252089 2.988866369612791 2.353529404703128 42 51 33
8.707539538142715 2.9101162935647262 2.6813365094320347 38 47 30
8.662945953998811 -3.111665938928319 2.691830906953811 41 50 32
8.122340479873591 -2.6464804191851483 2.203265048056747 42 56 33
8.373765684826644 -2.4506950779488568 2.518760837712766 44 57 36
8.126880293672764 -2.562897939390952 2.365785442519292 44 57 36
8.415239969031083 -2.1626174211812255 2.511930933888058 43 57 38
8.046272136814956 -2.312025476326044 2.376051445957661 41 54 33
9.172187051070521 3.0278095019478295 2.121722105728374 41 50 32
9.165551724292897 0.3372041680613592 1.881414055069678 35 40 28
9.021603329403634 0.756686872475204 1.8865403000201495 26 30 20
8.486874438078583 0.22527824500971133 1.6653680091780056 27 32 21
8.66829039952847 0.3796865416327175 2.024773664357656 33 38 24
9.10897458017416 0.44101444336736334 1.5489943542981783 25 28 18
8.768121243946291 0.594069493956461 1.6623258800911933 28 31 23
9.934013107838473 2.2019366478088833 1.7531439887673328 30 37 24
9.408126724198263 2.267682915462957 1.8731481788467506 34 39 26
9.216958443170064 0.7510183565975905 2.2516146617922965 34 40 28
9.82897690539854 0.5039866076583319 2.4876911336995513 37 45 25
8.62261437760281 0.7510183565975905 2.1613736376359953 34 39 25
9.422343390844492 0.6386807863760136 2.3772533590010885 37 42 26
9.226271777443854 0.8439356854221356 2.118124558445743 34 39 28
10.413309706271336 0.34598496242158294 2.5777522662608066 39 47 29
9.297394840300564 0.8766594994083959 2.5664186222786993 33 38 24
8.030198352849377 1.9969078829712346 2.5810760543096016 37 42 28
8.503664952123398 2.1193641525113946 2.732340846400778 38 44 28
8.218132720488123 2.3225890066098245 2.821778176538418 37 46 29
8.791854229026644 2.596773657644376 2.4553069370785754 38 44 29
8.478547819381946 2.139707184299803 2.1728089479045742 36 39 29
8.507323416013541 2.8695114868088347 2.1704867322408226 42 48 32
8.073718434267175 2.08558059140485 2.3725207029537883 35 40 27
8.449538467626097 2.5482908611388426 2.1751698334554272 39 44 31
7.538907158755689 -0.15258801609779396 1.8120807444266331 33 42 24
8.36890168387424 -1.2662798113663967 2.042306174238887 40 48 30
7.87909945735848 -0.40626661529511143 1.5455905389213747 31 41 20
8.699626531722243 -0.013683125755332278 1.8986548569203419 39 47 31
9.695501531617335 -1.7620644204920068 1.8639161738391372 46 54 34
8.899569340271562 -2.875928964209714 2.012131129129971 39 51 29
8.645898383345145 -3.1270797506849144 2.026037848225374 41 50 31
8.728853205090008 0.12202369137726912 2.153236403881441 36 42 27
7.755809503432144 -0.5363954410265424 2.2383597089224465 35 47 24
8.517639702961423 -0.01807109520647185 2.3200695099409376 37 45 26
9.181631416806656 -1.5377039226699833 2.2547352080242886 47 55 37
9.429999948536343 -1.5417805622618612 2.105010193956603 47 55 37
9.408942159557277 -1.3336955615370785 2.5483813589088458 46 59 39
8.512016454706888 -1.5247744363578568 2.4964894354200835 45 58 38
9.413907813209725 -1.2201966983731167 2.378188449623387 43 55 34
8.797515133378596 -1.1586061355353277 2.4545217464799243 43 56 37
9.358757618672993 -1.719233622020986 2.556382308228298 46 59 38
9.446915045183564 -1.2662798113663967 2.232051034098369 45 53 35
8.126880293672764 -2.562897939390952 2.365785442519292 44 57 36
8.304990316984773 -3.117944423529221 2.530385804406637 43 53 34
9.226071809746438 -3.100851111456781 2.8370122178469566 43 52 34
8.055716228293704 -2.630184162643357 2.5760494386491035 43 56 37
8.304990316984773 -3.117944423529221 2.530385804406637 43 53 34
7.6297719165186715 -2.1626174211812255 2.4346733694956324 43 56 36
7.6297719165186715 -2.1626174211812255 2.4346733694956324 43 56 36
8.721097470713156 2.0710183140868637 2.021821082783125 33 38 25
9.287411423595163 0.9471535307534714 2.2454851756801393 38 42 29
7.9995632866083195 2.6768751748790987 2.5872073273789886 36 44 28
8.97849201060961 0.9860221423176581 2.430308018056413 33 37 23
8.46590044754579 1.3231935120653642 2.503763486765462 35 40 26
7.666493631956713 -0.6658648933363449 2.0896083735813367 38 47 29
8.275132223407859 -0.013683125755332278 1.6677954100792447 28 35 22
7.479735508876514 -0.9648539717976201 1.6781481858836707 37 44 24
7.361520202211958 -0.7735349441817708 1.6798789159015732 34 42 22
9.233845525453562 -1.3019177922137481 1.9950969589413978 40 48 26
7.361520202211958 -0.7735349441817708 1.6798789159015732 34 42 22
9.95079729384094 -1.4360420044497524 1.96277943692686 43 53 32
8.041968579938242 -2.8388726657039984 2.063146199900064 42 54 32
9.34668428252856 -1.8139698709909922 2.2404226726165937 46 54 38
8.562990033620212 0.1413509879368841 2.3151540982565875 36 44 27
8.382383460696394 -1.006586809344004 2.3351865131341465 41 53 34
9.50767180900812 -1.419669942188545 2.1001841237255534 46 54 34
7.931565513194416 -1.9031249716709842 2.391219826381338 41 56 35
8.79461992004009 -2.312025476326044 2.45492310416868 43 56 36
8.25375572222143 -2.950913740408703 2.3502384413318804 43 54 33
9.267956260417515 2.831019118493281 2.82295023969766 39 47 30
7.974388750417962 -2.297025544805286 2.5923272778784723 45 58 37
8.474196403721878 2.2511762830421103 2.035981066052658 36 40 29
9.362401527116669 0.6830232041840912 1.6565012687921772 20 23 16
8.507323416013541 2.8695114868088347 2.1704867322408226 42 48 32
6.893760477008825 1.725972090928043 2.3412879520233423 35 40 27
7.580083423264036 -0.28409350871252403 1.6767216472663464 31 41 20
7.512490671701454 -0.5830700866535211 1.6776783272198517 33 43 22
7.198261771920836 -0.4630011413990291 1.8237429841502255 31 43 22
7.835666414807185 -0.7735349441817708 1.9364093546480206 37 45 25
7.9468315547336665 -0.9648539717976201 1.9310596203508856 40 45 28
9.613299253889423 -1.4360420044497524 1.8664979581927652 40 50 27
10.422345873405781 -1.743544604515173 1.7445109902934066 44 52 30
9.50767180900812 -1.419669942188545 2.1001841237255534 46 54 34
9.184243061347319 2.9574705935143326 2.5857109504619054 39 48 31
7.794037918653427 -2.7902961959722785 2.2344991184440737 42 55 35
8.733385391444148 -2.854202714685291 2.675402597035452 42 55 36
8.34265781979808 3.0111670242753257 2.1840443573201074 42 51 33
8.369630522634166 -2.9785632700483844 2.181778149448191 42 53 32
8.279270479503937 2.7381732025452448 2.0478337986684862 41 46 31
8.459696701656995 2.4383639814773685 2.0368415348705486 38 43 30
8.468412198128602 2.227143578213416 2.3254907587589617 36 41 27
8.998367997477947 1.0489115723690035 2.6199100370780277 38 43 28
9.422343390844492 0.6386807863760136 2.3772533590010885 37 42 26
9.362084967309467 0.5574616728485439 2.2391210802282115 36 40 25
7.323211909522711 -0.15258801609779396 1.543676775053067 32 41 24
7.179814539056501 -0.5363954410265424 2.128759816274692 33 45 24
9.103142134474101 -1.006586809344004 2.4145616379832306 42 54 33
8.351224137448495 -2.758943114459919 2.776708478509735 45 57 40
8.122340479873591 -2.6464804191851483 2.203265048056747 42 56 33
8.84877298092559 2.9031493503435666 2.0148447528500477 40 48 32
8.419435612762943 -1.0839827069537413 2.1776410326034945 40 50 29
8.307416047586191 2.1889800761572866 2.52996921805684 36 41 26
8.503664952123398 2.1193641525113946 2.732340846400778 38 44 28
9.147667020546088 -1.5322951770835984 2.4091068516871927 44 56 36
8.723497608315906 0.293907292585241 2.298335610903086 36 41 26
