18.27754665587136 0.46322708599046303 1.7001626978802469 25 26 10
11.099705690558698 0.8430678956038542 1.7848573445005065 28 30 9
9.850991257698649 0.6152262684361328 2.0290503092727166 34 33 12
9.418247279739589 0.7714592904811474 2.467445897663476 44 44 20
9.775376585602055 0.4628173857285655 1.9214448995593847 30 29 9
9.850991257698649 0.6152262684361328 2.0290503092727166 34 33 12
10.02616084090402 0.7017777422912125 1.9123111867202343 31 33 12
9.816217484801294 0.3244114187413785 1.7095747041649765 27 26 8
9.574892192582363 0.11868834415370183 1.8196155400265437 27 26 8
9.574892192582363 0.11868834415370183 1.8196155400265437 27 26 8
9.54779728251478 0.2239500175604381 1.7135025530226717 27 26 7
9.135158422106624 0.3256941812755371 2.340583557743365 39 38 16
10.11754083117076 0.46255006035496005 2.3850928726852403 41 41 17
9.135158422106624 0.3256941812755371 2.340583557743365 39 38 16
9.25945289987383 0.3826456953751168 2.489206850208259 43 43 19
9.053567143842656 0.15114427823471627 2.2040876073366586 34 33 14
9.50591729134602 0.40568973517509244 2.169581560427155 35 34 15
8.771145412396692 0.46255006035496005 2.2279381110464245 38 37 16
9.01898455942452 0.018952934016128527 2.5249501273353205 44 43 20
9.031704850482178 -0.12426105073801832 2.2058659078415235 32 31 12
9.535992909283431 0.536179358071069 2.452138735138778 44 44 20
8.891329139962236 0.015903820996053343 2.3675185410147312 37 36 15
9.912396055271394 0.20768117692284876 2.573962739866818 44 44 20
19.33515585133476 2.2335587061016553 1.4337205212379998 18 19 10
17.774880573093775 1.8994759387839082 2.4211365714157487 44 50 23
17.036154468519193 1.8994759387839082 2.3824017446638384 42 48 21
17.285863801694806 1.9778642623963694 2.3672977711133747 43 49 22
17.285863801694806 1.9778642623963694 2.3672977711133747 43 49 22
17.77340650083231 1.8399063522282877 2.5112593159333327 44 50 23
17.957296760351333 1.9294104425643135 2.497356154949006 47 53 26
9.197518410336263 0.5783992634342644 2.7109882125941986 45 46 23
9.022009318746711 0.3293649356192308 2.75550979773974 47 47 24
8.646935161207516 0.04460162888355158 2.882312793689399 48 48 25
8.49366370988993 -0.6382656419433985 2.9625637244267344 52 52 29
8.593829652907376 -2.674133725016157 2.9067364098743904 51 53 32
8.87562890456253 -1.729666351750745 2.548116299636101 46 45 27
9.094357788682043 -2.4257715319127215 1.7206702539590095 46 48 36
8.385298477951899 -2.3358172622481 2.6413734098793675 51 53 32
8.823776966360427 -2.141133798568447 2.223344227490524 42 43 29
9.110671323732214 -2.0117829513811762 2.3431919631619564 44 43 27
9.244148806425342 -2.5965769044017026 2.4913769447451 51 53 34
9.436763072525649 -2.5160412628128617 2.050821353935929 45 46 37
9.895130601285029 -2.4387386747705793 2.2685907199859123 47 48 34
8.87539030271316 -2.228430537821195 2.3693572577040007 46 47 31
8.517335822187837 -1.999972812272156 2.61370818246505 48 50 28
9.019274735088302 -1.9201126063976228 2.524904741573818 45 45 27
10.083740906672766 -2.6197997171230294 2.2530077904575774 48 49 36
8.862323289178356 -2.4576259959281366 2.3708722176510673 49 51 30
9.464399625151762 -2.141133798568447 2.3073934580960374 44 45 29
9.342605430529828 -2.3462782202531787 2.0560757615640974 43 47 32
9.019274735088302 -1.9201126063976228 2.524904741573818 45 45 27
8.781545297008977 -2.1908295112390093 2.564190120133661 49 51 31
9.30886367096669 -2.2684609034737164 1.8268835373967625 47 48 36
8.865685150073222 -2.0175661961744336 1.7245663149339545 37 38 27
8.996973206509557 -2.0724851035761884 2.0764451134426825 44 45 33
9.025601670234098 -1.9097086807192685 1.9520051659915427 38 39 26
8.574098130490198 -1.4583227246103776 2.9165559721924295 50 51 28
9.256905612834553 -1.7694321934952109 2.697227607527534 47 49 27
8.881891368726023 -1.835135389169035 2.7963863814125025 49 51 29
8.755353524688088 -2.324767960497718 2.8391294808353793 51 53 32
9.012588065465126 -2.5426568228246915 2.7580896650765534 52 54 33
9.025437528527142 -2.1224360193278575 2.754576418351721 50 52 30
15.975098549366317 2.336455172528416 2.3616813384860795 49 56 33
10.664032725409237 0.7773018715179627 1.8911284765254384 29 31 10
9.906202780421257 0.6661534552300805 2.4079762693750815 44 44 19
8.500073982946693 0.15114427823471627 2.1091122897493064 35 34 14
8.942310054318794 0.13297590271554985 1.9557412955858813 31 30 10
9.85732923816008 0.3256941812755371 2.4134933010015303 41 41 17
9.535992909283431 0.536179358071069 2.452138735138778 44 44 20
9.22847608161766 0.28309759130262696 2.190242714420638 36 34 15
9.631799114788556 0.015903820996053343 2.440160159463458 41 39 16
9.119353149675307 0.2501462684773608 1.9478879733805508 30 29 10
9.86009682375889 0.6339882072956428 2.582336329483814 45 45 21
19.28643975437478 2.4557897326104587 1.4333720846425826 31 32 22
17.285863801694806 1.9778642623963694 2.3672977711133747 43 49 22
17.41606198089341 2.0132999473904882 2.4449301185423242 46 55 27
17.774880573093775 1.8994759387839082 2.4211365714157487 44 50 23
8.955387171229981 0.030738216690390043 2.7742443189647754 46 46 22
8.843430338732226 -1.5270110011180882 2.5535352846537975 44 46 23
8.843430338732226 -1.5270110011180882 2.5535352846537975 44 46 23
8.490079600378358 -2.6761456732535622 2.6192403339732073 52 54 33
9.2691879386761 -2.0875713233239117 2.487833357686645 46 48 30
9.019274735088302 -1.9201126063976228 2.524904741573818 45 45 27
8.768338432099823 -2.487656735018751 2.5665062676913366 51 53 32
9.439878303103775 -2.5483062119270796 2.3097516928326085 49 51 32
9.79926576120484 -2.2028110209797953 1.607328633304621 39 40 31
10.004328236800482 -2.2684609034737164 2.021503810172372 46 47 35
8.917415017826533 -1.8239375837998562 2.215343713498062 41 42 28
8.849715588105276 -1.4969136526890146 2.806643359064555 49 50 28
8.607304284546458 -1.9624985326988753 2.9002807327164812 50 52 30
9.394723509525129 -1.999972812272156 2.667349842278076 49 51 29
15.975098549366317 2.336455172528416 2.3616813384860795 49 56 33
9.372530928107585 0.5166495215325203 2.0543927676892126 34 33 13
10.235022235015364 0.5554976736502174 1.9050671038066234 30 29 9
9.028050125104544 0.6339882072956428 2.5235349464760346 44 44 21
9.693773617563162 0.17500429528993142 2.4326254137898626 41 40 17
9.415349816013611 0.46255006035496005 2.3121280259002845 41 41 17
9.400015671764326 0.3607244718035924 1.9360903029286434 30 29 11
9.592904493060388 0.4620288246607631 2.6285591411478086 45 45 21
19.086899779090725 2.3817214149044563 1.4846575452426014 29 30 18
9.170104628391899 -1.954397129165941 2.1947891034275337 43 44 32
9.284276455598864 -2.4387386747705793 2.185963514141472 45 46 32
9.345752046838772 -2.3442309402433734 2.3189674733864796 46 47 31
9.110671323732214 -2.0117829513811762 2.3431919631619564 44 43 27
9.226037786039658 -1.5158076252047672 2.7043073146085854 47 48 26
8.755353524688088 -2.324767960497718 2.8391294808353793 51 53 32
15.975098549366317 2.336455172528416 2.3616813384860795 49 56 33
9.299625619300434 0.012032232325397609 2.0585145230751922 31 30 12
9.363798877596153 0.13297590271554985 2.054882588264994 31 30 11
19.388322693978214 2.1610617906323064 1.5376729214614882 19 17 10
8.593829652907376 -2.674133725016157 2.9067364098743904 51 53 32
9.906835446300152 -2.2521502714709563 2.2676004205752607 46 47 33
9.29675041332019 -2.2521502714709563 2.185015696474958 44 45 33
9.439878303103775 -2.5483062119270796 2.3097516928326085 49 51 32
9.025437528527142 -2.1224360193278575 2.754576418351721 50 52 30
8.958427687717503 0.17500429528993142 2.3598866805729317 38 37 15
9.848862703026448 -2.3462782202531787 2.146008797637794 43 47 32
8.87562890456253 -1.729666351750745 2.548116299636101 46 45 27
8.36482192197878 -2.34111845671125 2.4342281839169795 49 51 32
8.987178938195528 0.013699766486187946 2.209521764841581 34 33 14
17.957296760351333 1.9294104425643135 2.497356154949006 47 53 26
9.244148806425342 -2.5965769044017026 2.4913769447451 51 53 34
9.424761209285688 0.2550380066391709 2.6611780394796627 45 45 22
9.303184666227756 -1.2689333923263182 2.6868916229666504 46 45 25
