14.471374741729736 1.6342388181483343 1.0796531936704015 47 49 28
14.606641744672698 1.4843029002135277 1.2341298482267045 52 54 33
14.721953613715366 1.4126131045752426 1.2368698910137192 53 55 34
15.162629852755916 1.423187464561837 1.3833747909433824 52 54 33
14.941235002096427 1.6296308829475328 1.170301837474513 47 49 28
10.232943757005323 0.6108428168288068 1.7849594262123691 47 50 41
10.34048583161875 0.475726402792707 1.5877020135507796 54 58 52
9.97960621526402 0.5241522159431105 1.894551897615198 56 59 48
10.553064397912296 0.26220602305286345 1.5873614377096033 44 42 22
9.87744167621425 0.18658762541491183 1.8980247257021534 46 45 25
10.261878788486545 -0.02598740645214471 1.6855303023909805 51 49 29
9.222869466578413 0.08950584272447411 2.0405401775327094 51 49 29
9.355828573399704 0.20874552535792743 2.0333389672787052 49 47 27
9.692302279399172 -0.03232880082996243 2.134012917644212 49 49 27
9.565968152106436 0.9797361547861408 1.8001499292270595 42 43 23
10.562783640284332 0.821837432045066 1.5873461940919176 41 43 31
8.87559587661261 1.074261649906862 1.7035493815965075 42 44 23
9.317109419616935 0.9797361547861408 1.5895591143168355 43 46 27
9.301336717916888 1.2205533068087282 1.5895909349766717 39 41 18
10.08966847246035 0.7526752727742916 1.7880489917192735 100 101 89
9.683443814676084 0.8274693306430613 1.9048327968219803 59 59 44
9.351101279676685 1.1795345240610249 2.0335910519453124 40 42 18
10.101010916579705 0.6732407791080927 1.9968776092271343 56 58 44
8.964085184370171 1.0141716977188382 2.0552508067307818 44 44 22
10.04538818635519 0.582313012640196 2.111970028154991 33 34 20
10.595255220595888 0.582313012640196 2.1929536583952443 42 44 25
9.411898578148133 0.9397248544349548 2.2863874645505975 46 46 24
10.345130070253973 1.1283426328632045 2.3371934381178665 47 47 25
10.55061037890788 0.8351586657548639 2.3186093295052874 48 47 27
10.09620939859841 0.9397248544349548 2.3612086321572265 48 48 27
10.04216969933394 0.7395044837221667 2.3666591776721186 49 49 28
10.379044972824945 0.6237193688741299 2.4777426895492596 49 50 29
9.865040242947236 0.3634551236811924 2.2471171888935855 47 46 26
9.6872981867356 -0.05098603840483182 2.575248927980078 50 50 28
10.379044972824945 0.6237193688741299 2.4777426895492596 49 50 29
9.63413131141042 0.27325322574004524 2.4109230909305 53 48 29
9.505065966535986 0.11818472595548442 2.42620658696483 51 49 28
10.756033133816151 0.727946954642384 2.592486696541777 50 50 28
10.062522916775135 0.48493269922727933 2.5190545341924793 49 48 29
10.187699744901517 0.47905947730869525 2.221949359317758 40 41 22
10.756033133816151 0.727946954642384 2.592486696541777 50 50 28
9.480299147753867 -0.04276148601746555 2.4292182997707963 50 50 27
9.712539127479605 -0.24161239555362912 1.796628223124132 51 51 29
9.805775480558397 -0.13676472396973333 1.900506528943323 49 49 27
9.770901513061546 -0.15321549086863676 2.1289415803214933 49 49 27
8.160686615825337 -0.6032306940277722 1.9703817591598347 48 48 24
8.412906131023503 -0.7047353901832911 1.8322738523226367 43 45 21
8.511694795173323 -0.42619807896255973 1.9530293234764646 42 42 18
8.149639410060349 -0.48529879002111287 2.1086206027523025 44 44 20
8.729822744798392 -1.0997040058319199 2.2052941712173477 47 49 25
7.9191121992979205 -0.8984863833199097 2.126075911621833 46 48 24
8.490834656984022 -0.7924686116791596 2.084818551686191 46 48 24
8.154742713611219 -0.9284524153818876 2.4298183143951735 51 53 31
8.612304421115354 -0.49546092466742153 2.555462850636824 52 52 28
7.909771189455417 -0.6877733200989473 2.126808728730234 48 50 26
8.145671916402298 -0.6618239631066918 2.4311102033469387 51 51 29
8.949222381345574 -0.1741194981857592 2.1873670170890205 48 48 26
8.834945130480705 -0.2015394152159047 2.3446644141179473 48 48 26
8.664450650818734 -1.047550933350325 1.8245128031183602 45 47 21
9.005833157051326 -0.9503868238849548 1.7016184716696603 46 48 23
9.12253050617006 -1.2023413094618947 1.8115135981660653 47 49 26
8.554753651152774 1.8005400687410575 1.95100672623366 41 43 15
8.811215283738195 1.6631513757059428 1.4770060436316976 33 35 7
9.548913954890214 1.3250429351615904 1.9097262605788883 38 40 17
9.29612217129021 1.5489377241029503 1.919329191114076 36 38 12
8.738939254769619 1.5489377241029503 1.5908006249829452 33 35 9
9.038049728861948 1.6631513757059428 1.8138087786079553 37 39 12
7.9581196137933174 1.9659339482147022 1.9811558747506433 42 43 19
8.407215779462419 1.9659339482147022 2.0904435844544804 45 45 21
10.223462392995984 1.2058787938509101 2.4974453971291424 49 49 28
10.885166858107013 1.3660436791446098 2.573395005085232 49 49 28
9.043765316108438 2.106227224570992 2.487076613695725 48 48 24
9.396284991862535 1.256287957484593 2.287832864413328 44 44 22
10.658679808077983 1.395775705488438 2.4448899715838897 47 47 25
9.38236826304677 1.4180268161010186 2.1550124442739635 40 41 16
9.308431612052344 1.546112909548317 2.1602736032161527 41 43 16
8.826967460803488 1.6750097331393279 2.06344386319794 41 43 16
7.629617950142977 2.0262476957373616 2.1497924750145376 45 45 23
8.531984343151692 1.690345273023378 2.2224704578407604 45 45 22
8.139130675405722 2.457695298299271 1.971500469077585 44 44 20
8.758747356136515 2.3625984226568977 1.9417157243523788 43 44 20
8.574024937516718 2.533950477155055 1.8272485243785812 42 42 19
8.701765394882123 2.028373299142973 1.7062174856671986 38 40 14
8.130042459655437 2.2685912083148727 1.9719740665968728 42 43 18
7.794099115407773 2.2685912083148727 1.853582467594114 40 42 16
8.556762712503964 2.190873167671765 1.8277775705458859 37 39 15
8.61270830186255 2.1570622698823154 2.2153398654425587 45 45 23
8.504504809129234 2.3639403353292106 2.2249376812140826 46 46 24
9.870917686765821 2.6244733860070197 2.546632241498953 50 52 26
8.641457360423207 -3.0865651547467943 2.5504011107535245 54 56 32
8.908078473034152 2.701546970169928 2.336672924255244 50 50 28
9.260834587775474 3.0157167965563163 2.4571113281129615 54 54 30
9.488118606289257 -3.0865651547467943 2.6091769107976055 55 57 33
9.410399231765053 2.481230704270127 2.437862148002642 51 51 29
9.512865067071559 2.9899078663497898 2.604777984376023 54 54 30
9.393256323524685 2.8513375495009683 2.4400152920087153 51 53 29
8.81719429761308 2.6398623732838113 2.0640389517179054 46 46 22
8.908078473034152 2.701546970169928 2.336672924255244 50 50 28
8.672139547205424 2.481230704270127 2.363178345385813 49 49 25
8.415929539179109 -1.234369836494189 2.233032821763639 48 50 28
9.930630041571796 -1.9922993400398252 2.3781968520046783 55 57 35
10.278082560202368 -1.9719620176458008 2.67400281795673 58 60 38
9.559355800309556 -1.6992229711861742 2.4196950995518822 52 54 35
10.60899190141127 -1.7232690771755714 2.615576123899592 54 56 34
10.121127876618605 -2.0609144758756965 2.511031883318381 57 59 35
8.405217812806843 -1.1764486143175115 2.395931445774052 51 53 29
10.457005190050356 -1.8519067537285925 2.4682698199159647 55 57 35
9.76567563415525 -1.3385817880953772 1.795378292539211 50 52 33
10.36665086814752 -1.4552894344447729 1.4911110681333142 52 54 35
10.268160714066171 -1.5521945272209248 1.5878211024068332 53 55 36
9.827116796142093 -1.6578977256606338 1.8997634733593165 54 56 37
9.752391269871936 -1.865177988563855 1.6915528380147455 53 57 34
9.959432181497407 -1.7636268181199724 1.8952316978578263 54 56 35
9.536425011071278 -1.5445160337886747 2.2750914168041607 52 54 33
10.369625888740737 -1.8148430811090261 2.33492176137422 54 56 35
9.351362851224964 -1.9397485843284201 2.157206350992843 56 58 36
9.917646657607044 -1.786279459474052 2.1197295527998623 54 56 35
9.823722342710003 -1.427681959416324 2.1255879386148537 51 53 32
9.335733034510985 -1.427681959416324 2.0344125533709394 49 51 30
9.939698011019766 -1.9397485843284201 2.241103323757357 55 57 35
8.913155869153222 -2.4160897287081653 2.3361252344190158 56 58 34
9.568395246315571 -2.8843930946141088 2.595104443959852 56 58 36
9.976246861670592 -2.2997931341363356 2.5312067142467973 57 59 35
8.929410457438747 -2.7014398733570464 2.503952174379595 54 56 32
9.442156743997876 -2.2254764440031574 2.1508313710623734 57 59 37
9.59143933631915 -2.4329646388365687 2.5911674247720997 57 59 35
9.680169676854554 -2.1971056337374493 2.4056314490699426 57 59 35
10.03064172399346 -2.5451622576585 2.523496563794061 55 57 35
9.638289587930032 -2.0026518510560147 1.9064591026316438 57 59 37
9.698765489901199 -2.053699517606605 2.133592185266168 56 58 36
13.248934279493632 0.5529939790125892 3.0357591843550797 55 57 35
13.313173789344738 2.007100403144111 2.997291226366815 57 59 37
14.303503267392074 2.007100403144111 3.007344957433423 58 60 36
10.716376847321387 -1.813700759889741 2.8223173322510395 60 62 40
18.67204593123971 -2.0716642768272444 2.084453547942162 78 72 73
19.681261667774105 2.845635364156498 1.5288560643326232 39 45 22
19.69901722384633 2.845635364156498 1.6304694662052392 38 44 21
19.169821148293646 2.8300462636377213 1.7903356781839541 26 32 7
14.920537474737404 1.5568936089163885 1.169714463784795 47 49 28
15.162629852755916 1.423187464561837 1.3833747909433824 52 54 33
10.284763651484075 0.07200813445445935 1.6852738828170561 50 48 28
10.59372962734997 0.6529316528798849 2.3148406595804714 47 48 28
9.35282956729902 1.074261649906862 1.9171269315872483 41 43 20
10.405539707718582 0.475726402792707 1.6839394203108278 32 35 26
10.339098659418335 0.1686418334204754 1.5877042819625917 46 44 23
9.635808834637105 0.23676370664952234 2.2663603175516798 50 48 28
9.899398757737286 0.747192605522422 2.120857396004818 51 51 32
9.897765909159434 0.8351586657548639 2.2444663326531415 46 45 25
10.885208583613911 0.3513077271901454 1.4949146608954966 39 40 27
10.456945306335427 0.747192605522422 2.2024720275094083 49 50 31
10.156508203443254 0.38600154592626823 1.7865965627619633 39 39 24
9.197342773880203 -0.03232880082996243 2.041949617926676 50 48 28
10.18611311149128 0.5428534295491407 2.352333235305989 44 46 25
9.837894101550738 0.3225792500219197 2.551610610031107 53 48 29
10.605853397126145 0.6881673990041633 1.5872789799392442 122 125 118
9.482003886472233 -0.03682073729640861 2.279978114302385 50 50 28
9.865040242947236 0.3634551236811924 2.2471171888935855 47 46 26
8.725055813254883 -0.7047353901832911 1.943217971572869 44 46 22
9.56233186026173 -0.1741194981857592 2.27279171839566 49 49 27
10.270654302297011 -0.12348781665090221 1.5878169686019774 53 51 30
8.046406887377806 -0.7924686116791596 1.9763872254056511 46 48 22
8.160686615825337 -0.6032306940277722 1.9703817591598347 48 48 24
8.54636643892019 -1.1569339226663715 1.9513989711115385 46 48 22
8.504095789529492 -0.7968490933075171 2.5749130656241825 54 54 32
8.023982598550232 -0.5614398855550669 2.2717113123682524 49 49 26
8.421689101655499 -0.8788698933427671 1.831994778550035 46 48 24
9.370155952316122 1.435289170286417 1.9164597154440486 36 38 13
8.817652433937575 1.435289170286417 1.5906220276539142 35 37 12
9.560897937463777 1.2947765103640791 2.14271540045307 41 42 19
10.148469969030591 1.8763496698205944 2.5073503307621667 49 48 26
8.363595676517969 2.085499075458649 1.960158125189641 40 42 18
8.6636104812413 2.2482292055290394 2.364177169278939 47 47 25
9.402539866742076 2.2482292055290394 2.4388476277929647 47 47 23
8.57013417460895 2.2685912083148727 2.0796014888878323 45 45 22
8.051654172775436 2.1570622698823154 2.1158953111910117 44 44 21
8.578756175945928 2.457695298299271 2.079040973597766 45 45 21
9.64182601386316 2.7953281829384635 2.5827101587279846 51 53 29
8.940780102897964 2.3659936920717883 2.5022377432279677 50 50 26
8.629858620164786 2.570166800409359 2.213846970596081 48 48 24
9.870917686765821 2.6244733860070197 2.546632241498953 50 52 26
8.876685430736838 -1.382936208947481 2.3400796321542368 50 52 30
9.890357154422588 -1.9017606281466324 2.5437341841306904 57 59 36
9.638850377102251 -2.1532215703530397 2.5832039831620723 58 60 38
10.457005190050356 -1.8519067537285925 2.4682698199159647 55 57 35
10.731671538816219 -1.9017606281466324 2.5962080314785796 56 58 36
10.278082560202368 -1.9719620176458008 2.67400281795673 58 60 38
9.795619412379693 -1.5501872960158054 1.9008613435445119 52 54 34
10.32974249087169 -1.64944918448098 1.490825743689232 53 55 35
10.45569915311971 -1.7452398922942254 1.4917911470198277 53 56 34
10.36665086814752 -1.4552894344447729 1.4911110681333142 52 54 35
8.66071899648808 -1.2778880858279056 2.0737768288855376 48 50 26
9.676165082457633 -1.8984228627855764 2.0168984470020987 56 58 36
9.784766240044572 -1.6683732452520996 2.128057112204535 53 55 35
9.351362851224964 -1.9397485843284201 2.157206350992843 56 58 36
9.75313208766742 -1.5476945733800915 2.1300795346737567 52 54 33
10.2426108107071 -1.6817012382253202 2.3468744787928864 53 55 35
8.964155040922394 -2.1971056337374493 2.3306741403829374 57 59 35
10.258434474879508 -2.117074555910776 2.3453615862831567 57 59 37
9.233859649145556 -2.5451622576585 2.4606988144254407 54 56 32
9.585711684606231 -2.117074555910776 2.2707308139368596 58 60 38
10.03064172399346 -2.5451622576585 2.523496563794061 55 57 35
9.432610479105058 -2.3109734796083754 2.2844802616369657 57 59 35
9.751101501492867 -2.7014398733570464 2.565039798957806 55 57 33
9.660978599806885 -2.1555297086460983 2.0176503732387427 57 59 37
13.289940989051365 1.4611763349956928 3.0098660034618536 54 56 34
18.97715556880341 2.8300462636377213 1.7388828329726762 39 43 21
19.783854249372 2.845635364156498 1.680947199765338 26 32 7
19.412152179306815 2.8300462636377213 1.840634559397445 26 32 7
9.550606446193294 1.2205533068087282 1.8005254578628502 40 42 19
9.976977120314874 0.8958280230924377 1.6888217182519671 43 45 30
9.863401706449789 0.4160050067260743 2.385346290015333 50 48 29
9.678435141874587 1.1283426328632045 2.2626895533175526 44 44 21
10.335030067592879 0.8462831187983227 2.483205802578934 50 49 29
9.863401706449789 0.4160050067260743 2.385346290015333 50 48 29
9.47124239831527 1.0141716977188382 2.1488205549701447 45 45 21
9.480299147753867 -0.04276148601746555 2.4292182997707963 50 50 27
9.506766264107503 0.10187208204840924 2.2777451312386936 50 48 28
9.690036113825416 1.123451486129246 1.5888369375729654 42 44 22
9.6872981867356 -0.05098603840483182 2.575248927980078 50 50 28
10.553673811136214 0.6732407791080927 2.0832670518302283 55 58 42
10.483373428824091 1.0630586345811015 2.4651228115409247 49 48 27
10.284763651484075 0.07200813445445935 1.6852738828170561 50 48 28
9.869181646099408 -1.239105814497656 1.6901169618705283 49 51 31
8.042388466923075 -1.0259155697640525 2.269781632586341 48 50 26
7.9077275179008994 -0.7941408529632018 2.2841831393100267 50 52 28
8.63881541728278 -0.5353236905696989 1.825282352501167 42 44 20
7.9077275179008994 -0.7941408529632018 2.2841831393100267 50 52 28
9.072308552519301 -0.7913333606289059 1.812872722835764 46 47 23
8.380718285821732 -0.350714886894204 2.236312878385921 46 46 22
8.37878948381775 -0.41141529445884034 2.3993531781546986 51 51 27
9.308431612052344 1.546112909548317 2.1602736032161527 41 43 16
9.512865067071559 2.9899078663497898 2.604777984376023 54 54 30
8.684055601193128 1.8332005581532398 2.2091787773424576 46 45 22
9.410399231765053 2.481230704270127 2.437862148002642 51 51 29
9.64182601386316 2.7953281829384635 2.5827101587279846 51 53 29
9.370155952316122 1.435289170286417 1.9164597154440486 36 38 13
9.410399231765053 2.481230704270127 2.437862148002642 51 51 29
10.081655668753081 1.256287957484593 2.3626678431056423 47 47 25
10.885166858107013 1.3660436791446098 2.573395005085232 49 49 28
10.658679808077983 1.395775705488438 2.4448899715838897 47 47 25
10.149921983025678 -1.758264538731792 2.6996642354538585 57 59 38
9.120758579407282 -1.3116635448414942 1.9263245423208555 48 50 28
9.72538096613093 -1.5345403637919082 2.569119769557102 53 55 33
9.233859649145556 -2.5451622576585 2.4606988144254407 54 56 32
8.7295233669837 -2.8843930946141088 2.535536748565192 54 56 34
9.590958525838891 -1.4429511903769427 1.799541660563251 51 53 33
9.536425011071278 -1.5445160337886747 2.2750914168041607 52 54 33
10.135445380665923 -2.281282358116946 2.702692740868595 58 60 38
14.281881559075735 1.4611763349956928 3.0190628225257696 56 58 36
13.196678536479155 1.3166313240191763 3.0840081947532236 58 60 38
19.966873508816096 -2.3778923494504336 2.0482299765083654 53 52 32
14.559259868209072 1.5568936089163885 1.2329906060118851 50 52 31
9.711537121178543 0.14067664941361807 2.5713355074107715 50 49 29
10.864908879332862 0.5578751753600697 1.494772612115577 41 45 41
10.10119107651727 0.2892406740040457 1.8905155583643938 43 42 22
8.504095789529492 -0.7968490933075171 2.5749130656241825 54 54 32
10.505510081618795 -0.21869110637476358 1.6828581995632659 54 54 32
8.511889655636983 1.9191410789824106 1.8291632111390852 39 40 14
9.248154068135548 2.1570622698823154 2.301883930669659 46 46 24
7.945752444351115 1.8005400687410575 1.5927978669141822 36 39 10
8.850804117501502 1.6631513757059428 1.7039234420385156 37 39 11
9.512865067071559 2.9899078663497898 2.604777984376023 54 54 30
9.687139928939098 -1.7636268181199724 1.7972306605644737 53 57 34
10.08599030008965 -1.9608564527925112 1.6875401958949459 53 56 34
10.837841002092345 -2.0767709366771196 2.789990415953789 59 61 39
9.280135074606857 -0.15321549086863676 2.037410105131698 47 47 24
9.605201621524866 2.0262476957373616 2.4142904289590703 47 47 25
8.616387347825722 -0.9812074415553235 2.0766097319055477 45 47 23
8.447842675714812 2.3625984226568977 1.831167322980946 40 42 17
10.528503472442585 -1.3605091030098728 1.4923385934034652 51 53 34
9.632962001524792 -2.4160897287081653 2.4110585582285387 56 58 36
9.472948766873843 0.9141575107401156 2.0271836182463905 45 46 28
10.756033133816151 0.727946954642384 2.592486696541777 50 50 28
9.971504969204851 0.9778054517367214 2.531886885937323 51 49 30
8.219530366154986 2.0262476957373616 2.251801437151478 46 46 24
8.974041419946296 1.8005400687410575 2.054667009411661 41 43 16
10.593654709492727 1.5424498551251626 2.4522588781386028 48 48 26
9.007381949983973 1.3250429351615904 1.5902043704376332 37 39 15
14.216891313609938 2.4040351398019824 3.0646278920726093 59 61 39
8.390071865416923 2.6398623732838113 1.9588636738878924 44 44 20
15.050694631960116 1.4901464506828979 1.38196415426038 47 51 30
10.379044972824945 0.6237193688741299 2.4777426895492596 49 50 29
11.842536133963677 1.2621296649415057 2.804184485362298 52 52 28
