11.971416464175602 0.5559617578112908 1.6240769449862036 45 47 22
12.73215239628918 0.6239054375796792 1.3841642629721334 42 46 22
12.886918269261852 0.5147660979425174 1.4648743165176878 45 47 23
12.586414590948783 0.737051735590407 1.381977356324752 45 47 20
12.007294061115031 0.6737987508362709 1.792264022714877 44 49 17
12.49156334509238 0.5255632154385312 2.131003897042327 45 50 16
13.050449810396357 0.5255632154385312 2.1959626466873674 45 51 16
12.021726983887842 0.48176392674165586 1.8781954584293288 45 48 19
11.426152538752246 0.6034504573973344 1.803730912268902 46 49 19
13.23435422139964 0.09919242487820198 1.6189882944077207 43 47 24
12.612549627321531 0.26581887360931244 1.6213661605512497 45 47 22
13.259150360239653 0.023492268989009933 1.6946153052980084 42 47 23
12.900367106547147 0.34071300184785946 1.5426959651539678 45 46 23
12.702420775224983 0.26581887360931244 1.700071904464471 44 48 23
12.87357864742898 0.4013383239378333 2.112497337398186 45 50 18
12.372467118209146 0.34687314684052006 2.2361043820334787 46 53 18
12.298397450437674 0.20413387639851402 1.9574433916347493 44 49 21
12.754033353680592 0.10729357428097801 1.8600189745123024 44 49 25
12.709504998848013 0.03042925863138306 2.21546240056582 46 53 22
12.91386135043467 0.2236025264961457 2.2036176026649326 45 52 20
12.50157460625032 0.027702622629312088 2.038621952234014 45 51 22
11.993400057058832 0.14204250061832194 2.2611528869672117 44 53 17
11.993400057058832 0.14204250061832194 2.2611528869672117 44 53 17
14.268906979234764 -0.11890265108291516 1.6154917644323203 51 53 40
13.273542083565692 -0.05247762386100674 1.6944803664726917 43 48 24
13.433614736674869 -0.05247762386100674 1.7684191885513063 42 47 25
11.729560138500421 -0.47355384986236254 2.0721658415374655 46 53 28
12.041063011001029 -0.18266067466979125 2.257887926162594 44 53 22
12.24827066177165 -0.16501361226518255 2.1435124058281443 46 55 26
11.894360652139763 -0.383264628842034 2.1628196594437994 42 51 23
12.04124229317603 -0.31956408709340284 1.791629264888011 43 47 27
12.968915585421222 -0.21788744770012305 1.8550921820500323 37 41 22
12.22166312756342 -0.2859076095329338 2.2458233908866134 43 51 23
11.941748082510827 -0.07533506703838509 2.2647306233816398 45 54 22
12.997934614915085 -0.061865092844468596 2.1067501380642173 48 53 29
13.521976780861381 -0.12784715723788043 1.7671108749736952 35 39 22
11.907817284530056 -0.6311830859520756 1.8812337584349856 34 39 22
20.18985108645168 1.8166872832996777 1.4034747267226881 11 6 4
12.320115179653882 1.9756315770408077 1.6225675644181123 42 43 13
11.679095875820758 1.8173323843749831 1.6254118373790907 42 42 12
10.904418572514755 1.2738942931215955 1.721538976308254 41 41 11
11.531357940105872 1.1071895834922503 1.5393588336672428 39 42 13
11.197727862173034 1.1877520169091242 1.4488214425675119 41 41 12
11.975806388290804 0.9155608538422466 1.3722247683690798 40 44 16
11.072127347647868 0.7308103001956572 1.7192386339828545 43 48 17
11.746067833460879 0.9155608538422466 1.5399336732480087 41 44 15
11.278841218332852 0.9866738095341331 1.7164984431013055 40 43 10
10.670951028204044 0.9333143109837821 1.8205552319349465 42 45 14
10.961034681796592 0.9333143109837821 1.9090722913863791 44 47 16
10.620791774322317 0.8709834661306856 2.022665151795055 44 49 16
11.538725011931314 0.7308103001956572 1.8915127186346556 43 48 16
11.750497732783618 0.6585216472630353 2.071189503986368 46 50 15
11.678369945376327 0.7961191033082781 2.0745698542195665 45 51 15
11.153034412152644 0.7118218998316004 2.3251187438626917 47 53 15
11.620725502266799 0.7227208888460499 2.1787407966781567 46 52 15
11.033278750249004 0.7978393692162465 2.2162901149268257 46 52 15
11.093975994328243 0.8709834661306856 2.103846287371427 46 51 16
10.5295442560876 1.1510799541640502 1.823982408595545 40 43 10
11.199172877464875 1.1510799541640502 1.9977467372663091 42 45 12
11.245194925320941 1.0651517154070425 1.9001962722847003 42 45 14
11.092586442673808 1.2080108875059883 2.212269564457537 45 50 19
10.524751234065915 1.2080108875059883 2.1360690954763513 45 49 18
11.417245517484876 1.1071994201436137 2.1911968944412408 46 51 20
10.866388993465574 1.1071994201436137 2.1162494697557737 44 49 17
11.031881553305205 1.163416304128143 2.335489341117802 46 51 19
10.74208001242029 0.9885258287217524 2.361705519466744 46 52 16
10.711458648348254 1.0539845903919491 2.239115309873889 46 51 18
10.658251413166562 1.3648165470880769 1.725048143374449 41 41 11
10.10714332055782 1.43279355062399 2.1625026349772707 46 51 19
10.042227087850524 1.5522632185238285 2.166853228120127 46 51 18
10.697169324242525 1.43279355062399 2.240170395919919 47 52 22
11.287005616300378 1.5522632185238285 2.3140225553676785 47 52 21
10.674705849833641 1.6526754512558173 1.8204655069166722 41 44 13
10.562828495688002 1.7665567313495474 2.0253302918102034 45 48 15
10.224008277258516 1.343409820566059 1.9345495860886546 43 44 9
9.912379119274641 1.343409820566059 1.8401264188883617 44 45 10
10.944062085603791 1.4474593538124838 2.1119479679892117 44 48 15
10.46410098786951 1.4474593538124838 2.0299459540396776 43 48 14
10.800061285110138 1.7479829891240435 1.8175069753900002 42 45 14
10.030268271508865 1.6614253060435764 1.9419132816147118 44 46 11
10.163575177077194 1.7665567313495474 1.9368141885015562 45 47 12
10.966975874157848 -0.5220526394239581 2.1106927532331152 49 55 33
11.766175230466851 -0.42505677236971084 2.277210275767997 49 57 33
11.430503531914349 -0.6093351004813304 2.0865626251163722 50 55 38
10.975568955934197 -1.0755713796912072 2.220255960785519 60 65 51
11.253255136369734 -0.954657372322108 1.8999514271704225 57 62 51
11.301780432459074 -0.7519626574880517 2.0930319279781773 53 58 42
11.387026363598041 -0.9144301791304014 2.305979727708905 61 66 49
10.887101792704266 -0.8959546926285673 2.01082641910865 54 57 47
10.690874341080578 -1.1249266934023845 2.019485874762134 58 63 49
10.839559477930155 -0.9803917284050819 2.1177522401867046 60 63 52
10.079006317856688 -1.6578726462047917 1.835565800047105 64 65 53
10.079006317856688 -1.6578726462047917 1.835565800047105 64 65 53
9.600603179880414 -1.780090089486057 1.9593895454600108 61 68 52
10.109520799329239 -1.4522728937175269 1.8347474992307546 61 65 53
10.38494446156507 -1.2977211368121973 2.2641895556837404 59 67 51
10.194263475836683 -1.680354257541763 2.2798366220355835 60 68 48
10.219211541597812 -1.4000026601596005 2.4148926928346577 59 67 50
9.701874546095027 -1.8844621002876762 2.4770897179150113 61 69 49
10.42333036850414 -1.438785165304263 2.142253304292871 60 65 50
10.42333036850414 -1.438785165304263 2.142253304292871 60 65 50
10.022308459968126 -1.780090089486057 2.051859575915714 63 67 50
10.621865458884754 2.050761193164253 1.7255807971351862 45 47 14
11.409079244561505 2.0102147681718283 1.6267057457164031 42 45 15
10.436582832946117 1.9007882243049263 2.1414369983401214 47 52 20
10.436582832946117 1.9007882243049263 2.1414369983401214 47 52 20
10.411874590783615 1.9625822403714275 1.826907649675741 44 46 13
12.041762727753955 2.396986169213059 2.2578402523150976 51 57 26
11.629197773683865 2.156263114074096 2.287304880305092 49 54 23
12.059060615320247 2.464347855612714 2.153663004564044 51 57 25
11.567315768695607 2.5467028284746696 2.181957411194612 53 59 28
12.168725469083967 2.5467028284746696 2.249310550141608 54 60 33
10.678536104871837 2.0987836080580466 2.0200422164251526 46 51 20
10.926117734249367 2.245431299064066 2.1129352984108376 46 51 22
11.304472126443146 2.131541613702948 1.806285331407665 44 49 15
10.708978380005453 1.9625822403714275 1.9173647281375268 45 48 15
10.782639964822192 1.8674944135367797 2.01539260420442 45 48 14
11.639262525065027 1.9007882243049263 2.2865520305675195 48 53 22
11.308816271379893 2.0042980932050436 2.1980645776595686 48 53 22
11.686800427896802 2.0987836080580466 2.174811878105065 47 52 23
10.445332129399226 2.245431299064066 2.0308345019108947 47 52 21
14.793528077109281 2.624296486381604 1.613905734813006 48 53 24
14.483599104428851 2.529910879523728 1.6148288068593293 44 46 16
14.325862073081911 2.6850647074464584 1.6153139518026898 50 55 24
12.98190336730611 2.571729093975804 2.020014764695867 50 55 25
13.905524143410084 2.652212981045359 1.8354652769602144 51 56 26
13.678030423044905 2.652212981045359 1.7648423941221292 50 55 24
12.526438688103646 2.6470697827793455 2.0376193537893514 51 58 29
12.267631102799607 2.6010500772905467 2.1424951221516544 53 59 30
13.481300118004452 2.720257567142963 1.8440038319417844 52 58 31
14.1670979768263 2.588760791394729 1.7580627597611098 48 53 22
12.316001740075505 2.8691948406475074 1.6225848710426996 53 59 36
11.935141440260987 3.031531409687924 1.6242390373314182 52 62 39
12.316001740075505 2.8691948406475074 1.6225848710426996 53 59 36
12.892848383609788 2.817369009257635 2.204813507185855 53 63 37
12.326818486273366 2.817369009257635 2.1394090413946705 53 63 38
12.605197593768422 2.9490820417748234 1.8635343331147163 52 62 38
12.460853002370719 3.031531409687924 1.867027515940407 54 64 42
12.529534779082654 3.0094127751539683 2.2263057394503 55 65 41
11.946303040314316 3.0094127751539683 2.159898545533201 54 64 41
12.960921886857747 2.763418987369831 2.020795334004939 55 61 38
12.673097119942533 2.911236296533387 2.217624028475784 54 64 39
12.455990907685393 2.6883005677166296 2.23085372474722 54 63 37
12.632046660172875 2.7290582642325982 2.1240433978391557 54 60 35
11.878384044126928 3.1102120635944526 2.163724444190077 54 64 41
11.690984311311245 3.1066673643327576 2.28271131930602 55 66 41
12.960921886857747 2.763418987369831 2.020795334004939 55 61 38
12.439823089365879 2.9318278131671534 2.041131534408992 53 63 40
11.868275536666976 3.02147703905399 1.9722438429723752 54 64 42
9.061129656442224 -2.540863455403048 1.9838900429137318 59 69 46
8.920785368950757 -2.5784327117416925 2.254870645233728 59 69 46
9.605851882084595 -2.647127862365268 2.198004120688698 60 70 47
11.079297708932442 -2.9293246431360367 2.33139133134707 55 68 43
9.05183688105157 -2.44806813723186 1.7527051488607852 59 69 48
9.384510029146934 -2.369634345673799 2.0876761064680998 58 70 49
9.421082447344617 -1.9252159219164653 2.085470870243185 61 69 51
8.994365033891475 -2.0344987103963597 1.868414479487873 61 67 51
8.88595275550425 -2.165102846225105 2.2580712533227376 62 72 51
9.200545025167665 -1.9729639207567964 2.2303194878779027 62 70 52
9.026838617424401 -2.1976212254618264 1.9855557144845282 61 71 50
12.153185608094729 -2.91822399745236 1.5409678487863352 52 60 46
12.630581961853913 -2.8395498313564094 1.382645547495282 52 57 44
11.883236240036943 -3.0833329613549525 1.624472695558207 54 62 42
11.883236240036943 -3.0833329613549525 1.624472695558207 54 62 42
12.155717767164752 -3.0833329613549525 1.7895156093281763 54 62 42
11.47103414640732 -2.971514287867421 2.0845605418314848 51 62 40
11.564014539564859 -2.9869343627271085 1.8907863462799248 54 64 43
11.894446547381484 -3.0715341973445085 2.1628148030934935 52 62 41
11.94296582400449 1.1072154935131424 2.5097896024578974 48 55 16
11.47464023150435 0.9885258287217524 2.4230268387584397 47 53 15
12.150404366882645 0.8002171632537352 2.4868209802716637 48 55 16
11.860238701134131 0.7118218998316004 2.386601067240998 48 54 17
12.222680647946042 0.3122103807260228 2.479157160806946 48 58 20
12.504438670030563 0.3589587690513069 2.588114417867289 50 60 21
12.886072281329154 0.1809824477311264 2.541896229376828 49 59 21
12.627970770377349 0.03788645075555088 2.4390321119831007 47 57 20
12.72710239150332 0.49335874428544174 2.5604175990139444 51 59 21
12.450384373702226 0.4332398380235592 2.456050486634628 47 54 17
13.050674015975815 0.3855149840156188 2.401596096083318 47 55 19
12.450384373702226 0.4332398380235592 2.456050486634628 47 54 17
13.022952204283923 0.6108641256857792 2.5266913021021837 50 57 20
11.747943541212095 0.6963467054462562 2.532836564585758 49 56 19
12.219746260288908 0.6108641256857792 2.4794650810177203 49 56 19
12.014788156058504 0.5421308930959853 2.3730282256824475 46 53 16
14.582246874860076 0.05989601995381858 2.779663412238135 55 65 36
15.218705206102374 0.07426701399601043 2.864345716778465 57 67 39
11.718635221517971 1.241790280195499 2.5364337358930906 48 56 16
12.3966702484662 1.704092107360617 2.6023479701029952 51 57 21
12.3966702484662 1.704092107360617 2.6023479701029952 51 57 21
12.150577725685215 1.4142016277849252 2.486802397196366 48 55 18
11.464614688845225 1.8181841756644543 2.424027346534311 48 53 20
11.346603508628625 1.686028644542386 2.436026869888402 48 53 20
11.31606965338943 1.5497282936553483 2.439200340700422 48 54 21
12.125200890345784 1.686028644542386 2.4895331300723025 49 55 21
10.911064384641069 1.241790280195499 2.484271011048541 48 54 17
17.945935643435103 1.5242879891553918 2.9559370584987525 52 63 27
17.98234209819878 1.2352433654985038 2.9454502474054225 51 62 26
17.98234209819878 1.2352433654985038 2.9454502474054225 51 62 26
12.886693928347082 -0.5803758107731753 2.4156406034978715 55 63 41
12.35956549335614 -0.6512983071258881 2.4650849087777353 57 65 43
11.998094126392665 -0.20447529045913734 2.3744683400171773 48 57 29
13.436715660662953 -0.41221210583250767 2.6181435796696504 57 67 39
12.179331419849133 -0.3187588503085128 2.359154591787061 49 58 30
12.83168318908445 -0.54024255464813 2.5481243010046826 55 68 39
12.838012353052626 -0.09628016664216474 2.5473938799852434 52 62 32
14.595334017695949 -0.1332614206024493 2.7773024419403365 56 67 37
12.03601366333917 -0.7463224523368317 2.3712060469763827 56 64 46
11.146729675892017 -0.940260419016696 2.457344953253394 60 68 49
10.00098015139712 -1.94570706424546 2.613301362313841 62 72 51
10.378317608154179 -1.7183714456254593 2.553982828781492 61 69 49
10.407954593117637 -1.3707283281898865 2.549721511301643 61 69 49
10.565677452522213 -1.208961425935569 2.5278697248264392 60 68 48
12.459698747443525 2.4042893230860405 2.4551369627714523 53 62 33
13.357032088460322 2.1977229701824412 2.6285744336924632 55 64 35
13.357032088460322 2.1977229701824412 2.6285744336924632 55 64 35
13.283273255333421 2.2257800923510884 2.4994634611947246 53 60 29
12.699572238494616 2.396986169213059 2.3187558979111595 54 61 30
13.99976474372749 2.062875104798671 2.6967927772343483 52 61 28
13.033264645947815 2.5424710545048645 2.674565698419735 55 68 38
12.458292447737305 2.414774167045737 2.594138396500489 54 64 35
12.67397686871826 2.8777544054821385 2.7343676931845495 58 71 42
12.815921289554622 2.696927811190667 2.709409621788807 56 69 38
12.67397686871826 2.8777544054821385 2.7343676931845495 58 71 42
12.439244999592928 2.6393582680871215 2.338352030801403 54 63 35
12.582445025806953 2.5798137143298545 2.443316381735985 55 64 36
12.275983626422784 2.69134579795525 2.4736102255804138 52 65 36
12.860472494347263 2.742474930767934 2.417940557842689 55 65 39
12.129165978279124 2.742474930767934 2.363323840075388 54 64 36
12.880257353601698 2.5063992770968406 2.542556876695871 54 64 36
12.496217632361994 2.9762691885144545 2.4515781550456563 56 69 42
12.044983402435488 2.816286561822361 2.4983068800980694 56 69 40
11.825621653952854 3.0964765036890274 2.523476063541888 60 70 44
12.142011125427086 3.088772351684084 2.638496472342725 59 71 46
12.355757031946803 2.765417562576161 2.6079073268022475 55 68 37
12.717647651311594 2.9526556874651355 2.561550395491966 57 71 42
12.65386948532572 3.0964765036890274 2.569288454889037 61 71 45
12.577380382219987 2.8862594421047536 2.3278077265187624 54 64 38
10.554788560267975 -2.2575413679214105 2.529335680738042 60 72 51
12.625109583932241 -2.9999703610932755 2.743436773090873 59 72 45
11.689485532033832 -3.0537582413893545 2.402255814942933 56 66 40
13.22395728245746 0.09919242487820198 1.5433837553289493 44 49 25
12.36950623694489 0.44424678018307584 1.622360659682128 47 48 23
12.427973030521953 0.44424678018307584 1.4609472611761256 45 47 25
12.57421482082621 0.3150352294200636 2.126886304547127 44 51 18
12.143302423966581 0.24709264344125062 2.2509995642946703 45 52 19
12.498471589047234 0.36866238308684535 1.8661090019291555 44 48 20
12.387652793904124 0.4013383239378333 2.0432737647654986 44 49 19
11.971416464175602 0.5559617578112908 1.6240769449862036 45 47 22
12.52472469478614 0.28840011646485736 1.950097099263872 44 49 21
12.566125754061861 0.11682910881067854 2.036028306093569 45 51 22
12.754033353680592 0.10729357428097801 1.8600189745123024 44 49 25
12.361108571821372 0.48176392674165586 1.9553787265600246 45 49 19
11.73136563967089 0.6737987508362709 1.625168254257994 43 48 19
12.06763409919531 -0.6987595194809428 1.7069133445885056 89 94 84
13.027054715994248 -0.056786419851646494 1.934772992568421 44 48 24
14.268906979234764 -0.11890265108291516 1.6154917644323203 51 53 40
12.176981454877653 -0.5826371525033855 1.623176660781432 79 84 69
14.175498924697138 -0.0487761092920172 1.545224261643905 43 45 29
11.75728138827471 -0.34864557829499065 1.9762547486819135 55 60 34
19.973435060385377 1.7674036968650229 1.4016443704130899 4 0 0
20.714884210178997 1.7579530042908382 1.5049769141716731 47 44 43
11.96215947303311 1.8986064916747893 1.6241182156284941 42 42 12
12.774188638199512 1.0326218738794442 1.2222779607881744 42 42 14
12.117537934237793 0.794816763918481 1.2896190998676098 42 45 18
10.43462347416792 1.6614253060435764 2.0313430749418457 45 48 15
11.647316512199202 0.794816763918481 1.5396719212649619 44 47 16
11.277287664357361 0.8599578403129062 1.8068637607976543 42 47 16
10.209323309959546 1.7894111868215576 2.1557917094570884 47 52 20
11.287005616300378 1.5522632185238285 2.3140225553676785 47 52 21
11.17752986035579 0.9866738095341331 1.6278651897874146 40 43 10
10.62099009992333 1.343409820566059 2.022656088656122 42 47 13
10.122265602425964 1.0539845903919491 2.16149898628911 45 50 18
10.060930575007111 1.4474593538124838 1.9407275616466226 44 45 10
11.304826912382788 0.6585216472630353 1.9934990400883859 45 50 16
10.163575177077194 1.7665567313495474 1.9368141885015562 45 47 12
9.995714222444295 1.5542536982516928 1.9432588772123307 44 46 10
11.137475817868802 0.9566208088240646 2.2092628270842827 45 50 16
11.132801991130703 1.1877520169091242 1.6280947241086323 38 41 12
10.60029425595894 1.7479829891240435 1.7258983254249542 42 44 13
11.229837003797087 0.7961191033082781 1.9965048445534357 43 48 15
9.71287296052107 -1.8063618695198886 2.190040313015318 60 68 50
10.325453336122346 -1.8063618695198886 2.2689873552666064 60 68 48
10.16026717331368 -1.5507740256607578 2.2827105768539333 59 67 47
10.637438257782216 -1.1816177161889625 2.2446211746481497 60 65 50
10.839559477930155 -0.9803917284050819 2.1177522401867046 60 63 52
11.115841003442943 -0.8215506285702934 1.90417711846493 50 55 42
10.211676999252244 -1.759027670577364 1.832044871389916 64 65 53
10.97070408802184 -1.0151923007897128 2.340853339189758 58 65 47
11.912118227805086 -0.6719833179331853 2.2668018321044654 55 62 44
10.393737226537198 -1.6678323031231121 2.1440852137892836 62 66 49
9.852040869963144 -1.5530773290351139 2.06090184721121 66 65 49
10.739074911084943 -1.0355149495027407 1.916352796208312 58 63 52
10.97090086159806 -0.954657372322108 1.8135872152250136 63 68 57
10.27182710185526 -1.3520810083331467 1.8304795893225876 59 62 52
12.117125514031692 -0.5220526394239581 2.252748498849892 53 59 39
11.508352386762533 2.0102147681718283 1.713572590299415 42 44 15
10.82123427691443 2.050761193164253 1.8170142499387858 45 46 13
10.085393086664654 1.8674944135367797 1.8353941025570566 45 47 13
11.639262525065027 1.9007882243049263 2.2865520305675195 48 53 22
11.167950220372298 2.1839121472765863 1.9990189850383036 46 51 20
10.263486472022512 2.0042980932050436 2.0396328625168287 46 51 20
12.456927695898958 2.271114475158142 1.7841441542103937 43 48 14
11.5492813958389 2.4819694033116892 2.2933471582181437 55 61 34
11.5492813958389 2.4819694033116892 2.2933471582181437 55 61 34
13.377096410302094 2.6147403154879276 1.924823280847643 50 55 25
12.98190336730611 2.571729093975804 2.020014764695867 50 55 25
13.064134985573995 2.6147403154879276 1.8529630291418544 49 54 23
13.64804425270074 2.8179461980104152 1.691069781515233 52 58 31
13.18497964632496 2.7290582642325982 2.188617970042925 55 61 36
12.136454069272704 2.7290582642325982 2.053881117447329 54 60 35
12.673097119942533 2.911236296533387 2.217624028475784 54 64 39
11.946303040314316 3.0094127751539683 2.159898545533201 54 64 41
11.799907431119701 3.113103708692524 1.974704666764969 56 64 43
12.826112240628456 2.8691948406475074 1.858347156012635 54 60 37
12.632046660172875 2.7290582642325982 2.1240433978391557 54 60 35
9.462841509567223 -2.3724523832859172 2.348201427166501 59 71 50
9.514250573918067 -2.6027366791002593 1.8516960590672302 60 69 48
9.833070919758061 -2.701886221395746 2.0619314035162426 59 68 47
8.42221137983291 -2.1976212254618264 1.766474126799586 59 69 48
8.907891886357316 -2.288900392716195 1.642428119893285 58 68 48
9.236638766095224 -2.1330488077873557 1.749026164195759 64 69 52
9.51779778887813 -1.8872577210393804 1.851588528155806 61 69 53
8.531813209591629 -2.0924853845786333 2.0112506689429464 63 69 52
9.845055317739774 -1.9729639207567964 2.310678171644122 61 69 51
11.97155249982452 -2.99980799680737 1.5405151519992293 51 59 41
11.187838533675714 -2.9527194055439123 2.2059260621636043 51 63 40
11.151652219474947 1.1072154935131424 2.4568039871584166 47 53 17
11.151652219474947 1.1072154935131424 2.4568039871584166 47 53 17
12.408597151419558 0.6384334014951704 2.3407380663135946 47 53 16
13.010814904707365 0.5771479554655594 2.296783577734513 46 52 15
11.94296582400449 1.1072154935131424 2.5097896024578974 48 55 16
11.873305759593492 0.8858229788797031 2.385432203905171 47 53 15
11.903951017817185 0.49335874428544174 2.514281550715628 48 55 18
12.330653138501932 0.3855149840156188 2.3468851356904974 46 53 17
12.72710239150332 0.49335874428544174 2.5604175990139444 51 59 21
12.83362549866609 0.2759575375999621 2.420311377886943 46 56 19
12.691879081080096 0.1591852720640745 2.4331055899256238 47 57 19
12.823131833073608 0.04317610809203261 2.5491135810140197 50 60 26
12.823131833073608 0.04317610809203261 2.5491135810140197 50 60 26
11.51822359728429 1.2842056616865791 2.418710756490501 47 52 20
12.09663250039365 1.5497282936553483 2.4926328227990457 48 54 19
11.373717669201172 1.4142016277849252 2.4332329066715057 48 53 21
11.31606965338943 1.5497282936553483 2.439200340700422 48 54 21
11.576631212777912 1.389883419252789 2.554400831761634 48 56 16
12.368728894577034 1.546390206569119 2.6061350617200354 49 56 18
17.945935643435103 1.5242879891553918 2.9559370584987525 52 63 27
14.272902783588728 -0.16481851515907542 2.8420951775481926 61 74 45
11.807198811950814 -0.4763054824645153 2.3913872626511865 52 58 35
10.344926176346586 -1.5437404418795178 2.558846438345582 61 69 49
10.344926176346586 -1.5437404418795178 2.558846438345582 61 69 49
12.121110794669736 -0.23210087557442954 2.489975240713596 51 60 34
11.998094126392665 -0.20447529045913734 2.3744683400171773 48 57 29
13.357032088460322 2.1977229701824412 2.6285744336924632 55 64 35
12.838504568079658 2.3106246700059154 2.5473371388675736 54 62 33
12.208463580698803 2.921299815886685 2.6286929307220825 57 71 42
11.893841950088817 2.9526556874651355 2.5154548260159704 57 71 42
12.208463580698803 2.921299815886685 2.6286929307220825 57 71 42
12.609977828590804 3.077899499358688 2.746299400607737 59 71 47
13.075735522157789 2.69134579795525 2.5209983968457594 55 65 38
12.640158382971658 2.855373416505815 2.437894071469244 54 67 40
12.275983626422784 2.69134579795525 2.4736102255804138 52 65 36
13.322317221961319 2.414774167045737 2.633219266790671 54 66 36
11.833969637371704 2.5798137143298545 2.3889631063935135 55 64 36
14.582535770492047 2.154492614582848 2.7796110896469064 53 64 30
12.798775180082899 2.7836321044057475 2.3115883757087277 54 64 36
12.577380382219987 2.8862594421047536 2.3278077265187624 54 64 38
11.841755725870415 -3.0410090960300984 2.521562547336126 57 71 42
12.815912862587428 -1.4801137680385996 1.464285242098825 65 63 56
12.70927477467344 0.20413387639851402 2.0303822773088993 44 50 21
11.925749288719972 0.033751003929389255 2.265847260646966 45 54 19
12.690438052153405 0.025424349847170825 1.8615104937726323 44 49 23
12.244864499577043 0.36866238308684535 1.7878976624558276 45 47 20
12.676596208068647 0.43995926492262377 2.2174155859871787 45 51 16
12.649443867966374 0.18774704902556677 1.7808481332759298 43 48 24
12.983237388450602 0.027702622629312088 2.10742262495466 47 53 25
12.611624398670264 -0.15045240607882363 2.0342181393892664 47 52 27
12.270043308874383 -0.5826371525033855 1.7046543061384072 89 94 80
11.92169870125661 -0.25905610794790934 2.0633537277802834 52 58 31
19.594541753345553 1.928613116852277 1.5012076858040386 16 14 11
13.12165343886688 0.8514451290830756 1.2318829597680003 39 44 16
10.765883057604999 1.0651517154070425 1.7234938534335191 40 43 10
11.765289841070862 1.1071895834922503 1.368622962664771 41 41 13
11.245194925320941 1.0651517154070425 1.9001962722847003 42 45 14
10.868001284551227 1.2441245978459838 2.01165404165707 43 46 13
11.750497732783618 0.6585216472630353 2.071189503986368 46 50 15
10.658251413166562 1.3648165470880769 1.725048143374449 41 41 11
12.011670872996 1.0326218738794442 1.5406163203606331 40 43 14
10.10714332055782 1.43279355062399 2.1625026349772707 46 51 19
10.703522196788683 1.4593191717114806 1.8197790763078785 42 42 10
10.076621639499077 1.6722618008205707 2.164539581541332 47 52 19
11.489670936065652 1.3171440934681102 2.297930284777439 46 51 21
10.269487198523317 1.3171440934681102 2.1519163973369224 45 50 18
10.17660459203214 1.2441245978459838 1.8329664043339586 42 43 9
10.58082403167723 -1.327846040807975 2.1327111072075673 58 63 48
12.029198755630809 -0.8172613449229563 1.7073509809094658 94 98 91
10.044619931771077 -1.5549054148311305 1.8364941109157382 64 65 52
10.27182710185526 -1.3520810083331467 1.8304795893225876 59 62 52
11.255989746548094 -0.827173583064523 2.201471068876891 59 64 47
10.224433981959749 -1.4218591042327164 2.277307964131953 59 67 51
10.343441059842577 -1.222668347191672 2.0357214685186626 59 64 49
10.791108686112604 2.1839121472765863 1.9146174442857293 45 50 18
12.663622993676585 2.845466668916507 2.032167278223394 53 63 39
13.119729571925367 2.792714148487288 1.8517347951589125 53 59 35
11.474107119593109 2.245431299064066 2.187660477723478 49 54 23
12.140000958246203 3.1155075119770146 1.7898033824680748 55 63 43
11.249278291419031 2.0551786966490724 2.3171091163214173 49 54 22
13.007180772790026 2.6470697827793455 2.1063279865426816 50 57 28
11.50269841427924 2.3181147913688953 2.296923020212149 52 58 27
12.085766422957585 2.9490820417748234 1.6235723574947567 52 62 38
11.4922594612348 2.323491004939927 2.0835186089105586 49 54 23
10.926117734249367 2.245431299064066 2.1129352984108376 46 51 22
11.867158563353792 3.1155075119770146 1.6245454865930027 54 64 41
11.57869489652218 2.131541613702948 1.8903662286645035 45 48 14
11.366739779694816 -3.0715341973445085 2.089745931268687 53 63 42
11.816076614161744 -3.0779752914073937 1.9741198726198124 56 64 43
8.932745548706771 -2.369634345673799 1.990198391205972 56 67 46
12.09663250039365 1.5497282936553483 2.4926328227990457 48 54 19
17.98234209819878 1.2352433654985038 2.9454502474054225 51 62 26
12.014788156058504 0.5421308930959853 2.3730282256824475 46 53 16
17.98234209819878 1.2352433654985038 2.9454502474054225 51 62 26
12.358917332084628 0.20959483349933294 2.6074747223696755 50 60 23
11.893310639440227 -0.7383949189436512 2.515516598674856 59 67 49
12.300535682050816 -0.3597717109896458 2.471084383654947 52 61 34
12.557269975362935 -0.4763054824645153 2.4457083408976352 53 63 35
13.436715660662953 -0.41221210583250767 2.6181435796696504 57 67 39
11.825621653952854 3.0964765036890274 2.523476063541888 60 70 44
12.23360070500461 2.4819694033116892 2.3547021231929572 55 61 34
11.667449110467462 1.9421120009206796 2.4043294131502013 48 53 21
12.189633147026242 2.3181147913688953 2.358304814723617 53 60 29
12.880257353601698 2.5063992770968406 2.542556876695871 54 64 36
14.236761979515478 2.1977229701824412 2.6630560404536987 53 63 32
12.951963928076463 2.118242179333249 2.534495161966297 53 60 28
13.785080886357273 2.118242179333249 2.575891290648598 53 60 26
12.432712835411195 2.9946738715315435 2.338859134084669 55 67 43
12.046042202203672 0.6034504573973344 1.9659876417939368 46 49 17
12.375776165261819 -0.2367283052604371 1.9548990858397208 46 51 28
12.724518398921383 -0.06793987316714609 2.2145756367597227 46 52 25
11.376038911370102 -0.5562130850914935 1.8962669866945516 45 51 31
12.134926117060783 0.03042925863138306 2.1495469124021134 45 52 20
13.525924063873852 -0.20178660693409953 1.6921610214619724 38 42 27
11.950655789916174 1.8986064916747893 1.5404621866286505 39 40 12
10.642244415479768 1.555858113434897 1.821243364330944 40 43 10
10.82179955120352 1.0155933363154208 2.0136693895516347 44 48 17
11.086123380850854 0.8599578403129062 1.719049842134799 41 44 13
11.317617883815418 1.6722618008205707 2.3115395817438626 48 53 20
11.358275917783182 1.0539845903919491 2.308271087210528 46 51 19
11.435928180332406 1.7894111868215576 2.30211954541977 48 53 21
11.166929041217072 0.8858229788797031 2.323950144989484 46 52 16
10.82179955120352 1.0155933363154208 2.0136693895516347 44 48 17
11.157423146202488 -0.6871575831203682 1.9028867701739904 36 41 28
11.349930486595522 3.1102120635944526 2.0905920378315948 55 64 42
12.836271200142004 2.6010500772905467 2.2080582302187763 54 60 35
12.605197593768422 2.9490820417748234 1.8635343331147163 52 62 38
13.326801753927386 2.6863830544129064 2.0075751882505877 51 57 30
11.433676755195838 2.396986169213059 2.1901704489297042 52 58 26
9.940741848062892 -2.034517959487694 2.4469884727674294 62 72 51
10.301969835780115 -2.5784327117416925 2.405901680593241 59 69 46
11.707303931139387 -3.063644821711977 2.2815091368941163 54 64 41
12.717647651311594 2.9526556874651355 2.561550395491966 57 71 42
14.595334017695949 -0.1332614206024493 2.7773024419403365 56 67 37
12.63578868346972 0.4861561060841448 2.3234494908702588 46 53 16
11.761135364429027 0.9068573123510653 2.5312293285907743 47 54 15
12.581052446586366 2.6265167510822396 2.5783363057698816 55 66 38
12.275983626422784 2.69134579795525 2.4736102255804138 52 65 36
22.39345759164598 -2.4244230639095474 1.5099169719435515 89 91 101
11.491968757065933 -0.4327697473154245 1.8023724163730475 59 63 42
19.954454585167984 1.8166872832996777 1.5024648116056962 26 23 19
10.401412801441635 1.5542536982516928 2.03292779185839 45 49 15
10.572051936326911 0.9566208088240646 2.1332336166508963 44 49 16
10.782639964822192 1.8674944135367797 2.01539260420442 45 48 14
12.096789043472526 2.911236296533387 2.151608200716213 54 64 41
12.157725335717256 -3.0239504216346043 2.6361528154289413 58 72 44
10.232867768631698 -2.1161284929889965 2.5756769268714104 62 72 51
12.643080991050038 -0.08453252103545869 2.4376217203028117 48 57 24
13.118155576995347 -0.13823756674945298 1.9321287625533823 43 47 27
20.177891912249223 1.8647820714807377 1.5528322712680918 52 50 44
11.107393786351796 2.050761193164253 1.904440498099155 45 49 15
12.0775924817197 -2.99980799680737 1.7068004140662068 54 62 42
10.78685188116381 1.2738942931215955 1.537188234165642 41 41 11
12.859110024187721 2.816286561822361 2.544969942600051 55 68 38
10.813952156777558 -1.0647208716546053 2.4959954861882756 60 68 48
12.201417159403157 0.12821468269002761 2.1459904509887227 45 52 20
11.304826912382788 0.6585216472630353 1.9934990400883859 45 50 16
15.218705206102374 0.07426701399601043 2.864345716778465 57 67 39
14.408732134055693 1.9945601490405498 2.6405355658094294 53 60 26
11.673141001242218 3.1022203479571058 2.4037926104451146 55 68 41
