20.132332812576596 1.5309916613500094 1.6839471537505013 54 61 25
20.04406545159716 1.5309916613500094 1.6343557844536973 54 60 24
18.043148332928624 2.2121483812127667 0.8632978535461696 44 54 16
16.4534420311898 2.170950577725546 1.0819358597250568 46 54 20
15.585958264503056 2.0772214256351798 1.262666241587887 45 55 18
15.65508522859309 1.9269676798052138 1.2640712749664795 48 57 23
17.322115314621737 2.2680814240642686 0.9745640212994827 43 50 16
18.62454950617697 2.419482329371569 0.8184710666405588 37 43 13
19.32168677055912 2.419482329371569 0.7806754140706246 38 45 15
19.31049264165455 2.3153780413661167 0.7800900480621626 42 49 17
18.54260113545527 2.4655160720711455 0.8861121430881687 39 45 21
11.914702542291293 0.4327869084691863 1.5097524780764173 46 49 26
11.700943539778105 0.6713297978089261 1.8543116355143376 68 69 54
12.636908637537509 0.4327869084691863 1.915743504167131 81 82 68
11.875567973871469 0.5976778704681546 2.030889965907853 142 143 128
11.390753148965114 0.7975442886214494 1.7717046239510972 149 148 135
11.960462615139834 0.4327869084691863 1.677443445954993 72 73 56
12.324267687655249 0.7372769880451717 1.839606290510634 139 139 125
11.213341655147405 1.1231211496039197 1.416179847808161 35 39 12
10.698042724906166 0.9980282263368508 1.596330156936471 21 20 2
11.471154662814818 1.0806171942387348 2.0484382282484734 49 50 23
10.933464567134827 0.9980282263368508 1.7802299667136023 56 55 37
11.152480666666786 1.1231211496039197 1.6852026104249673 37 38 10
10.617908715610609 1.2978380534470892 1.7865510857874936 42 47 15
10.449579936275057 1.2978380534470892 1.6929355206717003 46 52 20
11.090326289624262 1.1711675742541119 2.066296060552216 46 49 16
11.33959588699008 0.9233749973948061 1.6833067123836718 88 87 74
12.455767727563341 0.5158357292214283 2.1943414754660036 62 63 50
12.204868765312488 0.7307791596455331 2.110621522937194 74 76 59
12.228229303992856 0.6549541360048893 2.207790932973223 92 96 77
12.532141668689723 0.6331309698202354 2.40378927773431 40 45 21
13.695850969124008 0.7222552729273164 2.4189957499192936 36 41 15
12.785120210130536 0.7993064560562898 2.2745586377377323 107 109 89
12.220567245693694 0.8658343181758452 2.1098519811497027 143 144 125
13.453830808952734 0.7993064560562898 2.3312578558086896 54 57 32
13.54211968873215 0.9430853939028442 2.325073737062427 44 46 20
11.963847790182541 1.0806171942387348 2.122736982174416 46 49 16
11.895201318990736 1.2691937105311948 2.2286680612062355 44 50 15
14.968484533248015 0.8049914813981522 2.661037772206411 46 53 19
14.678674229445857 0.9202478146083506 2.700406953609972 47 54 18
14.8272357289624 1.1339300140597997 2.6796444528158734 49 56 20
12.85465921693079 0.0770389407122413 1.5142210755128924 13 13 10
11.077259170082993 -0.4729335072878743 1.685982942847779 4 8 1
12.70649644040399 -0.16896095559789337 1.9137764018999848 115 115 114
12.657625701077352 0.3259971809373801 1.7513619163218852 23 24 14
12.65947195762917 0.3538272171910082 2.0004285904049217 45 46 35
12.178310293886536 0.1820792166912056 2.0186077060089884 10 11 3
11.587632075837718 -0.3558231101559219 1.6808885135211602 134 134 129
12.586919643260917 -0.08560332582067272 1.9171708830857117 123 123 123
12.896996680217478 0.24806728933842154 1.908506744981742 30 30 24
10.589376770549745 -0.38873731339930667 1.596592237563292 133 134 123
12.9349215703907 0.22224931673097204 2.3701515620188705 58 62 45
13.16828655942214 0.1820792166912056 2.1559432220405466 113 114 107
12.64347682651494 0.1820792166912056 2.0899616761475572 44 45 37
12.754259389556417 0.4728133437426155 2.3848287194175106 54 58 38
13.165617258127948 0.2960338053455407 2.2502771578543364 7 9 6
12.835992655614417 0.3865932109098761 2.173194528108333 1 2 0
12.896333585980646 -0.0015716766321632195 2.492434934553682 52 57 29
12.486253146192565 -0.001134939535628676 2.097172196506931 108 108 106
12.716796767092633 0.4256427772166178 2.279127533408553 15 17 5
12.819387727822665 0.11182622951462015 2.379463865999921 51 55 32
13.017403054343875 -0.001134939535628676 2.1636424859629244 136 136 134
12.525254965337512 0.09123772547582908 2.095363812501087 6 6 5
13.054818137191704 0.09123772547582908 2.1617129571723557 94 94 92
13.048617114189112 0.2496501377177648 2.4772084738002693 52 57 28
13.125840557772552 0.32744277316031306 2.3553072407813325 46 50 37
12.241893404211947 -0.22489835608855047 2.312852580033313 57 61 40
11.544345023958737 -0.2525993917106778 2.369768166263394 44 49 22
12.82129919643223 -0.11457667357342764 2.3793076885124496 38 43 21
11.079266359640204 -0.36871285277497773 2.2869171772354804 53 59 37
12.675866062465149 -0.0021140042677949907 2.6666921765175475 53 61 26
12.35713810673465 0.1443312391174699 2.552332491044584 53 60 27
13.163192337782004 -0.001802940231584477 2.599078295520371 55 62 29
13.20019419695601 0.1443312391174699 2.594446297204464 55 62 30
12.675866062465149 -0.0021140042677949907 2.6666921765175475 53 61 26
12.476953013649682 0.2845496753751168 2.538117964119115 52 59 25
12.176827417719885 -0.5333175766953399 2.436481128600328 56 63 29
12.026524287324166 -0.6966504721691449 2.594818629230482 54 63 32
11.998955838829044 -0.8226083245378579 2.7919916224402748 56 66 36
12.359121067337153 -0.14786070149139005 2.5520925209569683 56 63 28
12.459106650217146 -0.6055002753902928 2.54019930205758 53 62 28
11.821732825461288 -0.6354704942339029 2.3459474004783636 53 62 28
12.48088054750901 -0.2878681557037949 2.5376615551208093 55 62 28
12.359121067337153 -0.14786070149139005 2.5520925209569683 56 63 28
12.415093222116864 -0.3972596112938896 2.7093255824393805 55 64 32
12.173940727529168 -0.4792910102717829 2.575237998496518 54 63 30
12.029446352893359 -0.7130088693869023 2.4510012335200333 55 64 30
11.358729183391038 -0.6707821049007681 2.7008291766010903 55 66 33
12.064099122021709 -0.4874324175051201 2.7774692838183257 55 66 32
12.292682133275893 -0.20800792155698203 2.731441163287401 54 64 29
12.270574286073847 -0.6707821049007681 2.735604737241821 54 65 32
12.270574286073847 -0.6707821049007681 2.735604737241821 54 65 32
9.953937121076523 1.5934871017459755 2.0145035743976583 43 50 12
7.7919782706033525 2.000707195496616 1.734922315562638 41 48 11
10.07062880762373 1.5912159071500025 1.697555856368774 40 47 12
8.700024119820766 1.9522601715677115 1.717660353508659 41 48 9
10.489760567853565 1.7039608343671764 2.09750785591321 41 51 9
9.348597906936797 1.7039608343671764 1.816410610822932 41 49 11
10.227495722644676 1.3928748985054094 1.6956014102622814 45 51 19
9.60880916819434 1.9522601715677115 2.0316466437551552 41 48 10
10.399419859066786 1.3928748985054094 1.7911580452725675 42 48 14
10.574083082450075 1.3735637492277983 2.092876866690516 44 49 14
10.574083082450075 1.3735637492277983 2.092876866690516 44 49 14
8.465762690396254 2.112406731301887 1.8426410414699932 42 48 13
9.548446945332365 2.464441712171612 2.155857355513607 52 59 25
9.525774796394378 2.2862771258009755 2.1574348102699523 48 55 19
9.034742631607692 2.464441712171612 2.063451179604963 47 54 18
8.715691297308851 2.3739281743059113 1.7173944438771689 44 50 16
10.989333264357182 1.4824589096669116 2.178322814810098 44 51 12
11.026392946894877 1.7039608343671764 2.1759879961040776 42 51 11
10.199889521962294 2.7923390133485735 2.1141147041645314 48 57 27
9.276800526883937 2.6360293426142443 2.0494962854463097 48 55 25
9.414340037842445 2.7484477477388976 2.1653234083933883 49 57 25
14.442297520677638 -3.13603327945085 2.9883861539875483 61 71 41
12.746436367198106 -2.139561878919297 2.6560341572595516 59 68 40
13.448377621824081 -1.1940979000333125 2.9799797720376198 62 75 44
13.633905029127583 -1.3124396503587832 2.9110326059139675 62 72 44
13.612175221300353 -1.638407866025774 2.917934812468742 64 74 46
13.889127835374046 -1.374940880571422 2.8426522544097033 52 62 34
12.936831427321168 -1.374940880571422 2.8198852259277993 57 66 38
13.258735270572728 -1.6114689493868282 2.7535828552294825 56 66 38
13.378272128750538 -1.2267224985520067 2.7322758426907416 52 62 34
13.8677979484659 -1.6215903604700794 2.8476843030419077 56 65 36
13.378272128750538 -1.2267224985520067 2.7322758426907416 52 62 34
13.787937121977643 -2.2024624224556595 2.867468519486142 61 71 43
14.766073173192249 -2.5808037574073497 2.8824758720811534 62 72 44
14.477723003285536 -2.7110439531397743 2.973278533426133 61 71 43
14.477723003285536 -2.7110439531397743 2.973278533426133 61 71 43
14.581802667844428 -2.401635389117395 2.9354699002481617 62 72 44
14.663301513369221 -2.835579945092443 2.910389726021806 61 71 43
13.91846858859077 -1.8623212834287446 2.835886080061587 59 68 40
13.43912038785854 -1.9850662749186985 2.721961446752111 61 70 42
13.31172448960848 -1.8065362204916127 2.743957008980166 58 70 41
14.040360243373417 -2.0731102738026017 2.80947968337185 62 71 43
11.008146389165374 3.021770782946817 2.2925532819719274 50 60 30
10.374633597234032 3.021770782946817 2.2201360200207825 50 61 29
13.957975611365283 2.910822784652357 2.8270414992158774 58 71 40
14.879376784663975 -3.138678076221111 2.8551535992878705 58 71 42
12.90380392345068 -2.7455487945440153 2.491672445792852 60 73 44
12.90380392345068 -2.7455487945440153 2.491672445792852 60 73 44
12.409125542539869 -2.633429261955172 2.4147606545941867 61 73 45
13.048487659616518 -2.48478778832574 2.6138413478139264 62 72 44
12.54373681461967 -2.901063310086176 2.4027730066849524 59 72 41
12.654039413042776 -2.5675245523428023 2.5181033230910606 62 72 44
12.68355571905144 -2.5931574604033285 2.2813747561853552 62 73 45
12.55950919577747 -2.3749586206366105 2.5286461586669327 61 70 42
12.055136707223397 -2.5931574604033285 2.218456760210489 63 72 43
12.767572299172896 -2.5337165094443637 2.3837251592041286 62 71 43
14.245108139422282 -2.519861903822187 2.77004823277483 61 71 43
14.913764085035307 -2.9053057895058565 2.847426564631946 60 70 42
14.398143912735978 -2.7726248194093546 2.743660093289662 60 73 44
13.579445752293763 -2.3795247040398366 2.6993686936233816 60 70 42
14.398143912735978 -2.7726248194093546 2.743660093289662 60 73 44
18.60268011789685 1.0295459662609086 2.953084705930039 59 70 35
10.732421263387762 -0.6569282102368873 1.9802974537389266 51 60 27
11.790091409252748 -1.0460410546306211 1.7648114489710696 58 67 36
11.145880567019699 -0.5995791893372543 1.8688528380941094 46 53 22
11.272537456340924 -0.6730355235034984 1.506270276401748 44 51 19
11.717525007373165 -1.2388425729312065 1.6796632305521497 63 73 47
12.014415497137806 -1.160051308373975 1.5935320026628974 61 71 43
11.050692149363782 -0.8800706020628856 2.1744676379019583 56 67 34
11.858257637148816 -0.970924004322936 2.342934213585745 58 68 39
13.949721248931187 -1.135493734051421 2.6462628869142355 62 72 44
13.328184811231118 -1.0076211251836196 2.578880850805114 63 72 44
12.570001604842906 -1.235040490313887 2.4004820892069985 63 73 44
12.187246154109511 -1.1721425717759104 2.210281300460485 63 73 44
12.83301592774596 -0.8974541171994537 2.49896474780391 57 67 39
13.567349186872743 -1.19138150753784 2.551522440189006 63 73 44
12.475687551116769 -1.0314168443384304 2.295802938206667 60 70 41
11.249455567991498 -1.0314168443384304 2.162334805475312 59 69 38
11.755246513484673 -0.8037075747366539 2.351503695232113 55 64 34
11.839046835791583 -1.4986363498052055 1.9400671484276206 63 73 48
11.814016162684881 -1.5893166638440082 1.9408872779248634 64 74 49
12.239069475598146 -1.8539263955851633 1.9274480903310671 58 66 38
11.528600638444857 -1.7874684108812469 2.045860704639022 64 73 46
12.041697433103375 -1.5046252359062164 1.5934804833658098 66 75 51
12.139383738191643 -1.670691530925725 1.6758657311844922 65 74 49
12.497221025783993 -1.83145363040628 1.6728465984107181 59 66 41
12.497221025783993 -1.83145363040628 1.6728465984107181 59 66 41
11.847166991962794 -2.125530644220196 1.678467263362481 58 64 35
12.246302442265241 -2.0122537236733686 1.6749450564471597 59 64 36
11.9253838298132 -2.368016733696883 1.8488323964543287 56 66 36
11.420306009395548 -2.1736899719542477 1.8614790346315475 58 65 35
12.23768949339734 -2.368016733696883 1.9274901051856341 58 68 38
12.071641500018835 -1.9683247899275074 2.0228566534113077 58 66 36
11.719422538891703 -1.374086308450333 2.2403103677359955 63 73 46
11.643397630478038 -1.703602988184748 2.2454888192432474 63 73 45
11.788836087313049 -1.8106419188271252 2.235658717459714 63 72 44
13.299957134621236 -1.4577609165682348 2.582254833295427 61 73 44
11.950862131274759 -1.3933012739538375 2.123406217463664 63 73 46
13.27768081009915 -1.599876347255261 2.5849405551738798 60 73 44
13.052474892464515 -1.4717702017907817 2.476831168681815 65 75 48
11.833012051976707 -1.8753231819573124 2.4713424398262798 61 72 44
12.059358280370432 -1.9993823809926343 2.4480049685944785 59 69 41
12.964883255741615 -1.9221650615540475 2.625011435286872 60 70 42
12.105450556942182 -1.9221650615540475 2.584199448086623 61 73 44
11.57974383765752 -1.7199469931992846 2.3666321182933046 61 73 44
12.314086730009857 -1.7199469931992846 2.4234828565730515 61 73 44
13.689799806684833 -1.4391613210814824 2.682639082316861 57 67 39
13.689799806684833 -1.4391613210814824 2.682639082316861 57 67 39
12.32041201087692 -2.0072645637159234 2.2022663096267476 59 68 40
12.151305912593743 -2.094457294794482 2.1132648527211257 58 65 35
12.990988296619719 -2.2842554968756987 2.4828934928350623 60 69 41
11.917956100332676 -2.2296756733723275 2.1251098559164427 60 66 38
12.007330858512288 -2.1468213544442483 2.2214722015497843 59 66 38
12.260273695236418 -2.0540027270933123 2.311478900562422 60 69 41
12.215543879601636 -2.2842554968756987 2.4327651391695926 62 70 42
12.509562080674979 -2.446122342414725 2.2934063836451353 62 70 42
11.757818142381806 -2.0072645637159234 2.1335634328852002 58 66 36
11.63141459144219 -2.110861566179266 2.3621064980458817 60 69 40
11.855776506572761 -2.29511250240549 2.2312401324244178 62 68 41
11.849941765151339 -2.3696797486197188 2.128666934811844 62 67 40
17.734509635677437 2.1215189391254494 1.699325564778166 47 57 28
12.26543767609808 3.060832175000695 1.511500130527954 47 51 31
12.484798398601278 2.980133430765275 1.4320338164931063 59 61 45
10.716092097395496 -3.1403918629753216 1.881197701250242 50 58 30
10.340403048624523 2.9288931791349473 1.9968123503760131 48 57 25
10.500659955799586 3.0450930707701547 1.7889989198744776 48 56 27
10.761511239401763 3.0450930707701547 1.8798441788895475 48 58 27
11.485954863951765 -3.1403918629753216 2.047771368709155 50 60 34
10.898881523884858 2.949200826561396 1.8758225474421264 48 57 26
10.500659955799586 3.0450930707701547 1.7889989198744776 48 56 27
10.641398114122094 2.949200826561396 1.7860673329000611 45 53 26
10.763788158634204 -3.042714335343911 1.8797766411120405 50 57 33
10.90337751378194 -2.946888092973846 1.8756927213684877 54 62 37
11.131403635307514 -2.8545417441502865 1.8692524016579153 58 66 41
11.874370559697569 -2.8545417441502865 2.030939939451985 58 68 40
11.66088206376004 -2.946888092973846 2.0400345581998476 55 65 38
12.16655998518497 -2.76695778778084 2.0190716819427164 59 69 41
12.16655998518497 -2.76695778778084 2.0190716819427164 59 69 41
11.184363261140685 -3.0320529106864336 2.1662497175448685 54 65 38
12.111368938884425 -2.8253022877445133 2.2149489415826915 60 70 42
12.214254143971313 -2.6429241556263263 2.110161169913684 62 72 44
22.602149032292726 3.0523085248072084 1.4051498735256405 80 77 64
12.334686309948413 -2.490536469084679 1.9245614094325776 62 71 41
12.590787449276156 -2.6091469858209635 1.9170600114293856 62 71 43
21.076991648117886 1.4854293244322434 1.5363031769636135 54 60 24
20.10862033844684 1.4811806482499192 1.6341514650627524 54 60 24
18.043148332928624 2.2121483812127667 0.8632978535461696 44 54 16
15.8877820294037 2.0164282087552308 1.1336026238263603 46 56 19
19.594410261675247 2.2584528206084875 0.7203344666647064 43 51 17
19.127188466263018 2.3669027667237064 0.8427922536372362 41 48 16
11.884813001964767 0.7372769880451717 1.5937799759777294 106 105 92
11.484330348250232 0.5486450381376561 1.5945816125951235 41 43 22
11.79404119992732 0.4709489331917412 1.9415444429125013 107 108 93
11.72231022154178 0.7307791596455331 2.037379479869395 64 65 51
12.344555530515109 0.7975442886214494 2.012148648933951 157 157 143
10.375329209049935 1.2978380534470892 1.5971245401950231 47 51 21
10.789035412048843 1.2691937105311948 2.0814517861513 44 50 15
11.923902104013822 0.9980282263368508 2.0288821644470856 76 75 56
10.923920430913384 1.207589639703189 1.780415673876431 45 48 17
11.18422603890096 0.9980282263368508 1.8677997356975582 33 33 11
11.047222485755443 1.0806171942387348 1.9679618275065835 33 35 3
10.617908715610609 1.2978380534470892 1.7865510857874936 42 47 15
14.8272357289624 1.1339300140597997 2.6796444528158734 49 56 20
12.785120210130536 0.7993064560562898 2.2745586377377323 107 109 89
12.25954633610363 0.9430853939028442 2.205902219594652 122 123 99
12.169135815956944 1.1711675742541119 2.2113886099483078 45 49 16
11.103848580484012 -0.29832089929986544 1.965823692376822 137 140 126
12.402046782898172 0.16694155489736312 1.8378790518273922 11 11 9
12.584972575962336 0.08354069747448883 1.9172267237399587 5 5 4
13.201734034289407 0.2293807306407843 1.6673831835298418 9 10 7
10.23142802618832 -0.4753016460654531 2.112254067120504 45 51 25
12.82212910712537 -0.0012507965578154926 2.272111431996167 110 114 100
12.477805827154858 0.3659749292943771 2.408592155083541 54 58 35
12.716796767092633 0.4256427772166178 2.279127533408553 15 17 5
13.525115666941167 0.10049176676280716 2.3262556987037675 63 65 55
12.934098896977737 0.12602730964434677 2.4885970648762252 52 57 25
12.78128348016513 -0.0013929965713320035 2.382592327039876 44 48 26
13.355870066265473 0.26998787869531016 2.146666075735355 79 80 74
12.157041621897436 -0.12911978169571184 2.4383956152761166 49 54 26
12.2427625916476 -0.10296756025120267 2.2069129089559314 139 143 130
12.674772219678355 0.4141981069771676 2.515832466978721 50 57 24
12.947020705036293 0.5306394602126622 2.4872934324207905 51 57 28
13.163192337782004 -0.001802940231584477 2.599078295520371 55 62 29
12.026524287324166 -0.6966504721691449 2.594818629230482 54 63 32
12.716213513371324 -0.1729021779088426 2.660557508540891 55 63 29
11.730847401168694 -0.5608058189766769 2.6377557395514932 54 65 32
12.359121067337153 -0.14786070149139005 2.5520925209569683 56 63 28
12.396039372222473 -0.8074399285546499 2.5476543432260605 57 66 36
12.459106650217146 -0.6055002753902928 2.54019930205758 53 62 28
11.67159434664996 -0.2878681557037949 2.488987238678244 56 63 29
10.023140826127833 1.4912641821689705 1.5980498737277553 46 52 19
10.27403919192766 1.4912641821689705 1.793892492251419 41 48 13
9.983632420027906 1.4824589096669116 2.013090265484502 43 50 13
8.909264900665217 1.8400170434671705 1.946992407275295 42 49 10
15.74915572578619 1.9882560995867316 1.331890981979256 46 57 22
8.061499889851575 2.464441712171612 1.72938776180328 45 51 16
8.58183291463702 2.2862771258009755 1.962109309026569 45 52 18
11.700588119040507 1.3735637492277983 2.241585028706534 45 51 14
14.661630192573833 2.842549516202085 2.9108744508012387 58 71 40
14.628325453991115 -3.137768408298835 2.9207755682867216 58 71 40
15.43133896731612 -3.13603327945085 2.998275790969771 63 73 43
14.581802667844428 -2.401635389117395 2.9354699002481617 62 72 44
13.478677846265356 -2.109980655016354 2.9667292952867337 64 74 46
13.982673492280439 -2.3870267562156378 2.8216570925149598 60 70 42
13.633905029127583 -1.3124396503587832 2.9110326059139675 62 72 44
13.281043372529748 -1.4132957047569865 2.749493755057757 54 64 36
13.43912038785854 -1.9850662749186985 2.721961446752111 61 70 42
13.8677979484659 -1.6215903604700794 2.8476843030419077 56 65 36
13.281043372529748 -1.4132957047569865 2.749493755057757 54 64 36
13.281043372529748 -1.4132957047569865 2.749493755057757 54 64 36
13.426347551411427 -1.6718172385806183 2.9903755608998046 64 77 46
15.46449895755762 -2.7110439531397743 2.9841113323973993 63 73 45
13.713293562937338 -2.7455487945440153 2.5358135145612595 60 73 44
13.215387713994083 -2.689583036349781 2.59256196367036 60 73 44
13.048487659616518 -2.48478778832574 2.6138413478139264 62 72 44
12.74244242516075 -2.789704278700542 2.3858112912338023 62 72 44
13.898497451002806 -2.8279496607523313 2.65312847622223 61 71 43
11.196803825699492 -1.2084027195743738 1.8674559497296137 62 72 45
10.562697473353905 -0.7325194626332465 1.6916210757682466 48 57 25
11.586828938884265 -1.3221491734221833 1.76825950075723 64 74 48
10.953618112497978 -0.9992676961025164 1.7798389117487754 55 64 31
11.628912590274432 -0.7242816692040088 2.2464856024177067 54 65 30
13.004566559404665 -1.0746247279862642 2.481545719509967 61 70 42
13.004566559404665 -1.0746247279862642 2.481545719509967 61 70 42
11.814016162684881 -1.5893166638440082 1.9408872779248634 64 74 49
11.873454670157818 -1.679694206137855 1.938945841278752 64 73 46
12.224888344370585 -2.125530644220196 1.8418464118099345 59 65 36
11.995805970135239 -2.303124833366168 2.0259288255915004 60 66 37
11.59107830293173 -2.303124833366168 1.948360187624587 57 65 36
12.233417547529132 -1.9354753132778277 1.8416526713624126 58 65 36
12.017088873039148 -1.5877751864401601 1.5935269439103104 65 75 51
11.759467360893156 -2.2451428089935086 1.7653231661266657 56 63 34
11.746048441781328 -2.1736899719542477 1.9431332079345023 57 64 34
11.352306161703027 -2.3696797486197188 2.0538648668124204 59 69 39
11.62793263738298 -1.4091263176498312 1.8561415778074026 63 73 48
12.278948874198663 -1.7522552408450862 1.6746671513896232 65 74 49
11.688123301459182 -1.7408341325631769 2.487139251994885 60 73 44
11.582778616088138 -1.593425423172846 2.249682286532434 64 74 47
13.299957134621236 -1.4577609165682348 2.582254833295427 61 73 44
12.385995650647796 -1.350281617956594 2.4168631903218807 65 75 46
13.052474892464515 -1.4717702017907817 2.476831168681815 65 75 48
12.256785226236605 -1.596248582511291 2.4288500920897675 62 74 46
11.725971825732836 -1.839232670011028 2.353979990702904 61 71 43
12.016014489240904 -1.9123741272362786 2.2209221675521613 60 70 42
12.029037921219103 -2.209238890072528 2.3291999072326464 61 68 40
12.36268862531334 -2.110861566179266 2.4189948765017224 58 68 40
11.608307911026298 -1.4826978699055227 2.247909173145609 64 74 48
12.326795248509837 -2.0604219758019866 2.55602496080364 59 69 41
12.105450556942182 -1.9221650615540475 2.584199448086623 61 73 44
12.832780288109682 -1.768435509867642 2.643433770099014 60 73 44
12.623701082123167 -2.1810082749719895 2.521452782374966 58 68 40
11.287010859983537 -2.446122342414725 2.160101244090311 60 70 41
13.784145633117607 -1.2805072524154668 2.668976335539924 60 70 42
11.608964055145856 -2.0540027270933123 2.2478637373196864 59 67 38
11.438458792914798 -1.9123741272362786 2.1512754133555205 62 70 42
10.653389392138662 3.034684357412134 2.0885992438535705 48 59 26
11.607985375237213 -2.9638855359171794 1.7678948706726851 53 59 36
12.531946678676693 -2.6850049923821993 2.005096004025301 61 71 43
11.138468291154838 -3.140261398757257 2.169043867659524 53 63 37
11.902132241312174 -2.9263507194434757 2.2282181758136193 56 67 38
11.703946891737688 0.5486450381376561 1.7662578553986097 108 110 91
10.98651308929312 0.8658343181758452 1.873312187068208 132 131 115
12.962641286405233 0.7222552729273164 2.3679550682946893 47 50 29
15.318210773780734 0.7105848009164741 2.6189311260018013 48 54 20
12.352140678865313 0.5976778704681546 2.1034926506025204 97 98 83
12.41371669741012 0.5691576139715449 2.3002345022667425 61 65 45
12.057560228605867 -0.09348829537148234 2.0234238319234836 133 133 131
12.702638665003125 0.16694155489736312 1.913884852816313 57 57 55
13.015694754125647 -0.1559786897457824 1.6687681462011816 129 129 129
12.546156400340935 -0.001038725888996385 1.9183438006703915 89 89 89
11.965798224661055 -0.33415859671506276 2.603214358800504 56 63 29
11.998955838829044 -0.8226083245378579 2.7919916224402748 56 66 36
11.191643748243644 -0.571384839142465 2.1658090611753646 55 64 30
14.66560721232424 0.6936370267010223 2.7022975267113227 52 62 25
12.680571159268831 -0.41721592499934174 2.5151999135953664 54 61 31
12.297009506646312 0.3865932109098761 2.1061378215311133 7 9 1
12.527211314370629 -0.09348829537148234 2.0952734494281953 124 125 118
11.884890419218975 -0.41721592499934174 2.4658545583243114 56 62 35
12.674772219678355 0.4141981069771676 2.515832466978721 50 57 24
12.317603982634177 -0.001802940231584477 2.557151128008218 54 61 29
13.017403054343875 -0.001134939535628676 2.1636424859629244 136 136 134
9.748565142188996 2.5360122790031316 2.024541147663621 48 55 23
8.652788307424968 2.3739281743059113 1.4866933473716097 42 47 14
11.639352759666712 1.3496269139876624 2.3614166154882494 46 52 16
9.953002157355737 2.9038827947319836 2.1291648247494326 49 60 27
9.777795900100982 2.6360293426142443 2.140397964742812 51 58 27
9.720672899125796 2.7923390133485735 2.0259409681217195 48 55 25
13.448377621824081 -1.1940979000333125 2.9799797720376198 62 75 44
14.663301513369221 -2.835579945092443 2.910389726021806 61 71 43
13.036627610958737 -1.1499106181654684 2.7976561812450074 57 66 38
13.91846858859077 -1.8623212834287446 2.835886080061587 59 68 40
13.663793842395904 -1.951037328247033 2.9018916381307784 64 73 45
13.173179622966995 -2.633429261955172 2.465225898068926 61 72 44
13.005737931810394 -2.462047092733029 2.4814296909193647 62 71 43
12.06087218098963 -2.5337165094443637 2.3267021838146835 61 71 42
15.225909072899453 -2.9494763099538615 2.785953066543882 61 71 43
15.014821506370987 -2.6951664526789028 2.8259686391394605 60 70 42
14.913764085035307 -2.9053057895058565 2.847426564631946 60 70 42
17.621391628369118 1.0295459662609086 2.942450073898443 59 70 35
12.72958037921804 -1.9074478187587165 1.5922544800052736 57 63 37
12.041697433103375 -1.5046252359062164 1.5934804833658098 66 75 51
11.490365164426635 -1.081747270298792 2.0475730283433498 61 71 41
12.964883255741615 -1.9221650615540475 2.625011435286872 60 70 42
13.07854954780708 -1.135493734051421 2.6099112632793275 61 71 43
11.757818142381806 -2.0072645637159234 2.1335634328852002 58 66 36
13.397048625374524 -1.3200596064039511 2.5707831506268892 64 74 44
11.09790901113628 -0.8010560979422284 2.0659268152583365 55 64 33
10.340403048624523 2.9288931791349473 1.9968123503760131 48 57 25
11.53046680845268 -3.042714335343911 2.0457774599117613 52 62 36
11.902132241312174 -2.9263507194434757 2.2282181758136193 56 67 38
12.397974159428877 -2.7305039852437356 2.197698457062004 61 71 43
12.192876827442104 -2.562954631017427 2.0180339123188054 63 72 43
19.190669405212255 2.4655160720711455 0.8457368283904731 38 44 17
18.54260113545527 2.4655160720711455 0.8861121430881687 39 45 21
19.190669405212255 2.4655160720711455 0.8457368283904731 38 44 17
11.305730866432297 0.6713297978089261 1.683645160090701 87 88 70
12.192033155877674 0.4709489331917412 2.0180671038686704 70 71 57
11.617653683436407 1.0449778648421038 1.68060286976438 26 26 6
11.96572133087385 0.8562835597497589 1.6773963981108533 55 54 45
15.047889268934238 1.005775762552518 2.6510119370137266 43 50 14
14.473588321130176 0.8954621455708505 2.582935196542497 45 51 15
13.7098423038515 0.8783509148874463 2.41783901336408 43 46 16
12.054912417781571 -0.4753016460654531 2.327168337192208 57 64 32
14.66560721232424 0.6936370267010223 2.7022975267113227 52 62 25
12.83873048936415 0.26998787869531016 2.0812922683763078 71 74 66
12.9349215703907 0.22224931673097204 2.3701515620188705 58 62 45
7.937824779461615 2.2862771258009755 1.6052120839575563 41 47 13
9.25806142995503 1.8112709841513877 1.6003027156906933 41 49 11
9.640671526093012 1.7039608343671764 1.917195313122604 41 48 11
9.2066099747399 2.112406731301887 2.0534568775655844 44 51 15
11.700588119040507 1.3735637492277983 2.241585028706534 45 51 14
12.55950919577747 -2.3749586206366105 2.5286461586669327 61 70 42
12.409125542539869 -2.633429261955172 2.4147606545941867 61 73 45
13.787937121977643 -2.2024624224556595 2.867468519486142 61 71 43
13.099062986155282 -2.0731102738026017 2.7845866862054685 62 71 43
10.008799278462966 2.7484477477388976 2.248186721421711 49 60 29
15.225909072899453 -2.9494763099538615 2.785953066543882 61 71 43
17.745334179676032 1.3737681180607342 2.9103837633343588 57 68 33
17.745334179676032 1.3737681180607342 2.9103837633343588 57 68 33
18.532880388134693 1.3104147247080802 2.9739717246244357 60 71 37
12.673888913296734 -2.3718871733058764 2.3915682160536695 63 70 43
13.328184811231118 -1.0076211251836196 2.578880850805114 63 72 44
11.622881848318297 -0.5504641837872977 1.4216693774737943 39 45 18
10.583148468664778 -0.8673457752826268 1.6913864531509084 51 62 29
11.95434494943128 -1.951202940997964 2.33513627663916 61 71 43
10.90337751378194 -2.946888092973846 1.8756927213684877 54 62 37
11.06258986351296 -3.1403918629753216 1.96737921961784 49 59 28
11.138468291154838 -3.140261398757257 2.169043867659524 53 63 37
20.117623427941513 1.581000922350517 1.6840302414261554 50 60 23
11.661188930061638 0.6549541360048893 2.138799252118157 148 150 134
12.936831427321168 -1.374940880571422 2.8198852259277993 57 66 38
11.21587849913259 -0.3299384589026323 2.164347298978523 89 93 73
13.303886613594399 -2.244650891355695 2.7453620481107914 60 69 41
12.322665295876163 -2.6867335797013734 2.306859183145127 60 73 44
15.43133896731612 -3.13603327945085 2.998275790969771 63 73 43
13.898497451002806 -2.8279496607523313 2.65312847622223 61 71 43
12.860112330601934 0.10049176676280716 2.2696196475001766 12 13 6
12.975283560354594 0.20019554643407603 2.2621843212061403 45 47 38
10.245185661049703 1.5912159071500025 1.7945314804489045 41 48 12
18.398156461042483 1.189887903993298 3.024946339628542 61 72 39
12.065911145398527 -2.050127109463061 1.9328004341412683 59 65 36
12.239069475598146 -1.8539263955851633 1.9274480903310671 58 66 38
11.656281273210023 -1.2984735574316775 2.0402346868386876 62 72 45
11.76770654055694 -2.76695778778084 1.9424145061427576 58 67 40
10.898881523884858 2.949200826561396 1.8758225474421264 48 57 26
10.96236258783754 1.5934871017459755 2.1800343397867255 44 51 13
12.157041621897436 -0.12911978169571184 2.4383956152761166 49 54 26
12.27681326502409 0.2496501377177648 2.4269646607521977 52 57 31
12.454836774992232 0.3259971809373801 1.5927279045603748 64 66 48
11.643397630478038 -1.703602988184748 2.2454888192432474 63 73 45
13.815166352795123 -0.0008881426278236031 1.518158274603246 108 108 104
13.10139789839223 0.5691576139715449 2.357171321291031 45 49 30
13.16029073444961 0.2293807306407843 1.5155363209372275 31 32 22
11.834972951039989 1.2340864275329244 2.344851954905528 46 51 16
13.668158861354406 -1.6047096962872367 2.6858536788101097 59 71 42
10.709493154935688 1.207589639703189 1.502872767740988 48 52 23
10.570142236248357 -0.42795136057247857 1.9869707772987826 92 96 78
13.328184811231118 -1.0076211251836196 2.578880850805114 63 72 44
12.011777682805882 -2.434354038760865 2.0252781868324714 61 70 40
13.033786402083754 -2.268716599478355 2.6157796100244246 59 68 40
