13.00557306023083 0.6691311947028731 1.6105565131538206 62 65 36
13.858967224422598 0.830451298149745 1.7534227463718284 52 57 28
13.638295400594233 0.830451298149745 1.6087110102570135 53 56 27
13.034365026824416 0.7198866930663915 1.9246795274727626 50 53 22
13.166884267030406 0.9501164610343128 1.920963854942288 46 49 20
13.196915807417609 0.6058331168354822 1.9201328723730962 50 55 26
12.492268816649911 0.6058331168354822 1.6925292897377766 58 63 34
13.024237270448436 0.8356652887163337 1.9249668187829003 44 47 16
13.378446176221722 0.7781693382480394 1.8368055492387396 52 57 28
12.573877285415916 0.7761408731683598 2.2115804152159324 51 55 23
12.627527691588002 0.7113268758686644 2.1130785559382526 51 56 27
13.413746948536732 0.7198866930663915 1.994667453372374 48 53 22
12.74921982081178 0.7772798949654133 2.0183149333354553 51 54 23
12.74921982081178 0.7772798949654133 2.0183149333354553 51 54 23
12.642724184808154 0.9157090270958506 2.2075254256971952 51 54 20
12.13081221021006 0.8422425824943196 2.0429323311985543 50 53 22
13.196072352619673 0.7761408731683598 2.2723652525803164 52 56 26
13.766710816152557 0.7113268758686644 2.2378373425490103 52 57 28
12.817124906304638 0.8998239892448666 2.015773451288855 48 52 23
12.814791793953738 0.49629617744157417 1.454808276520759 55 60 33
12.454579316245487 0.167452044381111 1.4514378665478704 50 55 31
12.452158208532952 0.2669509673007033 1.9420090003263843 50 56 33
11.918162100226182 0.3480496760133129 1.6141864082962272 51 56 29
11.912187982021877 0.18209697551429488 1.8705042101463265 50 54 32
12.777577253623862 0.4246499069218318 1.849641150185943 51 56 27
11.912187982021877 0.18209697551429488 1.8705042101463265 50 54 32
11.615528479704855 0.2669509673007033 1.6153176413640697 50 55 28
12.2871551067124 0.005006354410453008 1.694571774442688 45 46 29
11.655322550897184 0.46086086443554986 1.7884610859441685 52 57 28
12.690015793671638 0.5364600968741966 1.934723123126384 49 54 25
12.848742335233032 0.2669509673007033 2.014600313029924 51 55 33
12.478939123335367 0.005453621359094989 2.028737451354239 65 69 52
12.478939123335367 0.005453621359094989 2.028737451354239 65 69 52
12.207947524372765 0.35755748633857576 2.3429191033739767 54 60 34
11.996328470553228 0.2464477093040646 2.3602441765075497 56 62 38
13.198106087206122 0.4601794152262448 2.3761646271390404 53 59 34
12.106189787058621 0.2790578274433369 2.475309115754689 58 64 39
13.539279533032046 0.5533526595041219 2.3502843793940036 54 59 30
12.908532850011614 0.5032517311651685 2.192382639118543 52 57 29
12.900386967755564 0.32142837461217366 2.291894990213488 54 59 34
12.958629908812968 0.6131424310935177 2.3955956146970454 54 59 30
13.332378119610249 0.5828926574678828 2.16979162835522 51 56 27
13.28157523455477 0.6369301326514433 2.2669379763097 54 59 28
13.212646347362003 0.6851530094669958 2.4914168485520753 53 58 29
12.315921286883723 0.40234366038796515 2.4539382890675303 56 64 36
12.55022447430307 0.4159752654539177 2.2129866576383144 52 58 33
13.1735367271766 0.4159752654539177 2.2738116117581813 54 60 35
12.900386967755564 0.32142837461217366 2.291894990213488 54 59 34
12.831600194306551 0.1995117691897262 2.196683938881179 54 58 37
13.212646347362003 0.6851530094669958 2.4914168485520753 53 58 29
13.692548085104551 0.5804048501612424 2.570132426705112 56 61 34
11.975957282642305 -0.2323846742546198 2.361960502462903 57 61 40
11.818110035218812 0.007450489246499089 2.3755658549340484 61 65 44
11.818110035218812 0.007450489246499089 2.3755658549340484 61 65 44
11.518918615154433 -0.30342088346190854 2.5431309590737774 59 65 40
11.286700903665263 -0.2323846742546198 2.2996328791830227 55 59 41
12.286146720518872 -0.3878858405094068 2.456893970388838 57 63 40
12.240976578437664 -0.15046985899508505 2.604423815923657 59 65 39
11.855194592249696 -0.114106945294635 2.3723195973021234 58 64 40
11.116908804636907 -0.3094263188038077 2.0900912677736674 63 67 54
11.865488223793102 0.1287892143622224 2.371424045344334 57 63 38
12.20506425949051 0.009856452400859705 2.609384847459797 59 65 40
11.865488223793102 0.1287892143622224 2.371424045344334 57 63 38
11.407045515111228 1.1373899644522634 2.0756114529174314 45 52 20
11.374648153270378 1.3333373433177416 2.180882348737458 45 52 21
11.682070494918928 1.3561835991582842 2.0626486149825083 46 50 19
11.133031326134983 1.0349320763112284 2.312025437557396 49 54 21
11.83124347038712 1.0349320763112284 2.37441262006569 49 54 23
11.83124347038712 1.0349320763112284 2.37441262006569 49 54 23
11.910258356662856 1.4034217086525513 2.4965204681347375 48 53 22
11.792644847239995 1.0911541781971859 2.2619525484756347 48 53 22
11.278577912821317 1.2696639394243077 2.426672422810074 48 53 22
12.529019918049878 1.4238670420131225 2.4334849090071122 47 52 22
11.475211167256901 1.1936542332639635 2.285060193219382 48 53 20
11.086409202854663 1.4238670420131225 2.3158815937811013 47 52 21
12.310183755358516 1.0503814130493623 2.128685333464012 50 53 20
11.922861356683395 1.1373899644522634 2.1490881074011887 47 52 19
11.833450680066814 1.4398866916620485 2.259103149149818 46 51 21
11.811294956261895 1.0503814130493623 2.056796032563686 46 52 20
11.988857504997439 1.551615719819931 2.1454991631636156 46 50 19
12.014437278338711 1.6508352858002753 2.1441209312754155 45 50 18
12.560519090467894 1.551615719819931 2.2123737741663962 47 52 18
11.77474219834877 1.5494995069343307 2.263211026380931 46 51 19
11.728444202025138 1.5468585169530649 2.383546285335955 47 52 19
11.987337095554706 1.8213306126274507 2.488022997671944 46 52 21
11.851930347519719 1.5434699759878885 2.503089615429275 47 54 22
11.987337095554706 1.8213306126274507 2.488022997671944 46 52 21
11.754590687898009 1.6705749214425138 2.3811996929815478 47 52 19
12.566084794575168 1.767639038728342 2.3155275025319626 46 51 19
12.024660579540265 2.1085090526303794 2.2460935203433845 45 50 19
12.446856965614451 2.0652754374783338 2.4412293798894167 48 53 22
11.700013366470568 2.0652754374783338 2.3861164619843604 48 53 22
12.178269560264441 1.9491743943713757 2.467816700148454 47 54 22
12.058125887550753 1.9058826432075244 2.3550909014554 46 51 20
12.178269560264441 1.9491743943713757 2.467816700148454 47 54 22
12.037033339574153 0.9655981764729293 2.4826509404553336 51 56 27
12.196971086499271 1.3764498220406958 2.6105126974305244 49 54 23
12.420795980049675 0.8623773500396571 2.443722272433317 51 56 26
13.892865847813534 0.5326301462701026 2.6927817850566966 56 62 37
14.146865640479408 0.6636824855613737 2.656833806508584 55 62 33
11.232871356786726 -0.5150032073746831 2.5815692082587476 58 67 41
11.88837333067177 -0.3573487026359721 2.6565244034934214 61 67 42
11.697236139575715 -0.61134299389273 2.688502114377667 61 70 42
12.307447651396803 -0.7439924016306437 2.781239144832878 62 71 43
11.945763490538212 -1.1851913477348714 2.8728472860371994 66 77 50
12.622519983762162 2.3304561055310007 2.555649343563425 49 56 26
12.45881611730847 2.004508370798182 2.575752767571559 49 54 23
12.27224919095533 1.860539775536463 2.600160534409728 50 55 23
12.16528262577168 1.7031631109012668 2.614964321634426 48 53 22
11.899240560474457 2.3239176756390183 2.654794509385703 49 57 28
12.26442665508801 2.2413143726159532 2.459065951720018 48 53 22
12.889295892613651 2.0771862533493075 2.6759420449921203 50 58 28
12.791632478417892 2.3239176756390183 2.691373320954482 51 57 30
12.510146900755494 2.4643830676484173 2.74043640682227 52 58 31
13.244456389030246 2.6453896048815513 2.808611802169852 55 61 34
13.565751873041377 2.7365426360912255 2.7457937200579536 54 60 33
11.601529848855112 -2.9486903199799346 2.7057523237542176 57 64 34
11.274898012177616 -2.333233230665947 2.7728386625306856 58 67 37
12.022614602983838 -2.122058930949301 2.8505389146469247 59 68 38
12.480044726089098 3.128894563583858 2.7461617123488846 56 62 35
12.011633807118619 -2.53709641369312 2.8536063597999206 58 67 39
12.212995567504386 -2.333233230665947 2.8023568763074977 58 65 39
12.022614602983838 -2.122058930949301 2.8505389146469247 59 68 38
11.887609692948251 -1.5052207311765586 2.89122402910841 65 76 50
13.126063349553473 2.869781984972294 2.835759653721561 55 61 38
18.895960712983033 0.9491332621845255 2.9409724654040965 59 65 40
12.089797623531322 -0.7644611918725099 2.3524803665057488 58 63 49
11.979785982690471 -0.6901913181858058 2.249097244322744 57 62 45
11.52533740318762 -0.6272307114759093 2.0699488908754504 104 109 101
11.823425041281753 -0.5010062082997265 2.3750986741196005 58 62 42
11.185325644479777 -0.44814640480033324 2.1927640198578287 53 56 48
12.089797623531322 -0.7644611918725099 2.3524803665057488 58 63 49
12.166485085491978 -0.5424951410567399 2.236791809185866 52 57 40
11.804299615044819 -0.4930031464687289 2.0571091108002943 115 118 114
12.193083847918675 -0.6016988897416964 2.3441068718924294 57 63 41
11.442519171955361 -1.0627882110885758 2.7366194862082556 62 72 46
11.68003244242645 -1.333787138062016 2.691536835602608 56 66 41
11.430360339237984 -1.2170702257685089 2.554589642839788 55 64 43
11.675497683634925 -0.8896127398950573 2.6923414394345526 56 66 40
11.293593043870827 -1.2767065726811593 2.768578396705684 58 69 43
10.944186743164511 -1.1529256590982668 2.6251699996197493 56 65 41
11.609358527409908 -0.8523084867628719 2.3944440142918175 56 62 40
11.51291560766667 -0.8669035646213855 2.5438960601440246 56 64 42
11.534960465198244 -0.6489270268352995 2.5410944699979527 57 64 42
11.534960465198244 -0.6489270268352995 2.5410944699979527 57 64 42
12.372924006901581 -0.6489270268352995 2.5867789153600516 57 64 40
12.367909303816916 -1.0627882110885758 2.7684810367412243 58 68 42
11.953206817257888 -2.087609902346666 2.6463320316740613 56 62 37
11.563871829315312 -2.0123188382950543 2.5374535907545877 56 62 39
11.247005557250748 -1.7058515077255145 2.5795680248858517 56 64 42
11.378014611928872 -2.2274836022724647 2.5615419004486464 56 61 36
11.75862042827044 -1.9215356908873429 2.6778952114675603 55 62 37
11.620548898229199 -1.5317390054680486 2.7022511060825054 56 66 40
11.219676250446254 -1.538310373216415 2.5834477840632655 55 63 40
11.953206817257888 -2.087609902346666 2.6463320316740613 56 62 37
12.305331198608474 -2.0009034910960075 2.781695875522189 55 65 39
10.79798903074524 2.3378779063715043 2.0023864557333186 49 53 22
11.253021934350324 2.3378779063715043 2.0831906087855154 48 51 20
11.116671840943727 2.6200128458237737 1.9892234233597805 54 59 30
10.490688462478897 2.481433402768364 1.9126633055453854 54 56 26
10.837983011272609 -3.0461400529180858 2.0006876235295947 54 57 48
10.849241803992573 3.0338194464197676 2.000211878293805 66 70 56
12.68147955074815 2.5313125530304186 2.5486807598327292 51 56 30
11.958102879268091 2.334792074119543 2.3634720568981424 46 51 18
11.880901267172607 2.8475847037787365 2.4998115075388987 52 59 27
12.397493198691837 2.656477428816319 2.5835893873211506 52 58 31
10.95044195859448 2.6619318825831724 2.2082272830783634 47 52 25
12.243695276900748 2.4247246145069963 2.4611517086211117 48 55 26
11.375591938185671 2.8070848701881705 2.1808243529371807 50 54 33
12.684317078374315 2.7679241642513914 2.419303096549985 49 54 29
11.634691716684848 2.6036782972213732 2.3920963232872543 50 55 29
11.359325027173915 2.566434610327425 2.1818256370350606 47 52 21
12.68147955074815 2.5313125530304186 2.5486807598327292 51 56 30
12.094540127873273 2.7189961353347893 2.4765351910125597 50 54 31
13.061764320873815 2.8005380216899476 2.6503161885810096 53 59 31
11.57893645969656 3.1346615739106256 2.277319683139867 47 52 31
12.013807875037406 3.1310810727364213 2.637072835163897 53 62 33
11.252461832147748 3.135368302870466 2.083218608305082 62 66 54
11.627289259415692 3.021693287811937 2.273775696991393 46 50 30
11.74877563560861 2.9869617147375656 2.5150151387410955 51 60 26
12.013807875037406 3.1310810727364213 2.637072835163897 53 62 33
12.94170008884532 2.9608683225645622 2.667947443219203 54 60 31
15.409583142054569 -2.850429891322495 2.414921179130964 90 87 87
16.39844885547535 -2.8195058724214324 2.5397315259211948 54 56 50
15.326416331954762 -2.525816537532561 2.240752875241467 69 63 55
15.372669718929211 -2.474278883787774 2.3242121710453016 51 44 35
15.912607600359722 -2.675056822135455 2.3800374206552806 26 24 18
15.66764168018248 -2.5482930253001723 2.396580783782337 52 50 37
15.631160117773062 -2.7596668069216896 2.39911472752184 71 71 69
15.803578814127281 -2.721025472603306 2.484929569589265 27 25 21
15.984775144505825 -2.5708053371558375 2.208531146018492 66 66 66
12.916929972039085 0.7781693382480394 1.5333923246218042 55 59 30
13.44317324572202 0.8873789644105027 1.8354938941974095 47 50 21
13.166884267030406 0.9501164610343128 1.920963854942288 46 49 20
13.212741637762202 0.7772798949654133 2.086599370773235 51 56 24
12.764271434386341 0.9712469581988017 2.106636041140317 50 53 20
12.9686141578624 0.49629617744157417 1.3781420564003481 56 61 33
11.702753411471575 0.2669509673007033 1.700786965260833 50 54 32
11.955529858731088 0.5364600968741966 1.6980234756886732 55 60 33
12.116603157711662 0.0945127972094986 1.9528119917429012 42 44 27
12.293524241844807 0.4246499069218318 1.531494610698698 53 58 29
12.814238033617453 0.24596589765909052 1.3757914168611622 50 55 26
13.044951545917412 0.24596589765909052 1.3005152577683894 51 56 28
13.610984948668897 0.3215076510430562 1.2351614519593705 54 59 30
12.375398235674071 0.167452044381111 1.5317547582715294 49 53 31
13.11495440936229 0.18209697551429488 2.09083212402136 50 54 34
13.198106087206122 0.4601794152262448 2.3761646271390404 53 59 34
12.431415364051814 0.6851530094669958 2.4427043087382403 53 60 30
12.870981856020801 0.7746300861713943 2.4029939720485793 52 57 27
12.647068846419609 0.46086086443554986 2.022195526363367 50 55 26
12.900386967755564 0.32142837461217366 2.291894990213488 54 59 34
13.380888427081931 0.70020020764535 2.3620510817433567 52 57 27
13.114201689502584 0.46086086443554986 2.090864990566046 51 56 29
12.725793976026837 0.2464477093040646 2.4156118318279556 56 62 37
12.216555127360186 0.5533526595041219 2.2335754125111316 53 58 29
12.862812193141332 0.5804048501612424 2.528071613088458 56 61 34
12.79524797639292 0.5828926574678828 2.1051991266132477 49 54 25
13.029660376654531 0.2917396429583206 2.185739401855627 52 57 33
13.37303027275508 0.5139700892443391 2.4758060563719146 56 61 35
12.663581845760055 0.6369301326514433 2.206308019607772 52 57 27
11.975957282642305 -0.2323846742546198 2.361960502462903 57 61 40
10.895308502059349 -0.20786997801733914 2.1017567605389873 58 62 48
11.976549802670604 0.14645432779026418 2.4891999791902775 58 64 39
12.08600377389275 -0.2633032112667185 2.4774363262366528 59 64 41
12.098423700250647 0.005988645050079557 2.139645193297379 61 63 47
12.177908968753218 -0.3444180637810807 2.3453239276484794 57 61 43
11.728742476417416 -0.44309015144777747 2.517378542099152 55 64 38
11.792644847239995 1.0911541781971859 2.2619525484756347 48 53 22
11.127457866717915 1.4034217086525513 2.4424605843456098 48 53 22
11.546877832067912 0.9366764325757337 2.2796917389404205 51 54 21
11.23808124962349 1.305175482778555 2.3035022262585567 47 52 21
11.278577912821317 1.2696639394243077 2.426672422810074 48 53 22
11.608988834980233 1.2319959189575402 2.1668397508957917 47 52 21
11.514873898379408 1.146114745766104 2.4033453472039286 49 54 23
11.514873898379408 1.146114745766104 2.4033453472039286 49 54 23
11.910364066990306 1.2634874630992816 2.0524070916520665 46 50 19
11.407045515111228 1.1373899644522634 2.0756114529174314 45 52 20
11.787383278744082 1.4238670420131225 2.3782794358287043 47 52 22
11.988857504997439 1.551615719819931 2.1454991631636156 46 50 19
12.32933083180199 2.012015952570315 2.3333761986670916 47 52 21
12.473585649158467 1.5468585169530649 2.438691025192845 46 53 21
11.987337095554706 1.8213306126274507 2.488022997671944 46 52 21
12.584936974892242 1.6508352858002753 2.210925195705509 47 50 18
11.987337095554706 1.8213306126274507 2.488022997671944 46 52 21
11.865260261790304 1.7913153563196786 2.371443852398929 47 52 20
11.72621722713771 1.0859337273978935 2.517677581915246 50 55 25
13.892865847813534 0.5326301462701026 2.6927817850566966 56 62 37
11.013604537232705 -0.3573487026359721 2.6141760395606006 59 65 40
11.766711793609163 -0.17887937844290763 2.676521970297451 60 66 39
12.08665654893338 -0.9297423971870821 2.8333437798029384 65 75 46
12.408922388197306 -0.43314009487738125 2.760126731304712 61 68 43
12.140020697054052 1.5389642827012573 2.6185545195075726 49 54 23
13.244456389030246 2.6453896048815513 2.808611802169852 55 61 34
12.648940205963923 2.7365426360912255 2.715308541335192 54 60 33
11.56448546304626 -2.484167237895748 2.712682246772695 57 66 36
11.724905494264888 -2.7581920612157917 2.6836789694919903 58 65 35
12.524919255213483 2.9243473444112897 2.737664795830719 55 61 37
11.913406861678096 -1.838778544518431 2.882892322098401 62 72 46
12.022614602983838 -2.122058930949301 2.8505389146469247 59 68 38
12.283865253099956 -2.670521866449991 2.7863689727155556 59 65 37
12.130025454432598 3.1255596168441078 2.8223057382772354 56 62 35
17.773612737293735 0.7543887750800267 2.971448319174152 60 66 41
17.917125766141265 0.9491332621845255 2.92985007727101 59 65 38
11.243103599398609 -0.5664943378717838 2.430314597905059 58 64 42
11.185325644479777 -0.44814640480033324 2.1927640198578287 53 56 48
11.913573223397476 -0.760329922367955 2.4961507801989837 56 63 41
11.442519171955361 -1.0627882110885758 2.7366194862082556 62 72 46
11.609358527409908 -0.8523084867628719 2.3944440142918175 56 62 40
11.187547748691683 -0.9968905150790612 2.5880644123687158 57 65 42
11.987628928214411 -0.7541681706823384 2.6410419939533765 57 66 40
11.858129618138566 -2.3391604639989563 2.661385787242585 58 64 37
12.173462047726769 -1.5218375922289746 2.811683219126545 58 69 43
10.849241803992573 3.0338194464197676 2.000211878293805 66 70 56
11.286020620758439 2.953141951083692 1.7957040470873062 67 71 51
12.020321847884448 2.5022608579101564 2.3582339116489086 51 56 28
12.385474835030347 2.6036782972213732 2.4471296720320717 50 56 29
11.952320452442 2.7679241642513914 2.363963063769156 48 52 30
12.189165337592938 2.8005380216899476 2.611603970829122 52 59 27
12.094540127873273 2.7189961353347893 2.4765351910125597 50 54 31
12.094540127873273 2.7189961353347893 2.4765351910125597 50 54 31
11.958102879268091 2.334792074119543 2.3634720568981424 46 51 18
11.760779800104952 2.9117064869734395 2.2641960971331714 48 52 30
11.814240888194481 2.414099375247599 2.260441248980988 48 49 20
11.319117258449877 2.481433402768364 2.0799090081115454 46 48 19
11.573509175501677 2.6619318825831724 2.277719992736558 47 52 28
11.700924875899226 3.1326252140199276 2.520686738398728 53 62 32
12.527792243580365 3.1326252140199276 2.567141973363201 52 60 37
12.355068910203293 3.0065111137938874 2.4500898000978433 54 61 31
11.553861096817974 3.1337738047612715 2.3996442623452285 54 60 35
16.39844885547535 -2.8195058724214324 2.5397315259211948 54 56 50
12.94170008884532 2.9608683225645622 2.667947443219203 54 60 31
15.55811875233371 -2.597077751710856 2.3130892639970204 54 52 46
15.631160117773062 -2.7596668069216896 2.39911472752184 71 71 69
16.08200912043951 -2.6304962400802476 2.4627837917101445 37 37 24
13.079642943568908 0.6691311947028731 1.4571671988369639 58 62 31
13.216844228771908 0.8873789644105027 1.7624029538575952 49 52 23
13.684776345014457 0.5627910754059989 1.313446290183278 58 61 32
13.848217278956144 0.9332688130030291 1.6805590539873327 50 52 25
12.88893522682125 0.6058331168354822 1.8471684099247982 56 61 32
13.236797260619804 0.6691311947028731 1.7621105487442572 60 63 32
12.617073370090882 0.8422425824943196 2.1135778836678893 49 54 21
12.283838557381653 0.9712469581988017 2.0365810733749017 46 53 21
12.248607900781694 0.08680199804382335 1.5313504144130954 50 52 32
11.500762205365568 -0.3444180637810807 2.2831356659157653 52 56 38
11.912082287880231 -0.10178528218465778 2.2536859146682513 51 55 38
11.855194592249696 -0.114106945294635 2.3723195973021234 58 64 40
11.875175384711719 0.0066400621370125605 2.25621665216932 52 56 36
13.212646347362003 0.6851530094669958 2.4914168485520753 53 58 29
12.761669168589165 0.3791391385141904 2.1067571264842924 50 56 32
11.929612700813724 0.008486239667009003 2.4943674411585923 58 64 41
11.96635170831039 -0.12980362983999408 2.490316299829835 59 64 41
11.5939009011747 0.9985025238420522 2.167722790829374 51 54 21
11.910258356662856 1.4034217086525513 2.4965204681347375 48 53 22
11.608988834980233 1.2319959189575402 2.1668397508957917 47 52 21
11.833450680066814 1.4398866916620485 2.259103149149818 46 51 21
12.420795980049675 0.8623773500396571 2.443722272433317 51 56 26
12.27224919095533 1.860539775536463 2.600160534409728 50 55 23
12.091787893648922 -0.5150032073746831 2.6255144942355626 59 68 41
12.276563521624185 2.2157144080219204 2.599576446456928 49 56 25
12.255852673561394 2.4401143034995894 2.6023893104248836 48 57 29
18.114786272660144 1.075655939908637 2.8839695966448393 58 64 39
12.457101623845208 -0.44814640480033324 2.3236223492339074 55 59 44
11.422065285498084 -0.404809038991785 2.0748849793988677 74 77 66
11.631220596411058 -0.6732185456064811 2.3924170461971532 57 63 40
11.563871829315312 -2.0123188382950543 2.5374535907545877 56 62 39
12.198654723675293 -1.7728763271582886 2.8057042535261485 58 68 42
11.281273701352442 -1.3725575246886506 2.574762995390503 56 66 44
11.675497683634925 -0.8896127398950573 2.6923414394345526 56 66 40
11.68003244242645 -1.333787138062016 2.691536835602608 56 66 41
11.913573223397476 -0.760329922367955 2.4961507801989837 56 63 41
11.835724519805199 2.2590471548056357 2.258945144713205 46 51 19
11.18205572012251 2.748993594510563 1.890746109122993 65 70 44
12.013807875037406 3.1310810727364213 2.637072835163897 53 62 33
11.33376379583822 2.5022608579101564 2.2959315770243314 51 55 24
12.094540127873273 2.7189961353347893 2.4765351910125597 50 54 31
16.60683711250302 -2.721025472603306 2.521698454541578 28 29 16
13.722279408185438 0.7266751144890641 1.6815705362777755 59 63 34
13.403905849557924 0.8356652887163337 1.9949987649769065 48 51 20
13.298137341816721 0.6549779359329007 2.0829620349675553 49 54 25
12.700310938453612 0.22054998762767838 2.3058284225855927 58 63 40
12.096791707613578 0.6369301326514433 2.1397314505666305 52 57 28
12.70936180782083 0.10372169458884421 2.2036537644274077 56 60 40
11.922861356683395 1.1373899644522634 2.1490881074011887 47 52 19
12.046522545329498 1.4527711918977746 2.142402179155554 46 50 19
12.062516802707114 2.16850447469336 2.354727756610808 47 51 20
11.224821577677693 1.4398866916620485 2.1902438489619875 45 52 21
12.498173378013828 1.6705749214425138 2.4363722358525908 47 52 21
12.615571369621232 1.4527711918977746 2.2091179485626924 45 52 20
11.908071310587276 2.131628649954608 2.49676458898366 49 54 23
12.004166487535572 2.0771862533493075 2.6385292851504336 51 56 25
12.08665654893338 -0.9297423971870821 2.8333437798029384 65 75 46
13.124018451027757 2.4401143034995894 2.641522416235624 51 57 30
12.849816120026146 2.5745609370812286 2.6820938924205753 52 58 31
11.043345880744148 -0.5424951410567399 2.0939031964364414 89 94 84
11.953206817257888 -2.087609902346666 2.6463320316740613 56 62 37
11.120670473208348 -0.7541681706823384 2.5978739314761534 57 67 41
11.846397364803941 -2.140833890154759 2.5037191576177835 53 58 33
11.646937603341806 -1.7327597940207888 2.697454639366253 55 65 39
11.3626199815373 -1.8661586863086541 2.563612885221416 56 63 41
11.222754550036562 2.839046364755 1.9850239406043306 54 59 36
12.060417307984993 2.9608683225645622 2.630117737649827 51 59 25
15.584453449472196 -2.8195058724214324 2.5033938917766605 86 86 83
12.480777770648157 2.8834821185258623 2.438011157964225 51 57 30
12.020321847884448 2.5022608579101564 2.3582339116489086 51 56 28
12.74921982081178 0.7772798949654133 2.0183149333354553 51 54 23
12.070210689836157 0.005453621359094989 1.9543566252012572 61 65 48
12.995381609449497 0.0945127972094986 2.0961087999824652 48 52 32
11.929612700813724 0.008486239667009003 2.4943674411585923 58 64 41
12.92547555429641 0.35755748633857576 2.3983753735105053 54 62 33
13.709851372661083 0.6131424310935177 2.445120725708175 54 60 34
12.831600194306551 0.1995117691897262 2.196683938881179 54 58 37
12.576796569435766 0.11491011499284294 2.3147426781783897 57 63 41
12.461640671454612 1.6596244866406182 2.323281149818046 46 51 19
12.058125887550753 1.9058826432075244 2.3550909014554 46 51 20
11.374648153270378 1.3333373433177416 2.180882348737458 45 52 21
11.877805007763868 1.6845915601593844 2.500160405359544 48 54 22
11.575890427978903 -2.189945317324741 2.7105328505260373 55 63 38
12.415490102605405 0.3480496760133129 1.8580010647668501 51 56 29
12.166159276482846 -2.8997791640513597 2.8134406836122228 58 65 35
11.281273701352442 -1.3725575246886506 2.574762995390503 56 66 44
12.530437447388417 2.17559288590007 2.7366357321589465 51 57 30
13.17149919897871 0.7113268758686644 2.1781537532835187 51 56 27
12.788207347492706 2.16850447469336 2.4101307964473953 49 53 20
12.05029019044262 -2.981286105915693 2.6316169957889595 57 64 34
