13.214617245604009 0.11645136029097933 2.0760822803186394 1 2 1
13.66757980351636 0.10719837751824467 1.9767003547481894 1 3 3
13.801803190413239 0.1855482257405628 1.9725245487940046 0 2 2
13.304490360765685 0.10719837751824467 1.9075900349746029 0 0 0
11.308060534725708 0.7134100164883297 1.6946205962822904 39 41 19
11.099820232917601 0.910085608060055 1.8817936677779372 40 43 8
10.756189116938566 0.775860412705187 1.7954971247779898 38 40 14
11.18505804335573 0.8474053809199139 2.0742873505168182 39 42 7
10.861789602150724 0.6419759785848568 1.7932755760222414 36 38 15
10.835715725198115 0.910085608060055 1.7938199704064566 40 43 11
10.080933284475337 0.7743735586410334 2.0220942973592884 38 41 9
10.09146651853831 0.5901576713099552 2.257337721871334 40 43 8
10.560526980988802 0.6891971048166404 2.2214566036586607 39 42 5
10.09146651853831 0.5901576713099552 2.257337721871334 40 43 8
13.043638826322743 0.21989808883569187 2.173738759230422 1 2 5
12.738636170032803 0.14071111155539973 2.2904805643247 36 40 22
12.738636170032803 0.14071111155539973 2.2904805643247 36 40 22
12.102874763736372 0.14071111155539973 2.228305366213716 0 1 1
10.934352656200728 -0.9278433653157079 1.4236302980185291 36 42 20
10.316016543933113 -0.8680533366849108 1.8052605882198258 44 50 23
9.894468398145284 -0.7984501720460305 1.9212100870855127 44 50 23
10.746490251866335 -0.7984501720460305 2.0969103628219004 50 57 27
10.71464195139501 -0.7967263185910726 1.607823005715067 34 40 17
11.047490044486295 -0.665220841473776 1.7894745350979115 34 38 20
10.939089608881153 -0.7268806005098084 1.9844088317356068 47 52 28
15.27856095897716 -0.2096483182237801 2.152645643655444 12 15 11
14.752665896420206 -0.2096483182237801 2.0959850409429617 18 22 16
12.835982494095598 0.03275112760987655 2.1849197904960445 0 2 1
12.67224596711472 0.03620121208989506 2.2950819133470897 5 8 0
14.327871215782647 -0.24813993417650917 2.2860768937067917 17 21 13
15.002705339432424 -0.24813993417650917 2.336416360841538 8 13 6
12.827530033264223 -0.08748321107454556 2.515791429429046 41 48 16
12.270925967132268 -0.1008880908002329 2.581597596789143 41 48 14
12.36481259338079 -0.2500873283336439 2.5696008547512013 42 49 16
11.586239327479277 -0.6227339440743631 2.3814064366642174 49 54 22
11.347274307358285 -0.7172689862002791 2.2808079894148294 50 55 25
11.877440826416299 -0.7984501720460305 2.2430446369029053 49 54 23
11.249619299823689 1.523946065465958 1.97232446983215 34 37 3
10.530092547755 1.1751388988288995 2.1088860944709937 38 41 8
10.242702104465927 1.2813313557454453 2.125717492972276 38 41 10
10.54712572572028 0.8578557651036575 2.2224242059098085 40 42 7
10.803065320852781 1.2813313557454453 2.2044748872183546 39 42 9
11.258175315004275 1.1232708487694714 1.9720018066747989 39 42 11
10.242702104465927 1.2813313557454453 2.125717492972276 38 41 10
10.524562461200114 1.5127385145390708 2.2240605187780202 37 40 9
10.534862829393445 1.213797186174782 1.8990798768730501 37 42 11
10.43248788319486 1.4131859701948182 2.0058257170605467 32 37 4
9.977716545018593 0.7723375460400066 2.266716969873693 40 43 7
10.81002807625117 1.8635713864634507 2.20400170684304 38 41 10
10.436814429826924 1.7315469475415544 2.0056330765661468 31 34 1
10.802327158158072 1.6258642363841294 2.093911303264722 31 36 3
10.899117294612886 1.620549580555266 1.887718304730859 33 36 1
11.847065579765527 1.5127385145390708 2.358524558884801 40 43 10
11.42828659759466 1.2445043022661821 2.396056125339723 41 44 9
11.43424996218272 1.3408472926964914 2.5353547699952905 41 44 9
10.812895122738821 1.1974387766608527 2.4599506700348783 42 45 10
10.726846336947178 0.9553788809347808 2.331656138956936 40 43 10
11.935627472220872 1.5048540511527586 2.477175541138534 41 44 8
10.990102970147056 1.1277057190331257 2.3090903012256394 39 42 7
10.181407945716852 0.6697805564052373 2.3839888026854092 40 43 8
11.129849431409362 0.4037858739507467 2.5760044159879105 39 45 9
10.089470025626722 0.640612817760975 2.5538921677814113 39 45 10
11.699504683472261 1.4802891835398169 2.665165382539894 42 45 10
10.181407945716852 0.6697805564052373 2.3839888026854092 40 43 8
10.545215501704595 0.9928879478853169 2.491868761266994 40 43 8
11.613029817573743 1.9482606089784926 2.5134936830618475 43 46 11
12.021622096402975 1.7742527743396996 2.4680946770150123 43 45 10
11.430222260967625 1.8635713864634507 2.2745869234651916 41 44 9
11.848335756038079 1.632448499315558 2.358416861036093 41 44 11
11.252550093137755 1.7504230725933474 2.2880663974183566 38 41 9
11.3491086377198 1.651811535827521 2.5462609902372173 42 45 10
11.257269824559728 1.7742527743396996 2.4126599625737475 44 45 10
11.78722208629667 1.847075622052481 2.650941139930606 41 46 11
11.472782223242326 2.3811991515126647 2.7050057173790285 48 54 17
11.414059840199934 2.8523720403901343 2.7161649884293735 47 54 16
11.803040521973898 2.251160144040796 2.648438320636287 47 53 15
10.948130221764316 2.5041816875197425 2.6027183903589477 47 53 16
11.544768002294918 2.09565779973087 2.6918285072326213 45 51 13
11.956952030021084 2.0107082396649787 2.624996834355373 42 46 11
10.31279613795382 -1.744060387911778 2.1215096527740123 48 57 23
10.308417539727389 -1.4009077644320187 2.121770512999884 51 58 28
10.029485908747231 -1.8535511511782952 2.024581901625801 50 57 23
10.021980887580693 -1.2912506898116005 2.0249471756501913 51 58 28
10.276740600075392 -2.166805078376203 2.2426505530402046 52 57 26
10.005048349583255 -2.001187381299265 2.140510504537805 49 56 24
10.347955484539927 -1.7264221031183649 1.905238524567223 50 57 25
10.347955484539927 -1.7264221031183649 1.905238524567223 50 57 25
10.247926035883033 -1.520618198463705 1.9086324203451979 50 57 27
10.385577200384006 -1.0409044942310457 2.1172118513518967 51 56 25
10.360653848851957 -1.2244509625154634 1.7060099726719609 49 55 28
10.283802814337134 -1.2244509625154634 1.5120914152251073 45 51 24
9.930595634135251 -1.1880653738075313 1.9198807398609659 49 56 26
11.898517466461666 -0.6839877567928228 2.6337092558311657 50 55 24
12.559504483742678 -1.0805893042799626 2.707878956898262 50 55 24
11.558754917214857 -0.8094127898037323 2.689328431393989 51 56 25
11.912924981499124 -0.9283145931291119 2.631540574763171 50 55 24
12.664872496522321 -0.11912140378585312 2.6902492552557034 40 48 12
11.834876975108529 -0.7038877458066283 2.488121683654394 49 54 22
12.051209656485144 -0.4510268140672738 2.611390475947985 46 54 20
12.051209656485144 -0.4510268140672738 2.611390475947985 46 54 20
13.325333922250469 -1.2620917491632293 2.766042335645303 52 57 26
12.809536158358156 -1.3140674061014255 2.6674827084878663 52 57 26
11.508148159787998 -1.018623646026776 2.526154085196847 49 54 23
10.817456318078133 -1.3513068174628935 2.4594311648977087 50 55 24
12.358007246707448 -0.9778908325901838 2.434676312341076 50 53 24
10.74881638350635 -1.379227753337321 2.329711913906508 51 56 25
10.931923724111378 -1.2569667986275528 2.3139438396531857 51 56 25
11.51451281942749 -0.8007927973928884 2.387980735079197 47 53 20
11.845718213896914 -1.4852717430975537 2.641776026446024 52 57 26
12.404093768725458 -1.8853567698850187 2.735775958472455 54 60 29
10.609995874439628 -2.340774676645355 2.4838746059918066 51 58 26
12.5429622289073 -2.6097744373456195 2.710735493365365 51 62 24
11.417761881446257 -2.340774676645355 2.5374407058427035 52 59 27
11.66612041914954 -2.0660206595264516 2.67074050325436 53 60 28
12.5429622289073 -2.6097744373456195 2.710735493365365 51 62 24
12.991386057170493 -2.7012045821235877 2.8378365066158 52 63 25
10.82162895331218 -1.7945888312317144 2.458956589544092 52 57 26
11.614685838581504 -1.7945888312317144 2.513297374528931 52 58 24
10.927244450776197 -2.166805078376203 2.3143373934440254 51 56 25
11.517298095623344 -2.126816719695053 2.525031354087507 53 58 27
12.355731614039763 -1.6480179572591447 2.5707434986260074 51 58 24
10.753015654037265 -1.7661505572316127 2.3293416135780998 50 57 25
11.374995483304879 -1.6379647458410804 2.4011443220013966 51 56 25
11.08534973892178 -2.2444434722961946 2.430200211630419 52 57 26
11.932360817379758 -1.8324965079428328 2.628636497441974 53 58 27
11.845288488348869 2.9026378093903142 2.6418424662095634 47 53 15
11.512935454651622 2.9382259740037653 2.525566221656032 44 50 14
11.348326140613795 2.964684720576223 2.4037193910645756 44 50 13
11.358755636270306 2.985101300012089 2.2799394890731035 45 49 12
11.14471260588813 2.7397801954887213 2.573906851653976 45 51 14
11.509628135398257 2.8393062646062677 2.388433119556879 43 49 13
10.723787280894573 -2.7359890506407454 2.0981402015218027 51 56 22
10.654543917910434 -2.641168479245662 1.996161783457174 51 56 25
10.815366066515349 -2.478090624088522 1.6074780186886475 50 55 26
11.076519043033771 -2.6052436445626705 1.6066127937103047 49 54 22
10.815366066515349 -2.478090624088522 1.6074780186886475 50 55 26
10.959705357321946 -2.416704346780044 1.9835833266806544 52 55 24
11.127994989092574 -2.555235487369555 1.9769697200958127 51 56 26
10.190594721212397 -2.262688926349874 2.1288903254815157 53 56 25
9.735572164657068 -2.195024136526461 1.8195262851771359 50 55 24
9.698192968085381 -2.262688926349874 2.041312015993936 50 55 24
10.135843316762925 -2.416704346780044 1.709028013840839 49 54 23
10.149787622606178 -2.2758238009396448 1.7088368875868538 49 54 23
11.55363933653531 -2.8926133848387323 2.5206070207782862 50 60 20
11.787145206935595 -3.0231152496018683 2.650953348973949 49 59 19
11.884854164354394 -2.849808415527611 2.6357786354979673 52 62 23
11.773861972640816 3.0793858416300868 2.6530694408756323 46 54 15
11.773861972640816 3.0793858416300868 2.6530694408756323 46 54 15
11.773861972640816 3.0793858416300868 2.6530694408756323 46 54 15
11.160468814565695 -2.6887589231463287 2.29528582852731 51 58 24
11.577407814709103 -2.801813436707519 2.3822090664373974 52 62 23
10.901327130351392 -2.521050822724438 2.316525906611595 50 57 25
11.214697987943234 -2.6927089665369532 2.5641948247758384 52 61 25
11.73880523295805 -2.7544268200976036 2.4988860238485278 51 62 23
11.492711487693635 -2.5561320633020292 2.528056341140328 52 59 25
11.492711487693635 -2.5561320633020292 2.528056341140328 52 59 25
12.064937831856376 -2.6927089665369532 2.6094525671841504 51 62 24
11.96359351987817 3.1012721988667256 2.348786333525389 46 52 12
12.072841532383562 -2.949456453821602 2.339909058502463 51 59 18
11.976666326130081 -3.064648041826994 2.347711433280643 48 56 16
11.284249907862273 3.1012721988667256 2.285618676919739 44 52 11
11.587631126285107 -2.8391860542043617 2.2631124169127257 52 59 20
10.822282672568539 -2.3435349044640557 2.3232933312969375 51 56 25
11.51012679561755 -1.2547327115466356 1.3426418398449813 46 51 27
11.059221948831649 -1.3417033548942574 1.4253038384873984 49 54 29
11.228246612198813 -1.8894092626636987 1.606128602041363 44 48 17
21.83852491761787 -2.8952053434192395 1.0638215572125205 25 25 1
21.450241057355857 -2.658806504645155 1.0537396420309055 19 22 0
20.325090611953655 -2.6825707407622366 1.2914920124577882 14 15 0
20.77070713198551 -2.637732781949607 1.297639690315945 16 17 4
20.962264196126227 -2.7294865817939375 1.147880134778546 21 23 0
20.816382706725573 -2.595005915139304 1.3968177067621792 8 7 0
20.816382706725573 -2.595005915139304 1.3968177067621792 8 7 0
13.363766575211919 0.2616636851360008 1.8277833060601032 0 2 2
13.042264449108927 0.36156620240432497 1.914638524275112 1 3 1
10.369135720091343 0.8474053809199139 1.9045288090243486 39 42 9
9.986563782924096 0.6891971048166404 2.141696605805794 41 44 9
10.09146651853831 0.5901576713099552 2.257337721871334 40 43 8
10.753184199136596 0.5901576713099552 2.3293267596726643 41 43 10
12.882541872389966 0.24222606470724742 2.280730933502808 23 27 10
11.355054510838196 -0.6471481077467325 2.169206331987475 52 57 30
11.281858298136855 -0.7984501720460305 2.17363655997889 52 57 27
13.150630225445552 0.029901252252182854 2.078775927324404 0 3 1
10.113548323599778 -0.7268806005098084 1.7093347035726165 35 41 18
13.613155068263868 -0.27307682629593566 2.3326467375243918 30 36 22
15.075072014405357 -0.22730387464036983 2.243781240708271 16 20 16
13.355863572859544 0.03620121208989506 2.3511895617783014 42 47 26
10.62198708683047 1.7504230725933474 2.2170592831532194 39 42 9
10.901960912044222 1.0775717466245889 2.0886487155506313 39 42 9
10.61773599517135 1.3946639098611062 2.217361331290198 37 40 9
10.621050140944737 1.3108588397828684 1.9975908688728572 34 39 8
10.72189311792039 1.0225199606768418 2.210049006596231 39 42 8
10.636522964285934 0.9292752992289888 2.1029246469927463 38 41 7
10.89846818410353 1.213797186174782 1.986045437353333 36 39 8
10.800933973288334 1.5189404164534372 2.0939856926140608 32 37 4
10.910058682950039 0.9892429867215898 1.98557710220774 40 43 9
10.34868734057718 1.0684352948148248 2.36705084481096 40 43 9
10.812895122738821 1.1974387766608527 2.4599506700348783 42 45 10
11.347782582259006 1.494496396696801 2.5464335428588845 42 45 10
11.423637522803025 1.2813313557454453 2.275076278498917 38 41 8
10.715057658780026 1.2445043022661821 2.332704148168512 41 44 9
10.2995278746194 0.4037858739507467 2.5239481794513408 38 45 9
11.438197594346388 1.80523869507741 2.53485716927407 42 45 9
11.936888224833929 1.640818175299682 2.4770406992589824 41 44 8
11.438197594346388 1.80523869507741 2.53485716927407 42 45 9
11.933698400929854 1.7504230725933474 2.3512576015524163 40 43 10
10.932451309636674 2.251160144040796 2.6051218881115705 44 50 12
11.700790878190016 1.6668870640184958 2.664952428242956 42 45 10
11.78722208629667 1.847075622052481 2.650941139930606 41 46 11
9.941197664493114 -1.9565156135775525 1.919492580005588 49 56 22
10.738269134072993 -0.8815907692239336 2.20891581398866 49 54 24
10.021980887580693 -1.2912506898116005 2.0249471756501913 51 58 28
10.03958955268489 -1.0927712950350874 1.8118424341223394 48 55 25
10.255569862190582 -1.0060198499191633 1.6094812477592007 43 49 24
10.281715926050863 -1.2569667986275528 2.2422657772348344 51 56 25
9.87832475800895 -2.0566422031756297 2.2751516316268425 51 56 25
10.568045469596667 -1.1436567755324518 2.220915136817258 52 57 26
10.394077280971578 -0.9491614654569724 2.007543753572739 50 56 28
10.249394390571311 -1.624082919751556 1.9085820920638155 50 57 27
12.664872496522321 -0.11912140378585312 2.6902492552557034 40 48 12
12.051209656485144 -0.4510268140672738 2.611390475947985 46 54 20
11.834876975108529 -0.7038877458066283 2.488121683654394 49 54 22
11.47829894354415 -0.5879835401430723 2.5298416808787128 48 55 21
12.75585989777854 -0.29329530468494824 2.6757497102396455 42 51 15
12.051209656485144 -0.4510268140672738 2.611390475947985 46 54 20
12.40045362935154 -1.2620917491632293 2.736459704029168 51 56 25
12.75585989777854 -0.29329530468494824 2.6757497102396455 42 51 15
10.65678896210673 -1.5075421708754357 2.3379339449217307 51 56 25
10.914842887468025 -0.9778908325901838 2.31538276016955 50 55 24
12.093835013342892 -1.156867430138746 2.605408305458843 50 55 24
12.093835013342892 -1.156867430138746 2.605408305458843 50 55 24
11.006259607137649 -1.9320496761382235 2.4385778162503593 52 57 24
10.82162895331218 -1.7945888312317144 2.458956589544092 52 57 26
11.2524689773802 -1.9891765606597782 2.559062428299907 52 57 26
11.932360817379758 -1.8324965079428328 2.628636497441974 53 58 27
12.73359380793088 -1.6616005029072338 2.6792399424858426 53 58 27
11.671962834261729 2.796295366732162 2.5065738834956526 44 50 13
11.358755636270306 2.985101300012089 2.2799394890731035 45 49 12
11.358755636270306 2.985101300012089 2.2799394890731035 45 49 12
11.260234792030646 -2.7359890506407454 2.1749589617574934 51 57 23
10.976334597353992 -2.8391860542043617 2.1929248652064306 50 57 19
10.740513286418919 -2.4266166630117163 2.2087608657391717 51 56 25
10.844143537712204 -2.496373762869829 2.0916888772631608 51 56 25
10.77213992442951 -2.555235487369555 1.8915868188605054 50 55 25
11.104619760462915 -2.641168479245662 2.0782818926458093 51 56 25
10.861070646288285 -2.6864763472273885 1.7932905511035455 49 54 22
9.914220607641571 -2.345457008249163 1.920481999339855 50 55 24
11.298108795797505 -3.064648041826994 2.284554494113406 47 53 14
11.439433952847562 3.0889147656832505 2.53470146968891 45 53 14
11.884854164354394 -2.849808415527611 2.6357786354979673 52 62 23
11.400010032463314 -2.949456453821602 2.2768385317332553 48 56 16
12.064937831856376 -2.6927089665369532 2.6094525671841504 51 62 24
12.274115979871741 3.0889147656832505 2.5811831861642585 46 55 15
11.587631126285107 -2.8391860542043617 2.2631124169127257 52 59 20
12.037057219192192 3.095913926625039 2.466489325097273 46 55 13
12.050050326728687 -3.054458033472053 2.4651436293947357 49 58 16
12.145644456153052 -2.92463972253591 2.455398682140711 50 60 20
17.719034511560235 -3.035229352625412 2.0644842588283754 22 24 1
12.286858405057416 -3.0411674974142424 2.579532695636826 50 58 18
10.758550393243231 -1.5253200688825994 1.7009802012763315 52 57 26
20.586540009788095 -2.6124930654492617 1.1925012634380894 19 19 3
20.964798127636815 -2.6825707407622366 1.1996619091602825 18 21 1
21.529445092664275 -2.778407493782999 1.055830427665956 24 24 0
20.322618497976002 -2.637732781949607 1.3925458838117402 10 10 1
21.01257992410933 -2.595005915139304 1.3499284216585847 18 17 0
13.56466646072215 0.28329165428856123 2.06186223620353 0 2 2
10.382766713343614 0.7030424921115397 1.9040736797502922 38 40 12
13.214617245604009 0.11645136029097933 2.0760822803186394 1 2 1
13.605723209887651 0.027507529258499915 1.9786550691572393 0 2 0
12.102874763736372 0.14071111155539973 2.228305366213716 0 1 1
12.901530149952812 0.12744315060391942 2.1813420867722955 0 2 4
11.252550093137755 1.7504230725933474 2.2880663974183566 38 41 9
9.679419667193462 0.7693792549174722 2.4405362418809444 40 43 8
11.248537308865476 1.3946639098611062 2.288377604481788 40 43 10
11.434868658602438 1.9007611707804766 2.3954329011347655 44 45 9
11.293741141628932 2.3755554606218707 2.553538384565287 46 51 14
10.075442241210961 0.8946338171894732 2.5559852370473464 41 44 9
11.36686083573602 2.1526462052507913 2.543959070656202 44 47 12
10.572005867453667 0.5474338800697593 2.488540706673839 39 45 10
9.91654253700667 -2.103609862016302 2.0301444522951977 50 55 24
10.775757085802889 -1.6302248698729451 2.206338224071968 50 57 27
10.262407423250357 -1.8255875542412199 1.806508525745738 51 56 25
9.685975605764071 -2.166805078376203 2.1617580200137114 50 55 24
10.960837337359795 -1.1359911626632455 1.3309895079268104 42 47 21
12.321990297301342 -1.680957473292621 2.751574830220128 54 59 28
12.031227719822244 -1.0884926488126285 2.4670947677197246 51 54 25
10.26374573992987 -1.9320496761382235 2.3755453756893523 51 56 27
12.320768951256374 -1.4670250189515677 2.7518160464371775 53 58 27
10.753015654037265 -1.7661505572316127 2.3293416135780998 50 57 25
11.614685838581504 -1.7945888312317144 2.513297374528931 52 58 24
11.921764255790462 -2.217408215728947 2.6302167845220517 52 59 27
11.492095905340873 -1.8853567698850187 2.70141782755483 53 60 28
11.14471260588813 2.7397801954887213 2.573906851653976 45 51 14
10.97805016596431 2.9026378093903142 2.5981772798840357 46 52 15
10.587652183722001 2.5965877737043828 2.48661146673337 45 50 14
11.470445474952305 3.105505851097217 2.162363383758774 44 50 9
11.722443970338034 -2.531152473782196 1.4335890269064948 47 52 23
10.912183860882266 -2.5868706203759815 2.1971471304080885 50 57 25
10.744448014247126 -2.7747073283107726 1.8924432999696057 49 55 19
11.070622882398903 -2.478090624088522 1.7890101899115913 50 54 24
11.239183277717705 -2.6301635125152716 2.414463851847342 52 59 25
11.73880523295805 -2.7544268200976036 2.4988860238485278 51 62 23
21.37087842142194 -2.8952053434192395 1.104739920180474 26 26 2
11.417610440599283 0.5894767149276854 1.6055423697903735 39 42 25
13.860245903121951 0.20128778449600462 2.1337169270467875 1 2 2
10.555495716062982 0.7743735586410334 2.1074503459980853 42 44 9
12.901530149952812 0.12744315060391942 2.1813420867722955 0 2 4
15.075072014405357 -0.22730387464036983 2.243781240708271 16 20 16
10.436814429826924 1.7315469475415544 2.0056330765661468 31 34 1
11.293741141628932 2.3755554606218707 2.553538384565287 46 51 14
10.463481209398374 0.7693792549174722 2.5022207363298055 39 45 9
10.99968384319533 2.0172267570436655 2.3082979940929995 43 45 9
11.783391383724979 1.2997380959558091 2.6515500193023547 42 45 10
10.212422313530938 -1.5148330742022729 2.127556533733222 50 57 27
10.25507286361523 -1.3189261151507479 1.8066803068587491 50 57 27
9.515489580808831 -2.103609862016302 1.9358064150133136 50 55 24
10.28903149313552 -1.888178089030003 2.241700903656361 50 57 25
10.31279613795382 -1.744060387911778 2.1215096527740123 48 57 23
11.51451281942749 -0.8007927973928884 2.387980735079197 47 53 20
11.276872255916315 -2.0566422031756297 2.410715503294507 53 58 25
10.726017831892404 -1.4980708278428987 2.469995603070106 51 56 24
11.358755636270306 2.985101300012089 2.2799394890731035 45 49 12
12.064937831856376 -2.6927089665369532 2.6094525671841504 51 62 24
11.587631126285107 -2.8391860542043617 2.2631124169127257 52 59 20
11.577407814709103 -2.801813436707519 2.3822090664373974 52 62 23
11.072583699939742 -2.440403547491978 2.4315388437439194 51 58 26
10.766756024988563 -1.4323406718403322 1.6076437050078776 50 55 29
20.223824269404588 -2.7294865817939375 1.2381831836581716 19 21 1
10.991854035524444 1.716235372119968 1.8849524608977166 32 35 2
10.621050140944737 1.3108588397828684 1.9975908688728572 34 39 8
11.253258723290203 1.3712742137032141 2.4130592009639047 40 43 8
11.5744458034533 2.6628247983587197 2.686546135877247 46 53 16
11.16197949568217 1.632448499315558 2.2951660517461576 38 41 10
10.343591769805304 -1.418213915023223 1.9053851285090908 50 57 27
12.242862585126101 -0.8041601782147262 2.5852645226293416 49 54 23
11.348326140613795 2.964684720576223 2.4037193910645756 44 50 13
21.51970723116581 -2.8817471324111876 1.0013129065951654 27 28 4
11.08534973892178 -2.2444434722961946 2.430200211630419 52 57 26
10.167507005901905 0.872531940350297 2.385435295576889 39 42 7
11.47829894354415 -0.5879835401430723 2.5298416808787128 48 55 21
12.037315807411021 -0.8815907692239336 2.342769728311305 49 53 23
11.397001916699606 2.5965877737043828 2.5400847153575303 46 51 16
10.764679192086836 -2.345457008249163 2.0959294257933325 52 55 24
11.095011714938424 2.0767946648238906 2.429190492662391 42 45 10
11.849361870205778 -0.9004077246949934 2.486526861471845 49 54 23
10.276740600075392 -2.166805078376203 2.2426505530402046 52 57 26
