12.30207943908087 1.5959143804168217 1.6226907248410747 17 29 6
12.724631572868342 1.8339398317047773 1.5423533583425404 21 32 12
14.674247561082439 2.2055798028133906 1.2689881943268377 9 15 5
13.228033503389891 1.9081949399108764 1.391282823221787 23 32 14
13.031101464874437 1.9081949399108764 1.6197851106806829 23 32 14
13.81186387900037 2.045310007578439 1.5445928458468967 17 24 12
13.586683998768962 1.9787790861854786 1.396070982240142 24 33 18
13.510927606548044 2.145642625630361 1.469826628704076 11 17 6
13.289055300274159 2.250454477017773 1.4681349540073048 12 18 8
11.423680076674152 1.3425552151694184 2.4282202943753526 31 38 15
12.46954974235225 1.3077670693067254 2.5927483833837615 36 41 17
11.815088406541113 1.1659971435331002 2.524815760739654 31 38 13
12.629756935708894 1.6769415518725213 1.7812274113330355 20 30 7
12.824536587310645 1.8339398317047773 1.6988797141685825 23 33 12
12.409685403622163 1.514556700918201 1.7031862713149306 44 58 33
12.414389886477752 1.7726392481204851 1.953692597451294 25 35 12
12.267842701057182 1.6862701555964466 1.958508690015285 22 32 9
12.183888839153921 1.8821244482161703 2.051893735748145 28 38 15
11.798852648188353 1.6973868393877531 2.0690058218671457 26 36 12
11.98669528857047 1.4874983380457452 2.3755249714756763 30 37 14
11.970713247615473 1.608036909159382 2.376913709548208 35 41 19
12.099331519419444 1.4761230356887496 2.4924180701229277 34 39 18
12.024350975452158 1.6040277570078285 2.2590912026792394 28 37 13
12.038068257500274 1.7275075356355494 2.3710993328646603 34 41 18
12.024350975452158 1.6040277570078285 2.2590912026792394 28 37 13
12.467411580903814 1.9132165751131167 2.2302017291499436 32 41 19
11.7337919119259 1.9229828045857604 2.5346555290121575 37 43 21
13.096618012701976 1.8778098968682146 2.5188470932265425 38 44 22
12.298177034162995 1.8778098968682146 2.471402142574731 37 43 21
11.525213121048148 1.4611639078026717 2.5612305353214007 35 41 18
12.150228254975913 1.7486046028093172 2.486918222115042 36 42 20
11.485899315658335 1.7108564528932837 2.1869944201489337 30 40 17
11.43204529636943 1.496437799246902 2.190334490393141 25 36 12
11.881081875007798 1.9132165751131167 2.163630289106523 31 41 18
12.61249597334578 1.9356100079572962 1.863407939449597 25 35 15
12.744250522735609 2.010606068061148 1.7793088950755327 25 34 18
12.129669437458968 2.0474097716344644 1.8754217159493445 29 38 22
12.14326775021471 2.1677547850337184 1.9627018009466985 32 41 24
12.087931375749172 2.0903289529702755 2.0560420762716056 32 42 21
12.720480104115287 2.188757423714837 1.6999333051466858 26 35 20
12.087931375749172 2.0903289529702755 2.0560420762716056 32 42 21
11.683363095839406 2.005397553574525 2.0743909537455956 32 42 20
11.839421900126032 2.2217762219666772 2.067142750131814 36 44 24
12.614669609362203 2.357816711180889 1.9473060187697966 34 41 22
12.73344749353337 2.3009309766507635 1.7794884092267367 27 35 22
12.691574503149862 2.237819635899537 1.9449113888631773 34 42 25
12.466159218822849 2.0474097716344644 1.952020520289963 30 39 21
11.843967363088655 2.494233899564763 2.066934919558615 36 42 20
11.812874480683348 2.2007427759998515 2.2739060905632402 37 44 22
11.398547792626076 2.1050913236132014 2.305134583330415 38 44 22
12.29694845058487 2.4316139314923535 2.2409924109079227 36 44 21
12.061930919716676 2.0505153478592186 2.256531410218781 36 44 21
11.702080848692077 2.4316139314923535 2.173971262154622 37 45 19
12.670169998037712 2.27243318000044 2.4351779533824924 36 44 22
11.867225632834346 2.140820566620927 2.1644170762870383 36 44 23
11.73021012091184 2.3583321015025898 2.279894604928761 36 44 23
12.670169998037712 2.27243318000044 2.4351779533824924 36 44 22
12.197426705507924 2.005397553574525 2.146259224537441 34 44 21
13.084049108383521 2.1719939008069242 2.5201861486322037 37 44 24
12.267924923171087 2.3580390820424983 2.1425359096645797 38 45 23
11.171918627290243 0.25672326828946707 2.207041209618222 23 28 3
11.173747396299518 0.8592872666767248 2.6111209201475933 32 37 11
11.315168064290772 1.0995104293687952 2.590184846294411 33 38 15
11.02038137795065 0.569219741796622 2.33656399730192 28 33 8
10.443462904184635 0.6449680552678589 2.391137194364063 28 33 8
13.201825200735382 2.1304200756530065 2.6499403809588635 39 45 23
11.345319615007451 2.575345025144954 2.0908835274997477 37 43 19
13.299863941132006 2.941160995690471 2.6363473256055165 35 47 25
13.433155496154276 2.794555610571665 2.6186893817290056 35 47 25
13.10688877241442 2.8389921235793802 2.5177566289690283 37 46 27
12.795964493076735 2.661924413619392 2.5523565314085914 37 46 29
12.789375053918393 2.98854318293459 2.4243239041087583 39 48 32
13.487227303874244 2.255073748430562 2.6117756360522266 39 45 25
12.67229394243748 2.4445655713077024 2.4349815589325123 37 45 23
11.464259088246921 2.66575688960336 2.1883318417752973 37 45 27
12.831245448042068 2.611650139075025 2.420590789696448 37 45 24
12.289171983185083 2.5453026604440665 2.4723272296936734 37 45 23
13.12790975803591 2.3593274682517027 2.6605599270244458 39 46 24
11.817430154864686 2.5158162000079654 2.2735793749901214 38 44 23
13.141335005708626 2.765428682666639 2.3941363012760415 37 46 30
13.317425390205106 2.7195591061298323 2.4961145612305824 37 46 30
12.533059244121677 2.7195591061298323 2.4480966237638957 37 45 27
13.63865654362981 2.661924413619392 2.593114212528202 36 45 24
12.434232418835014 2.941160995690471 2.597410909128031 36 48 27
12.107931783300774 -2.937650206835396 2.3651727099583506 39 47 28
12.388848388092205 -3.0282107262073596 2.6034952878439963 37 47 24
12.926742671637504 -3.043617466727078 2.537388725174512 38 48 26
11.60872436277186 -2.8253942168449373 2.2889081850324224 35 43 23
12.0068854329631 -3.0553472037753675 2.3737787081339254 40 47 28
12.745255697996697 -3.0553472037753675 2.428301618293096 38 46 25
12.926742671637504 -3.043617466727078 2.537388725174512 38 48 26
12.728111742853049 3.1077076958454217 2.429859692357136 38 47 30
12.728111742853049 3.1077076958454217 2.429859692357136 38 47 30
12.371210535528496 3.096977692952953 2.605888841334087 38 48 26
13.46988723691905 2.360278258178698 2.7883331834472322 36 46 23
13.747768833761757 2.2286869271439698 2.737057234114448 37 45 22
13.545910385045273 2.654576915403585 2.773413811483842 36 46 22
14.022063315437933 2.3593274682517027 2.69356355496522 38 46 23
12.47565713864013 2.4145081422792325 1.621968066592259 23 29 18
12.694225341123957 2.5266050624836627 1.4633062240816155 34 39 25
12.077098835689512 2.5943177063992704 1.5408278985717079 37 42 30
12.365576020983141 2.4777673104592943 1.8694290808673633 35 41 21
13.407378445698114 2.3576421871094184 1.768855142797172 31 37 24
12.979628502462992 2.4145081422792325 1.8548975433950983 36 42 25
12.557013609168376 2.8591589162838433 1.2160357794511367 33 38 27
11.821190318311647 2.6681097585329434 1.369642208973526 37 41 27
12.009624506822487 2.8591589162838433 1.3728406025125366 34 38 28
11.98183315203613 -2.8239193360280357 1.456888295153638 37 43 33
11.775729067180293 2.9425029270775873 1.3688549257996259 37 41 31
11.636316273696078 -2.905687858292237 1.5396923378015726 43 49 41
11.600399801851324 2.6681097585329434 1.6258327716496617 39 43 26
11.46214440405521 3.0287402786944386 1.4516997370277922 38 44 37
11.574883924684755 -3.0781545599380618 1.3653011553609016 42 47 38
11.948304456051197 3.0287402786944386 1.8801978167292825 40 45 36
11.307423532116992 3.1142781758637086 1.9934519677223006 41 46 37
12.763580257058496 3.0047685238190205 2.3141747995635154 39 45 33
11.326718024363311 -3.072019599668417 1.992685953454624 39 46 38
11.9691538299147 2.923769461377728 2.0612820406741124 38 45 36
11.449144854441686 -3.0781545599380618 1.71436720014528 44 50 42
11.874657909986967 -2.9764190122586536 2.0655364381742913 37 44 33
11.555069544003278 -2.990794255488767 1.7130421023713045 47 53 46
11.874657909986967 -2.9764190122586536 2.0655364381742913 37 44 33
12.255448653663974 2.9012193079167345 2.2436791123271864 37 46 34
11.626176058402171 -2.8837628318859547 1.9811546420743502 36 42 28
11.9691538299147 2.923769461377728 2.0612820406741124 38 45 36
11.500600736533029 -2.7615554554222945 2.083168201758164 37 45 29
12.255448653663974 2.9012193079167345 2.2436791123271864 37 46 34
10.764376273099172 -2.672453099117331 1.818397496905911 44 50 36
11.770628026081804 2.8333947249118916 1.9758216762976417 39 44 33
11.89466529276107 2.8026563845387638 2.1628611759621803 39 46 33
11.281942866305059 2.747925259607555 1.7165100409281653 40 44 28
11.664353555823665 2.6254913108229188 1.9797311373847941 39 44 27
12.087637066838946 2.747925259607555 1.9646045991754493 40 45 32
14.210518948686845 2.045310007578439 1.3319553258688275 22 29 19
12.473499711650287 2.3009309766507635 1.621976925034807 23 29 18
13.139703499956429 2.0806660529767678 1.3900627990090122 5 12 1
13.234480752480478 2.250454477017773 1.6190316924763088 18 26 14
11.628130794327234 1.3077670693067254 2.5478678447006295 34 40 16
12.30682505612493 1.856066488047416 1.8708989909454081 26 35 15
12.201756136814195 1.5981397694967276 1.960721557418771 15 25 2
11.951152058661975 1.7916650922267185 2.0620865850523185 27 37 14
11.730124129695398 1.6007976875813577 2.072195853090558 22 32 7
11.508590235175614 1.6198771265103278 2.563437117137034 36 42 20
11.970713247615473 1.608036909159382 2.376913709548208 35 41 19
11.578633810462208 1.7761734470681816 2.5542313432278276 35 41 19
11.43204529636943 1.496437799246902 2.190334490393141 25 36 12
11.881081875007798 1.9132165751131167 2.163630289106523 31 41 18
12.083498455845307 1.6131454754084396 2.4941466172023348 37 42 20
12.04026181880021 1.496437799246902 2.2580048138514677 24 34 9
12.150228254975913 1.7486046028093172 2.486918222115042 36 42 20
12.988154849448886 2.010606068061148 1.8547058592731012 26 35 17
12.559267361610722 2.1677547850337184 2.0363541094703326 32 41 23
12.97755485742931 2.3009309766507635 1.8549442015163724 33 41 25
12.074270742096305 1.9676192605549592 1.9650646204597058 29 39 19
12.559267361610722 2.1677547850337184 2.0363541094703326 32 41 23
12.559267361610722 2.1677547850337184 2.0363541094703326 32 41 23
12.284791250305227 2.1719939008069242 2.47277814377827 37 44 23
12.670169998037712 2.27243318000044 2.4351779533824924 36 44 22
12.404598924905162 2.3583321015025898 2.3411157412335846 37 45 22
12.769238945342579 2.005397553574525 2.212006697826066 33 43 20
12.091448911846609 2.1050913236132014 2.366561576864537 37 43 21
12.30045923437742 0.21025428416264322 2.0469530761221915 44 49 23
10.721906274245052 0.739759832071959 2.50757117081039 31 36 10
11.158967689035212 0.8445083641698681 2.4560836574370564 28 33 10
11.325564368659336 0.4032770855360308 2.310967482015625 28 32 6
12.98734295054892 1.9828629951980212 2.6817282004445064 36 44 23
12.834519971527389 2.2286869271439698 2.706385776235703 39 45 23
12.42652166638948 2.765428682666639 2.3394053870357885 37 45 30
12.727204188527958 2.66575688960336 2.3168054784354353 37 45 26
13.009464518378698 2.358735796068408 2.528238250262424 37 45 24
13.489222599198724 2.4628674529965657 2.6115231294372325 37 44 22
12.927931002330826 2.8735856629605254 2.412121648370206 38 47 30
13.009464518378698 2.358735796068408 2.528238250262424 37 45 24
13.63865654362981 2.661924413619392 2.593114212528202 36 45 24
12.48710937215339 2.5158162000079654 2.3347241915282186 38 45 23
12.927931002330826 2.8735856629605254 2.412121648370206 38 47 30
12.970244699357323 2.967995779728972 2.5325471310798404 37 48 28
12.85570959290168 2.904696310293193 2.7028540547804965 36 46 22
12.993558206598404 2.7356593343596582 2.6807633557234127 36 46 22
12.745255697996697 -3.0553472037753675 2.428301618293096 38 46 25
12.840492867334993 -2.937650206835396 2.4197717107474483 37 45 23
13.24096277169402 3.096977692952953 2.644448945082829 38 45 22
13.747768833761757 2.2286869271439698 2.737057234114448 37 45 22
14.360897302667034 2.4628674529965657 2.646736655376529 37 45 22
13.35576923097624 2.3576421871094184 1.393018116585979 14 20 11
12.566553467356043 2.4145081422792325 1.7015241097885643 35 40 26
12.149914798322357 2.547963466528761 1.9624757095694834 37 42 24
11.535507773499228 2.547963466528761 1.8015341223506294 38 43 28
11.931260634010213 2.4777673104592943 1.7085280589959353 36 41 25
11.393746908202663 3.11669251081698 1.4509813610009439 42 46 38
12.168426830659888 2.779652265425836 1.4586424079807914 38 42 28
11.355017316165926 -2.7123433697091666 1.6270233535698408 27 32 21
12.264188393395814 3.1142781758637086 2.142731954471871 39 46 35
11.882705653312147 3.11669251081698 1.8819630500555444 42 47 38
10.663551344984118 -2.7615554554222945 1.9189614822907637 41 47 33
12.281979938815573 -3.072019599668417 2.1417997729744793 38 45 36
12.199341340228091 2.8333947249118916 2.0512326414647335 40 45 34
11.948304456051197 3.0287402786944386 1.8801978167292825 40 45 36
11.304021358270711 2.6254913108229188 1.8984719631042049 39 44 27
11.080430902662593 -2.795412283629243 1.719179475259766 42 47 35
11.751738085891645 -2.857465751659905 2.17106359628898 38 45 30
11.05206051177228 -2.672453099117331 1.9062318726722498 34 42 23
11.819363674619938 3.0178993051970555 2.068062054978318 40 45 36
12.163177166252591 -2.959047914595412 2.249739608734309 39 45 31
12.893791051779798 3.0178993051970555 2.204815562983586 40 45 34
11.664353555823665 2.6254913108229188 1.9797311373847941 39 44 27
11.264622707128193 -2.8837628318859547 1.899661127539112 39 46 38
12.163177166252591 -2.959047914595412 2.249739608734309 39 45 31
12.36762993629157 1.6769415518725213 1.6224154306873892 19 31 8
13.446985156398359 2.145642625630361 1.543881655095265 13 21 7
12.792185257344505 1.8339398317047773 1.4641325093044093 22 31 13
12.085683771530613 1.3693270252877783 2.367048714928054 26 34 10
11.613929342759189 1.2167502917655373 2.4094930617967227 29 37 13
12.091407200837144 1.7108564528932837 2.254538457695797 32 41 17
12.29694845058487 2.4316139314923535 2.2409924109079227 36 44 21
12.401170212717144 2.2938587682423646 2.042769243693086 36 43 23
12.346989752008367 2.2217762219666772 2.1384211236320763 36 44 25
13.029074721361843 2.0806660529767678 1.6968581788373163 20 28 13
12.061930919716676 2.0505153478592186 2.256531410218781 36 44 21
12.565573943894796 1.5959143804168217 1.7823185392151781 17 28 4
12.629756935708894 1.6769415518725213 1.7812274113330355 20 30 7
11.702080848692077 2.4316139314923535 2.173971262154622 37 45 19
11.77225658368851 1.9972779200039046 2.3946500305166847 37 43 21
12.294759664669293 2.2847143622666892 2.2411335174056815 36 44 23
12.361222365202721 2.237819635899537 1.8695375043327773 30 38 23
12.187378679922716 1.8426508973146676 2.358558032584362 35 42 20
11.981928209688535 2.421968614944866 1.9682732136836472 36 42 20
12.772152205900381 1.7565963450135313 1.7788466886396823 23 33 12
13.11814965591064 1.9081949399108764 1.6959976764104707 23 32 14
10.884380671030822 1.0096118596026626 2.658366016348644 34 39 14
11.65468549553708 0.5079543360561546 2.2854677179298535 28 33 7
11.325564368659336 0.4032770855360308 2.310967482015625 28 32 6
13.24096277169402 3.096977692952953 2.644448945082829 38 45 22
12.576701538036279 2.794555610571665 2.5789707891110685 36 47 26
13.205901733675635 2.58791267337505 2.649364251798326 36 46 23
11.874027209573363 2.575345025144954 2.1640305865440403 38 44 24
13.749726320582305 2.4906725457513286 2.736724849707666 36 46 23
11.02291494393496 2.6254913108229188 1.812472837633461 40 45 24
11.694875080608407 2.7104798772328227 2.0738486720952523 40 45 30
11.740303439545466 2.747925259607555 1.8858664831216307 40 45 32
11.065939203934953 -2.9764190122586536 1.905794686493559 39 46 38
13.39502583437045 1.9787790861854786 1.6184531303700238 25 33 19
11.815088406541113 1.1659971435331002 2.524815760739654 31 38 13
12.183888839153921 1.8821244482161703 2.051893735748145 28 38 15
11.92715233289821 2.27243318000044 2.3807281173187023 36 44 22
11.756944199644165 2.3580390820424983 2.0709459011114184 36 42 20
12.415688092225652 1.9508757116787492 2.3402494847493425 34 42 20
11.415286740763086 1.6040277570078285 2.1913819342202085 26 36 12
10.776811754899077 0.9607957773428051 2.5006745410663784 30 35 12
12.42652166638948 2.765428682666639 2.3394053870357885 37 45 30
12.795964493076735 2.661924413619392 2.5523565314085914 37 46 29
12.745255697996697 -3.0553472037753675 2.428301618293096 38 46 25
12.909839729058232 3.103075663444765 2.5392879886329744 38 47 28
12.789375053918393 2.98854318293459 2.4243239041087583 39 48 32
11.266008636272241 -2.7207917578542378 2.200885591553849 35 43 24
12.241820212887365 -2.990794255488767 1.206481093812656 45 50 41
10.977235716776079 -2.795412283629243 1.628960555479059 43 48 37
12.108802647130513 2.779652265425836 1.6235198087534182 38 43 30
12.044477997826275 3.1113455374830843 2.257717577175269 39 46 33
12.066992410288075 2.8591589162838433 1.791199473271491 36 41 30
11.815088406541113 1.1659971435331002 2.524815760739654 31 38 13
13.425139203986271 1.9229828045857604 2.6197262033618673 38 44 22
12.599444129707678 2.1211374718623257 1.8637200304196144 28 37 21
12.240066985603283 1.814572523623632 2.2446810209225534 32 40 18
12.42652166638948 2.765428682666639 2.3394053870357885 37 45 30
14.539166670352762 2.3065631465695793 1.2660944802531027 9 14 5
13.061043870885747 2.5266050624836627 1.3104685427636056 28 33 21
12.096498051325819 2.9425029270775873 1.87628402185724 36 41 31
13.031236833784934 2.923769461377728 2.1970820823556374 38 45 34
12.062593606222704 -3.0645736006380404 2.2564864618218428 40 46 33
12.471442916165614 2.923769461377728 2.132071067940279 37 44 33
12.636569207016509 2.4628674529965657 2.57150211507487 37 45 23
12.501965323485694 1.7565963450135313 1.5418466345344248 20 32 11
13.200787703990384 2.4145081422792325 1.2340419157941172 16 21 11
11.642293365357176 1.814572523623632 2.177512872859254 30 40 16
12.414389886477752 1.7726392481204851 1.953692597451294 25 35 12
