12.06223943966408 1.5367498691583044 1.8108190879323751 54 54 24
11.872867476226673 1.6220912772123937 1.7287430157935835 49 49 21
12.19052493820889 0.8059684447029534 2.072951577239766 63 67 43
12.178461366472709 0.6199823215812915 1.8939602097961545 61 63 49
11.800519215951764 0.6740577545007538 1.9959724490806858 62 64 45
13.786557996973405 1.032230372182248 2.0104158344432252 63 62 42
12.246927741993472 0.6740577545007538 2.0704244471460993 64 66 48
11.472181418538785 1.4409179955864355 1.9146516245060674 57 57 27
11.59565686158003 1.328590629049119 2.1013463025872703 58 61 36
11.430730738291585 1.4277152856402022 2.109831980821503 60 61 35
10.772183903918489 1.3020383034784968 2.1468148450279445 58 63 37
10.995318300506717 -1.5278935354669563 2.133689876051136 81 81 79
10.87801577362547 -0.6428320466876257 1.8375531776127172 87 87 93
10.345161163882409 -1.3181090166745857 1.953948108386437 90 90 91
11.224678041739717 -1.166834354937027 1.6481578843974731 88 88 90
10.196779378319155 -1.1817212585500356 2.068439487688728 88 88 87
11.409694414334435 -1.4475286729351047 1.6469009635944762 92 89 92
11.465442694399238 2.056814422241294 2.1080221354115514 57 62 37
11.45219243620285 1.8951739216633 1.7345963894274354 48 50 24
11.779245568841034 1.6268712687093951 1.996790361730862 57 57 29
11.36073499078982 1.6326324153848117 2.113521192837524 58 61 32
10.745621664460218 1.925955161824513 1.8409216216804623 51 53 27
10.978782324976196 1.7342307385508693 2.0301339794235997 57 59 33
11.054563325038185 1.925955161824513 1.9282124921550934 55 57 31
11.054563325038185 1.925955161824513 1.9282124921550934 55 57 31
11.3879475669485 1.8090637562899339 1.8253367399571825 50 52 26
10.725533282167623 2.1088644301814305 2.1496424085512107 58 63 37
10.336088091104358 2.0077785497320852 2.1744698385992796 60 65 39
11.103182222585387 1.6268712687093951 1.8320155795651956 53 53 25
10.987328648356268 2.056814422241294 2.029749280316087 54 59 34
10.863380317591169 1.7192045483794463 1.6507362050769852 47 47 19
10.607499406890124 1.9628597983901939 2.0475224273633046 56 61 36
11.67991160664886 1.8090637562899339 1.9082902737199636 53 55 29
11.498608088778168 1.7192045483794463 1.9138287872288808 54 56 30
11.402440125670411 1.6268712687093951 1.916842630929977 54 54 26
10.62305674931207 1.7526051841291552 2.155959751073303 59 64 38
10.527112583944087 2.2663954030412685 2.162010614864002 58 65 33
10.516802485697946 2.4284856392640686 2.162668881607366 56 62 37
10.700674090688816 2.1990962332983637 2.043030645164816 57 62 37
11.861262436522011 2.5316476068343663 1.7288988505316087 21 25 11
10.009186906613094 2.5218918752913444 2.197170002959929 57 63 36
9.379844101673491 2.4424441766489258 2.2466232207923373 58 65 33
12.11232683671869 -2.5615957140198953 1.8957893832081694 56 61 52
11.588014097954545 -2.7213561821103465 2.004291736309848 55 61 47
11.261203706804158 -2.6788981855993725 2.1188606192171298 59 65 47
10.699303885903932 -1.6291511335807913 1.8421205036302104 91 90 92
11.479274270745025 -2.450277775833995 2.1073045617889505 57 61 51
11.428772092612892 -2.438494289632856 1.734935099823269 62 66 60
11.220791034221548 -2.113347439896273 1.8292146767827964 73 73 71
11.452164801097878 -2.30662425072122 2.1087129046147997 60 64 49
11.280965696332972 -2.312854459035808 1.6477711140398696 57 60 53
11.678843989645218 -2.5901641991241755 2.09717271315997 60 65 52
11.42972125164729 -2.1885620434699455 1.6467673578170845 55 58 49
11.150249877029914 -2.0774732143459924 2.1249463733058014 58 63 44
12.646839623373172 2.6475539024616754 1.8815822957231365 46 50 35
12.184932570851455 2.6475539024616754 1.7246652204576955 9 14 2
12.377704436112504 2.6475539024616754 1.804586201920308 32 34 25
18.40487631026779 -3.012195215396163 1.8384481065696754 54 59 76
18.16602561499609 -3.012195215396163 1.7853353248606716 45 51 67
18.555865919018416 -2.956786803703771 1.8362173559737212 143 148 162
11.637980587228135 0.7285431702080651 2.3131426155119286 67 69 46
12.121244640258189 0.7365890116308144 2.1731295485860995 65 67 47
12.21639247031966 0.6572435224958899 2.270526287667602 67 70 51
12.21639247031966 0.6572435224958899 2.270526287667602 67 70 51
11.827239766143107 0.5110603648818611 2.1903237791360644 65 68 54
11.884246500521352 0.26108414395296003 2.5504425128062427 67 73 51
12.472205833323066 0.5668554127358373 2.3616875911846416 67 71 52
10.958148454092234 0.1104527161524666 2.513610225576988 67 73 51
11.822857601022877 0.3120806370534788 2.2988896794215252 66 70 56
12.331826258445624 0.5253892620014865 2.498366178503412 68 72 50
12.129987896000161 0.4647544994401814 2.39063956213843 68 72 54
11.862432059465839 0.35105789186697434 2.415128026074884 68 73 55
12.335634962658181 1.0158968343583634 2.161228205013175 61 64 40
11.931899978283885 1.1031155429395056 2.1840818615018343 60 64 39
11.600542411955875 1.1987349175233046 2.2043314519599733 59 64 39
12.335634962658181 1.0158968343583634 2.161228205013175 61 64 40
11.931899978283885 1.1031155429395056 2.1840818615018343 60 64 39
11.664658216175152 0.8932353339157862 2.311046489047197 66 70 45
12.26717421788123 0.9598904291854935 2.2670465129499004 65 68 44
11.861109157733353 1.0523047281918143 2.296018335179535 63 68 42
11.89620125633692 1.033856918938184 2.5489470266129763 66 71 43
12.219544065612926 0.914354734411002 2.51072707494226 69 72 49
11.958326965406199 0.9904969501500496 2.4061485698926512 67 70 46
11.627722518678242 1.1019165072370718 2.4381447852876774 66 71 43
12.737919362393319 1.033856918938184 2.5928110653489362 67 73 47
11.627722518678242 1.1019165072370718 2.4381447852876774 66 71 43
11.098631705351572 1.5250369981003624 2.2379714459011852 59 64 39
11.899535189355197 1.529744166926414 2.185997430897131 58 63 38
11.179323708132756 1.4115498653103733 2.2322987373649457 60 65 38
11.273446889540843 1.2691457315358816 2.34322700033528 61 66 39
11.103735944767154 1.3913106346077921 2.3582300139364865 60 65 39
11.02249060289598 1.5191116306593404 2.3656587256706287 60 65 40
11.992730720017882 1.2691457315358816 2.4029834407583377 62 69 39
12.014308579463558 1.3652607562030432 2.5345029163825052 63 68 38
12.355536572827043 1.3305355471558562 2.6457426375722126 63 70 39
11.757137595626439 1.5191116306593404 2.4252648913141552 59 65 37
12.508274734856546 1.1730535692878072 2.6236190448755385 66 72 44
11.649976458821198 1.1730535692878072 2.5811065341801736 64 71 41
12.08460280071228 1.0997029412167048 2.6889265171905348 67 73 44
11.847995381343992 0.37069405664459204 2.7318996619599347 69 75 52
12.194080449954908 0.7173260659334654 2.5135915079713986 68 73 49
11.745453697694316 0.1599503163520851 2.7524930131324505 65 73 50
12.155382980591975 0.13069704735136223 2.677097283695611 68 74 52
12.43350149347319 0.46516423648874716 2.6342717577103922 68 74 51
12.296894670594018 0.7006081821780376 2.6546318561190323 68 74 49
11.975640513120775 0.8290968997951479 2.7080102192905557 67 74 48
12.08460280071228 1.0997029412167048 2.6889265171905348 67 73 44
11.843829027316504 0.6020310732883866 2.5555459933827884 68 73 49
12.512219841846377 1.2102058595833418 2.8191752144604076 65 74 44
12.407013589869669 0.84616901763445 2.8456060941394683 67 76 49
12.638498291307975 0.6730513626393443 2.790494152637541 68 75 51
12.407013589869669 0.84616901763445 2.8456060941394683 67 76 49
13.39749894129769 1.4636973447438664 2.859373906196217 67 76 48
13.70811036845488 1.4863151774191494 2.78957034485999 64 73 43
12.227619319701738 0.6192021279747341 2.898291945779937 71 80 52
12.462436642475947 0.4660556010433745 2.831354931385555 67 74 50
12.893216895215494 1.0587870368507428 3.0784129345136413 75 85 58
11.970702126261923 0.46948836599754457 3.0101829463555747 74 84 58
13.223891966081286 1.0942431483290411 2.908899279177254 69 78 49
12.774087228533306 1.4863151774191494 2.7625751723797562 65 72 41
12.364991511362215 0.20583725651474466 2.856962362888318 68 76 53
11.337067722850428 -0.3733848485008553 2.2215115601922744 120 125 125
10.876813000470795 -0.17266195091735734 2.379404795192959 47 54 40
10.803905453070106 -0.03922177506006442 2.386500243221196 50 57 41
11.773730691972936 -0.3001996700845169 2.4236475718007306 114 119 112
11.831203612065492 -0.19898469575960737 2.557155441423254 53 59 41
11.981571971927726 -0.3437235370310011 2.538447706168851 64 70 52
11.290103501025822 -0.4184474038776116 2.3417904516422965 88 92 92
10.96868906117069 -0.5254851491502789 2.2473373692085357 84 86 92
11.852458890788325 -0.7691819661934426 2.731033340637752 68 75 55
11.945616208035425 -0.48004780153516846 2.7134714224163408 68 76 56
11.719262011177692 -0.5473430197598208 2.57175626488445 64 71 56
11.794789467444772 -0.2853339389442929 2.7424147193019466 69 74 56
11.233290023114451 -0.6714891360603857 2.48061767922135 67 72 59
12.176963274889646 -0.642223063467734 2.6735727260162245 67 74 54
11.690530836775883 -1.4781036348659282 2.764116652744711 66 74 55
11.727590143461427 -0.06590927520296908 2.7562251227523333 67 75 53
12.138122730191748 -0.0537273392781564 2.679943326648448 66 74 52
12.696501464472577 -1.2556235104040336 2.7782265451371955 68 75 56
12.322233006272574 -0.7622676182068177 2.869073671850489 67 77 54
12.093060844157915 -1.3983911957867925 2.9481451322948815 68 77 58
12.01911333719575 -0.7450795484420727 2.982585894316923 68 76 56
12.176072365608736 -0.49351088379640706 2.91597839333475 69 77 55
12.394372167601786 -1.1688149366365737 2.8489692994627145 67 75 54
11.94409613876968 -1.2710253367078195 3.028275687096986 66 76 53
12.176072365608736 -0.49351088379640706 2.91597839333475 69 77 55
12.110988821900886 -0.12044994992030525 2.9407288984855238 68 78 52
10.961640816927538 -1.3519801050054456 2.5131715347348873 67 71 56
12.167450517430687 -1.3123008034313384 2.6751217966919505 66 72 59
12.093353515627514 -1.4955510428037169 2.6874409666793557 66 74 52
10.73338805857302 -1.516144684988498 2.393507080418135 69 74 61
10.91020198713904 -0.7752496965526546 2.3762043436626734 77 80 75
11.133517963317605 -1.2064696702449562 2.492228047878524 67 71 60
11.251603340700816 -1.1345447799962163 2.345120412529064 81 84 77
11.223628642803147 -0.8771515682100517 2.481725376204543 66 71 59
10.991612373456462 -0.9605415051452041 2.3685258567841454 78 82 75
10.764674173282843 -0.8615194734416974 2.2626499400503106 85 87 87
10.357525489183153 1.66015598611597 2.4334817828598094 59 66 36
10.662224372930387 1.9406337564456078 2.400727235859612 59 66 36
11.23457461457519 1.8050523401646534 2.48047066040115 61 66 37
10.64741072837973 1.8961949111588905 2.271808887607847 60 65 40
10.254286439678012 2.063382805850058 2.3046269478479258 59 66 34
11.136126777773375 1.66015598611597 2.4919195421059097 61 66 37
10.662224372930387 1.9406337564456078 2.400727235859612 59 66 36
10.046562872699942 2.2490991990432962 2.3234340594542973 59 66 34
10.046562872699942 2.2490991990432962 2.3234340594542973 59 66 34
11.20644100732553 1.7526051841291552 2.230416268080425 60 65 40
11.392395148101354 1.8610177995751866 2.2178193074998633 60 65 40
10.259098348052227 2.3445438089517565 2.444761148769488 59 66 34
14.36717413834105 2.3357706881965266 2.8770822546621115 67 76 46
13.470847877472373 2.6983485776427414 2.8411659495314923 63 73 45
12.901061548062094 2.2736240585328567 3.0694379136972993 74 84 58
13.683814442842701 2.988564768025406 2.794436290261838 64 74 46
12.994487333425424 1.908926293194567 3.0016717892127796 73 82 54
14.220173893507766 2.1045081342553194 2.918412580953989 68 77 47
12.901061548062094 2.2736240585328567 3.0694379136972993 74 84 58
14.44412190315726 1.978263479703795 2.8580794782267374 66 75 47
10.62144854769372 2.752083755868209 2.404934037577702 55 65 37
10.385721884774842 2.9203543534103784 2.2932717041659707 54 64 38
11.077523668200062 3.0344994366151297 2.498915548213831 59 69 41
10.035759100499646 2.4424441766489258 2.324442742484381 59 66 34
10.89503754244225 2.6875609473252826 2.2527773409910665 54 63 37
10.345633575724422 2.5566193797934336 2.4348252759991404 57 66 34
11.077523668200062 3.0344994366151297 2.498915548213831 59 69 41
10.962613394067407 3.048501128200358 2.371240956871587 57 67 41
10.919454255729658 2.6296065313461865 2.3753228216912152 56 65 33
9.903544007058409 2.752083755868209 2.3370459192886583 56 65 37
11.186189816519299 2.8881683121883923 2.486051035159706 55 68 36
11.912061613194396 -2.401267154571593 2.719686379651123 68 76 54
11.969776636389502 -2.1158247425555636 2.709069591814797 66 74 55
11.346493490647651 -2.2690849606696077 2.625291835201824 66 74 54
11.125820674290079 -2.679727529612491 2.661387586681111 67 77 54
11.67546675162098 -2.575122775286116 2.7673842718319923 67 77 54
11.007371463023178 -2.401267154571593 2.6824754225918896 67 75 52
12.19208000712501 -2.1809162746337 2.910327538329004 68 78 57
12.19208000712501 -2.1809162746337 2.910327538329004 68 78 57
12.044340035543868 -2.463280310884694 2.9700170178540817 70 80 57
12.044340035543868 -2.463280310884694 2.9700170178540817 70 80 57
12.32984816405514 -1.7515114494783868 2.866872386861742 67 75 55
12.633520639829042 -1.7100123776208171 2.7915714445268422 66 74 56
12.32984816405514 -1.7515114494783868 2.866872386861742 67 75 55
12.884800234199163 -2.69166810136751 3.089755316674804 71 79 57
11.590741947222899 -1.7869930740653548 2.4419147005894137 61 66 51
11.770626408434197 -1.9135135870100184 2.4239495700543907 59 64 47
12.448856843583311 -1.843792778632031 2.254908421313994 89 89 91
11.987574541589241 -1.9629019848429907 2.537721087325483 62 70 48
11.717390881528464 -1.6660777953996864 2.572005538977847 64 72 50
11.494401044936009 -2.027768434263332 2.60305731539731 64 72 50
10.538310063683507 -2.286634030288181 2.4136745359654217 65 73 51
12.244426768756673 -1.7615843873378318 2.3806792373045313 71 71 67
11.452916886034409 -2.090743970049155 2.456335404822227 61 69 47
12.10171667218153 -1.6839469584637297 2.6860274207671324 65 73 51
11.858118344037353 -2.5652620365512933 2.4155375165109434 62 70 52
11.750542702190977 -2.973439757074776 2.4259097971178414 61 71 42
11.81384445659452 -2.610460888164762 2.559380389451464 66 74 52
11.331929381238622 -2.487947373743876 2.469503725795367 66 74 54
12.293922489568029 -2.91517260446753 2.6550886433218843 65 75 50
11.487776384895804 -2.776222835119573 2.2115611159686344 58 66 43
12.229466144160751 -3.089802726525965 2.665149559229707 64 76 46
11.875487525968254 -3.0976372890085466 2.5515422557968406 62 75 44
11.660271334575995 -3.107849142253851 2.3113902424522483 56 68 44
12.112142321692403 -2.776222835119573 2.2777942547662686 61 70 44
12.09084695114832 -2.8076285269094754 2.5254482020886324 64 74 50
11.534048840405637 -2.67918714394298 2.4477745757171645 65 73 53
12.522389514289042 -2.973439757074776 2.478330581655706 63 73 48
11.901930171377504 -2.8489303099227414 2.4114010375196564 61 71 45
12.09084695114832 -2.8076285269094754 2.5254482020886324 64 74 50
11.011735837648356 -2.3847254298742167 2.36665455903932 64 68 49
12.021178109259974 -2.450277775833995 2.1788643269930237 62 66 54
11.475396151037735 -2.225907128376006 2.2123658920375906 60 64 46
11.393563694458491 1.5335736365343995 1.917123543795735 57 57 27
12.39643359025951 0.742641162225709 1.9743104621920562 60 64 44
11.351825948768777 1.529744166926414 2.1139946112934416 60 61 34
11.657427214570152 0.5459057788309921 1.9089671945026359 62 63 50
11.584022888333111 0.7365890116308144 2.101935590178468 64 67 46
11.59565686158003 1.328590629049119 2.1013463025872703 58 61 36
10.862943663399234 -0.7045993197893736 2.035415402165137 84 85 92
10.29509239211335 -0.9333740533919507 2.063259023086117 86 86 89
10.996850897056499 -1.2517847539248277 1.7414440280775063 90 90 91
10.58110069974194 -1.4213511449049936 2.0488113605128517 86 86 86
12.297527249210733 -1.5383573229237226 1.5600209988972844 89 89 91
11.178119897192271 1.8090637562899339 1.738650225086975 47 49 23
11.120734333466151 2.0133272341074955 1.8315936741976688 52 54 28
11.201919595665387 1.7192045483794463 1.8296600072503286 53 53 25
11.101983111982149 1.9628597983901939 2.127639032531529 59 64 39
10.745621664460218 1.925955161824513 1.8409216216804623 51 53 27
10.62305674931207 1.7526051841291552 2.155959751073303 59 64 38
11.402440125670411 1.6268712687093951 1.916842630929977 54 54 26
10.863380317591169 1.7192045483794463 1.6507362050769852 47 47 19
10.212838921442112 2.1088644301814305 2.0675854388432002 57 62 37
10.58236294385275 2.056814422241294 1.9449295922474636 53 58 31
12.335295589939184 2.5316476068343663 1.8897051647709886 48 52 35
12.059209424320095 2.5316476068343663 1.8108805823484766 37 41 25
11.053902145181308 2.1423051259478423 1.928234830192824 53 56 27
10.527112583944087 2.2663954030412685 2.162010614864002 58 65 33
11.901323320180074 2.4107981733091672 1.8141295413638472 32 36 16
10.973472252661994 -2.30662425072122 2.030373342610324 59 63 49
11.104130711095308 -1.741467787167476 2.1275186305837535 89 89 91
11.723325811288504 -2.8114338854979417 2.0949694065966176 55 64 44
12.377704436112504 2.6475539024616754 1.804586201920308 32 34 25
12.146860943489532 0.8780429343010805 2.1716802709237784 65 68 45
12.259808827118976 0.5970507790589293 2.165379018987354 64 66 50
12.336027622385638 0.7285431702080651 2.3729125353944207 68 70 48
12.331826258445624 0.5253892620014865 2.498366178503412 68 72 50
11.674672688078902 0.22708556822582832 2.4334166784396034 66 73 55
11.939261191647818 1.5114255180123193 2.543612304792815 62 67 37
11.833340072975027 1.3913106346077921 2.4178991265316307 60 67 37
12.508274734856546 1.1730535692878072 2.6236190448755385 66 72 44
11.89620125633692 1.033856918938184 2.5489470266129763 66 71 43
12.17132956922766 1.2274392406301067 2.5161705685928784 64 69 40
12.361198835539577 0.8932353339157862 2.3708092621577608 68 70 47
11.757137595626439 1.5191116306593404 2.4252648913141552 59 65 37
11.179323708132756 1.4115498653103733 2.2322987373649457 60 65 38
11.84820343596773 0.8133721458583225 2.416480563002518 69 72 49
11.02249060289598 1.5191116306593404 2.3656587256706287 60 65 40
11.731083192072061 0.9967840225942916 2.755491753485109 66 75 47
12.634592614380214 0.819510212854359 2.606336408473196 68 73 49
11.843829027316504 0.6020310732883866 2.5555459933827884 68 73 49
12.155382980591975 0.13069704735136223 2.677097283695611 68 74 52
12.25449498741309 0.30668097065752475 2.661207178832922 68 74 52
12.227619319701738 0.6192021279747341 2.898291945779937 71 80 52
12.12828768771073 0.28763101333367147 2.9338401815207997 69 79 53
12.253013236711478 1.0942431483290411 2.8900783775940577 69 78 50
12.638498291307975 0.6730513626393443 2.790494152637541 68 75 51
12.893216895215494 1.0587870368507428 3.0784129345136413 75 85 58
12.512219841846377 1.2102058595833418 2.8191752144604076 65 74 44
12.98669911481504 1.3416161555787824 3.005996231637846 74 83 55
12.253013236711478 1.0942431483290411 2.8900783775940577 69 78 50
11.011333808037248 -0.5906443056661013 2.3666918421846526 74 78 72
12.32163984982672 -1.4501736035477872 2.869245976267053 67 75 54
11.088210700747188 -0.2662248955601166 2.238711932468239 146 151 149
12.176072365608736 -0.49351088379640706 2.91597839333475 69 77 55
11.94409613876968 -1.2710253367078195 3.028275687096986 66 76 53
12.348024258333483 -0.08521789381215604 2.8616972339367086 68 76 53
12.01911333719575 -0.7450795484420727 2.982585894316923 68 76 56
11.95317520176226 -0.20465657223003114 3.021786464854208 72 82 56
11.764212294149534 -0.04534346964381215 2.5658203894672678 60 67 46
11.773730691972936 -0.3001996700845169 2.4236475718007306 114 119 112
11.283256034609948 -1.3123008034313384 2.635252439124193 66 73 57
13.14438126243498 -1.022510263319228 2.935973869556014 69 78 59
11.852458890788325 -0.7691819661934426 2.731033340637752 68 75 55
11.450306527894604 -1.1450896386313534 2.6095382539960226 67 72 58
10.662224372930387 1.9406337564456078 2.400727235859612 59 66 36
10.062987458356654 1.9982763144170808 2.4683834333435217 60 67 35
11.392395148101354 1.8610177995751866 2.2178193074998633 60 65 40
11.107743825406272 1.639710825742507 2.2373254563575804 59 64 39
11.031665615433882 1.6486155646778262 2.3648114998123773 60 65 40
10.463301650000098 1.8050523401646534 2.421755372575865 59 66 36
9.947263102338669 1.9406337564456078 2.332824570517109 59 66 35
9.85123097664408 2.2235990020838807 2.495812363023453 60 67 35
13.715488946208088 1.6977567688425532 2.788108667940394 64 73 43
13.163434698064988 1.7891233411245169 2.9291455890267137 70 79 49
13.405048490844365 1.7314560355171094 2.857438062038288 67 76 48
13.771931226150455 2.7858328879333536 2.7771635740428033 61 71 43
14.42909310696845 2.6983485776427414 2.861676495352757 65 75 47
10.54209527157334 2.346603762206089 2.2802709688337046 59 66 34
10.626326170557608 2.5218918752913444 2.2734847638949565 56 65 37
11.186189816519299 2.8881683121883923 2.486051035159706 55 68 36
11.077523668200062 3.0344994366151297 2.498915548213831 59 69 41
10.222499493343593 2.6296065313461865 2.3074347847597467 55 64 36
11.373854829599024 -2.520797747089081 2.6210697175919426 67 75 52
11.406760131973975 -2.4196537772214626 2.8328746512168594 68 78 56
11.521103934080035 -2.7975321375546236 2.803136359653064 68 78 55
12.226115486321566 -2.2690849606696077 2.6656808506925525 65 73 53
12.101424202973853 -1.8274876153189388 2.9446484356142086 68 78 57
11.952563730513585 -2.0067952095250825 3.0222121803413446 68 78 55
10.935658059306698 -2.1684561982418837 2.516448460943631 64 72 50
11.445027495994339 -1.6431845355557635 2.328721143284118 75 75 73
11.494401044936009 -2.027768434263332 2.60305731539731 64 72 50
11.72785639425497 -2.9926836073528134 2.3061346297980037 58 69 45
11.081860414781657 -2.9926836073528134 2.2391640609882537 55 66 39
11.242255924014415 -2.881348740788515 2.227948097857171 56 66 40
10.943472046664104 -3.103413954252705 2.373045190275945 58 71 39
12.134110178034426 -2.733072315989905 2.3902756576379556 61 71 45
11.575242236613304 -2.7534337956842885 2.591479415531586 67 76 54
12.09084695114832 -2.8076285269094754 2.5254482020886324 64 74 50
11.058581221289876 -3.0976372890085466 2.50120687251186 61 74 46
11.289534739949655 -2.8076285269094754 2.474237449495 65 74 53
11.941854629317847 -2.9485547940444374 2.543293559976356 65 75 47
11.331929381238622 -2.487947373743876 2.469503725795367 66 74 54
11.879532971148306 -2.881348740788515 2.2946445431880402 59 69 45
12.151667394961944 -2.5335627534895098 2.2750187343730692 61 69 53
12.211895114438002 -2.5901641991241755 2.1680345480345045 61 67 52
11.584959327632351 0.4645190641951286 2.0044137881997943 59 61 51
10.34051545492432 -1.0278973844199581 2.174174635868882 86 86 85
10.442777161788507 -0.850432079800571 1.9501831588545129 86 87 93
10.572225996936442 -1.0829722768581114 2.0492463131254417 87 87 87
10.43607407991594 -1.2891368725725476 2.1678783904607117 84 84 80
10.819042557404087 1.8610177995751866 2.1440043706465994 58 63 36
10.878019772890362 1.6326324153848117 2.0347208771643897 58 61 32
11.168527588676394 1.832545659721244 2.0217479649314987 56 58 32
10.40795193231282 -2.1649760588037776 1.8499163054476895 58 61 50
12.576045022037002 2.577320931260429 1.639830916232034 7 11 2
18.31898399619986 -2.956786803703771 1.7835163449041436 44 48 63
11.94950948795866 -1.6239927920988464 1.900383912484168 89 89 91
11.527716929708244 1.1555748752371797 2.32195336395168 62 67 41
11.600542411955875 1.1987349175233046 2.2043314519599733 59 64 39
12.033050591932874 0.5520977380586702 2.697816853484687 67 73 49
11.847995381343992 0.37069405664459204 2.7318996619599347 69 75 52
12.335634962658181 1.0158968343583634 2.161228205013175 61 64 40
12.159848031137825 0.8091058153964865 2.2744473433736756 65 69 45
12.322145823320186 0.9456730491657961 2.650775659962596 67 74 49
12.12828768771073 0.28763101333367147 2.9338401815207997 69 79 53
12.068745870090293 0.4005667181488867 2.528039097258782 67 73 51
12.091289172198797 0.41591972031477803 2.279268583902469 69 73 58
11.627722518678242 1.1019165072370718 2.4381447852876774 66 71 43
12.434572201623961 0.5110603648818611 2.2558455962464388 68 72 58
11.90622801346396 0.6344928736749267 2.4109979233797123 68 72 50
11.958326965406199 0.9904969501500496 2.4061485698926512 67 70 46
11.627722518678242 1.1019165072370718 2.4381447852876774 66 71 43
11.700733841213967 -0.9997409774465781 2.574232429704314 69 74 60
11.283903775493535 -0.900827334355724 2.635148936820519 66 71 56
11.764212294149534 -0.04534346964381215 2.5658203894672678 60 67 46
11.133517963317605 -1.2064696702449562 2.492228047878524 67 71 60
12.203061559360016 -0.2346035203350122 2.669359289939684 69 74 56
12.348902762183473 -0.4012182496775838 2.6467366596747723 65 72 53
12.176072365608736 -0.49351088379640706 2.91597839333475 69 77 55
14.581427909544109 2.4965337325449313 2.8273736156734457 62 72 42
10.366583996035502 2.1334957429798114 2.4324618718653945 59 66 34
10.035759100499646 2.4424441766489258 2.324442742484381 59 66 34
9.607140507538858 2.5566193797934336 2.3671803427438505 57 66 36
11.131037391481634 1.7755694846756727 2.355770311734647 60 65 40
11.074144075578284 -2.2023298578949864 2.3609167003068174 61 69 47
10.943472046664104 -3.103413954252705 2.373045190275945 58 71 39
11.552518050969026 -2.4659835540448607 2.3199506251175923 62 66 51
11.178862108398869 -1.9629019848429907 2.4869039256669825 63 71 49
11.792930321393404 -1.9279915001458259 2.74278861671521 65 73 55
12.969981659009193 -2.9622098201076983 3.01579564675015 73 81 59
11.67546675162098 -2.575122775286116 2.7673842718319923 67 77 54
11.467018686516013 -2.0236892376503266 2.816801398726438 66 74 52
12.217547792074354 -2.6811002083076545 2.9016355428952942 69 79 56
12.421138419213625 -2.6788981855993725 2.256729572873976 60 68 47
10.721048341723122 -0.7768491590530967 2.1499158204574345 86 88 91
11.610824493932759 0.8780429343010805 2.100580105104669 62 66 42
9.39140246201548 2.2490991990432962 2.245636826105631 57 64 34
10.518887181602848 1.639710825742507 2.1625356528736552 59 64 39
11.126339655450897 -2.1649760588037776 2.023584843449459 59 63 48
11.219824200414026 -2.377064387778727 1.9227173365995986 55 58 48
18.307342351852277 -3.0684134517935973 1.8399093930616714 69 78 94
11.927439663480833 -1.0609765229931947 2.716823125698412 69 74 57
11.862432059465839 0.35105789186697434 2.415128026074884 68 73 55
10.85582676321209 -1.4036411458215345 2.255713548769147 79 79 75
10.96868906117069 -0.5254851491502789 2.2473373692085357 84 86 92
11.347904273979537 1.3020383034784968 2.2207847344412386 58 63 38
12.844257758327714 1.2820826615174838 2.74908604138822 66 72 45
11.41944699078086 -0.47495130605101676 2.4599290455032836 78 83 73
12.335634962658181 1.0158968343583634 2.161228205013175 61 64 40
11.614649962417925 -0.5929682757805845 2.780952526876649 67 77 54
11.347904273979537 1.3020383034784968 2.2207847344412386 58 63 38
11.310124147064432 -1.864691362792454 2.6309851507190345 64 72 50
9.62969773125288 2.1334957429798114 2.364788757727381 59 66 36
12.134110178034426 -2.733072315989905 2.3902756576379556 61 71 45
11.590741947222899 -1.7869930740653548 2.4419147005894137 61 66 51
9.840212747869856 2.4630576329305467 2.497299716538784 56 65 33
12.135295827938608 -2.1649760588037776 2.172333647170672 68 69 66
11.495344785055229 -1.6530717953288943 2.4518323724159936 64 69 56
10.596345174613678 2.7991579193583966 2.275883381713893 54 63 37
11.021904085203955 -2.1337934336279347 2.2434666085766644 61 69 47
11.072407345263883 2.9203543534103784 2.361075053478432 55 65 39
10.538310063683507 -2.286634030288181 2.4136745359654217 65 73 51
11.648813875958506 -2.2397469808131776 2.7732544067435465 67 75 53
10.62144854769372 2.752083755868209 2.404934037577702 55 65 37
9.919717100974527 2.346603762206089 2.203711739950676 57 64 34
10.030840054313392 2.1718971079716978 2.195608932883505 58 65 33
10.700674090688816 2.1990962332983637 2.043030645164816 57 62 37
12.411864932101246 -0.36283587944011286 2.844327022824941 69 76 56
11.861109157733353 1.0523047281918143 2.296018335179535 63 68 42
11.242255924014415 -2.881348740788515 2.227948097857171 56 66 40
11.708753217602222 -1.507478122519583 2.5731585539264015 65 73 52
11.690530836775883 -1.4781036348659282 2.764116652744711 66 74 55
11.336053733097764 -2.510144193778687 1.9189549218394473 52 55 47
11.846768835907497 1.4409179955864355 1.9942054482564 57 60 31
12.414843295638534 -1.8748281612587248 2.366370215503287 66 69 64
10.87245493628569 -2.3911382495669624 2.5245487559732473 67 75 55
11.624290828036832 -0.7729140279992855 2.584637116430889 68 73 55
11.575242236613304 -2.7534337956842885 2.591479415531586 67 76 54
12.253013236711478 1.0942431483290411 2.8900783775940577 69 78 50
12.355536572827043 1.3305355471558562 2.6457426375722126 63 70 39
11.78549723939506 0.819510212854359 2.563044147256438 68 73 48
11.770653295855974 1.5335736365343995 1.9971216352952887 59 59 31
10.64741072837973 1.8961949111588905 2.271808887607847 60 65 40
12.546637568257312 -0.940838367343799 2.8110623414604423 67 75 55
11.810994718072752 -1.8200477375229704 2.559746989567367 63 71 49
10.212838921442112 2.1088644301814305 2.0675854388432002 57 62 37
12.110988821900886 -0.12044994992030525 2.9407288984855238 68 78 52
12.071330555798694 0.8850608705272027 2.9575608412184016 73 82 54
11.974831546326094 1.4277152856402022 2.1815607929817973 58 63 37
11.614649962417925 -0.5929682757805845 2.780952526876649 67 77 54
12.319467034106026 -2.67918714394298 2.499705777811389 65 74 55
