20.470467729221525 0.7424293227759323 1.744555562370413 39 43 26
20.318155753418967 0.6642449514906286 1.950936313903072 42 47 30
20.72345336650076 0.6328910839293013 1.8918211200556008 40 45 28
20.271500959145726 0.7046343845556504 1.8475598382937117 40 45 30
19.8776471054661 0.590641318836583 1.8531925832611502 40 46 26
20.778038299774344 1.6795739515671853 1.2546035104554656 49 52 48
20.904896245082696 1.72959573631487 1.2565882415392764 42 44 38
21.800840324080063 1.6236291524679667 1.457672455932693 72 69 72
11.51060062492741 0.14914733223183566 1.2653970056138861 36 46 23
11.411896604787925 0.05808361918586332 1.262669056789088 30 40 19
10.178276765004522 0.06396146413323281 1.326592917885529 32 42 21
8.89491407510196 0.07116064736055798 1.631436788715008 29 39 18
9.67555714671197 0.18215580853208152 1.9452599497456156 31 41 18
9.135653309289584 0.18215580853208152 1.7400711233513735 35 45 22
10.602076871251045 0.48183653417253447 1.9111370514721293 40 49 29
9.557921503709892 0.07116064736055798 1.9501015740145018 28 39 16
10.650991301736195 1.2825133196691485 1.9095112295896053 36 44 28
10.650991301736195 1.2825133196691485 1.9095112295896053 36 44 28
10.29354511737214 0.2888071676143344 2.0274664386648955 34 44 21
10.619983850091867 1.1014175434842484 2.5048822519825693 36 43 23
9.911438325249371 0.9387183844771604 2.163801267949095 32 41 23
10.429016155520499 0.7658293362358158 2.2485009219901966 31 39 19
10.755494680290647 1.044089716816712 2.347524590904683 32 41 23
10.120327561277524 1.004082897986146 2.0358931193190553 37 42 26
10.447626406073052 1.2126728938152256 2.247068037542988 29 37 21
10.589160106390322 0.8591793157581237 2.363082119222686 33 41 23
10.646000084219722 1.251236678852595 2.1179927418792035 25 33 16
11.02265524208647 0.49656395038352225 2.6167544400829232 34 44 21
11.717287625959365 0.20473469709517714 2.387302040856124 31 41 18
11.860049034305094 0.233586912223749 2.5052962145673203 34 44 21
10.91097074713742 0.7553802037007387 2.6347124871818437 34 44 21
11.717287625959365 0.20473469709517714 2.387302040856124 31 41 18
11.26255669767982 0.3664509134890731 2.4313158475097842 35 43 21
10.545805986889548 0.594091041461304 2.239618975162765 32 42 19
10.472981851327146 0.6420763018824519 2.524115840240657 35 45 22
10.275482835285436 0.4329723587265088 2.1401123109373024 35 45 24
10.45149285591393 0.8764785235298957 2.5270172089978384 36 44 22
10.981786589798613 1.0181895063831405 2.6232179675916982 35 43 23
11.764277303256332 0.09181560168286781 2.51639889857151 34 46 23
10.818022168621399 0.48707857157743517 2.3418597567027573 33 43 22
10.275482835285436 0.4329723587265088 2.1401123109373024 35 45 24
10.610370290417585 0.6691345278568699 2.3610574625831866 34 42 22
11.621186070507427 0.12927076301576623 2.7066244425947503 36 46 23
11.231770733207659 0.7444500444459358 2.7885524146284935 35 45 20
11.718127338169907 0.3240789882008757 2.689147852190746 35 45 22
21.372405787374365 1.6261848516642523 1.3124175004059009 73 73 71
20.61777896315581 1.72959573631487 1.3027318641291408 48 51 48
21.326026543739875 1.7690144125274678 1.4077882958813546 73 75 75
10.963742921263597 1.4904436583712424 1.8045051226010254 26 31 16
11.263099220951638 1.6779821581522987 1.8904284618760236 31 36 21
11.408120594198872 1.7697878499236392 1.886223903171092 30 35 20
10.886635444779788 1.3322069108568129 2.335753460091348 30 38 22
10.845377930989185 1.442406888689333 2.477287982331958 31 39 23
11.813711487683033 1.8834920099463253 2.5106245185009195 30 38 22
11.813711487683033 1.8834920099463253 2.5106245185009195 30 38 22
10.256741787017722 1.5874673800256371 2.141282159947357 30 35 21
10.862369125133343 1.4719344818629634 2.2167899824156065 25 33 17
10.888833081290953 1.7025588538049943 2.2149589802140395 29 36 22
10.761349485000414 1.4590810120498454 2.3469900257164316 28 36 20
10.969704236450688 1.2978801541795975 2.4629447370840074 34 42 24
11.651102925755376 1.8446736066004459 2.3933670886665297 30 37 22
11.231651292791849 1.252405160751773 2.5854575489585105 33 41 21
11.649049095177894 1.442406888689333 2.530236508591361 33 41 23
12.003813869395827 1.7712040438421992 2.6424140363103534 29 38 20
12.13999006761878 1.9345673893766167 2.622213826410979 29 38 20
12.8906815090195 1.7712040438421992 2.679558282012398 30 38 18
12.15090879360713 1.8759709933353592 2.822900267103496 30 40 19
12.434601550029061 1.6018589483585488 2.7597510437153208 30 39 17
12.097800340548526 1.6104051687367784 2.8364856467893946 30 40 17
12.285454649354339 2.1041277384011456 2.7912226032812413 30 40 19
11.709688988767958 2.0043420033306276 2.69063267223122 30 40 19
12.434601550029061 1.6018589483585488 2.7597510437153208 30 39 17
12.434601550029061 1.6018589483585488 2.7597510437153208 30 39 17
11.449303403372472 2.310994893413809 2.412553637534505 27 35 15
11.972848075987834 2.230546264727097 2.3648522520492072 29 37 20
12.178826800973548 2.068262066678916 2.34779122778885 31 39 23
11.499813037272993 2.068262066678916 2.2857483584999274 29 37 22
12.355855707827997 2.07998508175162 2.5924279996221644 29 37 19
10.727964926440793 2.5758533374511745 2.6663399903338894 32 42 19
10.991997352359006 2.408588960649827 2.4604336970907634 26 35 15
11.93430268171856 3.0534565657772754 2.496922025276672 27 40 14
10.07514811865089 2.736952687669812 2.4162662201166616 28 38 15
10.714309172482267 2.788687797867367 2.3513095295545225 28 39 16
11.015978126846155 2.422031385546036 2.617802237766195 30 40 19
11.128758897417148 2.60779017901529 2.445411554987903 29 39 18
11.371961409535114 2.5664255396134408 2.29555087553539 29 38 19
10.843741603737717 2.736952687669812 2.477480720837623 29 39 16
21.94383436246878 1.9640329921067021 1.319293458624663 12 19 13
16.56880316993597 2.1816385959897313 2.1122354698100687 36 46 35
16.817132831516357 2.109333455475815 1.9064327279685822 35 44 32
12.664829391567974 3.0896568394703703 1.8540072552726115 23 35 14
12.664829391567974 3.0896568394703703 1.8540072552726115 23 35 14
12.513285890998233 3.008063572377026 1.775124370540459 22 34 13
12.317195285414487 2.9097219279341324 1.9482065398407151 23 35 14
11.545298677350278 2.8614005760259307 2.17290675230197 25 37 14
11.405447491191246 2.8290829357956473 2.292954010155163 26 38 14
11.29063070964406 2.7635673910795524 2.083562079999916 26 37 15
12.039542081186974 2.713299309162055 1.957365278270288 26 36 16
11.650789005460814 2.6727687530876802 2.0662419023588505 27 37 17
11.816821466611916 3.064232779616116 2.3783801679256866 26 39 14
12.45845560865716 2.6348129961451496 1.9437157905312892 27 35 17
11.650789005460814 2.6727687530876802 2.0662419023588505 27 37 17
11.86565371157739 2.536614090854488 2.1544680836888026 29 37 18
11.658700816218674 2.589600427042831 1.970698477195187 28 36 17
11.912170759437142 2.9439031003606964 2.37004871041057 25 39 13
12.178636637645448 2.9821448426347574 2.137588772957815 23 36 12
21.981539552707478 -0.5260946449034336 1.9208757251105357 38 46 27
11.137637264969568 -0.033952080933292605 1.3480007208495404 20 32 13
10.85364273210813 -1.0925923835139688 1.8069207073800078 26 35 18
10.302534908474243 -1.0450130165501623 1.921451974521558 34 42 26
10.04524268350643 -0.1533389578343879 2.0396475500694855 8 20 2
10.975424259225653 -0.3634837094833992 2.099805902045567 2 13 0
10.04524268350643 -0.1533389578343879 2.0396475500694855 8 20 2
11.457308916111062 -0.4567021386039045 2.4117716975166457 39 51 28
10.228074077815771 -0.04690094961199124 2.264416145919212 25 37 14
11.8267973353522 -0.19704629942925736 2.5091116310455845 35 49 24
10.558655523908946 -0.5075100372768526 2.123040471245893 24 35 16
11.790139310923724 -0.5673269218443762 2.3807489057100395 39 50 31
11.561190690773712 -0.7326152633476867 2.5411636710429866 39 48 31
11.221571762308603 -0.6064930470221158 2.586904309040045 38 50 31
10.762242863672036 -0.4050886860468285 2.223822591217025 30 42 25
10.492302611194015 -0.2928459378996652 2.243655602264541 22 34 18
11.84249377439668 -0.2928459378996652 2.3761166436560166 33 45 27
12.220803981533937 -0.4567021386039045 2.466356273859895 38 48 25
11.689134330045949 -0.522023481764286 2.525361048930108 39 48 29
11.441084040162798 -0.38437063959391843 2.5566703974211684 35 47 26
12.355385076555212 -0.8675659923413869 2.7760493964946416 39 51 30
12.96456391585915 -0.6064930470221158 2.668242886731974 37 49 30
12.399163380821724 -0.7326152633476867 2.586746761294411 40 49 31
12.66463571374061 -0.9917833392007342 2.7168009601189103 42 51 33
13.3307311856202 -0.5508547204480062 2.7952283071061395 36 50 26
12.66463571374061 -0.9917833392007342 2.7168009601189103 42 51 33
13.076551738667575 -0.6923884248894282 2.8538841354457594 36 50 26
12.062404885691896 -0.06288193776509661 2.6335768795944197 36 48 24
12.100572563428459 -1.0263621594978707 2.478861646326332 40 49 33
11.47571299699832 -0.8273075013308993 2.2875730534942305 39 48 32
11.41604375441928 -0.7485624983843677 2.1807088227903044 39 48 32
11.919865409420984 -1.0886788292445755 2.369385265870533 41 48 37
11.634904503668858 -1.201028040389584 2.3948680821363837 39 47 31
10.921227103650567 -0.8992816834285644 2.1027094152851635 39 48 31
10.687392006294521 -1.0450130165501623 2.009439818272334 36 44 28
10.889839192156353 -0.6643255770107496 2.214889594069304 37 49 30
11.97491492914349 -0.8354924801877985 2.492424538061262 40 49 33
11.634904503668858 -1.201028040389584 2.3948680821363837 39 47 31
11.101604239873714 -1.180336914408592 1.9920067068313934 32 41 23
10.997827761404952 -1.2419093451181966 2.2075364282420877 36 44 28
11.46086051766574 -0.8992816834285644 2.1779788672229894 41 49 34
10.983584808074841 -0.9881105543498604 2.208495700381862 39 47 31
12.785801105761864 -0.8354924801877985 2.5397230532066337 40 49 33
22.024686818900335 -1.0370136702391144 1.320236581710983 36 44 28
13.079406617018556 -2.174091825640479 1.8447945873769256 35 44 30
11.409570969069156 -1.6037243733161681 2.748433955500224 44 56 37
11.440738536800962 -1.3772887774254428 2.741916704489524 44 56 35
11.466010421211138 -1.8215834879636044 2.2883106562323103 39 48 32
12.215025679511005 -1.7957592524922834 2.235969870612542 38 47 33
12.026272468622487 -1.5861553369968626 2.248341876946436 36 48 27
11.526617609546735 -1.7485142709486932 2.5455579806911466 39 51 32
11.574864330613272 -1.3752130388457238 2.171152394507078 35 45 24
11.457106777144327 -1.479671542467178 2.178206503657689 36 48 27
12.010816204755487 -1.7066425780788603 2.3616411142708964 39 48 31
11.296280834282284 -1.4688541216447144 2.3014991746887548 38 47 29
11.311349418661772 -1.4551354761534565 2.4263146047997393 41 50 34
12.054565917432312 -1.5903230906244736 2.4837669984568005 38 50 31
11.501621218556398 -1.4371757537377543 2.5487694697496317 42 51 33
11.618927627985455 -1.2872122846321128 2.53394486066462 42 51 33
11.480856238251969 -1.853926588830422 2.4094819602593454 40 49 33
11.279824338252926 -1.5903230906244736 2.4295376557358943 39 48 32
11.480856238251969 -1.853926588830422 2.4094819602593454 40 49 33
11.430608655722448 -1.3240415193386075 2.4143865987177175 40 49 33
11.972474439665781 -1.2379366061438182 2.647236275579821 43 52 34
11.828599539675716 -1.5975943406858752 2.6702982315866253 43 52 36
11.858665845668876 -1.4126682097268042 2.665346970672749 44 53 35
12.15071819335168 -2.8214269277460016 2.473591751237132 42 54 30
12.693103141384668 -2.5927366867251367 2.4211523048673746 40 49 31
11.923298112127606 -3.0900239759354733 2.4981506314803887 32 46 18
12.158415025283777 -2.5234777160457633 2.472789824977075 40 49 33
13.622086457240076 -2.8815311147473857 2.740141465007117 39 53 29
13.416813533381589 -2.622304189584908 2.7778678453264005 44 58 34
12.655738655295195 -2.6400524105378977 2.554851918020499 40 52 34
12.201635524811827 -2.5617825657143354 2.613444341734971 40 52 33
13.285645859167698 -2.7736125744124283 2.6230370373855925 43 56 33
12.655738655295195 -2.6400524105378977 2.554851918020499 40 52 34
11.078219108634219 -2.2657987209737787 2.09439006005307 38 47 31
11.327292724614193 -2.0830822609200967 2.2990482888675916 38 47 31
11.327292724614193 -2.0830822609200967 2.2990482888675916 38 47 31
11.730105366103096 -2.1802273912239256 2.268827293627263 40 47 34
12.625828386185026 -2.2222664341812606 1.9385347824349917 34 43 29
11.662536175707727 -2.34070419518686 2.0656976572524717 36 45 29
11.892793464038588 -2.0293488721999755 2.501578854151843 39 48 32
11.430145469467321 -2.147638546324051 2.414432136778972 40 49 33
11.625219394010282 -2.3382287465907377 2.2764205943255513 39 48 32
11.810435679641946 -2.423425734288868 2.3789455648706515 39 48 32
11.322481155302334 -2.334811771426551 2.4251836506440876 39 48 32
11.388638154164353 -2.100557274471077 2.563661330323197 39 48 32
12.878710664441662 -2.105713847766467 1.9309807873948526 37 46 32
13.664926361646522 -2.131824024927381 1.757691081184559 41 50 38
13.652434093424107 -1.9956948903268117 1.9885624170045333 38 47 32
19.587471475046286 -1.675549707991777 3.071271794102026 41 53 29
12.03534967041477 -2.858543004672043 2.359582477250046 39 51 31
12.146257138195814 -3.0074715611343428 2.1392863462027116 32 45 21
12.617064106726241 -2.975080977778846 2.4280447139128993 35 49 22
11.929873150719892 -2.993008311458268 2.2548606677627325 36 50 25
12.668019139307813 -2.9321515633012307 2.0233322711502484 34 46 25
12.51649065738293 -3.1012894147479435 2.3215976594754815 28 42 16
12.27139352563285 -2.749374479498233 2.3404004463974863 38 49 35
12.743754140694127 -2.654814653783528 2.0204449298950844 37 46 30
12.920179483867253 -2.5332196680747323 2.1014674246967626 38 47 31
12.328174700605437 -2.558754338398186 2.2287904774296674 41 49 33
12.528443498551114 -2.342580122279841 1.9415312108583591 33 42 25
12.808692541175777 -2.580955187733065 1.9330403275969525 35 45 30
12.232874824200614 -2.477909279979705 2.1347693923522932 37 46 32
12.743754140694127 -2.654814653783528 2.0204449298950844 37 46 30
20.271500959145726 0.7046343845556504 1.8475598382937117 40 45 30
20.181805536714904 0.6328910839293013 1.797645535781717 41 45 28
21.03237841520138 1.6290000812831766 1.2081647886125522 52 47 45
20.778038299774344 1.6795739515671853 1.2546035104554656 49 52 48
10.493922201038519 0.26088460150812814 1.3340809509704423 38 48 25
10.204973853749319 0.38912358771468186 1.9249510520497386 37 47 26
10.9314338284339 0.9703689300539128 2.4672978077019754 36 43 25
10.619983850091867 1.1014175434842484 2.5048822519825693 36 43 23
11.182423690972415 1.1641069225962453 2.4396891427683673 36 44 26
10.438796733749703 1.1641069225962453 2.3777964902909883 36 44 26
10.503082025343787 0.9387183844771604 2.242837983212312 32 41 23
11.498309317248049 0.4222898608344744 2.5491971759540286 34 44 20
10.554673241077348 0.3231902594924708 2.238955164468431 30 40 17
10.620110169705368 0.598793418510714 2.6864705592045546 35 43 21
10.350777004539568 0.20473469709517714 2.254599771386779 29 39 16
11.537232163593732 0.48707857157743517 2.404061212742446 33 44 22
11.193397440857405 0.594091041461304 2.3097671180769663 31 41 18
10.91097074713742 0.7553802037007387 2.6347124871818437 34 44 21
11.31143556437043 0.27167252683850923 2.574211458477281 35 45 22
11.621186070507427 0.12927076301576623 2.7066244425947503 36 46 23
11.621186070507427 0.12927076301576623 2.7066244425947503 36 46 23
21.340887384493577 1.7220184196987887 1.3602108385528187 71 72 72
10.681636622124152 1.482142373471693 2.009692602702714 26 31 16
11.673729810280475 1.7416169267642054 2.5272267138743523 31 39 23
10.256741787017722 1.5874673800256371 2.141282159947357 30 35 21
10.807846663249846 1.3804149030680934 2.0042177469651956 21 26 11
11.618440353707031 1.5924939960348647 2.5340051714806893 31 39 23
11.979813210127006 1.4199264841585442 2.646100925366994 33 40 20
12.13999006761878 1.9345673893766167 2.622213826410979 29 38 20
12.486277553329021 1.8129457495129928 2.7495732235462254 30 40 19
13.055071636557713 1.6104051687367784 2.8594975278283035 30 40 19
11.87585831918386 1.9615845893701207 2.3731973997930482 29 37 22
11.988241388767095 2.1082410774243363 2.1477297043551524 30 36 23
11.826954779129371 2.205195278882417 2.5090934679581065 25 34 15
11.814569350093338 2.474049957213076 2.2628446595590344 29 37 19
12.355855707827997 2.07998508175162 2.5924279996221644 29 37 19
11.49399048307638 2.495664477111938 2.40821138532262 29 38 18
11.440041232417622 2.788687797867367 2.413460544475835 28 39 16
16.81397212904826 2.1434660501078695 2.035749263530836 39 46 35
12.682462947632235 2.9282167955868172 1.772360959003135 23 35 15
12.24327243719457 2.8265897465857184 1.8640428803845077 25 35 16
12.352397863573255 2.887792026756551 2.128661038961786 24 36 14
11.05751566793609 2.7221633749220135 2.203550567529077 27 38 16
12.551050929173439 2.9962425956517182 2.0278682536460253 23 35 13
11.05751566793609 2.7221633749220135 2.203550567529077 27 38 16
11.86789613405365 3.07266463982538 2.2591263446684247 25 37 13
11.425024961673442 2.6245214553462084 2.1801596107141616 28 37 19
9.544177326667338 -0.04161155346216713 1.9506756577849105 20 31 8
10.452590727706895 -0.03739379872576762 1.2333185134514286 19 31 9
10.525031674710991 -0.9602320400091591 1.8144399610305209 27 35 19
8.996392395350236 -0.04161155346216713 1.7427173553880657 11 23 4
10.229582491105411 -0.2613510980330305 2.030540774352846 1 10 0
11.983763706919659 -0.33265353810379567 2.491452167804189 36 48 27
11.689134330045949 -0.522023481764286 2.525361048930108 39 48 29
10.732744534522396 -0.4567021386039045 2.3496099844789624 39 51 29
12.08230591271447 -0.4050886860468285 2.355677356319608 39 48 28
10.974018364708321 -0.1724936781665469 2.3281375703323275 23 35 16
12.399163380821724 -0.7326152633476867 2.586746761294411 40 49 31
11.60677636521227 -0.9881105543498604 2.277775112493239 40 47 35
11.225197950273891 -1.0886788292445755 2.307188741778096 39 47 31
10.874186528055226 -0.7485624983843677 2.1052570719823898 33 45 28
11.70717397906672 -0.9193491896368471 2.3882218665104644 40 49 33
10.273059139210716 -0.8273075013308993 2.14026331269566 37 46 30
10.751106067882912 -1.1390187822568154 2.1120472246814117 36 44 28
10.400471637914317 -0.7485624983843677 2.022421563005402 30 39 23
12.640798635745224 -1.1492271740805455 2.5566319915152538 38 50 31
12.440438953143268 -0.9479261566521968 2.581416486605338 40 49 33
11.409570969069156 -1.6037243733161681 2.748433955500224 44 56 37
11.526617609546735 -1.7485142709486932 2.5455579806911466 39 51 32
11.336765346986153 -1.724804903767323 2.423737809720008 40 49 33
11.430608655722448 -1.3240415193386075 2.4143865987177175 40 49 33
11.470619080325605 -1.5933881561754633 2.552793574675107 40 52 33
11.415697493197259 -1.3525399900611728 2.2921633437235953 38 47 29
12.107864010159007 -1.724804903767323 2.478090451258272 41 50 34
11.311349418661772 -1.4551354761534565 2.4263146047997393 41 50 34
12.107864010159007 -1.724804903767323 2.478090451258272 41 50 34
12.079695398491232 -1.6922932362443337 2.244788529969162 37 47 30
11.574864330613272 -1.3752130388457238 2.171152394507078 35 45 24
11.882911196369331 -1.7807253714529003 2.6614066709861035 41 50 34
11.828599539675716 -1.5975943406858752 2.6702982315866253 43 52 36
13.07509203930235 -2.5617825657143354 2.6519954792554934 42 54 31
12.201635524811827 -2.5617825657143354 2.613444341734971 40 52 33
12.80549169685937 -2.9522928024160464 2.5374880772299115 37 51 24
12.853815560542198 -2.710047712793674 2.6853514074628455 42 56 32
11.000897646933842 -1.9740680278783558 2.325830112600738 39 48 32
11.113831452024229 -2.1802273912239256 2.1998396343408304 38 47 31
12.183330307828637 -2.4134985157796027 2.238012226137379 39 48 32
11.591178328098406 -2.4134985157796027 2.1701890881709334 39 46 33
11.003072461953302 -2.3382287465907377 2.2071839909152144 39 46 33
19.543069907615873 -1.942891373063762 3.121337785714162 36 48 24
12.585706009125792 -2.993008311458268 2.3164782924651535 32 46 21
11.735359635732156 -2.7886098423454175 2.161818529984323 36 47 33
12.074522975893576 -3.1052588760775905 2.143086287038976 28 40 17
12.085500848705374 -2.8881146562989843 2.244404886337592 35 47 27
11.805707388613827 -3.0963469144066664 2.3793648173526476 30 43 17
12.03534967041477 -2.858543004672043 2.359582477250046 39 51 31
12.590164834321266 -2.4632873597859497 1.9396263299624907 35 44 28
12.443991141891198 -2.5332196680747323 2.032103858661708 37 46 32
10.465141926851889 0.06396146413323281 1.2337393305841122 32 42 21
9.581274778004255 0.2888071676143344 1.8390027777932219 37 47 25
10.606561756923453 1.004082897986146 2.1202596969238123 36 41 24
10.524593151878838 0.3664509134890731 2.3693218583072957 32 42 19
10.598919476799113 0.9043245593745599 2.690573125202667 34 44 21
10.092956411803193 0.7617055061402896 2.414278198347718 34 42 22
10.125290827823315 1.0181895063831405 2.574264613050677 35 43 22
10.972490028587163 0.555056517805507 2.4626299670299265 33 45 22
10.593375935535608 0.38912358771468186 2.013607377391783 39 49 29
9.832916943421719 0.7658293362358158 2.16919269153623 31 39 21
20.92051245608649 1.7220184196987887 1.5009066026737032 70 70 74
11.408120594198872 1.7697878499236392 1.886223903171092 30 35 20
11.499813037272993 2.068262066678916 2.2857483584999274 29 37 22
10.609498723599447 2.5268934957812665 2.5062199780272065 29 39 18
11.581972414759393 2.2843841784709973 2.713969256515074 29 39 18
11.315428298360194 1.7898237323434012 2.0823287119294354 29 35 22
11.896785755951772 2.1638973259225596 2.257130580527048 31 39 23
12.03543063396558 2.0135125486092136 2.485827549345905 30 38 22
12.003813869395827 1.7712040438421992 2.6424140363103534 29 38 20
12.334480206955629 2.1293263610183595 2.45492907979454 29 37 20
10.886635444779788 1.3322069108568129 2.335753460091348 30 38 22
10.986503155229467 1.3589790883192148 2.20829888966098 22 30 14
11.932072739187419 2.39970219292216 2.3683354103156975 30 38 19
16.90914982579896 2.1973897966385296 1.9678656311375957 38 47 35
12.129921425837983 2.6348129961451496 1.8668657503104202 28 36 16
12.11470813731559 2.7978303162558142 2.0456607556486426 25 36 15
11.962838345346587 2.9650500888022324 2.25261576143587 24 37 13
10.66907424788924 -0.8214205904668629 1.908914195490732 27 36 18
11.620255497423761 -1.2419093451181966 2.2767845829560143 36 45 28
12.62409319353989 -0.718043106175115 2.723957548325513 37 49 28
12.042718296758977 -0.8476453544116304 2.636520833251843 40 49 31
10.492302611194015 -0.2928459378996652 2.243655602264541 22 34 18
11.252179810394194 -1.2748923047319003 2.085486989817211 32 41 23
11.753113538109933 -0.05372939476777674 2.517716093487128 34 46 22
12.100572563428459 -1.0263621594978707 2.478861646326332 40 49 33
11.683629634014986 -0.1724936781665469 2.390372889889096 31 44 23
12.926917124007993 -0.8476453544116304 2.673960800766232 38 50 29
11.276566261157559 -0.22960545758705794 2.579082262684951 35 48 27
11.238113560636947 -0.6409452241103205 2.433848644799812 39 48 32
10.449644926677369 -0.8992816834285644 2.020140252840536 34 43 25
12.16767573440661 -1.0818877092768133 2.6182478668174407 42 51 35
12.38745838198343 -1.201028040389584 2.449728354809343 40 49 33
13.079406617018556 -2.174091825640479 1.8447945873769256 35 44 30
13.276800368226542 -2.822575312615125 2.8066646039947245 38 52 28
12.878710664441662 -2.105713847766467 1.9309807873948526 37 46 32
11.829456322416826 -2.2502037223118285 2.3772642585777874 39 48 32
11.957085534261013 -1.5879902805560597 2.366194454735761 38 47 29
12.360186178765375 -2.4971247624527853 2.33346335195225 39 48 32
12.158415025283777 -2.5234777160457633 2.472789824977075 40 49 33
11.154069552217477 -1.9507267978684457 2.5967503749417404 40 49 33
11.708880023050549 -1.9740680278783558 2.38806652891604 40 49 33
13.398526911355466 -2.0662558930000317 1.838106481589425 40 49 36
18.56247956570728 -0.4066974225000912 3.091355945951771 35 47 24
12.06051919080445 -2.695882679717815 2.1438344696588727 36 47 29
11.926710949664917 -2.6492186278512038 2.2550768802789998 39 48 31
22.011050131943744 1.6695851061488065 1.4129046858329755 71 68 71
11.620339353102015 0.0801820678502969 2.3962233945309 30 42 19
10.827575257539763 0.3240789882008757 2.648761662486324 34 44 21
9.943373466211623 0.8473955153180105 2.0448436918740227 33 41 25
11.764277303256332 0.09181560168286781 2.51639889857151 34 46 23
10.186754525881982 0.5326729355421325 2.032623516971098 37 47 26
9.965958149097817 0.6876259303474547 2.0436813320671154 37 42 25
20.408752693684743 1.6290000812831766 1.2999175489619934 54 51 50
21.216636465916412 1.6743400387635534 1.3589588602930314 74 74 72
10.805535743359476 1.3979502733431879 1.6207045442836086 31 39 23
10.776155923504446 1.4904436583712424 1.714107360839225 20 25 10
11.933341009309029 2.167181335252205 2.6533551904164474 28 38 17
10.310136785603245 2.668762227163807 2.546720176603155 30 40 18
11.453059701450062 1.5896514631754566 2.4121865190807217 28 36 20
12.576178378171063 2.747721152714096 1.8560594035270497 26 35 17
12.085389845743123 3.0794412202746577 2.1425071434055414 24 36 13
10.731611917270598 -1.180336914408592 1.9068658885683 32 41 23
11.518104010074843 -0.6643255770107496 2.2843705016979743 38 50 31
11.66836427900226 -1.8955110225456857 2.5278788602210813 40 49 33
12.384563374864632 -2.700960684713479 2.4500105589772168 41 53 32
13.144235562535727 -2.9223938893942316 2.642213357886269 38 52 27
11.000897646933842 -1.9740680278783558 2.325830112600738 39 48 32
11.685000834243157 -2.437504035907419 2.525860697293022 40 49 33
12.45767155304527 -2.6106846646045767 2.1233967202060704 39 48 31
20.666837479618827 0.7424293227759323 1.7922317024245555 39 43 28
10.620110169705368 0.598793418510714 2.6864705592045546 35 43 21
10.764064571066632 1.1029163673221645 2.2236931308237904 32 37 20
10.956710563048714 1.1506412577228577 2.100804649463817 32 40 22
12.434601550029061 1.6018589483585488 2.7597510437153208 30 39 17
10.76510325703677 1.1896226715668377 2.65967893748243 34 42 21
11.634904503668858 -1.201028040389584 2.3948680821363837 39 47 31
11.663303724655503 -0.7420068609145871 2.3922408747175767 39 49 32
21.615806119189667 -1.0370136702391144 1.4099927325774155 35 40 25
12.384563374864632 -2.700960684713479 2.4500105589772168 41 53 32
11.704225324098605 -2.2281415358930685 2.523542852577541 38 47 31
12.30051061868874 -2.4061236479829486 2.037910490466125 36 45 29
12.073282662746399 0.10738267038491997 2.6319609595986893 35 47 24
10.486724179005837 1.1506412577228577 2.0184358130664006 39 44 27
11.31143556437043 0.27167252683850923 2.574211458477281 35 45 22
11.77109935926084 2.318063560964022 2.2659092133660788 29 38 21
11.002679840463719 2.6713244389965825 2.3256776950935705 29 39 18
11.902692345247132 -2.2774014764612955 1.9620497660983607 35 44 28
12.795364348874122 -2.477909279979705 2.2008678389971035 38 47 31
12.908184671451712 -2.286368803090451 1.8485247994293106 34 43 28
11.5091436673526 1.7195856725730052 2.4067513198329564 29 37 21
11.64464547295427 1.5831680073647942 1.6171054995734881 28 33 18
11.010116431916778 -0.5994869838335791 2.0979648943362754 17 29 10
20.52503591132547 0.590641318836583 1.9469120596031229 41 48 28
11.950051714545697 1.5963455134693978 2.6507288244007152 30 39 21
10.572688313639173 0.16402198977251606 1.2373017120427487 37 47 24
10.93121540700487 1.584331577946458 1.805213563316985 28 33 18
11.609037171662527 -0.04690094961199124 2.3972788025541747 31 43 20
11.087346960166407 -0.5673269218443762 2.3185177838123545 41 50 32
12.519634640918166 -3.019381671258226 2.029102750769625 33 46 24
