11.977359400063614 1.0990322079101766 1.3865408031696218 35 41 21
11.157840943286569 1.2615458267862774 1.7333318950866532 31 37 17
10.403736561071204 0.4475144641601389 1.6483048953069863 40 48 25
10.374323654366986 0.4475144641601389 1.5520539184503968 38 46 24
11.230757417877674 0.8570814485268463 1.5534833235130985 34 42 23
10.728491880297483 0.6605335507307413 1.7398979629612998 34 42 24
10.379536448297799 0.5814306507820128 1.8444992295138098 38 43 26
8.410478864542423 0.19977990536535778 2.0403404283095945 39 46 23
8.824587873519956 -0.06117889440273966 1.8943381875149825 37 46 23
9.536312726419453 0.052187441082300896 1.761282653431778 44 50 28
9.843529295807745 0.26008638772934345 1.7552680612485942 42 50 26
9.639406864882687 0.15785022292409537 1.759220793391166 43 49 28
10.426572896432534 1.0444362884263767 2.161331150664076 35 43 23
11.041956642464214 1.0573011493315119 1.735053115984251 33 41 19
10.881891862132667 0.9503541305688747 2.1335385492447627 36 44 26
11.36938585311106 1.32790564280248 2.1067159440752716 28 36 13
10.731737440722465 1.008327178136205 1.9332922744506655 37 43 21
12.56000392842341 1.2665819498498974 2.466578536766848 37 45 25
11.47436065764424 0.8811704485522771 2.3189163576728884 36 44 24
11.795870274608829 1.2665819498498974 2.4135768506683504 35 43 25
12.035144522187002 1.1500242664332045 2.3915427124862876 36 44 22
12.171124725805619 0.9294753873559338 2.6633474063055567 43 54 29
11.628726588884668 0.8009382518497783 2.5740411169873503 39 49 25
11.771573705914498 0.9800842988404573 2.4158954594810225 35 43 22
11.990696159578627 1.2231641807365323 2.528313326208063 37 47 23
12.171124725805619 0.9294753873559338 2.6633474063055567 43 54 29
11.768955632487815 1.3005965402914716 2.2959280137633464 32 40 17
11.726126309876738 1.02264234507378 2.561142291100586 39 49 26
10.940020484944995 0.7980712932574737 2.3652598831106446 36 44 22
8.618549100569767 0.0767574885837453 2.309883536210568 39 47 21
8.618549100569767 0.0767574885837453 2.309883536210568 39 47 21
8.671123549518574 0.09102887510290138 2.4732578502513896 40 49 23
8.67245520716814 -0.09530760016453797 2.473063395363737 41 49 25
11.595569182489983 0.9777620935086886 2.770332004440649 45 57 33
17.71958778628735 1.9008626038776866 1.3895285958885593 48 60 40
17.426587142939702 1.84561273214768 1.386446163195865 48 60 41
10.648519620684331 1.5373363809871734 1.741180332085729 28 36 16
10.940944264241462 1.4426864201850977 1.8301218134666914 27 35 15
9.711605310734882 2.071853926051968 1.653841119292145 31 39 16
10.266004251106839 2.1579794565501182 1.4541842794221027 30 36 11
8.928581857190382 1.8732823902993054 1.6611430973088244 25 33 11
9.751563537108874 2.071853926051968 1.4480021315793814 28 36 13
9.923802107643018 2.071853926051968 1.3478255904999688 28 36 13
9.448709987923088 2.519188007528574 1.6561572601581018 32 40 22
10.101125602294664 2.4380963698942466 1.4522719539206528 29 38 19
10.085226366251687 2.296880701069947 1.452084219683453 28 36 14
9.414681369344821 2.2170766537043414 1.6564665461325006 30 39 13
9.666679419327176 2.519188007528574 1.34179037701494 32 40 22
9.838617048291288 1.910794457404565 2.2019543078017687 37 45 23
9.798457508830971 1.7428603249890569 1.7561264372061929 26 34 12
8.424070036692125 1.910794457404565 1.9103245546593266 33 41 18
10.641780643353597 1.5338130564642223 2.0393271109113296 26 34 14
9.283708433396466 1.910794457404565 2.114880715784408 33 41 18
11.705974230602678 1.49273807329548 2.7468141718293393 45 57 33
11.242579500790754 1.5069174030463526 2.63044086733062 44 54 30
11.71868954077231 1.7143782129899003 2.744218055322831 44 56 32
12.342990011053082 1.5239485687631398 2.488855499913271 41 51 27
10.789749280725788 1.49273807329548 2.71116133126987 47 56 30
10.803543002478168 1.7143782129899003 2.708388914793869 45 55 31
9.902871459066555 2.0204566890221325 2.4786960360036456 39 48 26
12.342990011053082 1.5239485687631398 2.488855499913271 41 51 27
11.318027300114103 1.3294287314326696 2.6186785747936545 42 52 28
11.610605864679888 1.4129542271797266 2.3080799086530055 31 39 16
11.360146495395917 1.470495117254614 2.827841059351336 46 58 35
11.170415043350268 1.073391521003047 2.885307861196138 48 60 37
9.05054469586284 2.6109295099096483 1.7716426001441063 32 42 18
8.157140543970595 2.470173088578127 2.0561628130483305 37 45 23
8.747333659165331 2.3706020718051466 2.0208957280362894 35 42 22
9.06656246124339 2.451516302273647 1.8854020788713248 31 39 17
8.842787941026984 2.192505399037905 2.0156865546454164 37 44 24
8.86048474131699 2.0830887959295628 2.144039807404588 37 45 24
9.249900524548291 2.1263788565027846 1.8789589183769768 34 42 22
8.78992649847349 2.024211177041324 1.8956607699279941 32 40 17
9.048845632943094 2.2871358197047447 1.8860392752157407 31 39 17
8.686965884694102 2.3737550300375356 2.302728667155044 39 49 26
9.47383617409843 2.1575311521895015 2.3722302334328873 38 46 26
9.683433504752697 2.7137016902595112 2.0900903085508444 37 47 24
10.216654422440763 2.7137016902595112 2.175168845305768 38 48 25
10.939451586289302 3.0778203270631277 2.365312840381889 45 57 34
11.044677102111518 3.068261068567686 2.4935525269579046 46 59 36
10.361016042549736 2.9213601661441286 2.42395247560238 44 56 33
11.044677102111518 3.068261068567686 2.4935525269579046 46 59 36
10.567116196726142 2.883955611827325 2.5558457230110014 46 58 35
9.507653075456899 2.588373978697191 2.3685644135679027 40 52 29
11.045722611003258 -3.064807004860759 2.4934275197537863 49 62 40
11.045722611003258 -3.064807004860759 2.4934275197537863 49 62 40
9.834450395321516 2.783467593594807 2.335070769388376 41 53 30
9.951367034693197 2.7266520894992263 2.472479037587479 43 55 34
10.254486599739003 2.662891844916615 1.2540091694269393 38 47 26
9.817167703439186 2.662891844916615 1.4488268231080237 38 48 25
10.782581271179144 3.002717529729631 1.6455764601439755 40 50 26
10.726829367790035 3.0957561041642396 1.4592153093400497 44 54 31
10.662978342921654 -3.093592045938896 1.5525613462946255 44 55 32
10.666608680111155 2.889193196591134 1.9356089707800859 39 49 25
10.202442453440334 2.8614414355117352 2.061244953522647 40 50 27
11.694221772938667 -3.093592045938896 1.9942763629202065 45 57 34
10.140086503767838 2.662891844916615 1.851135114806382 35 45 22
11.017322970529216 -3.082515653304513 2.2366307466707323 46 59 37
11.105638838819962 2.971165337660552 2.230399419438323 42 54 31
10.881671727751952 2.988538178949039 2.02820060175792 42 52 28
9.738811529812907 2.7582108473167426 1.863019140283506 38 48 25
11.271424863187866 3.091013392414117 2.111885512792662 43 54 30
10.38377253955743 3.091013392414117 1.9460324070495436 44 54 30
11.01627476634586 3.0851771127342436 2.236705489236315 44 56 32
11.01627476634586 3.0851771127342436 2.236705489236315 44 56 32
10.38377253955743 3.091013392414117 1.9460324070495436 44 54 30
12.070093920628356 1.4306400277933689 2.9318497807674087 46 58 35
13.311343508294645 2.3874208517731943 2.8650474048577697 45 57 34
11.975492102483281 0.8337411022461091 2.9729349827723683 49 61 36
12.908108226002579 1.9819249277154507 3.0154647508725807 49 61 38
13.161115519025739 2.6296531676350243 2.9086237985012535 49 61 38
11.892666093267799 0.3469082933232097 3.0204948688680195 50 62 39
12.920534259425573 2.8536032736273733 3.0080943468491763 52 64 41
13.085796017608645 2.959244670846653 2.934270359068048 53 65 42
11.892666093267799 0.3469082933232097 3.0204948688680195 50 62 39
12.920534259425573 2.8536032736273733 3.0080943468491763 52 64 41
13.085796017608645 2.959244670846653 2.934270359068048 53 65 42
13.086678460319275 -2.950825775562477 2.9339500309973277 53 66 45
13.325126828261592 -3.0023090448401195 2.8614259577104577 51 64 43
9.525935527891289 -0.4953156869209078 1.6554635848414054 38 45 25
10.02110273905756 -0.35922953068573 1.651270676593861 38 43 26
9.853298481506492 -0.7249116168356947 1.6526442185771943 40 46 24
8.938481238264005 -0.17906178573378984 1.8900685501925736 39 46 26
8.991753626380431 -0.44564231700094875 2.007802704059175 44 50 28
9.363521688069468 -0.6433480625297484 1.764842190459693 41 47 26
9.160761024943277 -0.29214058900120465 1.8820577213338547 41 47 27
8.00365417513036 -0.580744009286667 2.2148252784489633 46 52 30
8.28532000542953 -0.43883161287519074 2.3471825850116175 44 51 28
8.490086917364497 -0.7004808542400536 2.1724681286475223 46 52 31
8.28532000542953 -0.43883161287519074 2.3471825850116175 44 51 28
8.106444157025011 -0.2336518918495365 2.205338436053529 40 47 24
9.840307749759504 -1.167594616397489 2.486882299365452 55 63 41
8.858019960269797 -0.6431653332984896 2.649163318024902 48 56 34
8.876117686879361 -0.9808165056147279 2.6453763470626326 53 61 39
9.618248750951622 -0.9319339752990635 2.5175753670691385 50 58 35
9.273429030177661 -0.7978734941062545 1.7667517558984838 45 51 29
10.053234021851353 -1.3012946827251124 2.069186889881455 53 61 38
11.179553855653076 -1.2621829333046224 1.733013417547642 50 58 35
9.922132576106945 -1.0457729310636446 2.0763918012739673 51 57 35
10.510921313606167 -1.3284725793492118 1.9412719220198174 51 59 36
9.701946571850833 -0.8829139586465732 2.088999884884285 46 54 32
10.829248357262122 -1.141762842899507 1.8328591835777726 51 58 35
10.433348087708907 -1.224300694690488 2.416045981488087 55 63 41
10.433348087708907 -1.224300694690488 2.416045981488087 55 63 41
10.405128777771564 -1.2674609071268113 2.28373473637674 55 63 40
9.997287497477275 -1.0955089415732668 2.3195711613077483 55 63 41
10.670545468353435 -1.7263963246860994 1.6463631071254565 51 59 36
10.394157180239914 -1.507184359635254 2.581424014241141 57 65 43
10.51827967010184 -1.8614975015084416 2.562881767676152 58 66 44
11.666539930867607 -2.217073777858015 2.7550073963340656 59 67 45
10.475717236641156 -1.3304015683329908 2.5691305651844534 55 64 42
10.394157180239914 -1.507184359635254 2.581424014241141 57 65 43
11.556089400422676 -2.0188150408740646 2.5839782190759863 58 66 44
10.813158779482269 -1.7136531671410276 2.7064701738610726 58 66 44
11.8251172426483 -1.9212035682338435 2.723293969630899 58 66 44
10.308945686910254 -1.5295728992396551 2.168999545106807 56 66 42
10.671268903362177 -1.5374098436619565 1.7408135584573559 51 59 36
10.885179059366727 -1.5374098436619565 1.8314811985053479 50 60 36
11.003764214368674 -1.7263963246860994 1.8286075356593683 52 60 37
10.376457696281028 -1.7424506918397697 1.946310099983748 54 64 40
10.376457696281028 -1.7424506918397697 1.946310099983748 54 64 40
10.323381860666489 -1.6468897691575852 2.1680468443056204 56 66 43
10.963086759166123 -1.4429648403373883 1.8295860178387193 49 59 35
10.333311121140829 -1.4296946181949512 1.9479566947549634 51 61 37
10.750726865770158 -1.4429648403373883 1.7395448601322674 48 56 32
9.635713216845344 -1.7868875954466166 2.217433179970227 58 66 44
10.127031827019765 -1.8725105803170894 2.0652253442971333 57 65 43
10.14211065868218 -1.5240924015792554 2.306381621584063 56 64 42
10.504475791140692 -1.957154717277028 2.4084440785918093 59 67 45
10.171059730934816 -1.5169328692968214 2.445618538652587 57 65 43
9.515327689478704 -1.3662103566773935 2.3677380057642448 57 65 42
10.297871614134085 -1.818813634467003 2.4310056417274417 57 66 44
10.581906530718676 -2.517197637672838 2.0421928948146078 56 64 41
11.405819327994886 -2.4946788414226946 2.6054764537811645 56 64 42
11.678309385980425 -2.5387637367553864 2.7525391168172106 57 66 44
11.18820523626408 -2.608686414520739 2.2246892459515353 55 63 41
10.639143566304273 -2.4676718404596523 2.3944968672448805 57 65 44
11.393090843622941 -2.4676718404596523 2.4541746512529334 57 64 42
12.028331637436294 -2.6462715765348976 2.6867799822432925 53 64 43
11.036070980081153 -2.3753777495891866 2.664866671522157 57 65 43
10.995507275820286 -2.4494539144529552 2.238190170426323 56 64 42
11.591698352657902 -2.723233204442151 2.5790716165175787 52 63 42
11.213424460740526 -2.8243310668763337 2.34073566707312 54 63 41
11.213424460740526 -2.8243310668763337 2.34073566707312 54 63 41
11.416846105194278 -2.880136395335797 2.6038531324201877 49 63 41
11.136924337919819 -2.9180547972511826 2.482690032560505 49 62 41
11.31610266027456 -2.7804242519076303 2.4625036966631444 52 63 42
11.100201418611997 -2.3685032095907794 2.35067320687118 58 65 43
11.010445538188833 -2.1555966785902654 2.497670115417752 58 66 44
11.579174198844886 -2.655689163812607 2.4348271877910306 55 63 42
11.393768401486469 -2.2508782641480796 2.6072592432050334 58 66 44
12.028331637436294 -2.6462715765348976 2.6867799822432925 53 64 43
10.473871761135724 -2.366632798931423 2.0474576304252636 55 63 41
10.139826939645216 -2.2155967817162594 1.9555267955136304 55 63 41
10.871499795505537 -2.3652558374849093 1.7376525149948867 54 62 40
10.593773781267265 -2.1567269066849395 1.8388261491588431 54 62 40
10.4296478963082 -2.436343051941332 1.8431505676155924 55 63 41
10.418317244632393 -2.070710015186479 1.9447266645832288 54 63 41
10.056310538517286 -2.1249998827884093 2.0690204064271587 56 65 43
11.272417108577645 -1.9049165114392534 1.7316653593553262 52 60 37
10.012166715767988 -1.9757992463627991 1.9606950127609264 54 64 41
9.88521264740334 -2.190824125296484 2.198513456649702 56 64 42
10.473871761135724 -2.366632798931423 2.0474576304252636 55 63 41
10.739745975855492 -2.0254168156041357 1.7397190568335956 52 62 38
10.566713533878128 -1.937112467736033 1.8395295368552467 53 63 39
10.170677112573813 -2.0229997192056404 2.1782940195765597 56 66 43
10.5037408684237 -2.190824125296484 2.27564535139434 57 65 43
10.101025708586327 -2.0815721004325685 2.3100688908688998 57 66 44
10.983006150251699 -2.2853765773823898 2.2390874324300882 56 64 42
17.54207395640495 -1.6078364070055813 1.6167347365328384 41 44 12
17.629518548849557 -1.6646817044630549 1.5029927671016876 29 31 4
17.905806719843646 -1.7762293038837729 1.6158009214559717 22 24 0
17.802561769855956 -1.7209255330748021 1.67239302353722 34 37 6
11.3618312725165 -2.9862010572504807 2.1071108774222855 48 60 37
11.357406418844285 -2.823065093255575 1.7304511766371369 48 58 34
11.336942186373138 -2.7925610281972655 2.008527939615291 53 63 40
10.874350646407201 -2.660790373815565 2.028532012516906 55 63 40
11.53751730548891 -2.886950169513867 2.0980833570936763 50 61 38
11.06811467359481 -2.886950169513867 2.0199258877583595 53 63 39
10.632606049182687 -2.574231178510858 1.837823256961244 56 63 40
10.715243987375356 -2.858976989571918 2.143379341188571 53 63 39
11.295075387092133 -2.9099754484112106 1.8218130218623168 46 57 34
11.108757857936812 -2.968572958479044 2.230181708427672 48 61 38
11.55208606983679 -2.755916257536209 2.20076639719161 55 63 41
12.448733170566701 -2.7488670819626617 2.8187430550346084 52 65 44
13.163747522385357 -2.6230512383661253 2.907782632181147 55 68 47
12.60928440718544 -2.5387637367553864 2.7826256841521104 55 66 45
11.383690943784378 1.1775590393216906 1.641620934230511 33 39 19
11.108843752963933 1.3502831287012347 1.8261141876017277 28 36 16
10.631975695575028 0.9284471433038178 1.6466377676873825 38 44 22
9.399638981300317 -0.054650244263417753 1.6566039827207804 41 49 28
9.416308597478542 0.548165918297514 1.9868422621826038 36 46 23
11.934577032999085 1.088286513195919 2.7031183474033442 45 58 32
8.643671616945698 0.32640718625858967 2.026698560840864 37 46 20
7.980685507000185 -0.08037158929190011 2.2169879345659256 39 47 23
8.292119779660505 0.06634883297717613 2.0475962074800726 38 46 22
11.384169783843836 1.1947977351856465 2.21156285003809 32 39 17
10.776864773346606 0.7960973771943941 2.1396978501689308 37 44 24
10.758382616277734 1.2312967433544209 1.932353144331688 31 39 17
11.480413324469454 1.166076908084328 2.594639507101053 40 50 26
11.251357394692418 0.9004801824435725 2.469664806457082 38 46 24
8.292119779660505 0.06634883297717613 2.0475962074800726 38 46 22
10.680785715886637 1.0971295385261262 2.037479681938693 34 40 18
11.659146995292758 1.0444362884263767 2.3043055423665213 35 43 24
9.536312726419453 0.052187441082300896 1.761282653431778 44 50 28
17.400486902336603 1.78858809737519 1.3273462871520951 50 60 42
10.198136419481502 2.1579794565501182 1.551730077920973 29 38 12
11.129179592758247 1.5338130564642223 2.1195838143494807 25 33 12
11.205390958926612 1.4293557214044534 2.1154304940561515 28 36 13
11.242579500790754 1.5069174030463526 2.63044086733062 44 54 30
11.71868954077231 1.7143782129899003 2.744218055322831 44 56 32
11.8353135259192 1.365502385738431 2.5472222155552107 40 50 26
9.683440053479062 1.8626526260532437 2.508284719809913 40 50 27
11.637886724009325 1.3922956253084797 2.4289394660125283 36 44 26
11.778454093048952 1.2784121453919108 2.732297391732822 46 58 34
12.342990011053082 1.5239485687631398 2.488855499913271 41 51 27
11.373248448105251 1.7547152847416736 2.8243098593136926 46 58 34
9.585888773738658 2.519188007528574 1.760285506010236 32 40 19
8.686965884694102 2.3737550300375356 2.302728667155044 39 49 26
8.668914868696094 2.470173088578127 2.158372370037056 37 47 24
8.360903240568893 2.3706020718051466 1.9129942963958149 33 41 21
9.158272271295374 2.024211177041324 1.999325904271652 34 42 22
8.460718375135821 2.192505399037905 1.9087950239711187 35 42 21
8.783076266721396 2.1575311521895015 2.2929406062436195 39 47 27
9.384802578022112 2.3737550300375356 2.3820766935661 39 49 26
9.951367034693197 2.7266520894992263 2.472479037587479 43 55 34
11.029438122562969 2.9493983852824046 2.3570386845769224 42 54 31
11.133813209344959 2.9213601661441286 2.4830509759289665 45 57 34
10.26517165678661 3.068261068567686 2.4347153779607855 46 58 35
10.939451586289302 3.0778203270631277 2.365312840381889 45 57 34
9.746174883720316 2.662891844916615 1.5508457997972616 33 43 20
10.726829367790035 3.0957561041642396 1.4592153093400497 44 54 31
10.262011130322128 2.794676310501662 1.5518487678479287 38 48 25
10.035976534526478 2.889193196591134 1.4514988878348682 38 48 24
11.661584308470355 -3.082515653304513 2.3041171923609474 48 61 39
11.27244934146132 -3.0886261995447652 2.111830900854613 46 58 35
10.811951615019218 3.0957561041642396 1.7385801935054732 43 53 29
10.158173718603827 2.988538178949039 1.8506224923588779 42 52 28
10.126907447063987 2.889193196591134 1.7500492002188726 38 48 24
13.324260177583394 3.0085218267308496 2.8616520986884537 50 63 42
12.831303662664897 2.49636027861633 3.078250950405456 53 64 41
11.820886543378798 0.9475982282525517 3.0906836086700196 53 64 41
11.820886543378798 0.9475982282525517 3.0906836086700196 53 64 41
12.831303662664897 2.49636027861633 3.078250950405456 53 64 41
12.996811525896181 2.4072989658689936 2.9698335066767774 50 62 39
11.904211984088311 1.3391646018613188 3.012769937572038 48 60 35
13.14891684247587 2.155999912340578 2.91256647534683 47 59 36
12.921427988357639 -2.840776297908635 3.0075803050361962 55 67 45
9.317111188595678 -1.0903929944318018 2.5639777373134054 54 62 40
8.459049745949864 -0.5235046679728628 2.505682451827184 44 52 29
9.707914769541798 -1.224300694690488 2.347641767511055 56 64 42
9.9624055465506 -1.0982316356331179 1.856274055202759 48 54 32
9.639946924083537 -0.9518100818348298 1.8661058597204927 49 55 33
8.060240391400576 -0.67902684644664 2.3749917630154815 45 53 30
9.859958025821633 -0.7978734941062545 1.9670469937517876 46 52 30
9.997287497477275 -1.0955089415732668 2.3195711613077483 55 63 41
8.459049745949864 -0.5235046679728628 2.505682451827184 44 52 29
9.23750481021962 -0.39804492392498414 1.7675237827349894 39 46 26
10.921551001433812 -1.3507521296617513 1.7368807214389146 49 57 34
9.160761024943277 -0.29214058900120465 1.8820577213338547 41 47 27
9.84939325765989 -0.26239147527273793 1.755156971801522 40 45 28
10.510921313606167 -1.3284725793492118 1.9412719220198174 51 59 36
10.720637065209791 -2.0188150408740646 2.5345988203309293 58 66 44
11.368612508353383 -1.8614975015084416 2.6110104550814066 58 66 44
10.720637065209791 -2.0188150408740646 2.5345988203309293 58 66 44
10.685215574490623 -1.632452653279956 1.7405894878613395 51 59 36
10.898852004681423 -1.632452653279956 1.8311465610592617 51 60 37
10.898852004681423 -1.632452653279956 1.8311465610592617 51 60 37
10.25061805901308 -1.5339027767772746 1.9511543072997857 53 63 39
10.254394384105355 -1.3662103566773935 2.4359467707227287 56 65 42
10.225681236352047 -1.3928329282279326 2.2990097107174106 57 65 42
9.784317477476371 -1.957154717277028 2.3399941905836763 58 66 44
11.071941517704918 -2.517197637672838 2.1227478020942874 56 64 42
11.933398754085136 -2.3753777495891866 2.7033289601112593 58 66 44
10.42129206898763 -2.3685032095907794 2.282394450073046 56 64 42
11.31610266027456 -2.7804242519076303 2.4625036966631444 52 63 42
11.31610266027456 -2.7804242519076303 2.4625036966631444 52 63 42
11.032578684397036 -2.946490737274523 2.356753581719684 49 62 41
11.202197449157284 -2.5454165098529486 2.341707823685539 56 64 42
10.054394388629532 -2.366632798931423 1.9589697222856814 55 63 41
10.139826939645216 -2.2155967817162594 1.9555267955136304 55 63 41
10.968734330602034 -2.366632798931423 2.1285523420478873 56 64 42
10.952318785194098 -2.0254168156041357 1.8298462970509708 52 62 38
10.096048289464218 -2.070710015186479 1.8523912330544288 54 63 40
10.5037408684237 -2.190824125296484 2.27564535139434 57 65 43
17.56422706522431 -1.6078364070055813 1.5027403318736512 36 40 8
17.607447587809347 -1.6646817044630549 1.6165640551651614 39 42 9
10.672020393591527 -2.886950169513867 1.9354153151531823 49 60 37
10.93907923655952 -2.574231178510858 1.9261134975901086 56 63 40
10.672020393591527 -2.886950169513867 1.9354153151531823 49 60 37
10.48183779553525 -2.9862010572504807 1.9423498540317277 46 58 35
11.115558118725858 -3.000590895822199 1.8259565248791578 45 57 34
10.644433843279044 -2.7925610281972655 1.8375192974902634 52 62 38
11.288383270229401 -2.858976989571918 2.2179057661218 54 63 41
11.18371168737993 -2.4962549870496704 1.8243672582506945 55 63 41
12.77766838736395 -2.8272348976976995 2.7490051000109617 51 63 42
12.193158150639043 -2.6230512383661253 2.8887802137180927 54 67 46
8.732484920663177 0.23020752160219235 2.298055433615181 37 46 20
11.628726588884668 0.8009382518497783 2.5740411169873503 39 49 25
11.934577032999085 1.088286513195919 2.7031183474033442 45 58 32
10.142582180495417 0.35706317461303644 1.7497691773765855 42 49 25
17.637312615698008 1.84561273214768 1.3306799978519601 46 58 40
9.382168306936151 2.2170766537043414 1.5500716564145347 28 36 13
9.325082994862996 2.3684089370825596 1.6572917420113165 28 38 15
9.260735831850054 2.470173088578127 2.2483664427002674 39 49 26
8.949727098508237 2.497849613395191 2.4347593735744635 42 52 29
10.473158092210491 3.0553390471593094 2.569509842886692 47 60 37
10.789749280725788 1.49273807329548 2.71116133126987 47 56 30
10.536330786545754 2.8270591092232964 2.2730172596814713 39 51 28
9.464053888672355 2.3684089370825596 1.7627550917733013 30 39 14
9.414274745971296 1.9767841697682862 1.7637828538954305 30 38 15
12.411750502950172 1.3922956253084797 2.481643260247681 39 47 25
8.650383657729044 2.2735681127284773 2.1597998906226694 38 45 25
11.537071569961391 1.5294608644867853 2.313883358951851 31 39 17
11.0241796330362 -3.093592045938896 1.828119265741365 45 56 33
11.271424863187866 3.091013392414117 2.111885512792662 43 54 30
10.522550587747016 2.971165337660552 2.155229410757163 41 52 28
13.085796017608645 2.959244670846653 2.934270359068048 53 65 42
13.324260177583394 3.0085218267308496 2.8616520986884537 50 63 42
13.085796017608645 2.959244670846653 2.934270359068048 53 65 42
9.748680028349057 -0.9817268002994343 2.208713924053116 50 58 35
9.840307749759504 -1.167594616397489 2.486882299365452 55 63 41
9.42733944370562 -0.5504513158907672 1.9863253301551966 43 49 27
8.788320375911425 -0.2753028470448588 2.4565438940277025 42 50 27
9.64300014698299 -0.16025810969976978 1.7591497381365584 39 45 27
9.575722437676244 -1.2035037344114117 2.737787563043285 54 62 40
11.267098051389125 -1.687996078500284 2.626574298473984 58 66 44
10.799377339681307 -1.4931360636042867 2.7092236750020735 57 65 43
9.692555415310247 -1.8725105803170894 1.9742839725114465 55 65 42
10.671268903362177 -1.5374098436619565 1.7408135584573559 51 59 36
9.912563833842329 -1.7621539974231193 2.0769262691165093 57 65 43
10.989519352741578 -1.8176578751633543 1.7358440567420588 53 61 38
10.26438420177123 -1.8424096224442383 1.8476502428246826 54 63 40
10.156783963362962 -1.6569728057313362 2.305074919863945 57 67 44
9.562165896624949 -1.818813634467003 2.362738079544071 57 65 43
12.028331637436294 -2.6462715765348976 2.6867799822432925 53 64 43
10.931819020893666 -2.3711901971448293 2.5073137223430724 58 65 43
11.138654264925345 -2.6462715765348976 2.647331051891233 55 64 42
11.393768401486469 -2.2508782641480796 2.6072592432050334 58 66 44
9.4561925328808 -2.0815721004325685 2.2318436391475958 57 65 43
10.741913162355084 -2.436343051941332 1.9329330338239101 55 63 41
9.634912027705363 -2.0229997192056404 2.0929713907077057 56 66 43
10.20619479014362 -2.436343051941332 1.7486417351567212 55 63 41
17.71182992455365 -1.7209255330748021 1.559818786215766 23 25 0
18.334068082318577 -1.830288385066573 1.7244249757509738 23 25 0
11.310977442284896 -2.7042240000209015 1.913940263333719 55 63 40
11.288383270229401 -2.858976989571918 2.2179057661218 54 63 41
10.862156200698392 0.7946554773944496 1.8320466411673424 34 42 23
11.324025809018474 1.1500242664332045 2.3313090390790783 34 42 22
10.806250654085924 0.7126671825636286 2.2520675977963482 35 43 23
12.226158126159717 1.0940617461834805 2.5014587195270126 37 45 23
10.506196001214422 1.8626526260532437 2.5646445913872657 42 52 29
10.940507150863239 -3.074813705877658 2.365214587304331 48 61 39
9.283708433396466 1.910794457404565 2.114880715784408 33 41 18
8.997194927722052 2.1263788565027846 1.772849963438005 31 39 18
11.564525898900692 1.5239485687631398 2.4363118239426527 38 46 24
9.440303649656748 2.0830887959295628 2.2331533880472203 38 46 24
10.811951615019218 3.0957561041642396 1.7385801935054732 43 53 29
13.161115519025739 2.6296531676350243 2.9086237985012535 49 61 38
13.086678460319275 -2.950825775562477 2.9339500309973277 53 66 45
8.35090010599379 -0.3765799458432697 2.183957351358783 41 49 26
9.230150408397595 -0.7147452480699412 1.995771204083884 46 52 30
11.579174198844886 -2.655689163812607 2.4348271877910306 55 63 42
11.035371460069786 -2.5854196107226652 2.4946671206036464 56 64 42
11.478849412988053 -2.7112049809167424 2.318553492698851 55 63 41
10.416467687504046 -2.2953520879717924 1.8435039829784892 55 63 41
10.265136261016579 -1.6389158276648663 1.9505888860648004 54 64 40
11.136924337919819 -2.9180547972511826 2.482690032560505 49 62 41
10.228331623623232 -2.1555966785902654 2.438942814175098 58 66 44
11.089075022448139 -2.9099754484112106 1.7343488712293162 48 58 34
11.33491598448059 0.813777221585628 2.8347753757327445 46 58 35
8.671123549518574 0.09102887510290138 2.4732578502513896 40 49 23
8.498567560062693 2.5477988545284913 1.9072300738537629 33 42 22
9.919834842218926 2.8270591092232964 2.195983204537031 39 50 27
11.327898272864546 -3.0512823214387437 2.617168876858975 48 63 41
9.777477589372017 2.662891844916615 1.65328035788042 35 45 22
11.32687880976244 3.0553390471593094 2.6173244925044425 47 60 38
8.650348985341774 -0.32922329195266514 2.026320081292175 43 50 27
9.24751989110793 -0.8829139586465732 1.9949213438830737 48 54 32
9.907498134545667 -1.1957248532327884 1.96504027835889 52 60 37
9.856207235177251 -1.9098274585216124 2.2006505234107316 58 66 44
10.626223208096253 -2.2714978241932267 2.39581059528775 58 65 43
10.393040024451714 -2.2853765773823898 2.1634955263152245 56 64 42
11.288383270229401 -2.858976989571918 2.2179057661218 54 63 41
9.867389024639795 -1.4133754745544407 2.0794656997571495 55 62 39
11.11395998378792 -2.101708869056601 2.6514702113671844 58 66 44
10.408475169447508 -1.687996078500284 2.579234526265718 58 66 44
10.950559421670052 -2.2339467273807436 1.73643668403924 53 61 39
10.156783963362962 -1.6569728057313362 2.305074919863945 57 67 44
11.2637620993668 0.9284471433038178 1.9154383003764008 36 44 24
11.419486342886207 0.9809398867206256 1.553769482001448 37 43 21
11.01627476634586 3.0851771127342436 2.236705489236315 44 56 32
9.24155196378889 1.9767841697682862 1.5497562706165722 27 35 13
10.072516724226778 2.7582108473167426 1.9582341072406095 37 47 24
11.373248448105251 1.7547152847416736 2.8243098593136926 46 58 34
8.543451929781513 -0.8035029922848034 2.3179244680408972 47 54 31
9.191714384480203 -0.8087776457327214 2.585258172658328 49 57 35
11.31610266027456 -2.7804242519076303 2.4625036966631444 52 63 42
10.992704372369245 -2.755916257536209 2.127192636021796 54 64 40
10.609655661808997 -2.608686414520739 2.149808015052658 55 63 41
11.591698352657902 -2.723233204442151 2.5790716165175787 52 63 42
10.26517165678661 3.068261068567686 2.4347153779607855 46 58 35
11.43481860509312 1.2012867987699485 2.8083021683824745 47 59 35
10.648519620684331 1.5373363809871734 1.741180332085729 28 36 16
11.748005970924776 -2.968572958479044 2.297509419997494 49 61 40
11.778454093048952 1.2784121453919108 2.732297391732822 46 58 34
11.66059401892716 3.0851771127342436 2.3041937063271467 46 58 35
9.073627561629394 1.8732823902993054 1.7711247012575668 28 36 14
10.308945686910254 -1.5295728992396551 2.168999545106807 56 66 42
10.067656622567453 -1.151171212174854 2.185425620546661 54 62 39
10.185691332242312 -1.6701260645399678 2.4439008458800195 58 66 44
