11.169241216134854 2.18852408719663 1.6068375365320917 25 34 22
9.274291196465953 1.2278076431997245 2.1926226747793534 28 39 18
10.495643857242868 1.3242215048425285 2.4990370940476323 16 28 9
9.198857525880475 1.1768699711076385 2.3406171984841198 19 31 10
11.28590028076112 1.212465004352945 2.743294234876269 23 35 14
10.805787456853015 1.2783705728244366 2.6262672514109027 18 30 9
10.962349934720244 1.110887129560768 2.8206124842001694 28 39 18
11.146453210590302 0.8851768850720819 2.7741621645008387 24 36 17
8.435893478619482 0.5994816910567374 2.4325034832923764 15 29 5
15.748244345267441 -1.0840474683582932 2.9316523650694464 40 54 37
14.39928865570139 -0.8345297897596187 2.767317235955407 34 44 30
15.135195484241947 -0.994485809423409 2.829156898305544 39 49 35
14.39928865570139 -0.8345297897596187 2.767317235955407 34 44 30
9.848053417022898 1.975036674791255 2.03424895375992 19 30 15
9.54224602434638 1.8662224875617341 2.050330325041018 19 31 14
9.746794190861687 1.6281276943243412 2.1582955722317827 31 43 24
9.837062073540269 1.9346294959274832 1.7138533601633483 25 35 21
11.217079185307961 1.6468637503293766 2.564821259625074 25 35 14
10.890088125712591 1.975036674791255 2.199277475581014 26 38 21
10.36055636245584 1.7742800731255102 2.366684586347524 23 35 16
10.334647001211028 1.6281276943243412 2.238920661057691 25 37 18
11.302767907236316 1.8065020588133511 2.553270245328442 32 44 25
11.00983028319997 1.6361818446872607 2.4390141136249373 25 38 19
11.097119436153204 1.7742800731255102 2.42977435951132 31 43 24
11.272788328343227 1.9049746871529096 2.411895002101798 33 45 26
10.338047771424643 1.5048177335690303 2.2386610731185135 29 41 24
11.730812256430301 2.087415318857634 2.5006270612505355 32 44 27
11.677288424521045 1.850533170559592 2.6699626204658564 33 45 26
10.709562991927543 1.4662312622204032 2.642360578864604 22 34 15
11.24337703448534 2.1676219034798385 2.5612358444579226 33 45 28
12.125834842132441 1.6837133570175968 2.794438689746908 29 41 22
11.276552482626514 1.9140026992256458 2.7452688805733514 35 44 28
11.705555506860593 2.2725245033485484 2.665249561927013 37 46 30
11.967860050850794 2.8343885210343736 2.832984633367253 37 49 32
11.825288223237948 1.7196756331516203 2.8733729133341326 36 45 27
11.90660062646061 2.012326771109211 2.8495550031947867 36 45 29
11.393928236923882 2.4118393667575244 2.721333572205776 38 47 31
10.907259747987007 2.24444292369221 1.8880358911704194 26 35 22
10.637827953554833 2.24444292369221 1.7986033641931607 24 33 21
11.749072908533071 2.517217738545581 2.048589496741873 27 36 25
11.017247815824268 2.3094603981069484 2.0833041211580468 29 38 24
11.202879750762376 2.3812944326206 1.9746623463268658 27 36 23
11.566813894089918 2.3852878466888474 2.2652613926622687 28 39 24
11.186161937222723 2.132210609023224 2.293949642063369 30 42 25
11.03908903601785 2.301392739764439 2.3057712332001357 31 43 26
11.602039937772563 2.8276211709641914 2.5156562577853343 37 46 30
11.801870037705445 2.9430985584699823 2.6496675354179815 36 47 30
11.664274101855064 2.790623136278365 2.258322384038377 35 46 35
12.294688735878287 2.900200227009485 2.7582784059757968 37 49 32
11.936606110738198 2.77484135842065 2.6290002136890136 38 47 32
12.424081461748205 2.702096802407576 2.733227682131576 38 47 31
11.602039937772563 2.8276211709641914 2.5156562577853343 37 46 30
12.011366324043093 2.3907917880201057 2.4699448795529313 33 45 28
11.764254597938349 2.473742983297194 2.3663296653716523 32 43 29
11.68428224239173 2.542301389054939 2.256916998324648 31 42 30
11.801870037705445 2.9430985584699823 2.6496675354179815 36 47 30
11.433813711637368 2.8674592300456214 2.3962840909242 36 46 31
11.823948569479342 2.6945646929463947 2.4901423154351034 37 46 31
11.308229872898345 2.625701997517907 2.5525466274692516 39 48 34
11.18681344257387 2.3988625575222446 2.568993325694101 36 46 30
11.622155218131168 2.4980238357929068 2.5132660333636694 36 46 31
11.963651370065607 2.639413281155246 2.349465772961939 35 46 34
12.055645921186832 2.9953912270035574 2.465337819581622 33 45 27
12.6638714879232 2.1800495599071894 2.938057632389991 37 46 30
11.962708381328115 2.943623367248304 2.0393641306396626 31 42 31
12.141920171489762 2.960498568855365 1.8548244964428564 20 27 26
12.666080141364889 2.8775796035649535 1.925784403742189 37 43 43
11.61815934397273 2.9233350448351367 2.154447112651045 33 44 30
12.666080141364889 2.8775796035649535 1.925784403742189 37 43 43
12.581345109309256 2.6138947657762652 1.84464362242326 50 57 51
12.032122924462865 2.6474254423043204 2.036446161262987 23 33 24
12.470094222929669 2.768250812448364 2.0188739812429337 26 34 27
11.479686297365351 3.025974089822419 2.1624342851613667 35 46 30
12.330155231603209 3.046007888323109 1.935902738161679 27 35 27
12.265233710478507 -2.44457431157989 2.764278292931279 39 52 35
12.067907317703487 -2.6398316764323857 2.807958827514843 37 50 32
10.885749384584427 -2.0368008900877617 2.613442582440195 40 52 35
10.753030532616624 -2.2970781844395143 2.634997225110332 41 53 36
10.74333069813167 -1.9840833864817935 2.2092419259119485 33 42 29
10.836322064368257 -2.101739203462607 2.458141942337012 36 48 32
11.196937692627175 -1.814123816331966 2.567592211626997 35 47 31
11.968569188412543 -1.6494113564784114 2.624274585278134 34 46 30
11.14889007530836 -1.913856536909139 2.4244083923859776 34 45 31
10.6968460391868 -2.036118366127851 2.3350843535875256 34 45 31
11.367677253073442 -1.9840833864817935 2.2799417198949588 34 43 29
11.626247199328946 -1.7541200693499657 2.3785191985413006 30 39 25
11.173987407983452 -2.6167894733174317 2.075429009903655 35 43 33
11.567783473664157 -2.855632406892811 2.5197644011882607 33 46 28
11.255464829236173 -2.653603451139086 2.55959996448239 36 49 31
11.773495039178238 -2.719819308217921 2.495783374983638 35 47 29
11.903312531342715 -2.806860939176257 2.633992462606583 36 49 31
11.60775390471006 -2.7709586867803915 2.3801866089806327 32 45 29
11.410980352521145 3.126247090480173 2.539203161568953 35 46 29
11.750987504497932 3.1234396104839717 2.6578100240278952 38 49 31
11.213232808412732 -2.660065173200307 2.291820726243332 37 46 33
10.75556264569755 -2.521667694550102 2.4674148582985267 42 52 37
11.157226302692864 -2.4105575146194065 2.423552075124158 40 50 34
10.424910893090477 -2.4105575146194065 2.360400666431654 40 49 34
11.404523008135488 -2.920706147140845 2.2771728360544596 32 45 30
10.991371788677224 -2.719819308217921 2.440999850302443 37 49 33
11.785044687010886 -2.978228950435801 2.6523384679149316 37 49 31
11.446049255074897 -3.003148106215372 2.5347619641454178 34 46 29
11.002717134710123 -2.811448404072772 2.1918576376935928 33 44 31
10.942114449336 -2.4726859096091234 2.087171781015767 36 44 32
10.561435497325892 -2.085169659692648 2.107757980367063 35 42 31
10.720148146602018 -2.3954390776927506 1.893772037202628 37 44 34
11.021507005829896 -2.1759193848162575 2.0830866997705964 37 46 33
11.078199669879563 -2.3954390776927506 1.9794770351129014 35 44 31
11.439024136720612 -2.4576347889077748 1.8728103896313941 35 42 33
10.56734049034725 -2.1759193848162575 2.0005100583286284 34 41 32
10.884713013038308 -2.240589063033749 2.1996364279325245 36 45 31
10.930706201927372 -2.3178575678815014 2.314770698165435 37 46 32
10.930706201927372 -2.3178575678815014 2.314770698165435 37 46 32
15.528532639295094 -1.2963580088329132 3.0140825970251792 38 53 35
12.64541339245065 3.1013625951898827 2.9452554764852703 37 50 31
12.877739583535316 3.1129658822018813 2.8690641545414133 37 50 31
15.438061892144235 -1.0347305461671972 3.0736718010004838 37 50 32
12.908824412987007 -2.887244904834103 2.8605768837246988 37 50 31
11.777501165555107 3.132112195658856 2.0473400251136873 36 46 33
11.427369269866746 3.131110616316937 2.1655137226834063 35 47 32
11.929487650046246 -2.9619162276760638 2.040774182406862 32 43 29
12.109191105385115 -2.9772946724059546 1.855613598862529 22 30 22
12.579175295491035 -2.8136401704497964 1.844692076690723 29 36 27
11.575237386990292 -2.750669928079484 2.056381690465071 34 44 31
12.305855523721826 -2.89377780196996 1.850937801828397 24 28 23
11.27761276251321 -2.844201682459028 2.0703609196665433 33 44 30
11.462388031028778 -3.0467067718409453 2.163448663445815 34 46 32
12.314051726519018 -3.0631843996699932 1.936402659469566 30 40 30
12.109191105385115 -2.9772946724059546 1.855613598862529 22 30 22
12.129066185679049 -2.871188530765528 2.0324338513399147 32 42 29
9.523092085350523 1.0455061529494851 2.308120595702861 21 33 12
9.682308906085002 1.3578329152498405 2.2932855424138467 25 37 18
10.150389845058902 1.1094192020062772 2.5459664617748015 15 27 6
14.908808517190126 -0.8525593570194163 2.8802244940440955 38 50 34
9.72846467660377 1.8353336360599037 1.8203301075485543 25 36 20
9.750399996083905 1.5048177335690303 2.158049320539877 32 44 25
9.746794190861687 1.6281276943243412 2.1582955722317827 31 43 24
11.47528907175036 1.9548541497914176 2.5311011607010303 34 46 27
10.267006926278082 1.6361818446872607 2.376034210869652 20 33 14
10.614345126780279 1.8662224875617341 2.2182908065904114 25 37 20
11.967860050850794 2.8343885210343736 2.832984633367253 37 49 32
11.828260423547835 1.3998091289799557 2.872460161143278 34 43 23
11.449468669279472 2.112169506053315 2.7106070997358653 36 45 29
10.710685536441794 2.074613538647893 2.099482851726155 24 35 20
10.706408551398013 2.1116455966111243 1.7021669884419135 23 32 19
11.103519660188372 2.3154586526882612 1.6974428311860046 25 34 22
11.30594305417172 2.4437131190647268 1.7849247484787636 35 42 33
11.572205880266246 2.4565366615036646 2.157071847690483 24 34 21
11.7331333575373 2.301392739764439 2.3690401588896197 34 46 29
11.30206713262545 2.2027014092651696 2.4090031522735167 33 45 28
12.124528396177544 2.5764923588092157 2.458289152846528 36 46 32
12.69208682713424 2.9430985584699823 2.6868901532070586 37 47 31
11.590652443023837 2.2899634083712876 2.517016591553768 33 45 28
11.96886458187366 2.6906135628602437 2.2375992288709767 29 40 30
11.622155218131168 2.4980238357929068 2.5132660333636694 36 46 31
11.433813711637368 2.8674592300456214 2.3962840909242 36 46 31
11.736749873093208 2.534812736546428 2.660123868743281 37 46 30
11.308229872898345 2.625701997517907 2.5525466274692516 39 48 34
11.245798741295859 2.3907917880201057 2.4145824538215797 33 44 29
11.439268388633241 2.8985047828969033 2.2745840565937128 33 45 29
11.658924695204515 2.7480736616944648 2.375592861337465 35 45 32
12.833615195445393 2.688180205554069 2.0053020630336977 41 49 42
12.13995406309212 2.7328822954259078 2.126319622757066 23 33 24
12.666080141364889 2.8775796035649535 1.925784403742189 37 43 43
11.76267604944376 2.569159302336766 1.8642495069421559 41 48 40
12.178046677227055 2.853667338650788 2.0304339246373635 25 34 25
12.459179631559012 2.960498568855365 1.9319472869417031 18 26 20
12.009487765712866 3.046007888323109 1.8580451170236327 18 25 22
11.154785366799414 -2.1862039096486754 2.573462843848973 40 52 35
12.422572688420221 -1.4620301739656991 2.7335084696835845 38 47 33
11.754700533682351 -1.779964243212269 2.4979080085377614 32 44 29
11.371064620692174 -1.9664806359139708 2.5443270326542953 36 48 32
11.626247199328946 -1.7541200693499657 2.3785191985413006 30 39 25
10.434584653044293 -2.653603451139086 2.506895976906403 39 51 35
10.982188490654245 -2.492948899947467 2.3104645494409835 39 47 32
12.278538715990857 -2.9425144750677457 2.7615533828821714 36 49 30
11.255464829236173 -2.653603451139086 2.55959996448239 36 49 31
10.987867369012772 -2.5606510482986864 2.1928249657294616 37 46 32
11.613126882414948 -2.811448404072772 2.2619444921710374 32 45 30
11.750987504497932 3.1234396104839717 2.6578100240278952 38 49 31
11.307579550479437 -2.7097759678306295 2.1726969521445962 35 44 32
12.39209764099942 -2.739110386314417 2.73923440521528 36 49 31
11.040104962281632 -2.806860939176257 2.5899495292501644 36 49 31
11.21849517079384 -2.5328204517192985 1.974067567468812 32 41 31
11.021507005829896 -2.1759193848162575 2.0830866997705964 37 46 33
10.890442720613454 -2.323589787045587 2.0898676855732807 35 44 31
10.884713013038308 -2.240589063033749 2.1996364279325245 36 45 31
10.418602615553748 -2.1450638047199675 2.2325768882941266 34 44 30
11.196230294080967 -2.2185419298626914 2.4195734375753832 36 46 31
15.682375358141062 -1.3883625189600444 2.9523731001168882 39 54 37
11.717905738482363 -2.871188530765528 1.9559527990945456 32 43 29
11.583950548834746 -2.94340321111923 2.1563986084070677 34 46 31
11.388861795983122 -3.055727044977453 1.9676938409568465 33 44 32
11.959488590185787 3.132939067646623 1.8592804045745122 22 29 23
8.174543879752902 0.6374440656685998 2.1395210787678076 14 26 5
12.110400196021962 2.8985047828969033 2.3375795859747743 35 46 33
11.594367944569946 1.6617058507151035 2.6841839866902815 30 42 23
11.463372176704661 2.973173888751458 2.532588573447702 35 45 29
11.594367944569946 1.6617058507151035 2.6841839866902815 30 42 23
11.844355696484097 2.021058184145204 2.6430149198799846 34 46 29
11.853202366339286 2.436135265381305 2.8649338732856715 38 47 31
12.125834842132441 1.6837133570175968 2.794438689746908 29 41 22
11.01158408951807 2.2268382526535633 2.1912815979854283 32 42 27
11.01158408951807 2.2268382526535633 2.1912815979854283 32 42 27
11.00983028319997 1.6361818446872607 2.4390141136249373 25 38 19
11.801870037705445 2.9430985584699823 2.6496675354179815 36 47 30
12.294688735878287 2.900200227009485 2.7582784059757968 37 49 32
11.825288223237948 1.7196756331516203 2.8733729133341326 36 45 27
12.07049441379326 2.2426733648917443 2.8073409755351455 37 46 30
10.270430093665018 1.4955568293627144 2.3756874754036983 22 34 15
9.845287904088798 1.7497250817496741 2.151648076473969 21 33 16
10.691461566844659 2.026964238684594 1.894670202939384 22 32 18
12.178046677227055 2.853667338650788 2.0304339246373635 25 34 25
12.775624484864684 2.723096946875162 1.7599734414618524 52 59 54
11.828269643556276 3.0369376755639688 2.045125581187174 36 46 34
11.39905170478381 -2.892259715414844 2.3995944513131087 32 45 29
11.115635949002982 -2.423518797700968 2.5790044422126495 40 52 35
10.905733311964248 -2.7709586867803915 2.3168803686349344 34 45 31
11.968569188412543 -1.6494113564784114 2.624274585278134 34 46 30
10.702990322994756 -2.309681611667686 2.473585728443636 39 50 33
11.106252806631064 -2.085169659692648 2.1852032183218615 35 44 30
10.75556264569755 -2.521667694550102 2.4674148582985267 42 52 37
11.281027173937431 -3.0355767935792093 2.2865511827447746 31 45 29
12.245854076221447 3.1193750568219065 2.7682919126272756 37 49 31
11.103800665297502 -1.873202936862622 2.30051577205424 34 43 29
11.245443661996521 3.1298724219002887 2.2893060794454225 33 46 29
12.67706791059933 -2.791218395757513 2.9330741544739123 37 50 31
11.531815115953334 -2.663816078412903 1.9625036126386397 35 41 33
12.004619354229225 -2.784794935485255 1.9462890636473875 34 42 30
12.28146159784775 3.132939067646623 1.9374187019809883 30 40 30
12.305855523721826 -2.89377780196996 1.850937801828397 24 28 23
11.992953693013286 -3.0631843996699932 1.8584524206689303 22 30 23
11.78938002024813 -2.844201682459028 2.1448859828318305 32 45 30
10.716508290264162 2.1643660349893254 1.9941403860616258 25 36 22
11.532799036271003 2.0248470527559683 2.387030100505692 31 43 25
11.977619289816559 3.012458891096795 2.348315845725783 34 46 29
11.61815934397273 2.9233350448351367 2.154447112651045 33 44 30
11.193803735221822 1.4409807206612566 2.763324766433994 27 39 19
12.100748045173628 2.5968751627874638 2.800214854689576 38 47 31
11.255464829236173 -2.653603451139086 2.55959996448239 36 49 31
10.84458866659361 -2.4017782629005677 2.202330184692901 37 44 31
12.42728614249157 -2.9772946724059546 1.932916841786052 29 37 27
12.42728614249157 -2.9772946724059546 1.932916841786052 29 37 27
11.275495945826847 -3.021502999433637 2.4116265494371296 32 45 29
10.760736513533335 -2.256569008756599 1.8925098684492538 36 43 34
11.239894923013322 3.128302539640492 2.4151731249825734 31 43 26
11.334472020474067 -2.1214273188945025 1.9697059870598819 33 40 31
10.57387786482715 -2.5986887060751465 2.3462933235756918 40 50 35
15.72500976466752 -0.643355129848752 2.9387033616519247 37 50 33
11.77485527701414 2.5994111984580694 2.1456839846378135 22 33 22
11.103800665297502 -1.873202936862622 2.30051577205424 34 43 29
12.947123819733129 2.7982109248414453 1.917749667460117 45 52 49
11.839765859085382 2.825151192270861 2.1421360710975983 33 42 33
11.11748091765012 -2.256569008756599 1.97794740331324 36 45 33
12.692710857889786 2.7221066129508835 2.9273276294342425 37 49 31
12.692710857889786 2.7221066129508835 2.9273276294342425 37 49 31
15.595051427112093 -0.8914138078844767 2.9842735542967844 38 52 34
11.785044687010886 -2.978228950435801 2.6523384679149316 37 49 31
11.936606110738198 2.77484135842065 2.6290002136890136 38 47 32
10.39654927817216 1.4832793913524123 2.5118813623617267 17 29 10
10.56734049034725 -2.1759193848162575 2.0005100583286284 34 41 32
11.217079185307961 1.6468637503293766 2.564821259625074 25 35 14
12.666080141364889 2.8775796035649535 1.925784403742189 37 43 43
11.685919871683847 -2.5654325429611315 2.668516448713546 37 50 33
