9.18159163738789 0.5889515899034911 1.6338070004549587 20 25 8
8.790769179603668 0.49265014111090977 1.751299065797964 19 25 5
8.6170540524235 0.38528673552727327 1.8746423081732053 21 27 5
11.308805859841739 -0.2674436766969517 1.8007965051175252 26 28 9
9.132312574479817 0.743768929924289 1.7444782724945762 21 26 9
9.013480011784901 0.743768929924289 1.6349838227667546 20 26 6
10.80239125586345 1.191856138995959 2.0084433761276093 16 20 7
10.787480484822456 1.3944802572909487 2.1142501642405063 29 34 19
10.827623303474802 1.4116450781187537 1.9075930266518029 11 14 6
11.025395595455084 1.22637284404335 1.8068195009037915 8 11 3
9.407265326345014 0.9005925561338931 1.8484085121293947 18 24 4
10.472232551756747 1.150104390066819 2.1325385989308945 25 30 15
10.509640360640896 1.2902229178818507 2.0215175678122757 10 13 3
8.384051850491739 0.7360064683127748 2.0117268545754206 23 29 7
8.67849800705257 0.8255652688428482 1.8724231001979463 19 25 5
10.305989723227414 1.3944802572909487 2.031102898984377 28 31 21
10.787480484822456 1.3944802572909487 2.1142501642405063 29 34 19
10.32684135597096 1.0987803300117087 2.261391236975562 28 33 16
8.564527336907695 0.5534699242424178 2.0018054588051726 23 29 9
9.569793376837609 0.6291692390786724 2.3286820652257774 30 36 14
8.621318128798968 0.43675486177688727 2.1306088248289323 25 31 9
9.332674244971642 0.013618893385200873 2.353011023668875 31 37 14
10.927637890754491 1.8269154375677745 2.106519540121525 34 39 24
10.196779287624405 1.5027445322946078 2.03642042284179 30 34 21
10.452605361166995 1.8269154375677745 2.024159922353326 31 36 21
11.1881255595703 1.9268283100930899 2.0927541272938317 32 37 22
10.67199618351409 1.612623982191656 2.120800657934847 32 37 22
10.712571760901513 1.6084827295022064 1.9113559355056804 26 29 17
11.1881255595703 1.9268283100930899 2.0927541272938317 32 37 22
10.695291844768509 1.8569597102551876 2.2332476333437485 34 43 25
10.695291844768509 1.8569597102551876 2.2332476333437485 34 43 25
10.245478907703193 2.015695631221727 2.267971363949636 39 43 26
9.960369189088025 1.8947103828664285 2.2921914624552318 38 42 25
12.572246305357764 2.252760889075105 1.943513914539144 41 46 31
11.326134426287094 2.5131640710120884 1.9869130964800312 38 42 25
11.075953611866789 2.451688446209247 2.098588940105961 38 42 25
11.00328022828303 2.3794678551169803 2.2115949981982173 39 43 26
11.049713933347132 2.3035569472067268 2.0999738403186266 38 42 25
10.617472472931023 2.1242159560744405 2.2389776728929385 40 44 27
12.185468252424482 2.3738171134206763 1.868830070042701 34 39 25
11.545792448723786 2.439404322330752 1.8858946043116134 35 39 23
10.482931962017425 2.4682099256945964 2.249148721332089 38 42 25
11.28083856881412 2.5957605219750732 2.08803345676342 37 41 24
10.035514399294575 2.571537769731207 2.2856244537327672 40 44 27
9.1646219895366 3.1274634390714615 2.3714007561327834 42 48 26
10.699179077093053 2.6355393256350927 2.232964259962053 39 43 25
9.1646219895366 3.1274634390714615 2.3714007561327834 42 48 26
10.035514399294575 2.571537769731207 2.2856244537327672 40 44 27
12.669430473750927 2.54234675062288 1.6956847695616732 30 34 23
12.4873495236495 2.4299153128487228 1.6975155354668976 33 38 26
11.613005271924443 2.6444214851446675 1.9760224647914075 38 42 24
12.308146339011701 2.611013451048988 1.781826580021111 36 40 25
11.210779552908317 2.7304164828387427 1.9914649177259884 38 42 24
9.381324816809167 -2.705066373988928 1.739823126091955 39 45 25
9.721950420894427 -2.611628192947318 1.5273917681080096 39 43 23
9.464413508466048 -2.4663983120361603 1.526209910321528 40 45 23
9.814675044883153 -2.4018949531698697 2.305324021938034 43 49 26
8.772480897296633 -2.591824924885468 2.1198461493130907 42 49 27
9.404226897230979 -2.3944660737495194 1.9611156603143152 44 49 24
8.732596666754084 -3.0189338901110494 2.122642802261201 40 46 25
9.209233570132753 -2.9999487810225305 2.3664196895601597 41 49 28
9.524563231912072 -2.654423523659054 2.072212982637594 42 46 25
9.333420173151458 -2.591824924885468 2.211368098039568 44 48 26
9.794509628702851 -2.4857187122421815 2.176716416159894 43 49 26
9.361072037294784 -2.850752706027718 2.3500011687953655 41 49 27
9.157664395155857 -3.0334487496753106 1.9722186114598 40 44 26
9.238283369515871 -2.807398045371706 1.8536249538733247 40 44 26
9.814675044883153 -2.4018949531698697 2.305324021938034 43 49 26
8.973638775731464 -2.917526399138025 1.8622065129023446 40 44 24
9.615058836303842 -2.7137133873263073 2.324235808415209 44 48 26
10.209725694759904 -2.3891139491268376 1.4310784663538494 40 47 24
9.414559263828545 -2.316381815766816 1.5259736477498838 42 48 24
9.907656751750835 -2.168124113816844 1.8340448123920112 43 49 25
9.8820340842695 -2.232391042727882 2.052489878963566 44 50 27
9.724046980574146 -2.076549475073834 1.9476209983516768 44 47 24
10.497920558268655 -2.1358002149987416 2.24799855876604 45 51 27
9.947384191111464 -2.8408015809516374 1.7301198189040758 38 42 26
11.246245675434029 1.346225776951977 2.4383624684703884 37 42 23
10.373989115316762 1.0345569358729858 2.3898440045026472 30 36 16
11.202769479860777 1.3732193040517997 2.3137331581353 35 40 23
10.3129303111815 1.0955116493689425 2.5531145368632404 36 40 22
10.644140572652207 1.3108813888175501 2.507997128354351 37 41 24
10.6111096468762 0.9526662930900209 2.5122467169013634 33 39 19
10.644140572652207 1.3108813888175501 2.507997128354351 37 41 24
10.121039119564305 0.1632221130886128 2.4169746984467353 33 38 13
11.096315329337276 0.6734617472364179 2.83478786878551 43 47 26
10.695388373009646 0.7066605312656822 2.680441144297684 37 43 23
10.221259107815275 0.5895672301044487 2.5666922448883325 33 39 18
10.312741030403325 0.19161327139093162 2.5531420401915694 34 39 14
11.233299469033607 0.2925435966403501 2.7983799419116018 38 43 19
11.138644927242279 1.0880533263534087 2.8230110612373447 42 46 28
10.739298365191493 1.0011609528267995 2.6722793589014238 40 44 26
10.221259107815275 0.5895672301044487 2.5666922448883325 33 39 18
10.169333049723145 0.8463621965033268 2.5746218677808725 35 41 21
10.695388373009646 0.7066605312656822 2.680441144297684 37 43 23
11.871137199087801 0.03440315246006118 2.918961291386926 42 45 24
10.903627724447603 0.9115798884082796 2.8966453237781336 41 45 27
10.45040760868552 0.5236824313483838 2.730123352657038 38 43 21
9.964628667805888 0.4248962241670455 2.60775474496057 34 40 18
10.276952180563493 0.30584725448412986 2.3999993610666044 31 37 14
11.741596796290567 0.5924568449399974 2.9745461619200735 42 46 25
11.180639682019672 0.024903037542995575 2.8118126935814494 38 43 20
10.384772413855602 1.6244026665418385 2.388733943985952 39 43 26
11.10238387393253 1.494363786245043 2.3220699764882085 35 41 23
10.527083920103175 1.6331835766209002 2.523293122111552 40 44 27
10.009243335849746 1.9434048012696692 2.4296830107269374 39 43 26
10.86437342735219 1.449675202653046 2.6500618824943833 40 44 27
10.069759990402655 1.8356247049657548 2.5903472171263373 40 44 27
10.53194348612012 2.1570292831371347 2.5226447701118326 39 43 26
10.254801311072343 2.0082355136711767 2.5616633419741346 40 44 27
10.789386677835603 1.7508412538734692 2.943391258094189 41 45 26
10.158530935907754 1.9909211620982732 2.8019331869566955 42 46 27
10.61685066798572 2.401026617231632 2.69555941436659 42 46 27
10.870682984482317 2.1544820224157055 2.9090789012332943 42 46 27
9.86993893879484 3.103736840911909 2.897831872797872 44 50 27
10.433326253267394 1.4204637451436684 2.733891393731765 41 45 28
10.421860696266075 1.6635434714791453 2.736446168285093 41 45 28
10.683489490933642 2.0978700233686887 2.6826877223147743 40 44 27
10.088425108965923 2.421035533009127 2.8221808872236016 43 49 29
11.58475504252624 2.908906326439014 3.1078368441081774 43 49 26
9.929552251606129 2.7121356451219207 2.874760484284196 44 50 28
11.026838991555746 1.6932939998936791 2.8553441313477093 41 45 28
10.158530935907754 1.9909211620982732 2.8019331869566955 42 46 27
10.341984066950202 2.22718248064203 2.7548510144396197 40 44 27
11.771455981271501 1.7508412538734692 2.960119472712266 42 46 27
11.645856730696883 1.0539964917473292 3.0337133540981585 42 47 25
11.726229948409907 -0.5118460945405697 2.9825059432796324 42 48 25
17.050113762198414 -1.0212634943942187 2.7230167739943276 51 51 27
17.421999484619153 -1.0882698129186106 2.677360822206545 54 54 31
10.197855904990904 -2.8786739372126786 2.791183354354875 44 50 28
11.268196964566974 -2.6273299415107125 2.789816044698261 43 49 26
10.445989707847248 -2.173764428480661 2.5342917703261016 45 50 25
10.187348854312228 -2.090374560929983 2.409652337790576 47 52 27
10.445989707847248 -2.173764428480661 2.5342917703261016 45 50 25
13.112379024093645 -1.6091677806396223 2.283924458692283 43 46 17
10.663335289053164 2.194335724954358 2.361252160618456 39 43 26
10.588568139644298 2.897678646728839 2.701178405457959 43 49 27
10.596569722801137 2.3839112310103556 2.3676375330204142 39 43 26
10.339374310848253 2.7710626296993124 2.549293016719009 42 48 26
11.298615624641965 2.3904508233819253 2.582483986633765 40 44 27
11.446579022955342 2.571537769731207 2.417963526131394 39 43 26
11.128515537434609 2.6905699533785397 2.450933976229853 41 46 29
10.586924690469209 2.620260997898918 2.515390958322441 41 45 28
10.97626538361595 2.5272223008900645 2.6313463992787476 42 46 27
9.632297283145716 3.1210139294845436 2.669374994432483 41 49 26
10.166696678583245 -2.9740754215863983 2.575029274990631 43 49 27
10.70405696277711 -2.730447536247442 2.6788139668918465 43 49 27
10.70405696277711 -2.730447536247442 2.6788139668918465 43 49 27
9.73882866650214 -2.645825769194673 2.462492615140153 44 48 26
10.395186285177644 -2.4128986881599586 2.5413606574145873 44 48 26
14.305312292457586 -1.3706026367539146 1.9713583609525116 39 35 11
9.50588907594558 0.1421090493009492 2.1979105235000036 26 30 9
9.76348437917697 0.6743014576146812 1.527576526826806 20 25 8
11.367748865654312 -0.17793996454193836 1.8910040925952991 19 21 0
11.093665004741608 -0.17793996454193836 1.8053397128164903 24 26 7
11.577797761696614 -0.2674436766969517 1.884993667627526 17 19 0
11.308805859841739 -0.2674436766969517 1.8007965051175252 26 28 9
9.467256716109896 0.8255652688428482 2.075533993419885 25 31 11
10.305989723227414 1.3944802572909487 2.031102898984377 28 31 21
10.96130244587881 1.9665921375852076 2.2144541380890814 36 45 27
8.912049946011788 0.6291692390786724 2.2470962000518133 27 33 13
9.621338090713923 0.9933355523841639 2.0667078390036138 24 30 10
10.518002851279077 1.7398009353676056 2.2464643216855023 33 42 24
9.395696984502786 0.1632221130886128 2.346367854806119 31 36 13
8.912049946011788 0.6291692390786724 2.2470962000518133 27 33 13
10.433958995235596 1.6177869832318592 2.2529372847111255 33 42 24
9.960369189088025 1.8947103828664285 2.2921914624552318 38 42 25
10.552048757646254 1.3732193040517997 2.243880905587495 32 37 20
10.751039452931371 1.2576540345570706 2.2292092228396982 28 33 18
8.905230151505139 0.30584725448412986 2.247710967330175 29 33 12
10.927637890754491 1.8269154375677745 2.106519540121525 34 39 24
10.683193290195694 1.5027445322946078 2.120158179637767 33 38 21
10.98220613288461 1.2902229178818507 2.103572488036569 23 28 13
10.271128232625665 1.7215059919144233 2.032786513605423 31 36 21
10.436276383220596 2.3794678551169803 2.1347084867446826 38 42 25
11.309776079803072 2.0670540835827804 2.191532872179019 35 44 26
10.866324381031815 2.6875427635939824 2.1098724608463053 38 42 23
11.529745756172044 2.019850027589652 2.0757942194457506 37 42 27
8.685537277914491 3.1293776468277468 2.125981906375542 42 48 26
10.358190945424205 2.7450742026898722 2.2588928633050287 40 45 29
9.868467424557746 -2.2086488053875106 2.300412131764669 46 52 27
9.159564292068104 -2.766040763713036 2.0941900536011073 42 46 27
9.086308035915087 -2.654423523659054 1.9755544220557077 42 47 26
9.746344029412164 -2.30933880457538 2.1801445649304956 44 50 25
8.96063867089999 -2.7137133873263073 2.2427519092358437 44 48 27
10.134761996000174 -2.076549475073834 2.0394975722659034 44 50 25
9.752069484863643 -2.316381815766816 1.838347045637239 42 48 25
9.559324268048309 -2.55457104362667 1.9544494438169182 41 47 25
9.238283369515871 -2.807398045371706 1.8536249538733247 40 44 26
10.540086007327533 1.1937733790332414 2.7110418368348776 41 45 28
9.772314975264468 0.7246899746849332 2.4582584638097376 32 38 16
10.903627724447603 0.9115798884082796 2.8966453237781336 41 45 27
9.663158375337005 0.35608807517681895 2.472253290610806 33 39 16
11.096315329337276 0.6734617472364179 2.83478786878551 43 47 26
11.691226713430169 0.05561002861770236 3.0024015131035813 42 45 24
10.898054292597829 0.03440315246006118 2.89869970097662 40 44 23
10.255355396002933 0.016041990188845633 2.561580868880756 34 38 16
10.062560290398924 0.013618893385200873 2.4235639506046867 33 39 14
9.92758495550068 0.50276118479088 2.4392691867564715 31 37 14
10.95207289175194 0.3943597503820115 2.8795342578800596 41 45 24
11.920747110034837 0.3943597503820115 2.9012686017239497 42 46 25
10.469211133262778 1.7630889926605455 2.380164849685197 39 43 26
10.538434997457538 1.4694140362566785 2.5217805385787595 39 43 26
10.21552209055579 2.8296331868181324 2.786482018921231 44 50 28
10.949786818388136 2.261477690312803 2.635683853345319 40 44 27
11.781608220177567 1.2826298291734752 2.9554819276447306 41 45 26
10.506001334362784 1.8962952482127695 2.718160841960864 40 44 27
10.15758722929789 3.1149289011636725 2.802196212767356 44 50 27
11.037676135873761 1.3729257175847411 2.852027016882603 41 45 28
11.635586047001452 1.9065613304125864 3.0421961586754844 42 48 26
10.506001334362784 1.8962952482127695 2.718160841960864 40 44 27
17.79391957957327 -1.1535670201506536 2.769793702074151 55 56 34
17.421999484619153 -1.0882698129186106 2.677360822206545 54 54 31
10.335180298239607 -2.6273299415107125 2.7564707119437935 43 49 27
10.565776759674717 -2.430868911973571 2.7057778986250174 44 48 26
9.911376362226433 -2.776510532381088 2.881553697440732 44 50 28
13.298006456203879 -1.514068341695716 2.177145854634117 42 40 15
10.586924690469209 2.620260997898918 2.515390958322441 41 45 28
11.137691572109668 2.4682099256945964 2.3191132415489832 39 43 26
9.906896953448847 3.1274634390714615 2.441740387200528 40 48 26
10.894159777609516 2.281395551449211 2.4773901519034354 39 43 26
9.294392050101882 3.124837859612834 2.524124763174768 41 49 27
10.737694748395862 2.6963862150625415 2.672573950347316 43 49 27
9.966289204517988 2.9723676332983704 2.4346925547836493 42 48 26
10.926871565115944 -2.5552436289253753 2.6394823502586435 44 48 26
10.036098525151663 -2.2992716282661276 2.426587387992626 44 50 25
10.082880071370784 -2.513186110635582 2.421260087100373 44 48 26
10.571525373578538 -2.9367987268818405 2.704611635251357 43 49 27
15.197189932847802 -1.3706026367539146 2.0928427837921038 38 36 13
9.514312492369571 0.8338270316921238 2.334215538729572 29 35 15
10.452605361166995 1.8269154375677745 2.024159922353326 31 36 21
9.830551782492691 0.43675486177688727 2.303866430453692 29 35 12
10.794446599882809 1.7067629596042477 1.90866937427733 29 33 20
11.021639748090735 1.3167887240356573 1.9014360857672812 4 7 0
11.94553978969658 2.105236873763183 2.056652413093958 38 43 28
8.685537277914491 3.1293776468277468 2.125981906375542 42 48 26
10.105038663955238 2.865617118849789 2.2796681212060523 40 46 27
10.504060850144992 2.219944261296401 2.130632662105562 39 43 26
12.03785262823515 2.4943614603659325 1.7866390939871482 35 39 25
13.003654829801809 2.6502279647068816 1.6924586987414736 29 32 21
11.613005271924443 2.6444214851446675 1.9760224647914075 38 42 24
11.119925637590544 2.5378252549779527 2.203794488985239 38 42 25
10.455204068638126 2.2944007459777893 2.251287973270075 39 43 26
12.13812816159769 2.611013451048988 1.7011818295340297 35 39 24
9.003780227847903 -2.55457104362667 1.7469834357067051 41 45 24
9.333420173151458 -2.591824924885468 2.211368098039568 44 48 26
9.963385125736476 -2.591824924885468 2.291925255317925 44 49 26
10.396278873824006 1.483634864552786 2.387553422808838 38 42 25
10.503415194928856 1.346225776951977 2.376754490511291 35 41 21
10.739298365191493 1.0011609528267995 2.6722793589014238 40 44 26
11.096315329337276 0.6734617472364179 2.83478786878551 43 47 26
10.870682984482317 2.1544820224157055 2.9090789012332943 42 46 27
9.92758495550068 0.50276118479088 2.4392691867564715 31 37 14
10.610390168422263 1.793697547654287 2.5123398523840708 40 44 27
10.009243335849746 1.9434048012696692 2.4296830107269374 39 43 26
10.292999359832368 2.077521029667767 2.3982989604325686 39 43 26
11.327335394960421 0.8676329482883156 2.7758569244752396 40 44 25
10.966937872701722 1.262750168637814 2.632868102495446 39 43 26
11.158532279759843 1.0955116493689425 2.6028813856388053 38 42 25
11.630363385047021 -0.972970094370378 3.046805621247753 44 49 27
10.883718356951572 -2.2837043347200914 2.646752038657348 44 50 27
13.289012731369363 -1.6056536317366472 2.1776152766134302 42 42 16
11.128515537434609 2.6905699533785397 2.450933976229853 41 46 29
10.377261056356213 2.6905699533785397 2.389506799427772 39 45 25
9.338383710212348 -2.9740754215863983 2.5175213004354653 41 49 27
10.304436330652823 -2.800505691204588 2.554350864291877 41 49 26
10.827623303474802 1.4116450781187537 1.9075930266518029 11 14 6
9.462882458804039 0.9218592020445652 2.2012080824501075 26 31 14
8.687540425935644 -2.850752706027718 2.2680136091731478 42 48 26
10.72372650095141 1.5094710847670758 1.9109873500467696 19 22 13
9.58379049438172 -2.168124113816844 1.631159371162478 43 47 25
10.185047447399695 1.612623982191656 2.0369992901873197 30 35 20
10.866324381031815 2.6875427635939824 2.1098724608463053 38 42 23
10.699179077093053 2.6355393256350927 2.232964259962053 39 43 25
9.80374985530645 0.23174729649580617 2.636205679548903 36 41 16
10.870682984482317 2.1544820224157055 2.9090789012332943 42 46 27
11.096315329337276 0.6734617472364179 2.83478786878551 43 47 26
10.800462083568434 1.2826298291734752 2.938348656450278 41 45 27
9.981942826877797 1.645398312685374 2.604827469518925 40 44 27
10.61685066798572 2.401026617231632 2.69555941436659 42 46 27
10.341984066950202 2.22718248064203 2.7548510144396197 40 44 27
10.158530935907754 1.9909211620982732 2.8019331869566955 42 46 27
11.327335394960421 0.8676329482883156 2.7758569244752396 40 44 25
17.79391957957327 -1.1535670201506536 2.769793702074151 55 56 34
10.18441691399125 2.9416842238229437 2.5722999399721553 43 49 27
10.97626538361595 2.5272223008900645 2.6313463992787476 42 46 27
10.036098525151663 -2.2992716282661276 2.426587387992626 44 50 25
9.94818043585943 -2.9999487810225305 2.436826350224449 43 49 27
14.934436285130998 -1.297442732981186 2.026917287970485 39 34 12
8.673500926137425 0.26772895918847994 1.9960356285834584 23 27 6
9.413020105260928 0.7360064683127748 2.2050791450026934 28 34 12
9.585809570899428 -2.4663983120361603 1.7361838286198936 43 48 24
11.742482432280937 2.5657519960303703 1.8804395335098127 36 40 23
11.595070751404673 0.1445033470475843 3.087570721818042 43 48 26
10.370014698372952 2.5878195284900194 2.7482668930280267 43 49 27
8.892577313825662 -2.8883762393319583 2.1116043457575397 42 46 25
10.703310099768453 1.2168878806117738 2.357486534299788 31 36 18
10.254801311072343 2.0082355136711767 2.5616633419741346 40 44 27
10.920773217291176 2.49160194939853 2.474283426408576 39 43 26
8.739286625996467 0.655523706047779 1.8702597448795384 21 26 7
10.754179941129694 1.7215059919144233 2.116121937972716 33 38 23
10.84144108802533 1.1645886850545313 2.4836264823774177 33 38 19
11.301135300111959 1.22637284404335 1.892959433248802 7 10 0
8.52371233173104 -2.9999487810225305 2.284222133032638 42 49 27
