12.566777612463502 0.547757505768613 1.5257990984741774 8 11 4
11.212334924284596 1.0307907021107445 1.6991072474259903 11 18 7
11.383580093189973 1.0307907021107445 1.786341529453311 26 34 17
11.720011997032968 0.5922373777064939 1.6078970044460814 7 10 4
11.720011997032968 0.5922373777064939 1.6078970044460814 7 10 4
11.191475393048435 0.9807333633757985 1.9782348104813678 17 25 6
10.910678527232264 0.9218868953525268 2.092214360481489 0 4 0
10.825695967369562 0.6894483993904584 2.207307268233502 27 33 10
11.059109428064389 0.7736321027159317 1.792769916041317 8 11 6
10.835216136585508 0.771856987476884 2.0962197381182355 1 8 0
10.809102200275737 0.8522496813778904 2.208442439151767 7 15 2
11.025184623390095 0.5315529475817559 2.193998500382476 17 21 8
10.61071379839632 0.5659479930081323 1.8023178391070958 7 10 3
11.191475393048435 0.9807333633757985 1.9782348104813678 17 25 6
10.262857881417954 0.6894483993904584 2.1288691038323355 4 8 0
11.26124732865471 0.43688694061939387 1.880738505058782 10 11 3
11.446480111620962 0.5179870006957825 1.785138545863578 7 10 3
11.239489751717201 0.5659479930081323 1.976391821875678 6 9 1
11.230312298879074 0.4799541489666736 2.0759399960302534 2 5 0
11.154562262984728 0.6708859112272413 2.428233184489923 34 39 13
11.022282590983199 0.23251395509683573 1.6102467237973077 12 13 4
11.106761670227298 0.23251395509683573 1.7003337179337732 8 11 3
12.252819622370556 0.2932276698979083 1.5246453108069362 11 11 11
10.831373177136442 -0.13559344050992486 1.5185835304632755 25 28 7
9.833540800136689 -0.04752576801845774 1.7172196967361744 27 29 9
10.42059119724556 0.1569546009434643 1.9066857284291765 19 20 6
10.286752986292274 0.06161835968685486 2.127419646517439 28 30 7
10.896790103732036 0.3491575911286012 1.8914687831804977 10 11 1
10.581521661163569 0.283294389562066 2.110177162739568 10 14 1
11.397969063905778 0.3855294470591083 2.1706839908089037 8 12 1
10.13505202830122 0.1569546009434643 1.8133967810501306 26 27 12
9.58345435563407 -0.6159283689397902 1.4067298292277883 20 27 0
9.451575578702476 -0.7660403475478342 1.4044193850766753 22 28 1
10.033831258274834 -0.248156774374033 1.6141353812288521 24 29 5
9.80264231830358 -0.47310135969516715 1.615158167909118 23 28 2
10.433754373173388 -0.34226590810689067 1.4202070954448835 25 29 6
9.72469452326286 -0.5863467950452393 2.1638040273367043 44 49 22
9.925461283328753 -0.47589860394143635 2.2761516965235775 43 48 19
10.085676735858277 -0.27527507840704774 2.0260663140797806 35 40 13
10.123848533011126 -0.1493500733442333 1.8136706566480179 24 29 5
10.409695019696326 -0.1493500733442333 1.90705118593171 26 28 6
10.194547973692657 -0.7625783674171083 2.2538858458992603 41 47 21
9.727516921326805 -0.6827057053218323 2.044173205671737 42 48 22
8.99364791879365 -0.6827057053218323 1.8449326206830579 31 37 10
9.55042191495414 -0.421708214277382 2.053694772531455 41 47 20
11.559923286977789 0.1746139142907476 2.269396215545097 31 35 13
11.997340178108635 0.262757804101229 2.625497574149119 35 40 12
12.421560858087663 0.07989537143946919 2.568169991979175 36 41 12
10.815276060717729 -0.18724649840221824 2.3287375729255495 41 45 18
11.987877245460872 -0.25037723253129723 2.6268905277394596 47 50 21
11.856519157498012 0.3612259654743405 2.49102674046826 31 36 11
11.319999421283605 0.4177558213132753 2.5561289323963536 35 40 13
11.445127837554011 0.06957849966452949 2.3993735361326385 38 40 14
11.90734469495945 -0.08066157155404419 2.638978787204369 46 49 18
10.317939707273803 -0.35133333270928246 2.3754095655119554 42 47 18
11.466495224615523 -0.05296797171352572 2.2762594689164484 39 41 17
11.910521168988339 0.09379384506787904 2.6384938379929954 43 45 19
11.060258635614106 -0.35133333270928246 2.4381427261474897 42 47 18
11.535450058419661 0.19669305271720078 2.3908756769494826 33 36 12
11.585251129354146 0.5541214689615414 2.522445035872109 33 39 16
14.243536777285433 -1.0764239827577478 1.4606799143491822 27 34 4
11.553701154551181 1.149892773195811 1.6084313041456064 27 36 14
10.659212593592057 1.5028292963937089 1.7058052173302691 22 32 1
10.685692839769853 1.4092484042058047 1.611490051850296 25 35 4
10.685692839769853 1.4092484042058047 1.611490051850296 25 35 4
9.649274410482631 1.6004243987491535 1.7200366005121097 23 32 0
10.211851782869866 1.293249417232399 1.8115360383820693 25 34 4
9.99235994152764 1.39265050900869 1.816932302511416 26 35 3
10.162777122938842 1.4957287264633037 1.91555618375585 26 34 1
10.781894243983068 1.1601538715190067 2.0990894613807045 26 35 6
10.265472430430215 1.3723013630132472 2.128710114719291 29 38 4
10.146194586428285 1.4869753574367641 2.1360632990677235 31 39 4
9.911567856816728 1.805705887497397 1.7160587947978703 23 32 0
14.914553943723908 1.7928739571110155 1.5328860557166968 32 41 15
10.104880932698887 1.805705887497397 1.8141357570801468 30 37 3
10.391249200541795 1.805705887497397 1.907671712114445 28 37 1
10.16548989301071 1.9378569021866274 2.022226101758201 34 41 5
10.330972022462966 2.1248792161122907 1.808706294470017 32 39 3
10.201761873184173 1.7199148961764568 2.132612083313014 33 40 4
10.440326168278482 1.981520815577043 2.234874279852091 38 44 8
9.998988827218843 2.332617854422408 2.269906868033428 43 46 15
10.69589990473933 1.4615135692565326 2.4793151812885874 35 44 12
11.012338263998032 1.1768872554847587 2.443288635285004 32 41 9
11.300719166273064 1.0537942982457869 2.4134142799872667 30 39 9
11.48298919830049 0.766005853220868 2.535053724770245 37 42 14
11.138458442571268 0.865236476021735 2.429905481768275 30 36 13
11.554221658180612 0.9796195755922799 2.5262236088280634 34 41 13
11.27232799789439 1.114628378334029 2.562538587719186 37 44 12
10.963396336154293 1.4419808928821258 2.6071752194941076 40 45 12
10.943555162256239 1.6217955725900726 2.6102464626457 40 45 12
10.59121478804712 1.6082789777385063 2.348956860276879 37 43 7
10.611714768160903 1.4759180615210077 2.347054580281483 35 42 6
11.221072552281834 1.1126384117658887 2.2950381223006 31 38 8
11.970539778045456 0.8844650288603891 2.6294573115931894 40 44 14
11.59082088800569 1.0116069902645346 2.2671594029528968 29 35 12
10.61074829608344 2.105884244252089 2.489675859357435 43 46 15
10.3451746740736 1.9617720005299217 2.5240934709590013 43 46 15
10.913216568429045 1.9067119882624264 2.454180087848634 40 45 14
10.83072072477338 1.8648461616509058 2.3273886618984307 38 44 8
10.43044557779959 2.0361257657046146 2.3642648809957305 41 45 15
10.748625749540748 1.7645277622885744 2.4730494647711634 41 44 13
12.276267934183384 2.1084182064632433 1.6062151975857488 21 31 1
11.674589539411787 2.6869051925446774 2.0550150753537273 42 47 16
10.725427798740453 2.5843611310467867 2.214234964325043 43 46 13
10.739595075420192 2.5160715887122973 2.335429001951585 44 47 14
11.45462106172564 2.5160715887122973 2.398470363365398 44 47 14
10.739595075420192 2.5160715887122973 2.335429001951585 44 47 14
10.07504616431204 -2.1560680765593467 2.2635766379419753 48 53 22
9.147655948593965 -0.9402241661943265 2.0769229410814583 42 48 21
12.381247762903469 0.11352102016475572 2.7480374137791856 40 45 16
11.125798132985578 0.6434781874086177 2.5830039705219727 36 42 15
11.458105307402121 -1.4602444649790138 2.5381911097206555 49 58 28
12.294617461281812 -1.4602444649790138 2.5843615801820623 51 57 30
12.294617461281812 -1.4602444649790138 2.5843615801820623 51 57 30
12.02464785922171 -1.0487781838069639 2.4728714346253184 47 53 26
11.352280499955954 -1.634059912335198 2.736774319396002 52 59 29
12.394072498655621 -1.203405814106459 2.745552780553737 52 57 28
12.571702062019597 -1.023807136817121 2.713021013167435 52 57 28
11.45330211935502 -0.757608794794874 2.538799920035809 46 51 22
11.799715053830582 -1.4402167406809303 2.655831237212996 51 57 29
11.902433994181703 -1.26617759125613 2.6397298525903805 52 57 30
11.878656178410159 -0.8584387483192817 2.488582100290911 45 51 23
12.964121554683432 -0.7361748688775617 2.854828486423491 49 54 23
13.021448890888102 -1.1103323440054824 2.840258604272742 53 58 29
12.21915310591352 -3.034091994943678 2.7813265286129454 52 59 27
11.561368078174754 2.6066462569180913 2.696453325664754 47 50 21
12.607485864510823 3.040132288961807 2.7068504743700337 47 52 19
12.607485864510823 3.040132288961807 2.7068504743700337 47 52 19
11.79639416823809 2.8583133379883896 2.656364727444767 48 51 20
11.377028951065538 2.55148982710762 2.5486109295738038 46 49 18
10.940788470817479 -2.2050607116075986 2.610676885870836 54 59 29
10.111642584925068 -1.9103508824509992 2.39685153729514 49 56 24
10.702776120393498 -1.766738611628467 2.478491683366407 49 56 26
10.741321915702821 -2.1560680765593467 2.3352747891397128 48 54 23
11.421016282075078 -1.8507038909776081 2.7229511590338458 52 59 29
10.868061328912765 -1.9103508824509992 2.459256559568324 49 56 25
11.661226279116105 -1.9103508824509992 2.5133602647228157 49 56 25
10.153455102928378 -2.440194609644883 2.392394989013423 50 55 24
11.786769908478762 -2.8715663439922574 2.657915598100734 50 58 28
10.171118587898684 -2.2357418948999106 2.390529711198166 50 56 25
11.138215977663949 -1.96664234342388 2.5812226478076226 50 57 28
11.847529535016305 -1.801445170487461 2.6482414840577913 51 57 29
11.228562246053956 -2.153693747387264 2.763313562550553 55 60 31
9.920170229717776 -1.3912564024651504 1.8187609403261678 41 48 21
10.453675941291866 -1.60066115610696 2.0089032663826347 47 54 26
10.634560643739013 -1.6041878875218212 2.22065802902085 49 55 28
9.951820646042057 -1.108624547223226 2.1485017331770386 44 50 23
10.202634859198684 -1.3705735515506314 2.132558222758595 49 55 29
9.528354272219016 -1.2600823242701897 1.9395719592701917 44 50 23
9.472830159871291 -1.0070606497949757 1.9418381251340342 41 47 20
14.271378573652507 -1.2337529720290048 1.6012620519750722 29 34 7
13.745307775392172 -1.3716232345722115 1.5296594653749078 30 35 4
13.822591817619355 -1.3716232345722115 1.4573122413646762 26 33 1
13.822591817619355 -1.3716232345722115 1.4573122413646762 26 33 1
13.41674404083831 -1.2089327743493568 1.4538639241741755 27 34 4
13.243897418108462 -1.3561103351930297 1.2982323180549369 20 26 0
13.243897418108462 -1.3561103351930297 1.2982323180549369 20 26 0
10.743877250819574 -2.0918166303281183 2.2129478481384592 47 52 21
10.696262030122112 -1.807515032068285 1.9983047054627299 47 54 24
10.707904577979136 -1.7212281686252384 2.2154627265371114 49 55 27
10.873111827662326 -1.8342750669723926 2.204087847932193 49 56 26
10.77820295471048 -1.8676561441296322 2.331998366845478 48 55 24
11.334626586302916 -1.7410224974486523 2.410065528804897 49 56 26
11.265363708517409 -1.6086586423922358 2.4169410831405598 49 56 28
10.67278302365201 -1.34459680322826 2.3414517447466983 49 55 29
11.32344400266115 2.7774657152285047 2.07139743665787 45 48 18
11.05191057008074 2.874719931388494 2.0848888760037334 47 50 19
11.13423482091734 2.8996220190073694 1.884394025054685 46 49 18
10.401905072292429 2.9774171706875006 2.0112361447092475 49 52 21
11.304299979909421 -3.0918450865727753 2.1763625402694924 48 53 22
10.851000624380546 -3.096676233461904 1.8928706700498759 46 51 20
10.401905072292429 2.9774171706875006 2.0112361447092475 49 52 21
11.307645858803705 3.0837183783787587 2.1761576947913914 48 53 22
10.779251651744861 -2.6097263488532305 1.6111366569821135 42 47 16
10.86562043582341 -2.6097263488532305 1.7032252845588818 43 49 18
10.578137917593125 -2.8823190466901076 2.0033983368398243 49 54 25
9.432603575332147 -2.4259415080815194 2.0602548985066953 46 52 21
10.522019424846485 -2.4259415080815194 2.228812030331717 47 53 21
10.855510117894083 -2.98536005891026 2.0951361900132515 48 53 22
9.429692907271592 -2.5240306108135675 2.1850407374191665 49 56 24
9.623669123959584 -2.591879271941597 2.0497083974009667 48 55 23
10.485795329279608 -2.784601563926499 1.904515614185089 48 54 23
11.034783327612754 -2.8823190466901076 2.0857656404575597 50 55 25
10.939312488358976 -3.0003419569885397 1.8901780085842548 46 51 20
10.578137917593125 -2.8823190466901076 2.0033983368398243 49 54 25
10.583326772403026 -2.6935046108386054 1.8029279426314462 46 53 21
10.012792048451681 -2.745664389617975 2.0296331030731514 49 56 25
9.423400023751228 -2.498076697952447 1.8321305038680131 44 49 18
9.942004400175438 -2.4259415080815194 2.149145516196164 45 50 18
14.840734890362342 -2.6887939682798763 1.667622050773429 20 25 0
11.143022740087885 3.0767495048953313 2.301251304302278 49 54 23
12.19198912835166 3.0561957808142743 2.5980211135258413 51 56 25
11.235773788148999 2.9580148825976074 2.2938812748270387 47 52 21
12.276817818074251 2.9015394797434233 2.586692793762552 47 52 21
10.71227935992395 2.806277063569283 2.337878063675061 47 50 19
11.249298357517738 2.9334871141356325 2.418555647144465 47 52 21
12.19198912835166 3.0561957808142743 2.5980211135258413 51 56 25
11.6157854356383 2.757693439902507 2.5187657718795826 47 50 20
11.139627415392999 -3.085850629332722 2.30152435568949 50 55 24
10.992205689368857 2.6893797459083824 2.313609862483229 48 48 17
11.096516878524913 2.628740655214282 2.4342991240386254 48 49 14
10.694608217384625 -2.8155704760336926 2.339472182762655 52 59 29
12.267570470193528 -2.9129321093759284 2.5879100630289575 52 59 27
11.225668894165503 -2.9668591124819073 2.2946759811678477 51 56 25
10.0403836857765 -2.768089425486268 2.404583175047777 52 59 29
10.331197787539764 -2.6379306943232637 2.3740768925523588 52 57 27
12.148544163653991 0.47693173527579336 1.6891707409809205 9 11 4
12.578046173022631 0.36948861210070943 1.5258394382870022 10 10 9
11.726528406306405 0.4005234332038748 1.6934519273137605 10 10 5
12.566777612463502 0.547757505768613 1.5257990984741774 8 11 4
11.673974164989799 0.9572016875080364 1.6080433833486705 2 7 0
10.990607938602826 0.6434887051237329 1.7017105608149672 6 9 3
10.781951263413113 0.4799541489666736 1.9946867424767505 6 9 1
11.133054322151978 0.9041730479713104 1.791271135882532 4 9 1
11.027607368560254 0.8428927417817526 1.984657083568907 5 11 2
10.681651828874653 0.70284413882421 1.8981658028651203 8 11 4
10.23528375491688 0.7694511477441088 2.250651288326518 31 37 15
10.943532863222863 0.6224297400816069 2.0904906282252007 3 8 1
11.446480111620962 0.5179870006957825 1.785138545863578 7 10 3
10.482913251796937 0.6224297400816069 2.007597082135414 3 7 2
9.562997502757101 -0.6159283689397902 1.7213932640590441 29 36 9
8.965232089612893 -0.8464774519870959 1.8458240643516215 36 42 15
9.83633196633143 -0.1493500733442333 1.6150061284140211 27 29 9
10.943600189931667 0.1746139142907476 2.1993671908591454 29 31 9
10.74569488525854 0.050140998560113864 1.5181668406393003 28 29 16
10.032129523886356 0.055290934004366424 1.8159364955688253 26 28 10
10.933225261561715 -0.1661846389893479 2.2000571720434463 40 42 18
10.864817416690176 0.3855294470591083 2.094640829513265 4 8 0
11.54578940199888 0.3188409212919131 1.7832665329334523 10 11 4
10.943600189931667 0.1746139142907476 2.1993671908591454 29 31 9
12.285603336183094 0.19669305271720078 2.446429660212597 31 36 10
11.71077558843284 0.31770833021427625 2.3749632068039443 32 36 14
10.761923834523259 -0.5444958331154685 2.471486656524071 43 48 19
10.881405144512211 -0.21432826585332254 2.4577487318207343 44 47 18
11.284878396829802 0.42983926050706966 2.2900474954371592 31 34 14
12.20083572964134 0.06957849966452949 2.454801807130555 33 38 12
11.303278406557949 -0.40664701451278334 2.5583639142432086 46 51 22
11.683380919056647 0.22505616785514507 2.510754494989913 30 36 9
10.386236397463733 -0.6627148758386867 2.3686002249688713 43 48 19
11.734883179356826 0.283294389562066 2.25693870476287 25 29 10
9.509484123996707 -0.9170232904561868 1.7222472494053143 33 39 12
13.800133343255292 -1.140669311575974 1.457126757336219 27 34 4
10.891220826893784 1.318429768791701 1.6107217092351973 25 35 8
10.772811738336825 1.4092484042058047 1.7043729759033097 23 32 4
10.141369691332274 1.6004243987491535 1.9163143146964976 26 35 0
11.166194657209385 1.066019638889153 2.0791181880846428 25 34 10
10.479245385722152 1.2626639867552132 2.116029602792482 28 37 4
10.05851423776501 1.3467916068494383 2.2649416138081397 34 41 9
10.976232849848348 1.0116069902645346 2.1972077056501647 12 20 3
9.730048150679353 1.7044766973656642 1.7187885224038872 23 32 0
10.790986652242877 1.784117293587494 1.6110927638378447 23 32 0
15.236135284981398 1.857280642225138 1.4678800738850057 32 41 15
10.218254233577117 1.7044766973656642 1.913607225380871 27 37 0
10.734956888386144 1.9928345025694536 1.7995902278598737 26 35 1
10.123739133020164 2.1507204768736488 2.259591000329043 42 43 15
10.53102678425265 2.035732048593009 2.00546509659938 33 40 4
10.18693094205737 2.4318951707970675 2.388868542178469 44 47 16
10.809113488462362 1.3139234636440111 2.4659963336993567 34 43 11
11.667943833822116 0.9457572638291323 2.3787821269104112 27 36 9
10.963396336154293 1.4419808928821258 2.6071752194941076 40 45 12
11.175512530565781 1.9617720005299217 2.5759262010583406 42 45 12
10.211947830107754 2.2290736592187987 2.3862568576994296 43 46 15
11.970539778045456 0.8844650288603891 2.6294573115931894 40 44 14
11.48298919830049 0.766005853220868 2.535053724770245 37 42 14
10.739595075420192 2.5160715887122973 2.335429001951585 44 47 14
11.353600431129038 2.5843611310467867 2.2847589406595135 44 47 15
12.464788526033747 0.31513205485751755 2.7321975797188736 39 44 15
12.381247762903469 0.11352102016475572 2.7480374137791856 40 45 16
12.295461498767558 -1.411402064341598 2.7651962155390084 53 58 29
11.781282430929997 -1.6225007161753222 2.6588030508383897 50 58 29
11.942064774849657 -0.8762097054718995 2.633714954000101 47 52 23
11.43912223910823 -1.6145107500338904 2.540603380874223 49 56 26
11.563859082061352 -1.311048823664642 2.5250456948874875 49 55 28
11.799715053830582 -1.4402167406809303 2.655831237212996 51 57 29
12.393235177043636 -1.311048823664642 2.571718845406884 51 57 30
13.190632693402813 -0.9053537539891519 2.8014085940726696 51 56 27
11.96789756827748 2.6937424545946413 2.629850170866269 47 50 21
11.82120504311547 2.4511502992506418 2.6523990712505436 46 49 18
12.306868663085538 2.796850268678226 2.762857988910479 48 51 20
10.940788470817479 -2.2050607116075986 2.610676885870836 54 59 29
10.383191037971608 -2.0408095372906976 2.368900937318005 49 55 23
11.507339308763093 -1.766738611628467 2.5320103620856163 50 57 28
10.383191037971608 -2.0408095372906976 2.368900937318005 49 55 23
11.38530612372071 -2.1119380276951287 2.5475329616610694 52 58 28
10.537445071897727 -2.561442639230705 2.4988455196124626 53 58 28
10.571459418977746 -2.1119380276951287 2.4945609333031387 51 57 27
9.353358338249027 -1.1568861842714506 1.724795266412594 38 44 17
9.704694187375038 -1.0622430267078808 1.5125153046400692 27 33 6
10.22122868448171 -1.2215741106951794 2.2517634377834996 46 52 25
10.654977227550463 -1.4862295004231927 2.219202582388495 50 56 29
13.255373240289204 -1.2809099130065944 1.3760399649670938 25 32 0
13.972744424709544 -1.301378461229505 1.601913392362008 28 33 3
10.873111827662326 -1.8342750669723926 2.204087847932193 49 56 26
10.579246660271004 -1.9408482566565362 2.110305890372349 49 56 24
11.394946382783678 -1.9047296979114945 2.067967743732412 48 53 24
10.385834488135009 -1.9852262564027934 2.238987317892684 48 54 22
10.696262030122112 -1.807515032068285 1.9983047054627299 47 54 24
10.528280061400732 -1.7055327285062727 2.005586227041562 48 55 28
10.865959249726734 2.9774171706875006 2.0945801261561057 47 52 21
10.596003301496436 2.874719931388494 2.002619902785952 47 50 19
10.301649008806434 3.0837183783787587 2.0158280149186427 47 52 21
10.297976280235947 -3.0918450865727753 2.015998121135909 48 53 22
11.06907787484567 2.7379140026623383 2.191151266102291 46 48 17
10.94968164902468 2.993137592423534 1.8898648544198156 46 49 18
9.724202050735698 -2.6978191036299473 2.1638381577625085 50 57 26
9.729846313861984 -2.498076697952447 1.931581242734107 45 51 20
11.3890974709781 -2.98536005891026 2.1712168711920827 49 54 23
10.015533260364014 -2.6474386338341254 1.9208405695305388 47 54 22
9.63660762102139 -2.6379306943232637 2.301961074091648 50 57 26
10.199390203334826 -2.8823190466901076 1.914267403703895 49 54 25
10.202081278043371 -2.784601563926499 1.8117711606552385 47 53 22
11.818082929533581 2.920343370321053 1.7782987525473748 44 47 17
11.439004084903827 2.9015394797434233 2.5406184469867674 47 52 21
11.249298357517738 2.9334871141356325 2.418555647144465 47 52 21
11.239205623149267 -2.9434528734832965 2.4195738425097795 52 59 27
11.156659746721278 3.0678760307235327 2.42801596462403 50 55 24
12.188886006256054 -3.0681619965936004 2.59844255511548 50 57 25
11.613316481196053 0.7129634446852906 1.694653752085302 7 10 5
10.418964343689058 0.6708859112272413 2.3653854061680484 31 37 12
10.999521700024967 0.594120899258217 2.31299927838936 33 39 14
9.690528149714778 -0.37805539641134644 1.824765174009581 32 37 10
9.594757271769938 -0.7625783674171083 2.1729589829717404 43 49 22
10.405635829721211 -0.5597402129370592 1.41979705002201 20 26 0
11.590948021412922 -0.06869461220779847 2.521755670861194 43 46 16
11.441822161946645 -0.0598160571927641 2.3996885946267437 40 42 17
11.594211179180606 0.07989537143946919 2.5213614098878163 41 43 17
11.348271325656555 0.48475669977239144 2.40872710207987 31 37 14
11.303278406557949 -0.40664701451278334 2.5583639142432086 46 51 22
12.79570067642481 0.09379384506787904 2.6761828144705913 38 43 14
10.915641809065322 1.1114847911444465 1.7957372611456384 26 35 12
11.182725550348676 1.2316643679753765 1.609680425925842 26 36 11
10.265472430430215 1.3723013630132472 2.128710114719291 29 38 4
10.124752093330999 1.60389220962924 2.1374072348252215 32 39 3
10.375031840090807 1.8320455136619405 2.122133680517103 34 41 5
10.66485682286883 1.7393462790575316 2.342173608205779 38 44 8
10.611714768160903 1.4759180615210077 2.347054580281483 35 42 6
11.014841803452693 1.7984024967523458 2.599335817578396 42 45 12
11.073875512116684 1.2700913176783621 2.590551794372609 39 45 11
10.938144417678203 2.4318951707970675 2.451408882998906 45 48 15
11.970539778045456 0.8844650288603891 2.6294573115931894 40 44 14
10.675561584195306 1.6140055125876915 2.481762246038895 39 44 13
11.68341801282247 2.60369379596879 1.9601320208366366 43 46 15
9.957286397965209 -2.339490223255011 2.27343335493247 46 52 21
11.729329415927577 0.49356787952787085 2.6673226951998346 38 43 15
11.628334607562174 0.7606619987657561 2.6845307125630975 38 45 13
12.378192086652305 -0.09766145384450467 2.748632371781268 48 51 20
11.43912223910823 -1.6145107500338904 2.540603380874223 49 56 26
11.371408540015453 -1.411402064341598 2.732866394098128 52 59 30
12.570876571972537 -1.1727451390023649 2.550031396497172 50 56 29
12.350597323788215 -0.9732375464441086 2.5771292623897675 48 54 27
12.960402613493432 -1.1091654727994693 2.651483074760435 51 57 29
12.964121554683432 -0.7361748688775617 2.854828486423491 49 54 23
12.22224854345944 3.0166641645343657 2.7806548205121655 48 53 20
11.576050849973312 -2.043649409588838 2.6938020364150415 52 59 29
10.868061328912765 -1.9103508824509992 2.459256559568324 49 56 25
13.583034499183174 -1.4439145569744989 1.5291677306922518 29 34 3
10.091806529856862 -1.4951307865884327 1.9180827119346273 45 52 24
9.706921076551367 -1.3705735515506314 2.0452603241355685 47 53 27
10.558107682520495 -1.4749619675892525 2.352052226728954 49 57 28
11.284639077942957 -1.4749619675892525 2.4150138379592847 50 56 30
10.039350059101793 -2.5240306108135675 2.2665315045984378 50 55 24
10.215958514666085 -2.558588997723555 1.8114373502409653 44 50 19
10.94968164902468 2.993137592423534 1.8898648544198156 46 49 18
11.403808218295701 2.8102217185451863 1.8767373878792921 44 47 18
10.79114582271306 2.84427267424008 2.209675840291551 47 50 19
11.096516878524913 2.628740655214282 2.4342991240386254 48 49 14
10.819289718047477 2.757693439902507 2.46482354655085 47 50 19
11.799496705128387 0.5922373777064939 1.6926896318506053 7 10 4
11.469793789274112 0.06161835968685486 2.2760145649784542 37 39 13
10.614347729957412 0.2554591714920634 1.9003198748255992 8 12 1
10.563631785705702 -0.27527507840704774 2.1111912006326365 38 43 16
10.345293526693897 -0.30883595324676294 2.2420842580685396 43 48 19
10.170303345244754 1.8648461616509058 2.255827332015234 38 45 9
9.926370610070117 1.4615135692565326 2.4173279313954814 38 45 11
11.913634951626902 0.865236476021735 2.4847535535712635 32 38 12
10.16016016535641 1.9067119882624264 2.3916857255143134 40 45 14
10.966835096119963 0.9457572638291323 2.315736240642352 25 33 13
11.243958361271362 2.6869051925446774 1.9762211727742183 44 49 18
12.22224854345944 3.0166641645343657 2.7806548205121655 48 53 20
9.57449825496498 -1.60066115610696 1.7212109916101295 38 47 18
10.77820295471048 -1.8676561441296322 2.331998366845478 48 55 24
11.32344400266115 2.7774657152285047 2.07139743665787 45 48 18
11.153268573461794 -3.0782158128618664 2.4283672296584666 50 57 25
9.55329579975188 -0.5242369544114472 1.938563207086714 39 45 18
10.375031840090807 1.8320455136619405 2.122133680517103 34 41 5
10.522194470240448 1.1991607986520376 1.8043015721993516 25 34 7
10.571157544547926 1.5028292963937089 1.6119312035689652 24 34 2
10.561492220921771 2.4191240086724646 2.2259264744345897 42 45 14
11.428041907157075 2.6403860533448995 2.1688852272126216 43 47 16
11.458105307402121 -1.4602444649790138 2.5381911097206555 49 58 28
10.45929019796169 -2.3356708258657415 2.508891800984075 52 57 26
9.723185491537217 -1.3912564024651504 1.7188937459602651 39 46 19
9.00580751102475 -2.4259415080815194 1.962095297948119 44 49 18
11.39905749176049 2.9774171706875006 2.170618683878913 49 52 21
12.297643912287247 -2.812585535656028 2.764747462419208 53 60 30
9.791434465128878 -0.05296797171352572 2.0408323257558436 27 29 7
10.561492220921771 2.4191240086724646 2.2259264744345897 42 45 14
10.276593224681884 1.2248049127461278 2.247405877098464 32 39 7
10.281862598030829 1.39265050900869 1.9114001277084653 26 34 2
10.63094509885372 -2.339490223255011 2.3452799918898 48 54 23
11.942064774849657 -0.8762097054718995 2.633714954000101 47 52 23
11.101972179282498 -0.633134210683637 2.5864473056353856 45 50 21
10.696262030122112 -1.807515032068285 1.9983047054627299 47 54 24
12.604485034760437 -3.0543265987066115 2.707363440940248 51 58 26
11.235773788148999 2.9580148825976074 2.2938812748270387 47 52 21
10.854486233012018 3.0893359190814134 1.8927635159328076 45 50 19
13.740557744283727 -1.3716232345722115 1.6024393797786525 31 36 5
10.37660633491342 1.9022713244904905 1.807639952342656 29 36 2
10.995205293089967 -0.30883595324676294 2.313359380054296 42 47 19
11.597849666662526 0.8358315591066566 1.6948197790823745 7 10 3
10.67659119965482 0.766005853220868 2.4816379551502994 31 37 12
