18.01672989789925 0.2932651227055449 0.8941376413070162 38 51 33
18.204206789847646 0.3861577048070837 0.8302721602179381 36 49 31
17.6680549515775 0.3599416410869161 0.9496720481290514 36 52 33
17.980033873814175 0.4234361452963792 0.9620344817901484 34 50 32
17.6680549515775 0.3599416410869161 0.9496720481290514 36 52 33
18.58428934217329 0.208766996772085 0.9184310389158354 40 53 34
18.46740227145527 0.22379545356369185 0.8432228325514747 38 51 32
16.123589611839094 -0.9277526889298345 0.8792950578809321 41 54 28
16.338005247242062 -0.955036827051271 1.1088353009414313 35 49 24
8.83574296895294 -0.22566163519093121 1.7664893965323416 37 50 24
8.529692193648128 -0.11073662397291972 1.6550818453160567 35 47 23
8.221278036320436 -0.2921777739976604 2.1820398560664263 44 58 31
8.221278036320436 -0.2921777739976604 2.1820398560664263 44 58 31
14.81931152347045 -0.5677710036397411 1.4841846425328569 37 51 23
10.478912060671638 -0.8887307066402077 1.351274247527514 28 45 16
10.259625431988098 -0.7500967458437873 1.445520738710807 32 48 21
9.499343239746628 -0.8221288015854327 1.6464609528625345 37 53 27
10.204520001343619 -0.7500967458437873 1.6412232123395336 35 52 23
9.626716948839956 -0.8221288015854327 1.750227428911826 40 56 30
10.231320170359957 -0.8887307066402077 1.5432380968041155 33 49 23
9.529822850546722 -0.673215482169405 1.5412089432416376 34 48 21
9.177760553162624 -0.74440276273612 1.871465307853018 42 58 32
9.34063421690588 -0.5856164032567358 1.8660630919981078 40 55 30
9.869018448614073 -0.5291029173566485 1.4405347538586366 34 48 19
9.477734389099297 -0.4363525700872234 1.753079351059755 40 54 27
9.347997577471919 -0.3348491969562181 1.8658235176099192 41 54 26
8.972889403937613 -0.3348491969562181 1.65090957427515 39 52 24
9.70894465824571 -0.4363525700872234 1.8545447427227906 41 55 27
10.546449468850026 -1.023513312755603 1.4489449710760718 36 52 26
8.875400809340862 -0.8285729245506702 2.0030513902935 44 62 36
9.134854580165182 -0.4948067451672982 2.3971026335750008 45 59 32
8.512811534325298 -0.4277399553195811 2.1582371879523565 44 58 32
8.736724162096104 -0.7365204355728773 2.141267103422037 45 60 35
9.338570380578117 -0.8285729245506702 2.1004389190277637 43 62 37
8.825415494052354 -0.6260969600812147 2.275634293725011 48 62 36
8.907665681164671 -0.5484618369259067 2.1290018754461695 44 58 33
17.68590226246134 2.5030094104606215 1.2675169625538425 14 30 23
17.544437797780244 2.419291793763336 1.2649927181905043 25 43 30
16.93179982484547 2.4659484278578536 1.253548678969717 27 43 32
17.772603227652645 -2.3861179832934756 0.9538753387506633 19 38 13
17.233307222327124 -2.4387776063306377 0.9315001352996518 20 38 15
17.80955166147056 -2.338207015802793 1.0225673269037947 20 39 14
18.569650836534457 -2.206746324043795 1.0473781206675157 17 36 10
17.887240830333443 -2.2455999661449795 1.0252174969356533 18 38 12
17.927965131801415 -2.192408489624258 0.9600085061884025 14 33 7
18.39028336923512 -2.288630472243517 0.910346863809435 20 36 11
17.575520441350626 -2.6006841184637537 0.8738082998801142 32 51 25
17.993817450802116 -2.539491706568689 0.8931145289291942 25 45 20
17.51442475317456 -2.577633911835844 1.0122444897137508 20 40 14
17.756591035158582 -2.611672440374795 1.0855639454705384 28 47 21
17.832044759220818 -2.668372564309982 1.023337438128713 26 43 19
18.563408329461115 -2.3397381018586874 1.1083461225588767 26 43 19
17.5893287030703 -2.4718674343777103 1.1439561563398142 28 47 22
17.3068867383586 -2.48304162000707 1.0047328026354763 24 43 18
17.3068867383586 -2.48304162000707 1.0047328026354763 24 43 18
17.79357271839733 -2.558500999178255 1.1491704556260323 30 49 24
5.096300592597295 1.228407235362761 2.133344547890163 29 41 18
5.878118857797112 1.1203568177371117 1.8674103257223844 29 41 18
5.665579368953199 0.6027713217769741 1.8788961972306861 31 43 20
5.374884019175351 0.8669121923353331 1.7047958841301938 31 44 17
5.465069642869115 1.028402283333672 2.091343370986555 31 44 17
5.604774257802687 0.4339084985472579 2.0771111621713927 32 44 21
7.532705492496265 2.100988434491155 1.9399614937186629 27 39 16
7.772437734637627 2.2150469849661483 1.7936848261180007 28 40 17
10.901289698106721 -1.3440814418020883 2.957997143550707 48 62 38
10.207417538147896 -0.6700873589353538 2.8306986234054565 49 63 38
8.254579501776544 2.131993332904123 2.5215622526702823 31 43 20
7.3747691916132165 2.0379603339946204 2.2649816283665434 28 40 17
7.7563941661316385 2.3033923020153444 2.0707177553702967 29 41 18
8.686356407963526 2.265928136711457 2.6649251879909492 32 44 21
8.19279707720779 2.430440472221617 2.5322041488924394 32 44 21
9.611814435563904 -2.6419278471805137 2.706941394026131 46 60 35
8.918561917761608 2.5422495543860686 2.9291588545656073 36 48 25
8.37291855600301 2.71654253027099 2.502031991294261 34 46 23
9.168212096469526 -2.738903875069136 2.5714616722619796 45 59 34
9.023329210467667 2.912685310031672 2.5970168319900138 38 50 26
9.414344449126588 3.124501100010049 2.754583553156498 38 50 26
9.00985934281957 -2.9381335730569655 2.599490262512747 43 55 30
8.198163390850604 2.7477621418018146 2.7976720714335954 34 46 23
8.137938423576825 2.2164995017520246 2.8189698382388926 34 46 23
10.906118035797416 -1.8484134127164813 2.9556280309462193 48 62 38
10.233173527385294 -2.491905417292664 2.8229585763319394 47 61 36
9.260821450548297 -1.0601776198693438 1.757398559872586 40 59 34
9.072169789757902 -1.1611463007331853 1.875076227315671 41 60 35
9.113865026550725 -1.5207944631503072 1.7604437224234828 41 61 35
9.113865026550725 -1.5207944631503072 1.7604437224234828 41 61 35
9.426131161021921 -1.303568976371294 1.7540885524676924 41 60 34
10.010254960830418 -1.1091449330384133 1.6425922896190763 41 57 31
8.771318365353286 -1.881878778314362 1.8858658392780971 45 65 41
8.865955231587815 -1.991550598349488 1.765813938949052 46 66 42
9.11270099339827 -1.991550598349488 1.8736797910395593 45 65 43
9.30086565084957 -1.8489479319171027 1.54048037712285 44 63 38
8.245802093875243 -0.7248900258810149 2.337067294627781 47 62 38
8.767656462237465 -0.8377567999237899 2.2812512229049946 45 62 39
9.022929158265338 -0.9614492880339015 2.41066623904294 45 62 39
8.576179903049074 -0.5840024927790329 2.4708199835901827 45 60 35
8.79284881490117 -0.9280609646741524 2.137176923440215 43 61 39
9.420213475328383 -1.1611463007331853 1.9765284438584096 42 61 36
9.041934567536055 -1.0008477128610218 1.9945707056734032 44 61 38
9.830316800188102 -1.0601776198693438 1.958675204721219 43 61 36
8.936198354835762 -1.044888248517214 2.265136100370768 44 62 39
10.12403832991538 -1.2857466362334045 2.608277852527439 49 66 43
9.874832196470015 -1.014883649906388 2.652710524258146 52 66 42
9.246213264543215 -1.5145089760242558 2.106296717587297 44 64 40
9.348110301270355 -1.3904735877212924 2.0998415740689023 43 61 38
8.600054335041575 -1.179934512665209 2.2981410755350637 45 63 41
9.318770425014472 -1.2317346779562952 2.231419076866405 44 62 40
9.002781197581132 -1.506418546466451 2.258993588796595 46 64 42
8.740899553682212 -1.2317346779562952 2.1409606354850403 44 62 39
9.845737278004647 -1.331763404763548 2.4717196526424425 46 65 43
9.766316244592169 -1.3651701363822397 2.3293640310794252 46 64 43
10.04157602265662 -1.179934512665209 2.447465359163756 46 65 43
11.20764788980305 -1.1132321761589512 2.844932959016593 53 67 43
10.585544939383201 -1.2186909401421624 2.733934534520148 53 67 43
10.495668401412045 -1.45771840541573 2.754242537295625 51 67 43
11.122799321686278 -1.4197568979486026 2.8710028617042735 51 66 42
10.495668401412045 -1.45771840541573 2.754242537295625 51 67 43
9.789257206070921 -1.4102797974622534 1.9603895241630327 43 63 38
9.69199928679885 -1.5207944631503072 1.9645131366710875 43 63 38
10.20510029743112 -2.304634360200448 2.5949728261019573 50 64 41
8.631251559753352 -2.568303609687706 2.4628194071066942 49 63 39
9.100454159382476 -1.8264942943852542 2.40121454897697 46 66 44
8.984039869586724 -1.6635787166520053 2.415507310771282 47 65 44
9.365250389288384 -2.304634360200448 2.5394409606249204 48 64 40
8.20873220244964 -2.315484766700988 2.1831112840844 46 64 42
9.861765720883067 -1.8264942943852542 2.4696702643906003 47 67 45
9.754441532188622 -1.6635787166520053 2.4836261444752634 47 67 45
10.035274742775695 -1.6822211556813988 2.6234557152173723 50 67 43
9.063680560123506 -2.1943351448657697 2.4056654592446427 47 65 43
9.124727741084461 -1.7909185208154912 2.2480529036836896 46 66 45
8.770963040114342 -1.9232882445601929 2.1387643919135613 47 66 44
8.356175848642025 -2.224794582569346 2.0319145109637637 45 65 42
9.862328549190181 -2.4503973463374575 2.6550992181625985 50 64 40
8.82153283721691 -2.315484766700988 2.2760087280893213 46 64 42
10.035274742775695 -1.6822211556813988 2.6234557152173723 50 67 43
9.03341692414162 -2.145763807667485 2.5951758579658764 49 65 41
9.364990485356131 -1.7639241740768727 2.0987881065070146 45 65 42
9.582702723894483 -1.7101781854298705 2.713531806630504 50 66 42
10.167880853582039 -1.756648047130945 2.8430373870913894 50 65 41
10.60045481334623 -1.9462454909679097 2.7306897263897087 51 65 42
8.455762713361338 2.4839604418155985 1.7754053411643071 29 41 18
7.706791130942495 2.4025104729015343 1.7956158961216835 29 41 18
7.984675965408308 -2.890254839567632 1.7876642680410766 40 52 29
8.287159756231532 2.875228041310216 1.9049679739324978 34 46 23
8.826663916841767 2.9051533717204028 1.652239675378419 31 43 20
8.12894093686881 -2.999219822020965 2.190022370000039 38 51 24
7.819558277649444 2.5101584861569153 2.0663109964277955 31 43 20
8.040736851561057 2.9528360781373335 2.3619127702520926 36 48 24
8.025618010656007 -2.9740210976326193 2.3638201025223906 42 55 28
7.903176358438135 2.6378137875737404 2.2105341260201152 33 45 22
8.232551332824777 2.786223542585611 2.3386175846393007 35 47 24
8.232551332824777 2.786223542585611 2.3386175846393007 35 47 24
8.715971202973973 3.130656653613838 2.450857686139146 40 52 28
8.074721858159855 3.132325493379208 2.194816399676862 36 48 24
8.202992875860804 -2.805584223394262 2.3421023314295573 45 57 33
8.928899671739268 -2.805584223394262 2.422490032325716 50 64 39
8.936189105989854 -2.405256657779366 1.426846897478761 45 63 40
8.916335813039781 -2.245645137813653 1.6514188084202677 45 64 41
8.572911472514093 -2.322563793382007 1.8934182717551982 44 63 40
9.0480150871116 -2.810569617709433 1.5396329146112755 42 56 32
8.97935019240094 -2.245645137813653 1.4275436039371454 45 64 41
8.548449472443565 -2.660834175577266 1.654896465616718 46 61 37
17.942294585139138 -2.508811853099772 1.2130991877793067 34 50 26
17.199437242282528 -2.4718674343777103 1.1969057923769082 33 49 25
17.79604419863224 -2.424764597634475 1.2100256739648063 34 50 26
18.11115385652421 -2.381233144911122 1.2748562982618779 32 51 26
8.309778617608847 -2.41458947807329 2.0346905223922978 45 63 41
8.501715505350091 -2.6003111533441565 2.0234269339987287 49 63 39
8.087064910426596 -2.719934514453725 2.0485170232541434 44 58 34
18.65034946829227 0.315345886040775 0.7782345671832167 37 50 31
18.19157552032592 0.2740011890227862 0.9701177967540124 40 53 36
17.859192434307904 0.45311992981267496 0.8870326555227273 34 48 29
18.507149893462206 0.45311992981267496 0.845133848311897 36 50 31
17.902263249930908 0.33693085451367116 1.0257268056438562 36 53 35
18.586655680578858 0.0685595569862679 0.984609638171967 36 47 26
13.799724040281603 -0.6335203452991576 1.0149222053597162 37 51 22
16.164307806585008 -0.9730793467998935 0.9591412546263893 42 54 30
8.132088495936655 -0.34201261930961463 2.350614398433996 42 56 29
8.132088495936655 -0.34201261930961463 2.350614398433996 42 56 29
14.312406265378197 -0.6063817338858217 1.3394316479210373 38 52 24
13.299193239234045 -0.6335203452991576 1.0788372195006202 37 51 20
13.299193239234045 -0.6335203452991576 1.0788372195006202 37 51 20
13.153180297892844 -0.44163343728062954 1.0728785848871096 31 45 14
9.655121085914717 -0.9694416420091607 1.6452378844715936 38 56 30
9.61152258158092 -0.673215482169405 1.4370243158510465 31 46 17
8.972889403937613 -0.3348491969562181 1.65090957427515 39 52 24
9.57346787715431 -0.9052668077367351 1.969661912306633 42 61 36
9.392819361398148 -0.6537214841656148 2.0970610142434274 43 58 33
8.426708193250928 -0.4948067451672982 2.3166051049885263 45 59 32
9.208966127212022 -0.48653810328398095 1.9864035083748515 42 56 29
17.544437797780244 2.419291793763336 1.2649927181905043 25 43 30
18.44067997800097 -2.2946224101017436 1.043337195693043 21 40 15
18.350585090291435 -2.338207015802793 0.9760425525281664 21 38 13
17.27894157265245 -2.6996555478596886 0.9334621867828485 21 39 17
16.95096091703642 -2.6006841184637537 0.9190588804055195 24 43 18
18.173140397111055 -2.424764597634475 1.1585189522035249 29 48 23
17.93659892894551 -2.38345854444134 1.0908482742846504 25 44 19
17.344827282777775 -2.4311227638714996 1.0730044856365395 25 44 19
18.026323169134916 -2.4718674343777103 1.0934374926362096 28 45 21
5.596921961770512 0.8669121923353331 1.882802405576627 31 44 17
5.536928285167509 1.2922351758066088 1.8862991764225308 28 40 17
5.028616571695149 1.1290799293791232 2.4029512998671305 31 44 17
10.987848904737893 -0.9296431925315015 2.9195439196857498 49 63 38
10.901289698106721 -1.3440814418020883 2.957997143550707 48 62 38
7.3747691916132165 2.0379603339946204 2.2649816283665434 28 40 17
7.924081035075297 2.549702944768472 2.376918227580366 33 45 22
7.861756740912616 2.2895581703566847 2.3852173240726695 32 44 21
7.55463538064862 1.9694255709084705 2.0853640307583463 28 40 17
7.712091503309622 2.413243780284553 2.229101148235225 32 44 21
8.44674458696787 2.040251374732448 2.7231776844107367 33 45 22
9.87996571876419 -2.9381335730569655 2.6517346618849276 43 55 31
8.562428190167848 2.851445091323042 2.6937629923033586 36 48 25
8.184394468371899 2.912685310031672 2.5336765461352444 35 47 24
7.874037821649165 2.615968622514444 2.592874051120679 32 44 21
9.414344449126588 3.124501100010049 2.754583553156498 38 50 26
9.168212096469526 -2.738903875069136 2.5714616722619796 45 59 34
9.497313892122234 -1.0601776198693438 1.8610491259505408 41 60 35
8.515565263186698 -1.3904735877212924 1.895670403902891 43 62 37
9.217225297967195 -1.4102797974622534 1.7582916259605659 41 60 35
9.988445682600847 -1.1091449330384133 1.542567827528538 39 55 30
8.733158950535756 -2.1514265903173313 1.8872903009653252 45 65 42
9.704392724807095 -1.9490766430005528 1.4383120817727246 44 63 38
9.430517521022225 -2.568303609687706 2.529443892735124 50 64 40
10.270885773940737 -2.056781136521646 2.8120092767483236 51 65 41
9.430517521022225 -2.568303609687706 2.529443892735124 50 64 40
10.443654555113659 -0.87646811985222 2.7666393069924107 53 67 42
9.754441532188622 -1.6635787166520053 2.4836261444752634 47 67 45
8.977343467744523 -2.109863117816577 2.2613258815873554 45 65 42
9.367515546198543 -0.9280609646741524 2.227381638828298 44 62 40
9.130836932776006 -1.881878778314362 1.9901828294252666 45 65 44
9.100454159382476 -1.8264942943852542 2.40121454897697 46 66 44
9.901453355539818 -2.145763807667485 2.647680062286603 51 64 43
9.293862246941648 -1.8753631424466952 2.5507094956375 48 66 44
9.008627132933094 -1.6502690206854236 2.2584600872637264 47 65 43
10.500683250203164 -1.7101781854298705 2.7530735754399127 51 65 41
9.348110301270355 -1.3904735877212924 2.0998415740689023 43 61 38
9.554154733728094 -1.2717797249838436 2.0872791606290093 43 62 37
9.96371614713541 -1.2317346779562952 2.310750833776654 45 63 42
8.936198354835762 -1.044888248517214 2.265136100370768 44 62 39
8.328403924539439 2.756566796742008 1.7785797010464783 32 44 21
7.817890205624405 3.0020609824783264 1.7923672757173672 33 45 21
8.027086156396823 3.133552444757881 1.9162391348381433 35 47 23
8.174021529191823 2.5868080359975756 1.9097775692532653 32 44 21
8.08162482615189 -3.0178643833706937 1.9138116002563146 38 50 26
8.202992875860804 -2.805584223394262 2.3421023314295573 45 57 33
8.30410912883246 -2.8538530554349153 2.175066843235243 43 55 32
7.608313097633733 2.981107280498878 2.0813797361280146 34 46 22
8.33330893161477 2.8368980424447816 2.1726496196848935 35 47 24
18.427635138240863 -2.381233144911122 1.2229256804758217 30 46 22
18.11115385652421 -2.381233144911122 1.2748562982618779 32 51 26
8.114370542891645 -2.6003111533441565 1.9123707522297095 47 63 39
8.592832832774977 -2.719934514453725 2.152049075136432 48 62 38
8.890792285186803 -2.5245586831169926 2.2693961290552553 47 63 39
17.64566737582582 0.2740011890227862 1.0168858269194536 38 53 35
9.08330947617463 -0.22566163519093121 1.8746911247429785 40 53 27
8.965217962822093 -0.5856164032567358 1.6509782735498084 39 53 26
9.780466267527203 -0.9694416420091607 1.747376832037 40 59 33
12.805857766898377 -0.5612345406047548 1.0580748228420929 34 48 17
8.21290456635756 -0.6260969600812147 2.1827545068769365 46 60 35
9.338570380578117 -0.8285729245506702 2.1004389190277637 43 62 37
9.134854580165182 -0.4948067451672982 2.3971026335750008 45 59 32
8.93246317256855 -0.6537214841656148 2.000106170176969 43 59 34
9.314854068159972 -0.7365204355728773 2.2317458452881445 46 61 37
17.269907008495288 2.4659484278578536 1.1985062554375325 26 44 29
17.756591035158582 -2.611672440374795 1.0855639454705384 28 47 21
17.213412872354272 -2.3861179832934756 1.0012784406024766 21 40 15
17.233307222327124 -2.4387776063306377 0.9315001352996518 20 38 15
17.084394246392133 -2.636591856657679 0.9964355557629944 20 39 14
17.891261243189867 -2.234359064725956 0.8884924472982052 14 30 5
14.56368688447741 2.7287141841331675 1.0471913712577987 29 39 18
7.215009142870364 2.1828655619659445 2.1121838162162607 29 41 18
8.960971917651348 3.1282547936941203 2.6086176178585787 39 51 27
6.15220705986804 0.4339084985472579 2.2197445197960732 33 45 24
11.0022136017914 -2.2459231683971863 2.9138331938401127 48 62 37
9.119639754446577 -1.6325400783155386 1.7603221748110238 44 63 38
8.330411202467607 -2.1514265903173313 1.6571030947041863 45 65 42
8.409841782637049 -1.6402934565578329 1.8999075822089613 44 64 39
10.495668401412045 -1.45771840541573 2.754242537295625 51 67 43
9.071826248273492 -1.1097210091212246 2.1177413540638748 43 61 38
9.749042828718537 -1.495617082832844 2.4843430019648625 47 66 44
8.978177924814469 -1.495617082832844 2.416242964130808 46 64 42
9.67561907255235 -1.2186909401421624 2.6929478575203154 51 67 43
9.484445231553364 -1.1107644509608197 2.52139179724474 49 66 43
8.977343467744523 -2.109863117816577 2.2613258815873554 45 65 42
11.122799321686278 -1.4197568979486026 2.8710028617042735 51 66 42
9.124727741084461 -1.7909185208154912 2.2480529036836896 46 66 45
9.107402251071509 -1.3651701363822397 2.249583592644872 46 64 42
10.030027200077466 -1.4804721178415794 2.6243741747004496 50 67 43
7.817890205624405 3.0020609824783264 1.7923672757173672 33 45 21
8.605091924858467 2.648275939144707 1.654341586087642 31 43 20
7.970696129229181 3.130656653613838 2.370841562051054 38 50 26
8.12894093686881 -2.999219822020965 2.190022370000039 38 51 24
8.780068698057807 2.9528360781373335 2.4420721984730567 37 49 25
8.802759675251377 -2.41458947807329 2.1364611678297782 47 63 39
13.799724040281603 -0.6335203452991576 1.0149222053597162 37 51 22
9.324973710268056 -0.4363525700872234 1.5405587775401566 37 51 22
11.255494020421606 -0.9459577394465463 1.366642688078354 30 45 17
9.231204145090874 -0.9052668077367351 1.8696706750406582 42 61 35
9.338570380578117 -0.8285729245506702 2.1004389190277637 43 62 37
18.425993251268313 -2.2455999661449795 0.9788083838754392 16 35 9
17.79357271839733 -2.558500999178255 1.1491704556260323 30 49 24
7.948446971782973 2.100988434491155 2.057567142411711 28 40 17
8.386377961589023 2.4624223792901367 2.7396719158200438 30 42 19
8.534092355821201 -1.7639241740768727 1.8949393013258369 45 65 40
9.156317013084045 -2.0914526554186006 1.5400016361424433 45 65 42
8.516730765183189 -0.8518960782918938 2.479666087462811 47 63 38
10.767937041745894 -1.014883649906388 2.6963389630186234 54 68 43
9.29500359291108 -1.179934512665209 2.378587385675011 46 64 42
9.323280508261016 -1.9767180315690156 2.3754207201912267 46 66 44
9.25190538549292 -1.6402934565578329 2.1059317183388786 45 65 41
9.380139602160797 -0.5840024927790329 2.5371353366103597 44 59 33
9.512159008018383 -2.047798229792851 2.5173240355772024 47 66 44
10.468829357193487 -2.2859112002764377 2.7605759505947796 50 64 40
9.364990485356131 -1.7639241740768727 2.0987881065070146 45 65 42
8.383638813143264 -2.4956748083374367 1.77719089344293 45 63 41
8.872868205441616 -2.405256657779366 1.6518146370693731 45 63 42
9.028752894216076 -2.5624251937219658 1.5395664081199467 44 61 39
9.072085440689015 -2.810569617709433 1.650031751606167 41 55 31
14.308509578611151 -0.5085754292056142 1.481084500084153 36 51 17
9.679351115437823 -0.673215482169405 1.7492412026302733 38 53 27
18.63795543899774 -2.254948338383642 1.1103390244536415 21 40 15
17.494850080227415 -2.5227637311227444 1.0776587423150343 24 43 18
18.200017578973178 -2.462495742863252 1.2763446386406696 35 51 27
8.6306084495334 -1.9767180315690156 2.2949941756736347 46 66 43
8.131994395885362 2.7046116098805135 2.045658732899195 34 46 23
8.63706714997558 -2.0439679345892254 2.0158200567967075 47 65 43
9.460889444193798 -2.8831197304043354 2.742685845445664 43 55 31
9.582702723894483 -1.7101781854298705 2.713531806630504 50 66 42
8.941381483643658 -2.660834175577266 1.8796730019057626 45 59 35
9.691928859790126 -1.9462454909679097 2.6894646588150977 49 65 42
17.233307222327124 -2.4387776063306377 0.9315001352996518 20 38 15
8.741256100978505 -1.2717797249838436 1.886986945458721 42 61 36
9.260821450548297 -1.0601776198693438 1.757398559872586 40 59 34
8.827599303529887 -0.3759062505344504 2.005551064906385 42 56 28
9.607835235344535 -1.2027290853367263 1.6456049387788412 40 58 33
5.922533036440667 0.7260606575079435 2.249500895254535 31 43 20
9.020922965872268 -2.4282994461451093 2.410914317542699 48 64 40
17.384292441147934 -2.539491706568689 0.9379417353279167 19 39 13
8.8526210754542 -0.48653810328398095 1.8828739772733136 42 56 30
