20.38275234502855 0.37015983742014114 1.2231480744607433 5 5 1
20.744755938140152 0.37015983742014114 1.1778113792877798 5 5 1
20.84149566935582 0.32061588397393764 1.1272434950312602 4 5 0
21.14788889481017 0.37015983742014114 1.1341160428369939 4 5 0
20.260288286435355 0.439646147178382 1.1678780054265818 4 4 0
19.88946896413364 0.439646147178382 1.2141461550681463 5 5 1
19.487725464949886 0.41196074303449387 1.0939682160208453 5 6 0
19.89004822714142 0.39000047598013504 1.1599303323541805 5 5 1
9.971065950327153 0.7902677370982826 1.778467096530496 22 31 4
10.077526417838955 0.934109526383819 1.776241659886274 20 30 2
11.165837953857043 1.2603828792347291 2.1440338819368243 27 37 7
10.967913358566351 1.1623944295414992 2.049880998641865 25 34 4
15.057465618398023 1.178854647475775 2.6200829196388873 34 45 12
15.370192635375679 1.266147551977392 2.725035480539112 39 48 16
11.505636028352372 1.8336560330710638 2.3464253173572027 29 41 5
14.341177305675147 1.593473734886872 2.714985389751021 40 51 17
9.344025710157336 0.5601275231179329 1.684035208530497 21 27 3
9.309615564144138 0.46363859453598005 1.9052427615503393 21 27 3
9.33806600739088 0.31946311622021484 1.576776949095259 25 30 5
8.898586812721808 0.11802227773021434 2.0440508715960553 25 30 5
9.134873179891267 0.21463812427294715 1.6866394597768326 26 31 6
9.322841477063873 0.3568846417551687 2.0208835727451877 25 30 5
9.850213851493518 0.623016473341828 2.1097902692089607 18 27 1
9.902450380735978 -0.1542350304215939 2.36390158804055 24 30 3
9.385178013533592 -0.29249029757513756 2.2721553098038574 25 31 6
13.399092992456259 0.3146621948544702 2.9147569241642337 37 48 21
12.429987587357202 0.5424372048012569 2.66693572680136 40 49 21
12.429987587357202 0.5424372048012569 2.66693572680136 40 49 21
12.005156294321115 0.4636355207618181 2.5637213643640977 34 42 14
11.870486426234038 0.4636292661832239 2.768961654813521 39 49 21
10.426351776666577 -0.4818434834229565 2.4537901536239035 20 29 3
10.727983274668844 -0.5625017200580686 2.5757427141461653 31 40 14
11.073762628107435 -0.9191469944037889 2.5283308494435746 32 41 13
10.76556260901767 -1.056154282210599 2.570270216440184 36 45 17
11.073762628107435 -0.9191469944037889 2.5283308494435746 32 41 13
11.05551275021274 -0.6962931053605613 2.5306803031837886 27 36 8
11.006516934567156 -1.1407842370503227 2.7229132784982197 40 46 21
11.515432077907136 -0.8108474963217251 2.6326283790606917 35 44 16
11.641648883929795 -0.011485165556272504 2.6135244165777674 35 44 17
11.89316594139569 -0.49112486799610894 2.7641132932592996 40 46 23
11.624128880399482 -1.0244009449034863 2.827612609531191 43 49 24
11.606744403775973 -0.6249995348980472 2.8322583989958474 42 49 25
11.82587217431031 -0.8194208962656234 2.778735220233969 39 47 21
11.760640249622146 -0.2694175418138422 2.7936373584158876 39 48 22
12.079271605005 -0.013845450010082638 2.726984703417075 38 47 20
14.921349745318254 1.3971120921447358 2.799324042204063 39 48 19
14.384580365071242 1.2838345000226896 2.9273929879631586 44 54 24
14.596250710222185 1.6049992003466877 2.8686304166165337 40 50 20
14.00261486603 1.7968752144412556 2.771755885971058 40 49 19
10.413240484052034 -1.401641458865031 2.6252838822253253 38 47 21
10.413240484052034 -1.401641458865031 2.6252838822253253 38 47 21
10.378087344193567 -1.5973442595909546 2.631282532434912 39 48 22
10.378087344193567 -1.5973442595909546 2.631282532434912 39 48 22
10.439052469871063 -1.791059009781274 2.62094469447414 38 48 22
8.94536458520278 -1.9694748073284498 2.4796038957272173 39 48 22
10.15422074731437 -2.0540874502687245 2.6721726918821176 42 51 25
10.848117538123121 -1.6038670244087092 2.7570417812120898 43 49 24
11.248283170760605 -1.6357921114160725 2.956352038287388 47 57 31
10.906455595927804 -1.842823646597471 2.744033385400752 43 52 26
11.47425863915217 -1.6146363659545642 2.8707087909836013 47 53 28
10.727774987499197 -2.1787604828394405 2.785785395942323 46 55 29
11.280724921059187 -1.1743426336386802 2.9415862479751627 45 55 29
16.172303401317855 1.6403093044536634 3.021512430370643 44 57 28
15.380704977177729 1.9399364936233978 2.935699955055752 43 56 25
10.877694501364157 -1.3127308542423497 2.4047354470797107 34 43 17
10.901350097682979 -1.5929703084429878 2.5511759482235736 38 47 21
10.751435123276263 -1.4489471753968055 2.4177721966212493 34 43 17
10.050865737550852 -1.7299731592721774 2.3490177117935644 37 46 20
10.148736831325236 -1.7556551405629535 2.4877925817206883 38 47 21
9.237681132879779 -1.9882532201140624 2.149939405390466 38 46 21
10.443466267472026 -1.6952749704793972 2.076148711339619 35 43 18
9.54747529929992 -1.9090825395803988 2.4024220142920774 39 48 22
10.718466287571424 -1.5874742925898782 2.2893397032136877 36 45 18
10.443466267472026 -1.6952749704793972 2.076148711339619 35 43 18
9.820715194858712 -1.9882532201140624 2.235263978974352 37 46 20
16.997525902309278 2.577996201927256 1.7515610378015296 23 27 10
14.306004028434375 2.4654850405026116 1.5047513554577696 23 29 9
13.550498890007761 2.419147657390432 1.6487948174306464 25 31 7
15.77852884160077 2.6855949921031406 1.6377630701569206 24 28 10
14.190475288509326 2.366256758952453 1.5747318720048005 40 46 24
15.208669428372328 2.413184847485796 1.3759825304359297 37 42 22
17.745220314126804 2.529043818714186 1.8013945731598098 20 22 6
12.131130646450428 2.1085580045146233 2.413577466092037 35 46 12
11.404062282164327 2.1085580045146233 2.3551976196102316 31 43 6
11.656888005522342 2.447917015322947 2.220931783959246 37 46 13
12.385909817835607 2.179451077035407 2.5181579106342262 39 48 19
17.804220377199762 2.7441982454162615 2.104394810430924 24 28 9
12.006805636396514 2.969734312417735 1.9153702574813556 35 44 12
11.58388641143288 3.0580276448424475 1.8377575689419747 36 43 13
11.110049962055102 -2.9403616526139387 1.9444947636342922 39 48 18
10.78524528852241 -2.9403616526139387 1.858067095014213 39 48 18
16.399454103063707 2.8265303186910686 1.327910101385423 24 28 9
17.68854276231199 3.0292759135758938 1.345928180122814 28 28 6
10.99923942735386 3.039845994071209 2.153842767581117 37 48 15
11.12872548640291 2.9330938240121323 2.146188170351601 36 47 14
11.34521017536351 2.8309394108353096 2.1338607793041193 37 46 14
11.895824372881775 2.7516003725294507 2.436054465630857 38 49 16
11.277198247839634 2.596495436077045 2.1376722542145963 35 44 11
11.457059232461894 2.637821924318032 2.350591699958414 38 47 14
12.208572034130055 3.027440561632875 2.4064891922684404 38 50 17
10.556735971793614 2.795581161438655 2.1817485417303875 37 46 14
10.844450179580612 2.8309394108353096 2.055804017760324 36 45 13
12.325359795316341 2.9083344756724157 2.3960691501423503 38 49 16
11.837629375326731 2.5366811149093986 2.319280343742122 37 46 13
12.13891313879473 2.6956580459346275 2.547037307909442 40 51 18
12.364942611807697 3.0116094281018526 2.5205198519818746 39 52 19
12.480267175215271 2.877057929754975 2.5077197119865775 38 50 17
12.13891313879473 2.6956580459346275 2.547037307909442 40 51 18
11.956143007577774 2.4879841058661474 2.5700382030658275 40 50 20
12.321307503228256 2.3762498569600092 2.525486497929879 40 49 19
10.613485928908421 -2.75881427016121 2.592962376578419 44 57 29
9.999216545133732 -2.4511763591600126 2.2213563796860605 40 50 24
10.382863930267758 -2.4716534294614156 2.458903675802714 45 51 25
10.376390551535094 -2.255168589561523 2.459671277568566 42 51 25
10.033400538497068 -2.6030896220658106 2.502945558334023 44 54 27
9.926466836163046 -2.3643864363853617 2.517600357054632 44 51 25
9.62069574678573 -2.255168589561523 2.3941107787518856 40 50 25
11.011482281570435 -3.025270676931284 2.153109660604008 41 50 18
10.245044372848097 -2.8595490665016254 2.3305023107188814 44 54 26
11.542517023360347 -3.1342176629452267 2.2284882980078478 37 48 15
10.957765667662008 -2.8595490665016254 2.396717325691905 45 55 27
11.591567463596345 -3.025270676931284 2.2252238928382524 39 49 17
12.173083756431007 -3.133311077695991 2.409719328318536 40 52 19
10.405582124618947 -2.677936328431299 2.0781641651274154 44 50 25
10.106520510824726 -2.5240161497441163 2.094690683909278 41 50 24
10.881659885727814 -2.8176253831798244 2.054002827116717 42 51 25
9.848044323844338 -2.7355528180511284 2.233092134751468 44 54 26
10.642060470674213 -2.5240161497441163 2.176144439438253 42 50 23
10.835629948495443 -2.584473768889194 2.05623303953496 40 49 23
10.492648437366443 -2.7355528180511284 2.308318786971036 44 54 27
10.827299213502434 -2.6234533066852803 2.280582954434302 45 51 26
11.297052503747794 -2.5033053073274956 2.6684270314728873 48 54 29
11.325874373665036 -3.134945347390349 2.033532225120356 36 47 14
10.541302981368963 -2.3617010443636333 2.1827742386560764 39 48 22
9.517396148894784 -2.168958378388919 2.2604790204820677 39 49 24
11.15294526526642 -2.4368551179292135 2.1447803059927857 38 48 23
19.36174813036338 -2.358970760116317 2.0575040568218617 40 38 22
19.689522582504335 -2.2072105028364435 1.8834313397907252 59 59 59
19.89609515389709 -2.276501860581244 2.100662795867957 48 46 40
16.768833416928334 2.8873702934149987 1.940283277831424 24 28 7
16.72452329592937 3.0800478400681954 2.0063211520917292 25 27 1
16.562865428217258 2.950194092809661 1.9451037411093406 30 32 8
16.809965569493063 3.014583454427432 2.0039572802152845 24 26 2
20.08339043492718 -2.1066426405819216 1.723547586865443 89 89 89
20.26461475666995 -2.1335227790125284 1.9264312228645732 56 54 52
10.484734054292058 0.7224456255978384 1.5761228688585682 22 30 6
10.226398534818834 1.0720454894368716 1.674227857589271 23 32 4
10.915037912616107 0.8685925715023861 2.1589391549668506 19 29 1
10.393572937545647 0.8685925715023861 2.078806600297466 21 30 3
14.89954329482112 1.3079411376799694 2.63883722313931 35 46 11
11.080772400445403 1.9954332160344463 2.384755497955127 31 43 7
12.720785295103562 1.585859032116483 2.3629873618895045 29 39 6
15.281097512730138 1.4259401234199789 2.738415778235672 38 48 16
8.914535928217072 0.10481304163766467 1.5770610924139041 27 32 6
8.84983526920634 -0.008564920077944807 2.046873765496241 23 32 2
9.902450380735978 -0.1542350304215939 2.36390158804055 24 30 3
12.115034687483897 0.18938764950684758 2.7203278388984837 38 48 20
13.221377105487193 0.46360959986972217 2.983187556353271 39 52 25
10.543550532609487 -1.218063994313406 2.6039127161132107 36 45 19
11.073762628107435 -0.9191469944037889 2.5283308494435746 32 41 13
11.073762628107435 -0.9191469944037889 2.5283308494435746 32 41 13
10.543550532609487 -1.218063994313406 2.6039127161132107 36 45 19
11.36074743750596 -0.401793423055857 2.657590194941025 38 44 19
11.201358797590169 -0.6707874348680933 2.6853961747196595 36 45 19
12.126151060250816 -0.21595654413846277 2.7182866336403744 40 47 22
11.69028339114351 -0.18000612549327674 2.606435471987621 35 42 16
12.079271605005 -0.013845450010082638 2.726984703417075 38 47 20
11.401124295419086 -0.8366976632820334 2.8948596384623864 42 52 26
14.896838515843541 1.5980690734546674 2.803972507109247 39 48 18
14.621265856643575 1.3541826459181925 2.8625843101175463 42 52 22
10.378087344193567 -1.5973442595909546 2.631282532434912 39 48 22
10.410442763408293 -2.2273894908351597 2.625757491051533 42 51 25
9.23518636017761 -2.124763825064897 2.4403140102396215 41 50 24
10.378087344193567 -1.5973442595909546 2.631282532434912 39 48 22
9.75352458283496 -1.9694748073284498 2.542667700501702 40 49 23
10.970609633353282 -2.3670279965593974 2.730330493930476 46 55 29
11.529428904467414 -1.9250711236316993 2.853980980669001 47 53 28
15.561562550766789 1.6049992003466877 2.88595506928794 43 53 23
15.486613740259369 2.199979872688788 2.90518058865651 43 56 25
15.486613740259369 2.199979872688788 2.90518058865651 43 56 25
10.751435123276263 -1.4489471753968055 2.4177721966212493 34 43 17
10.934821187712318 -1.429113567536892 2.5466238762437996 37 45 19
10.752506685084864 -1.4639283866483885 2.2865745605000494 35 44 17
9.12752485123907 -2.0476560236908288 2.2962445867739154 39 48 23
16.03699974611083 2.6855949921031406 1.762518505815041 23 27 10
16.754131181773555 2.7680084361089423 1.8153058027894184 24 28 9
11.981994297060954 2.2842076009794585 2.4276529527224517 38 47 17
11.144956790168713 2.2082777992161113 2.2563449157814217 32 43 6
10.790438576417277 -2.7226770448307063 1.9561362627259733 43 49 24
11.649149506141834 -2.7599346724290625 1.9264111651948639 41 47 22
11.886888517132862 3.0580276448424475 1.9189931844454076 35 44 12
11.89821804623823 -3.0460238132734445 1.9186475690364566 37 46 14
12.006805636396514 2.969734312417735 1.9153702574813556 35 44 12
18.393454652317892 -2.240343193679094 1.7931284213717291 71 69 67
16.985397589793525 3.0223785378344603 1.2754381324457442 29 31 8
16.277300396147595 3.0223785378344603 1.5127594840592098 26 28 6
11.153427423204148 2.7516003725294507 2.3778831558459714 37 46 14
11.895824372881775 2.7516003725294507 2.436054465630857 38 49 16
10.877037158602489 2.691274624341923 2.161270789337286 36 45 12
11.998835106307347 2.4643733414701368 2.4260345036921303 39 48 16
11.486406613331113 3.027440561632875 2.34806834989427 38 49 16
11.153427423204148 2.7516003725294507 2.3778831558459714 37 46 14
10.580087235506317 -2.677933486790614 2.43629085945134 44 54 28
10.634661524573405 -2.4511763591600126 2.2962519612232555 42 51 23
10.416894981071305 -2.5033053073274956 2.6246662121444126 44 53 26
10.196140873570743 -2.5561152142753256 2.3350681713983015 45 51 26
10.753903387849945 -2.3643864363853617 2.5719590013691724 42 51 25
10.3345783117833 -2.816542535549107 2.4646702295941516 45 56 28
10.643109735416425 -2.9190185326291576 2.0657998632078507 41 50 20
10.642060470674213 -2.5240161497441163 2.176144439438253 42 50 23
10.203857801485901 -2.6234533066852803 2.206179602806845 45 51 26
12.32990441251836 -3.1321503734365614 2.524502443753678 42 55 23
11.489384503573653 2.9531579505047216 2.0264452003949804 36 45 13
11.375858972252791 -3.036659820106876 2.031341466376409 38 47 15
11.375858972252791 -3.036659820106876 2.031341466376409 38 47 15
9.99249463347405 -2.27311401208449 2.221868460716969 39 49 23
18.639497532729806 -2.240343193679094 1.8454813115195667 56 53 47
19.36174813036338 -2.358970760116317 2.0575040568218617 40 38 22
16.701716765362317 2.8265303186910686 1.8783355312736447 24 28 9
16.954061620125138 2.950194092809661 2.000030357917336 31 33 11
20.483309298383794 -2.1066426405819216 1.8202015725030483 91 91 91
20.432318418660742 0.32061588397393764 1.1714639836187781 6 7 0
20.744755938140152 0.37015983742014114 1.1778113792877798 5 5 1
11.827730602961767 1.9954332160344463 2.442840326702303 33 44 8
12.092238630529726 1.7128572789155012 2.417193133029124 28 41 6
12.172446147276084 1.3649208166821858 2.2940269707824785 28 37 6
14.385356653827612 1.7597553373734098 2.7082779741529635 40 51 16
9.322841477063873 0.3568846417551687 2.0208835727451877 25 30 5
9.058151590418682 0.2409386569793837 2.0350511198688226 25 31 6
11.248283170760605 -1.6357921114160725 2.956352038287388 47 57 31
10.88175236696388 -1.3611464441761472 2.7494748319416584 42 48 23
11.678752146876045 0.1576844762055405 2.6081032370796486 36 43 15
10.848117538123121 -1.6038670244087092 2.7570417812120898 43 49 24
9.23518636017761 -2.124763825064897 2.4403140102396215 41 50 24
15.012580014011538 1.2092374993354948 2.7826570526956655 39 48 20
12.232715497811435 0.378104214044246 2.699348158018931 39 49 21
9.58447297679718 -1.791059009781274 2.569020510032027 39 48 22
11.058987063118925 -1.2725145787981356 2.530231822007443 34 43 17
10.086017039767826 -1.5929703084429878 2.49595193910856 37 46 20
10.752506685084864 -1.4639283866483885 2.2865745605000494 35 44 17
16.01671230399356 2.544357124385135 1.699507792533637 21 25 8
16.99104657236232 2.7680084361089423 1.2755392868410118 24 28 9
17.837741066196845 2.6083996975543644 1.7429591228560073 24 27 10
12.131130646450428 2.1085580045146233 2.413577466092037 35 46 12
11.89821804623823 -3.0460238132734445 1.9186475690364566 37 46 14
11.850436939087398 -3.1355423297687 1.9201099460863202 35 46 11
15.757544870904429 2.8873702934149987 1.447101966257251 24 28 7
10.349799974920828 -2.892715385283257 2.1958210338559674 42 52 24
10.090931879525868 -2.362780528130374 2.34511129933382 42 51 24
11.779534085728063 -3.1306112940869197 2.5937900998930687 44 57 26
11.62354425022315 2.5715266135828876 2.464017509835186 39 49 17
11.364008680896912 3.0498262506547307 2.031858890764629 35 46 13
10.106520510824726 -2.5240161497441163 2.094690683909278 41 50 24
10.643143044433016 -2.4368551179292135 2.0657981737369897 38 48 23
19.785776554843455 -2.176803515459781 1.7258636959356501 54 53 53
14.385356653827612 1.7597553373734098 2.7082779741529635 40 51 16
11.219371438984588 -0.9570600412405015 2.6821352942121686 36 44 17
11.201358797590169 -0.6707874348680933 2.6853961747196595 36 45 19
15.339392623241944 1.616647795815497 2.9490204636414377 44 56 25
9.12752485123907 -2.0476560236908288 2.2962445867739154 39 48 23
10.382527059190148 -1.5856352401752711 2.0793990187099256 36 45 17
16.595190146556224 2.4941219035892352 1.6949975069307692 23 27 10
16.493957191293326 2.6301742480700856 1.7571436583255737 23 27 12
11.735655612450712 2.3729265894807523 2.3273811886233386 37 46 15
11.338780674653803 -2.847693426747363 1.9365968166941205 40 49 23
11.610460794397211 2.9083344756724157 2.3376095344292147 37 48 15
10.594956184402706 -2.7810008844191434 2.1792243759592536 42 52 25
10.77740748187497 2.637821924318032 2.2845670729745056 38 47 13
9.418875302893957 -2.362780528130374 2.269137431020076 40 50 25
10.835629948495443 -2.584473768889194 2.05623303953496 40 49 23
11.181134781489426 2.5366811149093986 2.2537014156452067 37 46 12
20.378336738542664 -2.148848999810934 1.5735368440169584 81 81 81
9.938826976351235 0.7126401597077657 1.9911474849741087 20 29 3
10.590596816258738 1.0206220351088482 2.068478534070496 19 29 1
11.606744403775973 -0.6249995348980472 2.8322583989958474 42 49 25
10.151007086838717 -1.710515663715021 2.210024258887467 36 45 18
11.800784494245281 0.3182918178305998 2.590845547306845 35 43 15
16.211493356544533 2.1016426016906538 3.0029103992087003 44 57 28
9.96359092769582 0.5201911200623676 2.2240805399465664 19 25 0
9.548681971535043 -1.8641147834802492 2.2577795934456226 37 46 20
10.76556260901767 -1.056154282210599 2.570270216440184 36 45 17
11.803463732332704 2.2082777992161113 2.3219720736035994 34 44 11
18.9639451043657 -2.276501860581244 2.0095351349425914 44 42 30
11.81620439262487 2.9907188676190692 2.5887242986802166 42 55 22
11.506063261304787 -1.2958004190732622 2.860927475078687 45 51 26
10.985707467797512 -0.3388700492012803 2.539813807675263 25 31 5
12.005156294321115 0.4636355207618181 2.5637213643640977 34 42 14
14.621265856643575 1.3541826459181925 2.8625843101175463 42 52 22
11.515432077907136 -0.8108474963217251 2.6326283790606917 35 44 16
13.399092992456259 0.3146621948544702 2.9147569241642337 37 48 21
10.382527059190148 -1.5856352401752711 2.0793990187099256 36 45 17
15.097379600665507 2.5070266391379894 1.5082179576271806 19 24 9
11.448680007551905 -3.133311077695991 2.351315697906171 39 50 17
10.717391322286824 -1.5898336129079842 2.4213734776085896 37 46 20
19.66636598230435 -2.240343193679094 1.9928399472376508 62 61 61
20.19159088159535 -2.176803515459781 1.8238832130215306 57 55 53
11.47425863915217 -1.6146363659545642 2.8707087909836013 47 53 28
12.385909817835607 2.179451077035407 2.5181579106342262 39 48 19
11.93683162400079 2.836395473482832 2.572558518663466 40 53 20
11.160482453905253 2.795581161438655 2.2552076686011047 37 46 14
