7.961983325313722 0.9768581718832997 2.124450272683653 16 30 5
7.930663784399047 0.6461827694579788 2.283614176757494 22 34 11
7.857990140235232 0.7665320538455306 2.132651714016329 17 29 5
8.059492576977165 0.6726952358277485 1.977256128589334 13 25 1
8.534367904186414 0.6035391858442488 2.5718768832475796 31 41 19
8.248808827844362 0.4993316205885897 2.418820787277971 27 37 14
8.658226283612427 0.12721698435159162 2.5499192418408687 36 45 25
8.7857991153604 0.3247517586504386 2.5286461140798817 32 42 19
9.780671447345552 -0.4623532013224526 2.5625700561837075 39 50 31
10.031478068448767 -0.8582992752110035 2.5253767232177027 32 43 25
10.031478068448767 -0.8582992752110035 2.5253767232177027 32 43 25
10.899951971365057 -0.6155062764020224 2.573247499474878 39 51 32
10.498987507820653 -0.7293366268428997 2.636190297454395 42 55 36
8.441014278989616 1.451876662944495 2.232457973012578 24 38 13
7.9194375271448285 1.7517599693633976 2.1277745651591102 29 43 18
8.290386016741747 1.46737846233294 1.9652988533335676 16 32 8
8.135463534320454 1.1094659760416725 2.26205228184487 20 34 9
8.77780439390659 1.7103609495710859 1.7063705018271735 15 31 7
7.737241741311583 1.7831112580322164 2.305431636844032 31 45 21
7.644941075782414 1.6081750213778134 2.3163920423811213 32 46 21
7.227222834200698 1.2620559921312027 2.188610163762371 19 33 8
7.852741251737406 1.1715270620042797 1.9886167142024231 22 38 13
8.222958999419822 1.853321780558101 1.8399232134796946 22 36 12
9.249002789962317 2.318993287216995 2.1660906728457245 33 45 26
8.288816633640323 2.0902969991945386 2.2468386334320885 32 45 24
8.346498528309553 1.9698262245213738 1.7134229981597502 23 36 13
8.72492217142489 2.214340076060069 2.207359503686695 30 43 22
9.359008258659932 2.406665165103561 2.0345545157117035 26 37 22
9.148661710860795 2.3247915712505347 1.7008428960645519 25 36 17
8.459140746492402 2.0227071518950908 2.088512347226768 28 42 18
8.132482797870457 1.893317324284297 2.1115418748014365 28 42 18
8.355712224972816 1.6081750213778134 2.4044316755160233 32 46 22
8.542736994894668 1.2620559921312027 2.3806276765611143 27 41 16
7.741728752711034 2.004476552794796 2.76052555247465 38 46 25
7.649482228833769 1.6509600308985282 2.791854469349717 39 47 25
7.207452645754257 1.3554833235663506 2.602810062754812 37 45 27
7.853343679390672 0.9701009352769275 2.7264910971459564 38 46 24
7.3842797840737955 1.1107511205841827 2.564000764015609 31 42 20
7.688159872048176 0.9131709329099176 2.505909145912773 28 40 17
8.43100131050264 2.2144458265186273 2.9001248657782233 40 48 29
7.719620655791945 1.6162682934908403 2.500406295202077 35 47 26
8.297975619418674 2.672836770421539 2.9774207845088982 40 49 30
7.921677325334039 1.2006052782388001 2.466975113629604 29 42 20
7.7571101164042116 1.4011528490994916 2.493959036841563 32 44 23
8.640457060201063 1.9458870590395372 2.3688243406709297 33 47 23
8.948591169591307 2.0902969991945386 2.3341201369334796 34 46 25
8.820709564786888 2.017576145116677 2.5230410841949933 34 46 27
8.790431497632303 2.3105707304727634 2.351480131050783 36 45 27
9.310825507218745 2.4169185045987085 2.297528567711747 34 46 27
8.631429129003282 2.511171347896146 2.8190767978780094 40 48 29
8.341434739245544 2.11977624332474 2.6090730922307612 38 46 28
8.341434739245544 2.11977624332474 2.6090730922307612 38 46 28
8.351224687434714 2.9970711017446803 2.6070871889388707 39 48 30
8.501540159981356 2.8711362344094766 2.868463607004431 41 49 31
8.85810859657098 2.53529024557905 2.343939790450735 38 48 30
8.872821001588889 2.272864437286789 2.745661758903562 40 48 29
7.894502395256457 2.952985259663761 2.714815505154502 41 49 31
8.111099602208887 3.02452872420506 2.43828645615858 36 47 28
8.728901489562135 2.586158093923322 2.5379761206719476 41 47 30
9.146610842422636 2.743343788941647 2.3136058097521524 39 48 27
8.483415438209398 2.7757640544507463 2.5813229273235874 40 48 30
8.953003373448823 2.9476294797414546 1.9346765575620997 38 47 31
9.89847662894761 2.7270511851060006 2.007476941102628 32 39 27
9.0862563172361 2.67708599137762 2.0496250691537674 38 46 30
8.518103248574796 3.067102253890012 1.8303787847959185 38 47 31
9.185948678400969 2.833489743984721 1.9250364479283237 33 41 27
10.30212590026261 2.67727247867882 1.5888907998183532 41 48 42
9.52813925064823 2.5724408053808054 2.0256962265964686 31 41 27
8.647743443847707 2.9476294797414546 1.8263995919683933 33 41 27
9.35569730909252 2.9476294797414546 2.034731520772814 36 44 27
10.443074464634831 2.5419244479426837 1.8808618168445213 27 36 25
10.766168550453015 2.4635348775754378 1.7752995192056984 42 51 39
8.576836171055303 -1.7331349853994444 2.0807141817213113 31 43 22
7.575334241732086 -1.791712949105782 2.3249104464517085 36 48 27
7.732237866384681 -1.7579997746010405 2.142923504618941 33 45 24
7.639876747110781 -1.6036454315600486 2.1507284202699264 33 46 26
7.911484876090562 -2.5265155578187555 1.8507986722211058 37 46 27
7.382250807900086 -2.335561018034161 2.173764962435769 37 49 28
7.143588615149829 -2.0374005972975553 2.3833155029985758 39 51 30
6.976820746660894 -2.3293084615520687 2.408899976358891 40 52 30
7.492849686152866 -2.565098999719011 2.1636373766462285 39 51 28
7.994836627602254 -2.441696420710742 2.1219121127298433 39 50 30
7.513364360511698 -2.202437582697717 2.3326863132572133 40 52 31
7.4810672091699 -2.8813480892052428 2.3368132827172547 36 47 26
7.3766634133221585 -2.774574848661532 2.0174578520137287 37 48 25
7.758207228233544 -2.6422342835941857 1.994032930235218 38 49 27
9.386420040905874 -2.0359916271797815 1.5906562542477027 33 42 26
8.661921691712863 -1.9806982012413679 1.9475062615851402 34 44 25
7.797786518318371 -1.9600677917954452 2.298440115959899 37 49 28
7.8068190395365304 -2.339454342208248 1.8546560891876045 35 47 25
8.661921691712863 -1.9806982012413679 1.9475062615851402 34 44 25
9.45926444913633 -2.0359916271797815 1.696549665384138 33 44 24
7.540056867305568 -2.1081403165659984 2.1594255399360707 35 47 26
11.413355466960773 -0.6593013796317273 2.9418367418830185 41 53 33
11.413355466960773 -0.6593013796317273 2.9418367418830185 41 53 33
11.465560824019118 -1.2511819161452538 2.920472335927515 42 54 35
11.577534249483906 -0.9273954788249302 2.880917616034576 43 55 36
10.883065415882022 -1.0846291888916815 2.7818470581541765 45 57 38
7.36710351377279 -2.5021135223659625 2.567588006951124 38 50 28
7.492981204328056 -3.0498513774093463 2.5421074281835705 38 47 29
7.880214740188203 -3.021512389266754 2.7188203983394317 39 49 29
7.106306910053485 -2.7336413639108437 2.627116932614399 38 49 28
7.899598789614145 -2.0374005972975553 2.470477289047079 42 54 33
8.26055460445298 -2.702384176187555 1.8386681201724815 37 47 27
8.815072431382795 -3.0944518192204282 1.9406424282667345 36 45 27
8.006424896012858 0.5578382473374427 2.121022741362558 17 29 6
8.200625502523511 0.42387945402678906 2.255495127825313 25 35 11
10.45273746023146 -0.28190634712300927 2.644245361280321 38 49 29
7.682794956321304 1.4309437801857838 2.3118518454125216 30 44 19
8.255318650294258 1.598360780743177 1.9670680052917975 17 33 9
8.546159395743127 1.9698262245213738 1.8295070322961031 22 36 12
9.313348195080506 2.5027172102737065 2.161418958014919 34 46 28
8.69775994856355 2.238092497605645 1.82489716958961 23 36 14
8.406575269954805 1.6025265835083269 2.235652323061792 28 42 17
8.459140746492402 2.0227071518950908 2.088512347226768 28 42 18
8.390360008679666 1.4309437801857838 2.3998946003171 30 44 20
8.111099602208887 3.02452872420506 2.43828645615858 36 47 28
7.894502395256457 2.952985259663761 2.714815505154502 41 49 31
8.501540159981356 2.8711362344094766 2.868463607004431 41 49 31
8.62468153122269 1.827314251093591 2.5557323566348726 34 47 26
8.351224687434714 2.9970711017446803 2.6070871889388707 39 48 30
8.440243627874096 1.7831112580322164 2.3934663771639624 32 46 22
8.93987441300578 2.67601651852259 2.7280867779236115 41 48 31
8.346376302706949 1.7002194511490347 2.9454879022301146 40 48 29
9.353986830854351 2.214340076060069 2.2934337411515138 34 46 25
8.046114719942423 1.6288298317495817 2.6751011347779157 37 46 27
7.687313747853312 1.2771289405210546 2.778601936631786 39 47 25
7.853343679390672 0.9701009352769275 2.7264910971459564 38 46 24
8.13973102966654 0.7525722971786968 2.6527553642851824 35 45 24
8.660214732926747 2.297223880673063 2.5495776418298592 38 46 30
9.480816084069652 2.6146899364016964 2.2816986749597947 36 45 27
9.232238845755239 2.7270511851060006 1.8098902724805281 21 28 19
9.25783305529201 2.793935301904366 2.165444841660238 38 48 29
8.888692276586108 2.833489743984721 1.8193224097603675 27 33 23
10.288994230721945 2.39937236443926 1.8856635940447566 31 41 28
9.667451464698571 2.629700472775711 1.7989311731953457 25 33 24
9.026742998580767 2.921537203117892 2.1828622263546342 38 46 28
8.827847171748925 3.067102253890012 1.9400814702852136 38 47 29
10.050413986347724 2.4801177545511104 2.0004326350926966 22 32 19
9.053393410954651 -1.714060877418077 1.9304569361105388 29 40 20
7.097054328135837 -2.711919113505342 2.2017049736030576 37 48 25
7.361504622381735 -3.0673882479463708 2.352557077695537 37 46 29
7.513364360511698 -2.202437582697717 2.3326863132572133 40 52 31
7.519615014591876 -2.441696420710742 2.008372527533866 37 47 27
7.489713842487374 -2.4640490326744695 2.335703311832807 40 52 30
9.242872980938357 -1.9363078168250538 1.809609834559377 31 40 24
9.242872980938357 -1.9363078168250538 1.809609834559377 31 40 24
8.779286438560934 -2.0887756767850054 1.8224861508035015 35 46 26
10.828052034058977 -0.7077553160414124 2.7956074962276487 43 56 37
11.577534249483906 -0.9273954788249302 2.880917616034576 43 55 36
8.815072431382795 -3.0944518192204282 1.9406424282667345 36 45 27
8.26055460445298 -2.702384176187555 1.8386681201724815 37 47 27
7.908261344298014 0.8829813662111095 2.2860655537582115 21 34 9
7.695959153511318 0.8643073767121562 1.8588611500750956 15 29 4
8.625408839572966 0.2716407760780384 2.3706152600429453 28 38 15
10.220279957349732 -0.5620999758802405 2.68791298832506 42 54 35
8.288816633640323 2.0902969991945386 2.2468386334320885 32 45 24
7.848920475426348 1.2620559921312027 2.2926524001344433 24 38 13
8.893640028392197 1.8219635491521615 1.5917568127469597 15 30 7
9.193292047244505 1.9275431837730332 1.5910735180824156 19 32 11
7.955167847054102 1.9458870590395372 2.280954521999946 33 47 23
8.701208000042733 2.075947352586074 1.5922204356565564 21 35 11
7.480667296506866 1.0267991574223483 2.336864710409821 23 37 12
8.461917344544446 2.1377210107540323 1.956874152809034 27 41 17
8.640457060201063 1.9458870590395372 2.3688243406709297 33 47 23
9.122757419641935 2.1787537113571176 2.4779350804677094 34 45 26
8.631429129003282 2.511171347896146 2.8190767978780094 40 48 29
8.499453170140663 2.6767564099493026 2.3859904835058017 37 48 26
9.173153124065136 2.458403387357026 2.6734999878015167 42 47 30
8.247140139113903 2.841402920205843 2.4190502265501275 37 47 27
9.078496843184482 2.432389870721082 2.484194740725945 39 47 31
7.093743522258012 -2.6257376455288606 2.3907633433529014 38 50 27
8.773933235239012 -1.8614705909003253 2.0681947066614876 31 43 22
7.382250807900086 -2.335561018034161 2.173764962435769 37 49 28
9.242872980938357 -1.9363078168250538 1.809609834559377 31 40 24
7.540056867305568 -2.1081403165659984 2.1594255399360707 35 47 26
6.861329410502921 -2.202437582697717 2.227039097142006 38 50 29
7.680096049240801 -1.8398792952516863 2.5073335141229824 41 53 32
7.610478540222226 -2.8232642501335503 2.5198753067749893 39 48 28
10.883065415882022 -1.0846291888916815 2.7818470581541765 45 57 38
7.899598789614145 -2.0374005972975553 2.470477289047079 42 54 33
11.299755250734968 -1.0530861306271309 2.9998298138759085 40 52 31
8.28311848320285 0.4022943591270113 2.6211438869981363 36 46 24
8.340867564540593 1.728409114936698 1.9627804231844395 23 38 14
8.028582291564462 1.3064249195973299 2.119330702309729 21 35 10
8.028582291564462 1.3064249195973299 2.119330702309729 21 35 10
7.848920475426348 1.2620559921312027 2.2926524001344433 24 38 13
7.852741251737406 1.1715270620042797 1.9886167142024231 22 38 13
8.872821001588889 2.272864437286789 2.745661758903562 40 48 29
7.3842797840737955 1.1107511205841827 2.564000764015609 31 42 20
8.133864259857258 1.8939568033032321 2.6541131478973865 37 46 27
8.820709564786888 2.017576145116677 2.5230410841949933 34 46 27
10.305591845743384 2.629700472775711 1.9891166622213905 23 32 19
10.015597775727521 2.5419244479426837 1.6895304846342851 41 49 40
7.758207228233544 -2.6422342835941857 1.994032930235218 38 49 27
7.3911463761789875 -2.1488595650978137 2.5625768416134007 41 53 32
11.091497966237844 -0.8817735640980301 2.7348067753038197 45 58 39
7.5431717824225615 -2.2341213037323113 2.0069120496147286 34 46 25
8.104814402986827 0.761436776610413 2.4392014899328234 26 38 15
9.847021799510745 2.406665165103561 2.125507094695242 27 39 22
7.921677325334039 1.2006052782388001 2.466975113629604 29 42 20
8.72761421434035 2.318993287216995 2.071078391194613 26 39 19
9.235999589764527 3.067102253890012 2.0412267352335576 39 48 30
7.481036235886679 -1.60973724977461 2.336817265510824 36 49 28
8.797877030992238 0.5240886041357681 2.7665646424777623 38 48 27
8.047951929493523 -1.5992013152402533 1.9778734392098962 31 43 24
