12.018735604021396 0.704815653396015 1.5956598736271232 21 21 25
11.186316145437322 0.48169295082592795 1.965235764044441 18 22 18
10.841405521925095 0.48169295082592795 1.8799763784009609 20 23 23
11.186316145437322 0.48169295082592795 1.965235764044441 18 22 18
13.971496933848561 1.089655374567016 1.8835536814387681 5 5 9
13.910280158435711 1.158634080294286 1.9615947203104478 2 2 4
13.92224878307628 1.0523726367567663 2.040280957516809 12 12 15
13.510165930759536 1.125111048330064 2.0558168515712847 8 8 10
14.439776808308121 1.0253045129083116 1.8730843537009592 5 4 11
10.615616540853722 0.6800620314481793 2.0934152556874874 29 32 24
10.526184105076869 0.6171106906860043 1.8895567754511935 19 22 18
10.836366384508331 0.5307240309330559 2.081719664610092 21 26 18
11.10718045402753 0.6940821355217038 1.8723423759069202 21 23 22
12.97261711236388 0.9598338020660173 2.1683612943545896 23 23 26
12.778009804207123 1.1292445901565644 2.2776695022188225 41 44 35
13.137045415831775 1.04035124134703 2.254552904265161 40 43 36
12.97261711236388 0.9598338020660173 2.1683612943545896 23 23 26
12.97261711236388 0.9598338020660173 2.1683612943545896 23 23 26
13.176139481961782 0.9861291730227884 2.3542493921882777 41 44 32
13.249651801732043 1.0861181926826928 2.154199189469296 27 28 20
13.669590358469213 1.0094874142139354 2.134054805227084 15 15 13
10.93587913575305 0.2953404859787983 2.0766259057927403 19 23 17
11.656294041526523 0.3568152210729039 1.9485099844562963 19 23 23
11.232201845415581 0.39209102945427216 2.062071427606466 17 21 15
11.949425003521345 -0.02122834603178094 2.1260058912108604 7 11 8
12.009157009982959 -0.11916493755442299 2.1229235598633966 10 14 14
12.009157009982959 -0.11916493755442299 2.1229235598633966 10 14 14
11.478678866676931 0.07711591728434929 2.050617849537906 20 25 26
10.671767425568706 0.329134297026123 2.2021400982117822 35 40 28
9.928856544648836 0.3712600069299172 2.2580194195859917 37 42 28
10.254320948194197 0.4866793432726221 2.232241511112666 36 41 30
10.239784395316383 -0.8786661491345181 2.233347048376382 43 47 28
9.665510347980762 -0.7915067580911291 2.2805905522350454 43 48 29
12.112357483104953 -0.6676237107814392 1.846630587812969 62 64 67
10.875857604722793 -0.9507073036543549 2.18848700763982 44 46 27
10.875857604722793 -0.9507073036543549 2.18848700763982 44 46 27
10.360267533416966 0.1268230716672997 2.4997960738463014 36 45 25
10.332774919624224 -0.035021370074821506 2.5033648548739293 38 47 26
11.15185333271825 -0.035021370074821506 2.55681397891077 38 47 25
10.40179463915997 -0.19506641169898442 2.494472990839548 39 46 26
10.2489987730677 0.1092430785941466 2.3633486228525538 38 46 28
10.373566487698506 0.24450480221435575 2.3512414312425935 37 44 31
10.268605826605906 0.5514751897428848 2.3614135857325267 36 42 27
10.290974890729577 -0.16834541286339505 2.359219549406497 39 46 26
10.64485100954435 -0.8984242528063594 2.464833959830173 45 50 32
11.956181781614678 -0.5579589058894852 2.608773510799246 44 52 30
10.435181791772413 -0.600729412871229 2.3454118521790748 41 48 27
10.638899686573277 -0.6857410663566271 2.4655306177996015 43 50 31
10.072831024677065 -0.4816147976599203 2.3812536281045817 39 46 26
10.072831024677065 -0.4816147976599203 2.3812536281045817 39 46 26
11.56053005245873 -0.6589460480721653 2.6700280266639376 45 53 32
10.712905887428962 -0.42251097081230693 2.320345535217435 39 44 26
12.239785787872412 -0.49015100179549353 2.7469149408835305 44 54 34
9.79953216618299 -0.3456635118075971 2.411047614934247 39 45 25
10.565435433094976 -0.3456635118075971 2.4742461537368277 40 48 28
11.747703619324025 -1.102830652842378 2.2411915058069694 46 47 31
14.663578106942232 1.9332387336671308 1.940519957035533 47 49 49
14.943100789632764 1.8430069679284393 1.8625975272486306 53 56 53
15.126601478227856 2.062543026862001 1.8589556589502945 51 53 55
15.332638735451019 1.9720150693848977 1.7876404410506692 49 51 53
15.231278131132333 1.9089715237759146 1.8569192051751178 49 51 51
13.211434921292929 1.2591302047540145 2.249973021409649 44 47 33
13.398258218480223 1.2864256194640389 2.1468958798051494 37 38 29
12.39515993295372 1.3542816810324563 2.2004223732493347 39 43 29
12.83077275833059 1.555240876264416 2.2741624747337577 41 45 30
12.962248037030143 1.7574473401106296 2.265591707853532 41 45 32
13.289070376084599 1.186041081089802 2.4574838050738377 42 47 32
12.961116312189418 1.4238485072868636 2.48913139224383 41 46 31
12.274717070221485 1.3305265961371575 2.3132376056504693 40 44 30
12.843747376354658 1.440375733784574 2.3803713993673874 41 44 32
12.22501404290128 1.7781211502557726 2.3169745949641536 41 45 30
13.721650905475371 1.5512452475454164 2.538223277178504 41 46 31
12.937607222963452 1.6792763941442868 2.4915132297109457 41 46 32
12.97174908672036 1.3305265961371575 2.3700701134593025 40 44 31
12.843747376354658 1.440375733784574 2.3803713993673874 41 44 32
12.4702985982736 1.8367027319002525 2.5425329108774166 42 47 32
13.206451834090847 1.6951120691064836 2.597411180329246 42 47 32
13.180090961270897 1.5483644047469722 2.6007254355299394 42 47 32
13.353787970078058 1.2636105287042099 2.5794439649996717 41 49 31
12.729119593914222 1.1358485547208204 2.51337083254289 42 47 32
12.92472682744116 1.7781211502557726 2.373817896389691 42 46 33
12.820023060244104 1.6670081950526432 2.3823156690204597 40 45 31
12.136799269693558 2.086709292029554 2.443649398159827 42 47 32
12.011378235754158 2.0298664314132 2.3335452450305016 41 45 32
12.415576533045908 1.8842907327792295 2.3028764198668092 41 44 33
12.682354392884113 1.9836450623993653 2.2841293810691483 41 44 34
12.4229861910621 2.157779031837249 2.5481339676983388 42 50 32
12.596178110642066 2.107691252295848 2.6837361773930835 43 52 32
13.008943416718234 2.0282788954728934 2.623046723425648 43 51 33
11.990065891351945 2.2481093907809644 2.6040005978015177 42 51 31
12.210464606048525 2.282181024966671 2.318076729054797 42 47 30
12.414674191699484 2.3616390663460307 2.4173729626663234 42 50 32
11.77510961926189 2.531749054159373 2.352901635626948 42 50 30
11.981453562138901 2.4558733238372983 2.4592527722216784 42 49 31
11.77510961926189 2.531749054159373 2.352901635626948 42 50 30
11.981453562138901 2.4558733238372983 2.4592527722216784 42 49 31
12.347358113286745 2.362769526811705 2.557275872055441 43 51 31
12.178673550675999 2.5064111996256107 2.213434882113397 41 46 32
10.107985093851289 -2.490683541238718 2.1225940389476907 52 56 41
10.658445329088176 -2.4045547438703667 2.0911020772800724 52 56 41
10.214590725854945 -2.5897761748699866 2.2352728127000345 51 56 41
10.962275205029956 -2.1893946777790587 1.9737581532781818 57 56 44
10.836787152747789 -2.3300501091488655 1.9786997268866688 54 55 43
10.441062051631365 2.8006414732889344 2.2183934057449637 42 49 29
10.114831834051424 -3.119708275407331 1.8000697067592981 42 48 26
10.342917489820893 3.053162952184663 2.10867073921382 42 50 30
10.31537863468349 -3.1172357740817467 2.110264084079211 44 51 29
10.384513977674947 -3.0050630259139344 2.1062829051598415 45 51 30
10.21992519256664 2.91801122815139 2.234864019686255 43 50 30
10.415196785003255 3.0621027077575564 1.8930755526115806 40 47 26
10.415196785003255 3.0621027077575564 1.8930755526115806 40 47 26
10.342917489820893 3.053162952184663 2.10867073921382 42 50 30
10.136081761143377 -2.9879233400765592 2.241354403246477 47 55 33
10.340997178694327 -2.696960127461522 1.8954724915512007 45 51 31
10.083235071807279 -2.896231021354493 2.0112293350046038 46 52 31
10.066708868091908 -2.696960127461522 1.8011854894956072 47 51 32
10.564200955106205 -2.7527185512268857 2.209605487972774 49 55 35
10.34904457855729 -2.793004307475637 1.999158052398312 47 51 32
10.271574537889359 -2.4717409654938693 1.796509878992727 50 54 34
15.48917254125593 -2.8649549135058847 1.6547468701331696 40 45 19
12.387764877738801 -2.179810398690993 3.0216720192368105 49 61 42
13.40384904732254 -0.8121399422882644 3.0163116302546977 51 61 43
13.355101706171919 -1.446222256952255 3.049735263668941 50 62 43
12.200326974184222 -1.9839003054430426 2.7547534364364847 51 59 43
11.62054709145269 -1.1014452016038405 2.4984300926922227 48 52 33
12.580901098595794 -1.9112827331450937 2.6862065491554095 53 58 43
13.052159077926179 -1.3039881389326253 2.800174259250212 49 58 40
12.764315979317068 -1.2267235525130207 2.870689877109869 50 59 41
11.33644460131143 -1.8597600291244316 2.532656438819219 54 58 42
12.473311515145532 -1.7319367522492293 2.704149682527118 52 58 43
12.497694009547871 -1.3533695434607829 2.69999637052331 50 58 40
13.002093250483842 -1.5347042731186027 2.811181539207775 50 59 42
11.390025768340308 -1.2374545735032703 2.525942727686778 49 55 35
12.632631758290408 -2.2659332081650443 2.9111862583602734 51 60 42
12.084115793763592 -1.3875009354354315 2.591085054002334 52 58 38
12.058897093625937 -1.7063574543569615 2.5945016745611955 53 58 41
13.652790599736905 -0.7998973083744353 2.913377497561405 52 62 41
13.482946108244954 -1.5022015125140307 2.9761291446971136 51 62 43
13.708264012349128 -1.8285823010305615 2.8965622882928472 51 60 42
13.730453657279238 -1.2267235525130207 2.8901807365052026 51 60 42
13.682869945061947 -1.523494792517005 2.904097882051504 51 60 42
13.682869945061947 -1.523494792517005 2.904097882051504 51 60 42
13.708264012349128 -1.8285823010305615 2.8965622882928472 51 60 42
11.61836148677311 2.5672165545003676 2.498681133631504 42 51 30
11.869170206004359 3.0082434418177066 2.6213390547639417 45 55 34
11.521741834665155 2.7888880972037917 2.676673231674297 44 54 33
11.654148354694431 -3.0660473453039745 2.894014064743698 49 58 40
11.718337797189132 2.620227313990615 2.644267148337001 43 53 31
11.384758374948351 -3.097158925094093 2.7012666380673807 48 58 37
10.986842145944372 -3.104749727817046 2.579905332002827 47 56 36
12.16614207659183 2.6972023211850136 2.5801971514103115 42 52 30
11.051777889350712 -2.9366466467679997 2.570636780552414 48 58 37
11.061114099981593 -2.835605851331765 2.7681623185345714 49 58 39
11.678530716557852 2.87279826692602 2.885884851128078 43 55 35
11.409716432949368 2.9811665105955125 2.6966467890419707 45 55 34
11.409716432949368 2.9811665105955125 2.6966467890419707 45 55 34
12.068660150187767 2.7073542405480366 2.782482079557493 43 53 32
11.869170206004359 3.0082434418177066 2.6213390547639417 45 55 34
10.166065800382924 2.8866736303172047 2.3716591394416735 44 52 33
11.995346870907474 2.478758686125707 2.603262575836311 41 51 29
11.678530716557852 2.87279826692602 2.885884851128078 43 55 35
11.334682466683164 -2.206413249170229 2.532879414093001 56 60 45
10.708453706694568 -2.4132796503673797 2.3207325785113437 54 58 43
10.512105628080603 -2.702580177571637 2.3382752005896617 50 55 38
10.64924352486978 -2.638845984390403 2.4643206610551838 52 57 40
12.08769855680361 -2.295615442055807 2.7783095332868157 51 59 42
11.05931849533834 -2.125111560539054 2.419447625954713 56 60 45
11.596331816882442 -2.712914227304749 2.6640091506151857 50 59 39
10.98502916587507 -2.828679942850084 2.427158839762905 48 56 37
10.96851906904656 -2.555922933166051 2.5825655075967195 53 58 41
10.258649356166675 -2.5169908466753736 2.362394800285548 52 57 42
12.17108075734884 -1.2412178989697384 2.21390200273618 47 49 29
11.87422755971503 -1.3145853778298586 2.344642896943462 52 54 35
11.205631885987252 -1.280923291478958 2.404746774993622 48 52 35
11.965106818541068 -1.280923291478958 2.460935914588407 50 56 36
11.205631885987252 -1.280923291478958 2.404746774993622 48 52 35
11.198200075237635 -1.3145853778298586 2.280729517946309 49 51 32
11.822841001004909 -1.7920282849920306 2.3488988665975454 56 57 43
12.409110361033667 -1.5522709095866136 2.417879988161415 52 56 38
11.770935637266538 -1.5497041939484786 2.4815718551533763 52 56 38
11.800444825321547 -1.6877544630072114 2.478356552168859 52 57 40
11.914112236093999 -1.8214928584299763 2.4662391255229656 54 58 42
12.603495280687092 -1.6877544630072114 2.52722515868119 53 58 41
12.575870585828845 -1.5497041939484786 2.5303459295944313 52 57 39
11.643587021093301 -2.0088083548606646 2.248301673895673 57 58 46
11.350665039587653 -2.1623808021909645 2.2692421256322546 58 59 45
12.109568228183509 -1.9467025876220598 2.4463346469264735 55 59 44
12.01978126397604 -1.9044691454215072 2.332877330201282 56 57 43
20.30644550884665 -2.8230471295466537 1.7841065093119068 55 59 45
12.818198935376952 1.0807884322395556 2.382465623955858 41 45 32
10.88109126093595 0.6171106906860043 1.9769408637847914 20 23 16
10.663958173817665 0.5895797230150188 2.2026756448686413 32 37 27
12.97261711236388 0.9598338020660173 2.1683612943545896 23 23 26
13.137045415831775 1.04035124134703 2.254552904265161 40 43 36
12.611175433866338 0.9212969345990046 2.399929108656651 39 44 31
13.668129023033332 1.2032713755509528 2.134122323630728 27 27 21
13.992464457692957 1.2320323806628461 2.037736822356841 3 3 6
13.983413162180346 0.98519983944919 1.9594409815056313 12 11 16
11.622232579186358 0.6379039497210603 1.7699023726222511 20 22 22
11.444083748958452 0.6940821355217038 1.9558781086938908 19 22 18
11.329012250185416 -0.23750861629878825 2.160347769259376 38 43 34
11.664190972854515 -0.21486416220491228 2.042359100366027 7 11 11
10.93587913575305 0.2953404859787983 2.0766259057927403 19 23 17
10.975223269245488 0.43461940233595403 2.1820696325183158 31 36 27
10.79651624744359 0.39209102945427216 1.980312170583404 17 21 19
11.949425003521345 -0.02122834603178094 2.1260058912108604 7 11 8
11.563536345506435 -1.0106669838599498 2.146842044803997 43 44 28
12.42202878008952 -0.6676237107814392 1.9241672872096296 55 57 56
11.086717700740595 0.21549303757724894 2.2894037722824283 36 43 31
10.483513208287189 0.28230403506166357 2.4842269682913614 36 45 27
10.2489987730677 0.1092430785941466 2.3633486228525538 38 46 28
9.943608992606581 0.4250087115072906 2.395017332829614 38 45 27
10.435181791772413 -0.600729412871229 2.3454118521790748 41 48 27
10.819404792618702 -0.4816147976599203 2.4449941056557174 40 48 26
10.883509529439879 -0.8786661491345181 2.305852796456522 43 47 28
11.168882987615149 -0.9818458065409497 2.4083804364174526 46 50 31
10.712905887428962 -0.42251097081230693 2.320345535217435 39 44 26
11.726857576493927 -0.4061136412221746 2.642930415252786 43 51 30
11.1064255086941 -0.5579589058894852 2.563021530233282 43 51 30
15.02385087776041 1.9997985022121811 1.9312431433783732 47 49 50
14.364015824260596 1.8631463317694297 1.9486150192497258 46 48 48
12.857849815373685 1.6572267136083552 2.2723779157267776 41 45 31
13.009134674464132 1.3542816810324563 2.262591661884434 39 43 30
12.22501404290128 1.7781211502557726 2.3169745949641536 41 45 30
13.537171572424118 1.5534704192003543 2.4353090864955753 41 45 31
12.97174908672036 1.3305265961371575 2.3700701134593025 40 44 31
12.488919362987337 1.2262679603975666 2.2976112904080432 40 43 32
13.174623412835897 1.2262679603975666 2.3543640268876125 41 45 31
12.937607222963452 1.6792763941442868 2.4915132297109457 41 46 32
12.21565030483405 2.4401726666344996 2.31768347717244 43 50 32
11.559607136713101 2.4401726666344996 2.2541604794238395 42 47 31
12.051743348240668 1.9836450623993653 2.221343267667541 40 44 31
11.764347563582822 2.1912164313122777 2.3538108440916727 42 47 31
11.990065891351945 2.2481093907809644 2.6040005978015177 42 51 31
11.857753759209517 1.9682132953456166 2.4721949471989753 41 46 31
12.368054795364362 2.1277777034557026 2.306334759717549 41 45 32
12.415576533045908 1.8842907327792295 2.3028764198668092 41 44 33
11.97616645622724 2.268324493573162 2.459796274553672 43 51 33
10.60681289309935 -2.3257180817276053 2.2066250724074887 55 59 44
11.431145865647737 -2.1038858163445724 2.154383170596447 59 58 46
10.69289384170705 -2.251872302662047 2.0892571626874497 56 57 45
10.854040947971374 -3.1217251226535363 1.5983285022603164 40 46 24
10.790579433879499 -2.7371241125492407 1.6914528951918528 43 49 29
10.352397132824757 -2.6089482084931506 1.696586431502001 48 51 34
10.611461047285866 -2.825982180947169 1.7891610484298044 44 48 28
10.854040947971374 -3.1217251226535363 1.5983285022603164 40 46 24
10.185328527189577 -3.0187803176281154 1.7984547154903612 43 49 28
10.537800050043671 2.9623342699570494 1.8891930185151784 41 47 26
17.55930446914733 1.1784480756191598 2.9691243388609148 46 55 37
13.526551555537822 -0.5141267180588693 2.95782643879707 53 63 43
13.355101706171919 -1.446222256952255 3.049735263668941 50 62 43
12.058897093625937 -1.7063574543569615 2.5945016745611955 53 58 41
13.002093250483842 -1.5347042731186027 2.811181539207775 50 59 42
12.845796172920117 -2.09236099006617 2.848718637239579 51 60 42
12.473311515145532 -1.7319367522492293 2.704149682527118 52 58 43
13.482946108244954 -1.5022015125140307 2.9761291446971136 51 62 43
14.656688751158061 -1.523494792517005 2.9201505231412868 50 61 43
11.961757897415076 2.9404775391782003 2.807099073637816 46 56 36
11.976898897605334 2.8454176594959244 2.6058475346933796 43 53 32
10.827731599900517 -2.9659130998807854 2.4440752618477695 48 57 36
10.038923649144714 3.027534153138338 2.3848115485138095 46 54 34
11.447437155608164 -2.895915081595609 2.6897857142095623 49 59 38
11.961757897415076 2.9404775391782003 2.807099073637816 46 56 36
12.433178147689206 2.5672165545003676 2.5469198699617612 42 52 29
10.93494415644075 -2.3196661009839943 2.4324563094258256 55 59 44
10.96851906904656 -2.555922933166051 2.5825655075967195 53 58 41
10.512105628080603 -2.702580177571637 2.3382752005896617 50 55 38
12.391269126921333 -2.164919395047773 2.718528904475139 53 60 44
10.49485157250144 -2.425839564754413 2.4828285913948003 54 59 44
11.541687419844196 -2.000424807863998 2.5076029087519975 55 59 44
12.817135305494523 -2.4804177178724807 2.8562277930555435 50 59 41
11.205930960486192 -2.7794339768549103 2.549564096797545 48 57 38
10.742741859752362 -2.2331885518844774 2.317763635902769 57 61 46
11.800444825321547 -1.6877544630072114 2.478356552168859 52 57 40
11.914112236093999 -1.8214928584299763 2.4662391255229656 54 58 42
11.826214672408272 -1.4124483232163814 2.475572522240392 51 55 37
11.822841001004909 -1.7920282849920306 2.3488988665975454 56 57 43
11.826214672408272 -1.4124483232163814 2.475572522240392 51 55 37
11.439869477641233 -1.1589197062224204 2.3824518295738457 47 50 33
11.965106818541068 -1.280923291478958 2.460935914588407 50 56 36
11.734259773785588 -1.4314571845198525 2.3563659988048444 52 55 36
11.432589935192528 -1.2044298754106995 2.263240463451266 46 48 29
11.650734730349603 -2.060699094658345 2.363563510845337 56 59 44
11.359755607326582 -1.9467025876220598 2.3899141050747184 56 57 44
12.236720072083878 1.0215861919743572 2.433969926271428 40 45 31
13.510165930759536 1.125111048330064 2.0558168515712847 8 8 10
13.658862802397715 0.939581257965428 2.050088198568075 18 17 24
13.669590358469213 1.0094874142139354 2.134054805227084 15 15 13
13.44898248088892 1.1292445901565644 2.334238989618265 41 44 35
10.836366384508331 0.5307240309330559 2.081719664610092 21 26 18
11.318347031045931 0.563637006900743 1.8665446596793125 21 21 22
11.371028315775511 0.26768788727652776 1.9584835285466526 20 24 22
11.563536345506435 -1.0106669838599498 2.146842044803997 43 44 28
10.456350146072403 -0.3003965618845824 2.3434325120902724 40 45 27
10.40179463915997 -0.19506641169898442 2.494472990839548 39 46 26
10.221206877173797 -0.030127995511644322 2.3661107242285198 38 46 28
14.979794334137779 1.9089715237759146 1.7928327217604019 50 52 50
12.827199091017102 1.8799912863897825 2.648444373234073 42 50 32
12.45693501782865 1.921503379799104 2.41354593665764 41 46 33
12.267015029729889 1.803851917333814 2.431087687378467 41 46 33
13.087970192482711 1.3010584748929737 2.476549834291256 42 47 32
13.289070376084599 1.186041081089802 2.4574838050738377 42 47 32
12.92472682744116 1.7781211502557726 2.373817896389691 42 46 33
12.347358113286745 2.362769526811705 2.557275872055441 43 51 31
13.550943909964897 1.1358485547208204 2.5567546302581525 41 49 31
10.962275205029956 -2.1893946777790587 1.9737581532781818 57 56 44
9.891321729972242 -2.648657829256932 2.0203936952119883 48 54 35
10.303943305561475 -2.866438622302464 2.228498178428041 48 55 34
10.35239157791201 -2.9202980053814036 1.7947176438556023 43 48 27
10.88021648335168 3.069403750629789 1.598262248897955 39 45 24
13.359847419410118 -1.5416199710992895 2.740357235702852 51 59 42
11.890208136807017 -2.070577726140458 2.618258913947504 55 59 44
12.629203587617948 -1.1794295608925514 2.678457797402169 51 59 40
12.521596123076593 2.3644924199453032 2.695975503915144 43 53 32
10.010548546857896 -3.1101261419715147 2.38781791628962 47 55 34
10.986842145944372 -3.104749727817046 2.579905332002827 47 56 36
11.937954019513295 -3.085632671451694 2.812884407265889 49 58 38
11.715385953901334 -2.738165122317281 2.874116139319493 49 58 40
12.256486594660334 2.5151694919000693 2.743656373054081 43 53 32
12.845796172920117 -2.09236099006617 2.848718637239579 51 60 42
11.708287536452803 -1.6736252592826357 2.3585875081250425 52 56 41
10.105563255855106 0.5895797230150188 2.12274157215552 31 36 27
10.819404792618702 -0.4816147976599203 2.4449941056557174 40 48 26
11.073268745795465 -0.7915067580911291 2.4180185928592897 43 48 31
11.07146991830069 -1.0486210857081983 2.2906089288241906 46 48 29
13.706344136336071 1.3305265961371575 2.420961038114715 41 45 30
15.332638735451019 1.9720150693848977 1.7876404410506692 49 51 53
9.891321729972242 -2.648657829256932 2.0203936952119883 48 54 35
13.850263006019276 -0.9809625124858723 2.8584555694764684 52 61 41
12.030021895901662 -1.5463120085585422 2.598455120272135 53 58 40
10.038923649144714 3.027534153138338 2.3848115485138095 46 54 34
10.388349227960793 2.7553916738263253 2.3498334279147532 43 51 31
13.682869945061947 -1.523494792517005 2.904097882051504 51 60 42
20.023002647657933 -2.871628682564454 1.7871737700792996 53 57 41
12.893752175605357 1.1694606658943707 2.172529929886636 43 44 33
10.360267533416966 0.1268230716672997 2.4997960738463014 36 45 25
11.186316145437322 0.48169295082592795 1.965235764044441 18 22 18
13.229483189020957 1.402569936199043 2.5945410519138155 41 49 31
12.792865940296721 1.5534704192003543 2.384555048990432 41 45 31
12.114264156371481 1.6670081950526432 2.325459700379048 41 45 30
12.361746431282182 1.6951120691064836 2.555518277891966 42 47 32
13.028814266580984 -1.7692583903621804 2.8052531164227967 51 59 43
10.64924352486978 -2.638845984390403 2.4643206610551838 52 57 40
13.531232887621552 -1.091231074302674 2.9559742702359095 51 61 42
11.021767283634663 -0.7929667385948861 2.5748899728826675 44 51 32
11.56053005245873 -0.6589460480721653 2.6700280266639376 45 53 32
13.027281052276251 -2.295615442055807 2.8055899050843474 49 58 40
12.220077013599383 -1.2374545735032703 2.573217749427924 50 56 36
11.383703542319603 -0.8647756317931298 2.1571375512160227 43 45 28
10.233597509582664 -0.703187109419633 2.2338188177477174 41 45 27
11.914112236093999 -1.8214928584299763 2.4662391255229656 54 58 42
11.981453562138901 2.4558733238372983 2.4592527722216784 42 49 31
12.881504464818219 1.4535765194804655 2.2708272430644585 40 44 30
13.910280158435711 1.158634080294286 1.9615947203104478 2 2 4
9.983573735222224 -2.555030279323739 1.9075475323895215 51 53 37
11.439869477641233 -1.1589197062224204 2.3824518295738457 47 50 33
