10.05442698278867 0.03728891045508869 2.1390232645299454 28 31 2
10.135253359819906 0.15415732821847483 2.133939837650431 26 28 2
10.087320911911128 -0.07212132158565687 1.9157094658441478 21 25 0
9.9183959455053 -0.3069299961681806 2.0316314716441513 27 32 5
10.401727058796217 -0.3069299961681806 2.117847155210378 28 31 4
19.012092289228647 -0.365447155808251 1.7511677422708736 29 24 5
18.40844516323479 -0.40787506627736225 1.985118167575779 40 34 13
18.0209629518176 -0.43276550592660984 2.056370360764704 39 35 11
12.341469234935118 1.6139211971396 1.5230264585555342 23 27 8
9.866860274852748 0.8467945229148423 1.7142588268493857 25 25 3
12.429421354309804 1.6139211971396 1.4425772186494026 25 27 8
11.49769064164312 1.4417405984895453 1.6937981791626646 26 26 8
11.413141320425785 1.5294139412026677 1.6947140604978146 24 27 8
9.789730363242665 0.7019751071781117 1.6127580933447383 21 23 1
10.428061110899579 1.1235467025273609 1.7064890647910498 23 25 7
12.196432702702303 1.9516896945916118 1.6044743282894327 25 32 10
11.986574463447447 2.2506678152417963 1.6050641840516147 27 36 16
11.449316702996859 2.5563823591215677 1.5193009652154175 25 33 11
14.296945074853792 2.4173615857511703 1.3886808696148578 23 30 18
11.997098025573464 2.3689864625395884 1.6886535720723275 28 36 15
11.881102402843288 2.67413874004113 1.6898096532864475 26 34 11
10.706687603773691 3.0172846101661603 1.702936872301008 32 42 14
11.130897397596696 2.8365595188265775 1.6978730268811106 32 41 14
10.630206993717922 3.1116029970845323 1.7038932104770816 35 45 15
10.647508723348274 -3.076728760087857 1.7036756508968278 35 47 17
9.750564208588656 -2.6394902042742894 1.510319256458358 38 49 16
10.758140327132091 -2.9830264334419563 1.7023012091354683 33 43 14
9.834439370577511 -2.6394902042742894 1.714735063411265 38 49 16
10.226906349638782 -2.7727631067827567 1.6109633404669965 36 47 14
10.002140764539924 -2.8670995603992977 1.71230532660517 35 46 13
11.058130171761142 1.17563874650365 2.1891874007237533 26 30 8
10.713401347349274 0.9550516060340698 2.3346643772751614 25 30 7
9.96878151771586 0.6879000940105774 2.1445182608029945 23 28 3
9.478905908238481 0.6185853537650006 1.8279406813693284 22 23 2
10.137363157998347 1.0224756632528087 2.133808448545007 23 27 5
10.975961545758974 1.1280752515979047 2.3119956470159675 27 31 9
11.075252629730183 1.068587081676763 2.433204376682011 30 36 12
10.907174583170056 0.8717873117608907 2.451385113483503 28 35 10
10.963928434788818 1.4293891719005514 1.8871269688792813 24 28 9
11.84355759901288 1.7908797114668122 1.7757717013518084 24 31 9
11.84355759901288 1.7908797114668122 1.7757717013518084 24 31 9
11.235185801207598 1.3960039307287317 2.291076297632196 31 37 12
11.411775723196595 1.7337297577352893 2.1673074351021424 27 35 13
10.783388524230055 1.5205433521669451 2.096428657358695 26 31 10
11.422828845079811 1.8662940989452865 2.2767501101286585 35 41 18
11.14864586829896 1.5145124463074409 2.2979088074060448 28 34 11
11.052405106868422 1.3117680118224206 2.082366709965846 25 30 8
11.157140926559325 1.5068388206742191 2.4246797602205032 33 39 14
11.436655631417604 1.8086798025882933 2.537207954673697 35 43 15
11.926418648898009 1.7529146992230242 2.353520841750561 32 38 15
11.428402246350451 1.3423407145223698 2.5382544892930112 35 44 16
11.781250649347616 1.3012644995361413 2.6544298722327184 37 46 18
11.086641262338814 1.1360583951895278 2.5845645776353607 36 43 17
11.346108906693667 1.6547433341638003 2.5488624520555296 37 43 17
11.252004402472938 1.7771478941196435 2.4150601318671816 36 42 17
11.698750855191177 1.4828832073855174 2.6679138780012313 37 46 16
11.41735452006899 1.2453714628734478 2.398909928541639 33 39 14
9.800509313696253 0.41784130133624015 2.1556541990333224 26 28 2
9.930136607856952 0.1744060388285267 2.2725757019491186 27 32 5
10.105628340146527 0.34380985489140004 2.3939907974910337 30 35 8
10.111353607020803 0.3006886833991906 2.2575207310387158 25 30 3
10.56597535713786 0.5450856341875084 2.49147881835945 33 38 10
10.563474444503914 0.7629067389214755 2.670051323031066 34 44 15
10.918738528566344 0.8938265520589908 2.609767351337248 35 42 14
11.215011426568093 0.588713677820125 2.76055774665279 32 43 8
10.56597535713786 0.5450856341875084 2.49147881835945 33 38 10
11.333572215234991 0.07058323103601688 2.7352423298992212 32 44 11
10.615147403217087 0.048802068876219205 2.4854110003611383 31 38 8
10.691735738762826 0.2006963066654646 2.4761634407313347 30 35 8
11.405337253823685 0.28639138802751185 2.720859278014111 33 44 12
10.932707241603273 0.6383999520403 2.607599756576361 34 42 12
10.503931257205643 -0.5177182306467067 2.3539449274047084 30 38 7
10.20196932894103 -0.34500944996551597 2.2502602737823043 29 35 5
10.503931257205643 -0.5177182306467067 2.3539449274047084 30 38 7
9.9855914649141 -0.2217792322425974 2.267890407505375 29 35 6
11.422312283706397 -0.8089415001657944 2.539028692259257 33 45 11
11.01371369447939 -0.29873956363228815 2.5952886796271537 32 43 10
11.849316992866187 -0.7082829471128198 2.488478777321732 32 43 7
11.931197353554676 -0.9334039128612606 2.631212817198489 35 50 16
11.913119838896076 -0.6894695710710874 2.6339298279033305 30 45 10
11.642778148337754 -0.5409034712467279 2.677380042896081 31 45 10
10.632473638646589 -0.10536174312414462 2.4832976024608615 32 40 8
10.632473638646589 -0.10536174312414462 2.4832976024608615 32 40 8
10.905675039147035 -0.12444541252550864 2.6118067804001175 35 44 11
10.905675039147035 -0.12444541252550864 2.6118067804001175 35 44 11
11.365122443125804 1.2428228026849943 2.7288384767058442 37 46 17
11.365122443125804 1.2428228026849943 2.7288384767058442 37 46 17
13.275834605536314 -1.683772704798308 2.778581727091194 46 60 29
13.346234489749918 -1.2669828999878288 2.7649393155951354 42 56 25
11.951013011994919 2.062986672139012 1.7739028111779547 30 37 15
11.761955532242988 1.900621933037962 1.955187645527986 30 38 15
11.436147977718514 2.0697250592786447 2.1658610298020795 32 41 15
11.791432238524866 2.2181794226233618 2.2503932274287957 32 41 15
12.025257928300444 2.0697250592786447 2.234779980493628 34 40 15
12.436628681086983 2.15775752748589 2.2091508665351225 33 39 14
11.726472260398305 2.3067328703058707 1.865914070400883 30 38 16
11.337243355455815 1.93313634712136 2.068316422633518 30 38 15
12.202477344957357 2.1822640713017916 1.9406266629083875 29 37 15
12.309826356954714 2.443750056739961 2.2168158984148203 30 40 16
12.611451576561937 2.2900757875643167 2.4131329389367497 33 42 14
12.611451576561937 2.2900757875643167 2.4131329389367497 33 42 14
11.69330631136616 2.0205143013641176 2.3735509262365864 35 41 16
13.39033623683195 2.4584351977754237 2.4614398943934983 35 44 15
11.69330631136616 2.0205143013641176 2.3735509262365864 35 41 16
12.033134138723725 2.1253551495214755 2.344737918702295 34 40 13
12.254907372259774 2.4869496672218636 1.7687984651992896 25 35 12
12.48850955606584 2.5843623680561194 2.2060719406539278 32 41 15
11.415786244678593 2.5843623680561194 2.064583651769765 29 37 13
11.74483706432157 2.4327464209030634 1.8654387634635086 28 36 14
12.473327263213156 2.4327464209030634 2.019479599264233 30 38 15
11.294335762637106 3.0996692327749655 2.410852628075828 42 54 25
12.802765437791486 2.621222028234382 2.3965368766817314 35 44 16
10.236317296258841 -2.751686297901626 2.3803204568592347 41 55 26
10.588144971136078 -3.0510126812235114 2.346057926891209 44 57 26
10.588144971136078 -3.0510126812235114 2.346057926891209 44 57 26
9.9785040179129 -2.6866561532400963 2.1438887360537477 38 51 18
10.366077833471135 -2.438955417001603 2.3672725505240404 40 54 23
10.38935434567481 -2.585200724187457 2.118572640695723 37 50 17
10.366077833471135 -2.438955417001603 2.3672725505240404 40 54 23
10.554235647804218 -2.6866561532400963 2.2235835899492518 39 52 21
10.384835521036685 2.903234156170601 1.905435411394015 35 45 17
10.364583900845103 2.87652256320432 2.1200312556107934 39 49 21
11.004931904832892 2.716405048261881 1.885907637048569 33 42 14
10.67624604814404 3.1045784323868757 2.21487433245012 42 52 22
9.609346196945785 3.1045784323868757 2.0476637424439206 43 54 22
10.384835521036685 2.903234156170601 1.905435411394015 35 45 17
12.73390591650156 2.673248547931042 2.2922733977775254 32 41 14
10.934300662234563 -2.9830264334419563 1.79309155604479 34 44 14
9.628482518925013 -3.061581626456946 2.0466372164391906 42 55 24
9.974769484206668 -2.966711917265864 1.8148901893814098 37 47 17
9.75068289412248 -2.9467026321346075 2.040189440398308 40 53 22
10.453004633123356 -2.8367876861314674 2.1148621251010864 40 53 22
10.108386414334882 -1.8264787977848738 1.7108081268767439 44 56 29
9.540515411075575 -2.4950832567595382 1.719201866071549 39 50 18
9.383650230705909 -1.9570296981469242 1.6145751376002273 46 58 29
9.35442800017717 -2.3446465927995184 1.614711985761812 38 48 18
10.209347145984996 -2.2752898099341086 1.414486962886178 38 47 19
10.861749428552752 -2.5538793373612645 1.2340100507576777 38 48 18
12.279024980914224 -0.8047206371114806 2.4440179718488704 33 44 11
12.0527343447273 -1.0921216774947595 2.466728139247902 35 49 18
11.105811864913543 -1.6256203579130717 2.079668925243889 41 50 22
11.227844989827199 -1.6204978586251386 1.8794426766523182 35 44 14
10.087081081217542 -1.4202972851126385 1.812118057299025 27 38 5
10.087081081217542 -1.4202972851126385 1.812118057299025 27 38 5
11.425878807909632 -1.5168937515672458 2.27652256574839 42 49 18
10.8934133378881 -1.4032730379328244 2.199987273875307 42 47 16
11.198301741243494 -1.7276388443186401 2.0750671345939153 43 53 25
10.938167987517026 -1.8264787977848738 1.9858477422757224 44 54 26
12.11546599529052 -1.1610814875016382 2.6046722473129265 38 52 22
14.106171239657197 -1.650139691779228 2.646247216908072 43 57 29
12.832332939337297 -1.3179631970916117 2.6664177818775245 40 54 25
13.232528657047064 -1.5008116630452615 2.610629924808698 41 55 27
13.660743967955908 -1.6640238413879447 2.7104571298871933 45 59 28
11.656676348953951 -1.2599551914248477 2.3768098517061156 39 52 21
13.232528657047064 -1.5008116630452615 2.610629924808698 41 55 27
12.816251659119212 -1.6319186261877878 2.395396784225495 42 55 25
12.947841838321265 -1.5098952429881178 2.5048672613867136 40 53 22
13.660743967955908 -1.6640238413879447 2.7104571298871933 45 59 28
13.729170271355745 -1.3179631970916117 2.6997467196807814 41 55 24
14.179103347941806 -1.7960284957693124 2.6368090991943056 45 59 32
10.380790250505362 -2.243839584056045 2.365824594122367 43 56 25
10.209991199574935 -2.425452793490905 2.12932511096222 38 51 20
10.310557687904078 -2.166568475972153 2.241781907281079 41 55 24
10.2249282085892 -2.2621161788548787 2.1284124878252184 38 51 20
9.738725891144487 -2.4950832567595382 1.8209313966415888 37 49 18
9.679648082445038 -1.9570296981469242 1.8224910148267206 45 55 27
10.360419023752696 -1.9570296981469242 2.0105576380628847 45 58 29
9.201353405224856 -2.166568475972153 2.070710882380041 39 52 21
9.732821235229059 -2.2621161788548787 2.041120477905381 39 49 19
9.770018174684171 -2.1947269366334003 1.8201131894081861 40 50 22
9.240689932281917 -2.1036229257112105 1.8347257968154094 40 50 22
10.58529371926174 -0.06525255357042926 1.7044613190771565 16 15 0
10.072717768145647 -0.08060279083847412 2.1378643122618275 29 31 5
10.189591970300146 -0.19630089920502508 2.1305766338572893 27 30 1
10.20402785493884 -0.17601879088654823 1.9116033385683726 26 29 1
10.70056665164669 1.3359183010935045 1.703012902933377 26 28 9
12.4247642869365 1.6945085946997895 1.5233469469391354 22 26 5
12.292691947811567 1.9516896945916118 1.4411430602875788 24 32 10
11.937814441359901 1.8732966735416363 1.6892416006502264 25 32 9
11.396755689387302 2.7526552559012267 1.519063260722371 31 37 13
10.790906842635406 2.9251320292688567 1.6088629176665459 30 38 13
10.875862122557297 -2.8920429273951287 1.6085654237719675 32 43 12
11.243615474838263 1.3726961641248412 2.415900083685303 35 41 16
11.343336485067816 1.4967469023508788 2.5492254355819113 38 44 19
10.0586420235211 0.8467945229148423 1.812813972829059 23 25 4
10.881084068816584 1.0777186406912287 2.091228379138885 24 28 7
11.58205712224605 1.6177268184033813 1.78046788146167 24 28 8
11.159959604057164 1.6433121271997668 2.4243900371850526 35 41 16
11.926418648898009 1.7529146992230242 2.353520841750561 32 38 15
11.252004402472938 1.7771478941196435 2.4150601318671816 36 42 17
11.431120145565483 1.9039204244604235 2.39759910356668 35 41 16
11.58842223366157 1.836123396089646 2.1569927176492034 29 37 14
11.781250649347616 1.3012644995361413 2.6544298722327184 37 46 18
11.35124265315084 0.9926783448100004 2.54819129199222 33 41 16
10.509522281697379 1.2143734643322681 1.9013129864672296 25 28 11
11.1514666930329 1.6346172877688852 2.297683767629474 30 36 13
11.849316992866187 -0.7082829471128198 2.488478777321732 32 43 7
11.763798470258829 0.057707932180270295 2.6572377929072646 32 42 11
9.930136607856952 0.1744060388285267 2.2725757019491186 27 32 5
10.5094395413429 -0.4582556057144621 2.2268467969175214 29 34 5
11.349801779874165 -0.15190635020963736 2.7319319202626966 34 45 10
10.380538659659454 0.47369531259955977 2.365849302574178 30 33 7
9.866301009987335 -0.091338674065234 2.2780578015005077 29 35 5
11.453651894785477 -0.3604108949950989 2.7115291054003974 34 46 12
12.259305264997176 -0.8089415001657944 2.5852759152719553 31 46 12
11.99858201023848 0.36261313228422165 2.827256572361896 33 44 11
10.078000491482369 0.588383977821379 2.26023703063795 27 32 5
12.579257635982744 -1.0857756698773995 2.7071441818150883 37 51 20
10.932707241603273 0.6383999520403 2.607599756576361 34 42 12
11.56345867761762 0.4781592279882717 2.6912728555549412 31 41 8
9.93111130736456 -0.4582556057144621 2.1469714644790283 26 33 3
11.453651894785477 -0.3604108949950989 2.7115291054003974 34 46 12
12.444244529484342 2.2181794226233618 2.31293888769308 34 40 13
11.43417618132241 2.632837885622935 1.8736944826291058 28 37 11
12.302127294903569 2.370709363264007 2.11893895085654 31 39 16
11.685201048038072 1.9723799536786528 2.257760775912776 34 40 15
11.630036887578761 2.1822640713017916 1.7795900597613692 29 38 17
12.381044701606234 2.3729685525958732 2.317630013229269 32 41 15
12.365730467159656 2.2365802443722163 2.1158015716514784 31 39 15
12.47883463696601 2.5269642599553044 2.3103999340637786 33 42 16
12.033134138723725 2.1253551495214755 2.344737918702295 34 40 13
9.865545367606328 -2.6280259510943664 2.2781232742769126 40 53 22
10.366077833471135 -2.438955417001603 2.3672725505240404 40 54 23
9.502420132378763 -2.585200724187457 1.937914214542942 39 50 17
10.67624604814404 3.1045784323868757 2.21487433245012 42 52 22
9.693884311681682 2.988554240714563 2.0431634988475222 40 50 20
10.208474424882175 3.004398168817807 1.911448867770385 35 45 15
10.652542772244432 2.8067957701217763 1.8967101316599884 34 44 16
10.241931681846456 -2.9467026321346075 2.1273774761694932 42 55 25
9.57197004343116 -2.8367876861314674 1.935121562629607 40 51 20
9.972159153674841 -2.8367876861314674 2.028956506473094 42 53 20
10.286500837053827 -2.7339577498695116 2.013941243693429 40 51 18
9.57197004343116 -2.8367876861314674 1.935121562629607 40 51 20
10.789893779265526 -1.6204978586251386 1.7019119685354491 33 42 12
10.885068326699448 -1.7131663355656117 1.7007590198553026 38 47 19
10.39731623535367 -2.415733641746068 1.3191095610239996 38 48 18
10.093238553357729 -2.2752898099341086 1.6114955762990808 39 49 21
10.31297015396219 -2.13795372730403 1.5136210064952598 41 51 23
9.803866398585289 -2.0517408907932473 1.6126975538970045 42 52 24
9.812973488572782 -2.0517408907932473 1.5107043481642717 48 61 32
12.358058568155368 -1.0228941884160827 2.5725549092926987 36 49 17
12.358058568155368 -1.0228941884160827 2.5725549092926987 36 49 17
12.377620953781319 -0.9815000865734108 2.434567257381894 32 46 14
11.908618677041423 -1.1467832932785198 2.3550086852483405 35 48 15
10.957041381248178 -1.2599551914248477 2.3135772793389084 42 53 21
11.319337782073223 -1.7131663355656117 1.876866623383946 40 51 18
10.742062189673439 -1.4202972851126385 1.9939065941517904 36 43 11
11.102979441112723 -1.5224506919553504 2.079811248656121 39 46 14
13.658441384322044 -1.488550569756459 2.7108237643096027 42 56 25
12.756632524890087 -1.488550569756459 2.6780843890742574 42 56 27
13.234905340373782 -1.650139691779228 2.6103241911322286 44 57 30
12.984832072726945 -1.1610814875016382 2.6440739533022652 38 52 21
12.950270768569482 -1.639849228822148 2.5046136648358193 43 56 25
12.458553779496711 -1.3545240086568686 2.560065185602332 40 54 25
10.039496438423892 -2.001589133435568 2.139973072687494 45 58 31
9.692237025120141 -2.243839584056045 2.293511539994712 40 53 22
10.58601569451274 -1.9204765120409184 1.8005344021263476 46 56 28
10.033151531633786 -2.4950832567595382 1.9176498804239648 39 49 19
9.65132211452159 -2.3446465927995184 1.8232457995391786 39 49 19
9.720403909391857 -2.166568475972153 2.16112073359999 39 53 22
10.333959256064848 -2.3446465927995184 2.011762651698519 37 50 19
9.40866808199397 0.37320785548027713 1.8299042909265437 25 26 2
10.069056653698567 0.03335381583042999 1.9163612300226898 22 24 0
9.825165225550922 0.2669471413397921 2.0363481855472165 23 25 1
9.418732613016342 0.2669471413397921 1.9413332909378136 24 25 0
10.20402785493884 -0.17601879088654823 1.9116033385683726 26 29 1
10.13257016136471 -0.2762256215666127 1.8110132868889472 32 34 8
9.85882411533068 0.13809443604799024 1.8178203510311388 22 24 0
18.029129364834702 -0.40787506627736225 1.9343235191380312 35 31 9
14.96778197292097 2.3665322545266156 1.3969283316213121 20 27 18
12.673449594373976 1.7735159131308897 1.4450593118585862 24 28 7
10.673154904918617 -2.9830264334419563 1.609283094947905 32 41 13
11.436655631417604 1.8086798025882933 2.537207954673697 35 43 15
11.32103000823938 1.6277822624615035 2.172760419486284 27 33 11
9.962974321502257 0.7712474446732295 2.2697927698026854 26 30 8
10.059180681824325 0.7734609493545546 2.024694671929195 22 24 2
11.40350433109451 1.4144446192286277 2.1678000415225536 26 32 10
9.447222909335332 0.8571812172473265 2.0565502159115754 25 27 5
11.428402246350451 1.3423407145223698 2.5382544892930112 35 44 16
11.210264520895617 -0.45627639401551023 2.567102347477392 31 43 10
10.196294943341604 -0.39332049006100606 2.3844487159027543 28 38 7
11.215011426568093 0.588713677820125 2.76055774665279 32 43 8
9.688162563122143 0.5239964889054188 2.043465283456515 24 26 2
10.5094395413429 -0.4582556057144621 2.2268467969175214 29 34 5
10.743260071365805 -0.25469359029023075 2.470076259685198 29 39 8
10.171054335184674 0.6681378730502376 2.3870783381882035 28 34 7
12.292305680579464 2.2996033312322255 2.217890956417616 32 41 15
12.110280604469589 2.1066170327080393 2.033963158256511 30 38 15
11.68549938972037 2.5563823591215677 1.7785845195503016 26 34 11
12.099855480605711 1.9846893342718395 1.9439166749286536 31 37 14
12.025257928300444 2.0697250592786447 2.234779980493628 34 40 15
11.49481129144047 2.5043212968929014 1.9646067941561398 27 37 14
12.400539583969005 2.5043212968929014 2.11410065399983 29 39 15
9.600489785576267 -2.7339577498695116 1.8246118395388284 39 50 17
10.262425343793637 -2.966711917265864 1.9095859798577801 36 49 18
10.18787223723117 2.988554240714563 2.130682416036114 40 50 22
10.699390413209642 -2.921606358177697 2.33591943208082 44 57 28
9.855348039443983 -3.069945678365671 1.8179092963296954 39 52 21
12.501157711971974 2.7268532746143164 2.4230778059674676 38 47 19
20.782272641324827 -2.6966134518083695 2.9522035955825108 51 64 35
9.454032946907668 -2.4950832567595382 1.5084199314794757 38 48 18
12.947841838321265 -1.5098952429881178 2.5048672613867136 40 53 22
13.029674504313139 -1.7675208565089928 2.496422118700711 46 59 29
10.295670137265832 -1.8264787977848738 1.807134770290453 43 54 23
10.540243133463836 -1.8544416860938249 2.109862507163996 46 59 32
11.867491697532305 -0.9045560593815756 2.486479804795895 33 45 12
10.957041381248178 -1.2599551914248477 2.3135772793389084 42 53 21
11.803868429190986 -1.2170164118389148 2.4935276914264897 37 51 21
9.951534845054367 -2.1036229257112105 2.029978824986835 42 52 24
10.433330889328138 -2.1036229257112105 2.116003288413267 41 54 23
19.64971648165833 -0.34725109066044213 1.5408002426917011 22 17 1
19.45650418115473 -0.3145835610585357 1.9065569808908562 32 26 4
11.396755689387302 2.7526552559012267 1.519063260722371 31 37 13
11.468597804062043 2.7526552559012267 1.6941117919885174 31 38 12
11.130897397596696 2.8365595188265775 1.6978730268811106 32 41 14
10.899381937041008 1.2464390633007492 1.5167002599613406 24 26 9
11.67077340590816 1.7053150033890931 1.778850550295956 25 30 8
11.409053215695604 1.282235916892153 2.2777799172745445 27 33 8
11.41735452006899 1.2453714628734478 2.398909928541639 33 39 14
12.185755220229401 1.4967469023508788 2.595059444426527 38 47 19
10.240656364800994 0.9890975693638677 1.8084287838808488 23 25 4
11.27634454715341 0.7680262771904368 2.5581118883157217 32 38 11
11.201394766842537 0.9308559077902179 2.763603733737229 36 46 17
11.127862517393453 0.40059935982246303 2.578644976620699 32 40 9
10.963460470604085 0.23614624274439522 2.602874668018937 32 41 11
10.248109524438796 -2.7992440648910812 2.2466287357700736 42 55 24
10.128232391091824 3.108458801269191 1.9142586080259112 39 50 17
10.693473288179076 -3.061581626456946 2.213665174470187 43 56 25
10.280910790624867 -2.519445111792654 2.2440732334843125 39 52 20
11.049269923130238 2.9251320292688567 1.7907402967031996 31 41 14
20.782272641324827 -2.6966134518083695 2.9522035955825108 51 64 35
20.725219295676226 -2.950254330044094 2.9671478862426723 47 61 34
13.736041295334196 -1.8339756995710805 2.6986904380468175 47 61 31
11.105811864913543 -1.6256203579130717 2.079668925243889 41 50 22
13.312611467241771 -1.7960284957693124 2.600473295487032 45 59 32
9.847626837730447 0.04227610686526629 2.2796798526330755 30 35 5
11.712558075207866 2.062986672139012 1.6058662088345679 27 35 13
13.273465250810464 -1.4710979589262683 2.7790519557574034 43 57 26
10.783388524230055 1.5205433521669451 2.096428657358695 26 31 10
11.599373827724728 1.1982072618705177 2.517183671282706 34 40 16
11.597037985368948 1.3560131838092027 1.519957474550868 26 25 7
12.426890620500767 1.5327706303682846 1.442550962767874 26 28 9
11.537031829641416 1.0512481717235331 2.6960343769674644 37 46 16
13.39033623683195 2.4584351977754237 2.4614398943934983 35 44 15
10.542785830802792 -2.6280259510943664 2.3502827208687185 40 53 22
12.456036569537108 2.3067328703058707 2.020148000923331 30 38 16
11.225043358780628 -1.5269696215636668 1.8795222550583452 31 41 13
10.198154894891152 -2.342587557318297 2.250562444248572 39 52 21
11.048779534498255 2.8365595188265775 1.607974049032471 31 37 12
13.749892635952092 2.376060541649392 2.549677551912774 35 44 14
11.428631205972179 -1.6319186261877878 2.276317363466016 41 51 22
11.490786392277041 -0.5928447328047732 2.5304198854884103 31 42 9
12.756632524890087 -1.488550569756459 2.6780843890742574 42 56 27
