11.256930618898918 0.19203903460163071 2.3449154238847036 47 40 28
10.362913347056994 -0.46482957740902636 1.8513705322949456 71 73 79
10.903752205703368 -0.7569370752213721 1.6506305196676234 87 89 90
10.025723592782192 -0.6050059298369032 1.861076329830815 66 67 72
9.906485499628912 -0.41315181974443815 2.0846691072246424 52 53 44
11.006038594229286 1.1824812938154903 1.9300609376182893 25 24 10
10.692547452009684 1.2754690770045616 1.941095041972885 34 33 16
10.330824844372652 1.4765781630537316 1.9547241598550626 32 34 11
10.349942652823524 1.6855181943212856 1.953978074451318 40 42 15
10.429647555223358 1.8849862500514343 1.8495271230299737 40 43 14
10.019090636108055 1.6855181943212856 1.8612740963250727 40 42 16
10.50328512383387 1.7874331482854837 1.9480998569879902 40 43 14
10.920486099725169 1.5801772470839177 1.8366875154337914 40 42 16
10.738724106535605 1.4854748508425748 1.7457839025180808 30 32 10
11.228122557190838 0.9064858422376999 2.120876937379176 31 30 16
10.948600533389845 1.0326974627487653 2.372833423419296 33 35 14
11.460407784658827 1.049595602605509 2.108494661161683 32 31 17
11.474884361952897 1.2400125330684566 2.6062653849838497 40 43 14
10.633416154536539 1.1530637487702395 2.403984128961228 35 37 15
11.474884361952897 1.2400125330684566 2.6062653849838497 40 43 14
11.682263720888042 1.0881115090582765 2.5770502392673205 37 39 13
11.969862161635893 0.9569527601401212 2.54017584639859 41 43 17
10.092695748222376 0.8461721022182858 2.319442389105756 36 35 17
10.614368657172776 0.7535053880380512 2.274695645856541 38 37 21
10.582920731241494 0.8364179143190625 2.158710314121175 32 31 18
11.343463675788371 0.9273970181347955 2.337484072333967 37 36 17
11.069716891884944 1.142128201958305 2.1296758013161767 39 38 21
10.373071570404885 1.3236842921116003 2.2946141461517238 36 35 15
9.704423715429558 0.13660626948633625 2.7237626307066867 42 49 17
10.158069839585133 0.40592140084470724 2.4570541542903452 42 41 14
9.850955941165086 0.09062520360290556 2.496199548494955 46 47 12
9.955594302216841 0.2546793930425544 2.4823672467646287 44 46 12
9.922529581576468 0.6250206333453819 2.486679738276923 43 43 19
10.446205248026235 0.4775354889307657 2.5850202119714587 42 47 16
11.93061531970677 1.1739318160181789 2.716656734452311 44 47 14
11.792767761448157 0.8837382747609605 2.7432747761809373 44 47 14
11.322302415838772 0.9275576011403975 2.857848245691488 48 48 18
11.054593878084104 1.4337896344375165 2.5020055397102827 34 36 10
9.975796520993018 2.0135101749907642 2.330385349148886 45 48 16
11.316728417339508 1.5886481244880197 2.6303189452563456 46 49 19
10.230473866981981 1.5859173848587351 2.448428552770238 41 43 17
10.411116928937016 1.8424127558460643 2.2913889004779455 44 47 16
10.905148451858631 2.0810832835750985 2.5206625042040627 46 51 22
10.049159625519968 1.8118876917819366 2.07667316007178 42 45 13
9.780195292825773 1.8424127558460643 2.214482860858782 42 45 14
10.197842161769836 1.5839111925734781 2.3099051722830373 39 41 15
11.778580256484664 1.5925823455640045 2.7461469477856673 47 50 17
12.766934638844353 2.2903646832819815 2.764425449993364 48 53 22
11.778580256484664 1.5925823455640045 2.7461469477856673 47 50 17
11.465807534887345 1.321273920562816 2.8176834351550295 46 48 22
12.178998698000298 2.1701080467810727 2.673619806103812 49 52 17
9.569593267068809 -0.8308649914706544 1.987076105060519 42 43 27
9.638524697117266 -0.7526808348298489 1.766001953727474 67 68 68
9.258121787635098 -0.6696675701877264 1.8859382484034801 57 58 50
9.615193954199322 -0.6696675701877264 1.984980301914897 51 52 38
10.166138003047557 -0.8245417079567542 1.5579659178878444 35 36 38
10.192674581268745 -1.0459033361088856 1.8561870312236333 49 52 27
9.930197987318385 -1.4758604403773268 1.8639511457133167 53 56 27
10.07344654889905 -1.2733365565286814 1.7574723167432222 52 55 22
10.237107424137786 -1.1797986664003584 1.5580548703726844 53 55 27
9.781268214964738 -1.0459033361088856 1.5574610422585051 44 48 27
10.399532794011249 -1.372546461570394 1.9520566040186214 52 55 23
10.305991515410522 -1.2733365565286814 1.852962546299381 50 52 25
9.015151781760185 -0.5307753601997592 2.2798002979887237 49 51 26
9.553199227202132 -0.5741294193644233 2.105669158018755 48 49 32
10.14424118489011 -0.09433711359334204 2.634881097462462 47 47 17
9.173720472168027 -0.24313541894317098 2.4170930728747964 46 49 13
9.388706041192064 -0.3429003712007603 2.246149817353363 49 51 25
9.84727414055377 -0.07842299806110511 2.496696272747784 47 48 12
9.282590881592984 -0.09433711359334204 2.5825760888827816 46 49 16
9.546583572703842 -0.7387236344824589 2.37399924679256 48 51 22
9.015151781760185 -0.5307753601997592 2.2798002979887237 49 51 26
11.440069781652001 -1.2359408252434954 2.611418865567739 54 56 31
9.928540590307803 -1.2000688340187484 2.2033190787590975 52 54 28
10.170615102321673 -0.989751632601841 2.070069933106442 50 53 25
10.47382827688363 -1.3498399433821135 2.1656689878226896 54 56 32
10.01264561728407 -0.9220333142546103 2.1971758785921756 50 52 26
10.905458689000987 -1.0277741944255696 2.376931991373257 49 51 29
10.685529809127912 -0.989751632601841 2.1523233484970046 51 53 29
11.011442921505738 -1.3213810178233942 2.3669511195045367 54 57 28
11.351909550181803 -1.1489109127480623 2.4675875485688668 51 53 29
12.853666206660877 -2.01031979591028 2.7477422164349448 60 65 41
11.59251404602965 -1.5840386145786731 2.4420110795857553 58 60 34
11.59251404602965 -1.5840386145786731 2.4420110795857553 58 60 34
11.698872765704323 -2.0867227447071466 2.574812404921418 58 62 40
10.339185860088856 -1.464723220163757 2.1745070442875027 58 59 33
10.9559696487019 -1.6999036523015831 2.248513038789291 55 57 31
11.100943942705568 -1.8138734801554897 2.2380453482280043 57 59 33
10.183831545504153 -1.45063987193589 2.311159845404377 57 59 33
11.55745305894212 -1.5824741753192222 2.3197987246613208 59 61 35
11.99914323336618 -1.9643255402786728 2.4026534593093505 56 61 36
11.798222010334396 -1.5860870210917375 2.561715748972836 59 61 37
11.848870329316343 -1.7391875904884446 2.5552218250056375 58 63 38
12.197995697350512 -2.01784451392561 2.5134390073106117 57 62 37
11.40403276435113 -2.01784451392561 2.461885995798663 57 62 37
11.281425776943962 -1.5888850356276918 2.6359246842858894 60 62 37
11.965273822069145 -1.9217694857910763 2.288558495979798 54 59 34
11.746067093341454 -1.8138734801554897 2.304971045108467 58 60 36
10.681156470706583 -1.4758604403773268 2.0441824923233063 55 57 31
10.699648335498953 -1.6863895792301093 2.0432974164415 56 58 30
12.81922576831202 -1.884766262112494 2.582829419465985 59 63 41
12.553993776098736 -2.0867227447071466 2.617594198065532 58 64 41
12.21504763718494 -1.7692643287344212 2.667814013233614 60 65 40
17.177236785184824 -2.27638881677165 2.952039710632357 61 66 39
17.719807645933123 -1.263866886525638 1.1566605034336155 49 52 21
17.46966709713394 -1.323675029071487 1.1503579037702631 49 52 21
18.17455443759053 -1.396372022207489 1.167632456999553 48 51 20
11.74946324295672 -1.1327512531971096 1.3884661086591923 49 51 25
10.635845730801508 -1.391066836559456 1.5585325725287573 50 53 24
17.486929418549064 -1.396372022207489 1.2730288324114976 49 52 21
17.843658046878986 -1.4623602091116876 1.3944470167387204 49 52 21
19.69796791742162 -1.4228312218006656 1.6149557322880725 55 58 27
10.769179801730063 1.9767394896397734 1.8405158748953365 40 43 12
11.077651797388212 1.9767394896397734 1.9276341524373837 40 43 10
10.545852806919326 2.5419673627201833 1.9465007651541977 47 50 19
10.221344123109287 2.5419673627201833 1.8553641818935542 46 49 18
10.408217590539456 2.4625608523899576 1.5582643498348794 46 49 18
10.52065132851253 2.3263149948377744 1.7494497341356212 42 45 12
10.34893202810069 2.109239665251526 1.851759877620122 42 45 12
11.096965986690199 2.3921608396930867 1.6492376106217592 43 46 15
14.964097616614415 2.4317746131149423 1.3600434426113128 37 40 10
9.902023637784293 3.0827233160470775 1.9722811897805372 47 52 21
10.207601189033214 2.869747523555323 1.9596056715070604 48 53 22
9.663511853182987 2.9743286476091817 1.8722920148328444 47 52 21
10.766238302205874 2.2332756964524627 2.262779891995902 44 49 17
10.725532513593082 2.404508832214994 2.265929017639185 48 51 20
10.394594312306749 2.0689308210149964 2.170835775691302 45 48 16
10.827985795763404 2.165626844386526 2.1436993659565466 45 48 16
10.694411480465464 2.3215889124486457 2.1517775169212934 44 48 16
10.64805053194288 2.018453086857208 2.045775731291754 43 46 12
11.230313808299789 2.2081010368771388 2.481259735876959 46 51 22
10.198880247815756 2.7984485955052576 2.3098124042061667 50 55 24
10.565563569030115 2.616139697652864 2.4110790736934136 48 53 24
11.330060426732237 2.616139697652864 2.470005375582401 47 54 23
10.482443522950126 2.6310187473385875 2.0539171867840547 46 51 20
10.24521950690104 2.502077358635842 2.305698342255951 49 52 21
11.609761367897262 2.30558176920186 2.586989429407163 50 53 20
10.016519262288655 3.075474465726965 2.196896078338235 49 56 24
9.970634817530238 3.0538896497686188 2.480422917195007 52 59 29
10.492363092499378 2.679429077535227 2.284609451490968 48 53 23
10.090049417930633 2.7299059575391804 2.07442964519141 47 52 21
10.433682610707645 2.9743286476091817 2.056370365813337 49 54 23
11.425068467946248 -2.9231531338748145 1.4716910351701187 51 56 26
11.195706775143938 -3.010467378970029 1.559145871648804 49 56 25
10.28090274047573 -3.09570502120708 1.7536624076480425 47 52 21
10.374219787702815 -2.9976539052288333 1.7519991819650687 49 54 25
10.149918056754178 -2.7778525333480037 1.8574232026051456 53 58 27
10.189823220084278 -2.877158784683605 1.9603205079279042 52 59 30
9.85359637464318 -2.877158784683605 1.8662985678365724 50 57 25
10.18108705058074 -2.8075377303291167 2.3114061925738296 55 61 34
11.118525968740204 -3.0508926255211044 2.6630538681093685 54 60 33
10.584921270825438 -2.737451660573029 2.1585843442635673 54 59 31
10.69888752297392 -2.9382486503605723 2.397274653080243 52 60 30
10.012898340452825 -3.08439538271821 2.1971576156201253 50 55 25
11.042423626182053 -2.7576702432799998 2.503488578698604 56 62 37
11.378777166569213 -2.691478849641716 2.620681935050032 56 62 39
10.774050744783832 -3.0657017163282516 2.5378811747666656 54 60 33
11.499939972129283 -2.5802669128992934 2.324458592083544 55 61 34
11.30763434961119 -2.6250852000601004 2.472504483642134 56 62 35
10.584921270825438 -2.737451660573029 2.1585843442635673 54 59 31
10.863132351933318 -2.906045306234323 2.5260902162931655 55 61 36
10.108689738076158 -2.9627886888011634 2.1903179622985256 51 56 29
10.840179132301706 -2.5802669128992934 2.257140639843066 55 60 34
10.91104641575512 -2.5097771216329376 2.376398330289547 55 61 36
11.972114261705133 -2.42251276799432 2.539901772593683 57 63 38
11.636324370301825 -2.544882248971053 2.5833152085702196 55 64 38
9.889367191211793 -3.0763595496975693 2.33871816853926 52 57 28
12.444796911227469 -2.313605209220074 2.632983576413588 58 64 41
12.00255428914831 -2.2144191985439776 2.5362180136814763 55 63 40
12.295410680845581 -2.0730002257367626 2.376578035836846 55 60 35
10.688277372384123 -2.4110669876277977 2.268839557536178 54 59 33
11.194738662504141 -2.2144191985439776 2.485362378106949 57 61 39
10.33037670706493 -3.090670066457292 2.061655031885052 49 54 25
10.423250834279724 -2.9820885059787026 2.0568985874389636 50 55 27
16.559629782113277 -2.854145780649502 1.2557972118483558 36 39 7
9.86543431667424 -0.5142465984399575 1.9738562852461672 65 66 60
10.465574828421657 1.374015422965388 1.9495281997029608 30 30 10
10.291920493324918 1.5811608903485386 1.956251689770263 37 39 14
10.349942652823524 1.6855181943212856 1.953978074451318 40 42 15
10.747868805877937 1.8849862500514343 1.93909763948141 40 43 12
10.739255114630168 0.9064858422376999 2.0414133060891495 14 12 4
11.319625212050795 0.8293600367662485 2.0154974404491828 4 2 0
11.159680301262004 0.9569527601401212 2.489452713785152 40 40 18
10.679952714583491 0.7582497122947992 2.0442402278699188 8 5 1
10.016031627331508 0.5764671633725682 2.658445251276303 42 47 20
10.147815241359956 0.10898195896534792 2.634246922187569 41 46 15
10.158069839585133 0.40592140084470724 2.4570541542903452 42 41 14
10.769804890993843 0.35219030002766205 2.390152774172897 43 39 17
10.24942335589345 0.3037491362450306 2.616689301611758 41 46 13
12.13020595171441 1.0018039119514417 2.681642149758517 44 47 15
11.587366264655019 1.0775093649328304 2.78776505895203 45 48 13
10.689043547972096 2.0135101749907642 2.398275089852814 45 48 17
10.456060746267308 1.5886481244880197 2.583507126713866 43 46 15
10.042405361347729 1.960912671619064 2.1950332626975237 44 47 16
10.905148451858631 2.0810832835750985 2.5206625042040627 46 51 22
10.411116928937016 1.8424127558460643 2.2913889004779455 44 47 16
11.316728417339508 1.5886481244880197 2.6303189452563456 46 49 19
10.288842550006073 1.7373537085406745 2.4416269062188727 44 46 18
11.054593878084104 1.4337896344375165 2.5020055397102827 34 36 10
9.61532810100608 1.715583418701275 2.2274106017007695 41 44 15
11.812589359773584 1.374693089199592 2.739305936206352 44 47 14
11.812589359773584 1.374693089199592 2.739305936206352 44 47 14
9.88971776863002 -1.5812403129928232 1.8651869048431193 54 57 28
10.273144803589817 -1.1797986664003584 1.6555424897794582 50 53 21
10.09095814765098 -1.1388935195765475 1.9643456619426316 48 51 22
9.121939643857306 -0.6152206729540077 2.423530230252625 47 50 17
9.121939643857306 -0.6152206729540077 2.423530230252625 47 50 17
9.12886304148398 -0.46517185796623123 2.133441471611558 47 49 30
9.592780804538368 -0.46579318459972063 2.532842836540096 46 49 16
9.699241010118246 -0.46517185796623123 2.2207599434980305 47 49 26
9.3853408220436 -0.39550159867181695 2.3919707677309257 46 49 15
12.822869922486111 -1.1681538615952232 2.753562316874234 54 57 28
10.868181472526253 -1.08916862714303 2.25503173329987 51 53 31
9.401530513425614 -0.7469284771157385 2.115254637913863 48 50 29
10.015800069855437 -0.8308649914706544 2.0785191687509146 52 54 29
12.313177183458977 -1.2359408252434954 2.6524988832362872 53 56 28
12.152172015153608 -2.1776366165446195 2.6780066518167804 59 65 42
11.627067404620158 -1.45063987193589 2.4384872029226656 58 60 34
11.332636140585546 -1.9217694857910763 2.222039529925713 53 58 29
11.31692900414602 -1.4073337496049152 2.6302873534974944 57 59 33
10.901173582117801 -1.5824741753192222 2.2525655456996767 57 59 33
10.64353273248743 -1.5812403129928232 2.0459940226338067 56 58 32
12.21504763718494 -1.7692643287344212 2.667814013233614 60 65 40
12.16592385735186 -1.5888850356276918 2.675750677050557 60 63 37
16.968568090856966 -2.21475183044547 3.03351849648469 58 63 34
17.062531715131357 -2.532612314409398 2.991056304680395 56 63 33
18.605878782454397 -1.4623602091116876 1.2350340400502282 49 52 21
19.69796791742162 -1.4228312218006656 1.6149557322880725 55 58 27
10.110665390690455 2.2511619267399396 1.8585676773680413 43 46 13
9.986828322387105 2.5419673627201833 1.7591107310936396 47 50 19
10.669560903075428 2.109239665251526 1.9419315324429198 43 46 12
10.067309231505867 2.397430794455492 1.8598426255022567 44 47 15
9.71613867374607 2.6310187473385875 1.8706080750572727 45 50 19
9.663511853182987 2.9743286476091817 1.8722920148328444 47 52 21
10.284429304277321 3.08854110109624 1.7535989942206571 46 51 20
9.87197985675441 2.869747523555323 1.8657317389103483 46 51 19
10.500840299228868 2.770909151018259 1.9481921234978252 46 51 20
10.251969339012252 2.990627437235412 1.655717954724878 45 50 17
10.204056287521313 2.6791026864841676 1.6561176715738803 47 50 21
9.939284456415061 2.770909151018259 1.7600224003414893 45 50 18
9.893033326446087 3.0661936213427623 2.3383603843292784 51 58 27
11.609761367897262 2.30558176920186 2.586989429407163 50 53 20
9.866638106399545 2.679429077535227 2.2079255646547717 47 52 22
11.658118181755459 2.53521396234419 2.580329142129063 48 55 23
10.267573836024376 2.572979006366097 2.179324724062597 48 51 20
10.114243024465786 2.404508832214994 2.189926437264334 47 50 19
10.320181231502989 2.165626844386526 2.0621831394842376 44 47 15
10.179946029882675 2.3215889124486457 2.0695701251077505 45 48 15
10.235060414652253 2.4792394830347915 2.066639264889497 46 49 18
10.940916711444846 2.502077358635842 2.373559766448252 49 52 21
9.997231284397179 2.928468923839514 2.328351154666893 52 57 26
10.189823220084278 -2.877158784683605 1.9603205079279042 52 59 30
9.995249982472947 -2.9820885059787026 1.9683247471601026 49 54 25
11.10929228846557 -3.0998344311764843 1.5590552435366916 50 53 24
10.301120485904896 -2.8462792545947364 2.177057538317618 53 59 32
9.98634359948923 -2.9382486503605723 2.3293828325741583 53 59 32
11.20486924341349 -2.8620377397995402 2.6484056069841166 52 61 31
12.444796911227469 -2.313605209220074 2.632983576413588 58 64 41
11.356866158021143 -2.4110669876277977 2.336347927267153 55 60 35
11.59473967230244 -2.0730002257367626 2.3168130031314584 53 59 34
11.598269663944672 -2.3216622337783868 2.4414216190516864 56 61 34
12.00255428914831 -2.2144191985439776 2.5362180136814763 55 63 40
10.869805721409815 -0.7569370752213721 1.5587965484587143 75 78 84
11.863284308573075 1.0166589161316992 1.9030562174167203 4 2 0
11.398912231517986 1.096051501996128 1.9171477610612322 11 9 1
10.692547452009684 1.2754690770045616 1.941095041972885 34 33 16
10.617344337091554 0.6760945549643333 2.1565508116746086 28 25 12
11.314042486101041 0.994179859426908 2.2232926860472295 36 35 18
10.446205248026235 0.4775354889307657 2.5850202119714587 42 47 16
10.602024727802132 1.2033225920389947 2.2756845233103 36 35 16
11.46316384654197 0.9659300922235837 2.0095388057800028 16 14 5
11.352121237724928 1.4094378923901718 2.6247890420448825 35 38 7
10.237104047559363 1.451785253648049 2.3064150491129958 37 39 13
10.674035432850255 0.9273970181347955 2.2699594598819015 35 34 18
10.579044022713877 0.21903787330514432 2.4096577859086907 46 41 17
10.321294407816143 0.7467527366535577 2.4379019903379784 42 41 20
11.682263720888042 1.0881115090582765 2.5770502392673205 37 39 13
11.644057170213866 -1.7169704500799208 2.4367675278857877 56 61 34
11.780566746087523 -1.844922377531643 2.4232510738336464 56 61 36
9.700686300104488 -0.11831657740284328 2.724631267274082 46 49 20
9.38583872221745 -0.29021909629266873 2.565231374187155 45 48 15
11.227385703616164 -1.2000688340187484 2.347491472956576 53 55 31
9.444598281166709 -0.6475955542636151 2.241418492797969 49 51 28
11.55745305894212 -1.5824741753192222 2.3197987246613208 59 61 35
11.609151850392205 -1.6999036523015831 2.3156662830740733 58 60 34
10.186474245569238 -1.24057251518604 2.069221068559803 51 53 28
11.983046922914363 -1.884766262112494 2.53857431257812 58 63 38
11.332636140585546 -1.9217694857910763 2.222039529925713 53 58 29
11.965273822069145 -1.9217694857910763 2.288558495979798 54 59 34
11.281425776943962 -1.5888850356276918 2.6359246842858894 60 62 37
12.693890807122168 -1.7391875904884446 2.5988268268490016 60 63 39
9.84727414055377 -0.07842299806110511 2.496696272747784 47 48 12
10.811540966758757 -1.372546461570394 2.038014791576077 54 57 29
12.397427292804338 -1.3162699393533386 2.848731696160594 56 61 34
17.005955235899574 -2.9241371957103905 3.0148589193813926 53 58 27
16.911677267781748 -2.742245777845761 3.07100945712465 54 59 28
18.0220392168327 -1.2062409390400033 1.1640200880777292 49 52 21
18.46003734391045 -1.4558300953414207 1.114714054879432 48 51 20
10.769179801730063 1.9767394896397734 1.8405158748953365 40 43 12
15.62039507935449 2.382191752854888 1.369023282460891 38 40 13
10.333886387290427 3.0827233160470775 2.061473512197373 49 54 23
10.333886387290427 3.0827233160470775 2.061473512197373 49 54 23
11.020586982836173 2.1308991176352015 2.3661037159267657 45 48 15
9.784506747952378 2.8381033689742656 2.091719977215275 49 54 23
9.574134286982238 2.9541307574372175 2.1043741185472467 50 55 24
11.191296115872657 2.4145168676502737 2.485761931747024 50 53 21
10.431336228203003 -2.9023044965218188 1.6542542970929692 52 57 26
9.898360832364224 -3.090670066457292 1.97243829419243 48 53 23
10.863132351933318 -2.906045306234323 2.5260902162931655 55 61 36
10.69888752297392 -2.9382486503605723 2.397274653080243 52 60 30
11.378777166569213 -2.691478849641716 2.620681935050032 56 62 39
11.652899623224691 -2.5097771216329376 2.4358758644418903 56 62 37
11.715359523557453 -2.1359333245701495 2.429641848456943 56 62 37
10.46814255615322 -2.6876476781688616 2.286615310372102 55 61 34
12.00255428914831 -2.2144191985439776 2.5362180136814763 55 63 40
11.149939206925461 -2.6876476781688616 2.354340628480868 56 62 35
10.012898340452825 -3.08439538271821 2.1971576156201253 50 55 25
10.962923366624114 1.302104983162 1.6501987131476357 26 27 11
10.304527871523025 1.9190237470336744 2.062996281615225 42 45 12
11.778580256484664 1.5925823455640045 2.7461469477856673 47 50 17
10.12878556564483 0.6553666520021881 2.316137091810142 40 39 21
10.271542743987972 -0.901786522905353 1.9570567946740893 56 60 40
10.379613994512406 -0.9619329919392957 1.4616709927303857 10 13 5
10.070310153690794 -1.372546461570394 1.8597540099756968 52 55 24
10.335793795417107 -0.8245417079567542 1.7526803644293638 10 13 6
9.505217769902417 -1.1388935195765475 1.7687757114233758 52 54 29
10.354451127870215 -0.9619329919392957 1.654875458114255 42 46 35
9.728262796377773 -1.08916862714303 2.0950405072872487 51 53 27
10.937911134748207 -1.464723220163757 2.2498426288613684 57 59 33
11.368710215913028 -1.2139326664706849 1.3822874910334397 49 52 21
17.680356755832232 -1.3381329300092977 1.2763845805634106 50 53 22
10.889375462647783 2.3150878602300873 2.378472757741929 47 51 22
10.374219787702815 -2.9976539052288333 1.7519991819650687 49 54 25
9.85359637464318 -2.877158784683605 1.8662985678365724 50 57 25
9.966997226295868 -3.0657017163282516 2.4808921751227686 52 58 31
10.378028370607073 -0.6856653931360215 1.7519319461064518 67 69 76
10.443082231536323 1.8815035514278216 2.424268652741813 45 48 15
11.532425873158443 0.7183905550173829 2.8008963848462214 47 47 16
10.3205009312238 -1.3213810178233942 2.299125292053897 54 57 28
10.452698590385445 0.5398670976631316 2.4232146735870947 40 39 19
12.345245005851913 -1.9375563866041388 2.647640422087563 58 64 40
10.17741925295221 1.7874331482854837 1.856626848089005 40 42 16
11.159680301262004 0.9569527601401212 2.489452713785152 40 40 18
10.015800069855437 -0.8308649914706544 2.0785191687509146 52 54 29
17.08390406489373 -1.990324225246922 2.9830214585806845 62 67 40
10.917160491236125 -1.3003318792608516 1.467064042907424 49 52 20
11.10929228846557 -3.0998344311764843 1.5590552435366916 50 53 24
9.889367191211793 -3.0763595496975693 2.33871816853926 52 57 28
10.880885500440224 -2.8075377303291167 2.3792889340356833 55 61 35
11.598269663944672 -2.3216622337783868 2.4414216190516864 56 61 34
11.388950719879116 -2.2386941084231102 2.333643931850507 55 60 35
11.180624326644748 1.2877429874547612 2.4870034232560543 33 35 10
9.398169886359504 -0.839622425612501 2.245343475098341 48 50 26
10.476639361026608 -2.7778525333480037 1.9491079613508664 54 59 29
10.840179132301706 -2.5802669128992934 2.257140639843066 55 60 34
10.025723592782192 -0.6050059298369032 1.861076329830815 66 67 72
10.237104047559363 1.451785253648049 2.3064150491129958 37 39 13
11.011867297926235 -1.4322718645267223 2.507239782483304 56 60 35
11.499939972129283 -2.5802669128992934 2.324458592083544 55 61 34
11.798222010334396 -1.5860870210917375 2.561715748972836 59 61 37
11.138381206949376 -1.2847366276854064 2.491961104405832 54 57 32
