10.12925578830459 0.3036694984106512 1.8471908225147544 49 51 27
10.117436461777064 0.8985416315233199 1.5474839780786274 37 39 15
9.420813505035428 1.0731798206059149 1.8685881353920797 29 31 5
10.032928871125991 0.5346018002103522 1.8499152692437097 48 50 28
10.032928871125991 0.5346018002103522 1.8499152692437097 48 50 28
9.792325698598093 0.680956792220956 1.8569643940628635 43 45 21
9.177331136237697 1.0731798206059149 1.764230548844749 33 35 11
9.517946371422555 0.8319094062141806 1.7572252891853906 38 40 16
9.422629863900575 1.4260947088926172 1.8685289726195395 40 42 16
9.37312703632251 1.3183924823599904 1.760140353044683 37 39 17
9.179195674979969 1.4260947088926172 1.7641907598622995 35 37 15
9.35896357259354 1.6492826228857427 1.8706170788681684 41 43 19
8.284693330917179 1.782520148836663 1.7853814850619363 41 43 19
9.654477678709059 -0.4575174899237871 1.8611682698119256 45 47 25
8.99247770952655 -0.24626389333192059 1.8832409532414072 40 42 17
9.736329917241466 -0.5498203113886723 1.5465712939002116 61 60 39
8.814335676053647 -0.13012913250682925 1.8897763932962701 41 43 18
9.069447815765972 -0.6085908129496682 1.7665611649240234 46 44 21
9.02820452748007 -0.3560178843549791 1.7674671556651385 41 43 20
9.18463220505388 -0.7682123333851878 1.8764901559889848 31 30 10
8.401721173773081 2.337869567734146 1.78234678198308 43 45 24
9.355178341157258 2.418510290937029 1.870742163447367 42 44 22
9.235989144950699 2.260344157529353 1.3262882219654097 37 39 15
8.451608899944212 2.1679324001574574 1.4240447585600178 39 41 17
8.807189489296487 1.8997038991887207 1.8900443776195404 41 43 21
9.018154353214713 2.008242327470443 1.3202569375400521 40 42 18
8.395613951499687 2.1679324001574574 1.6619414439742184 41 43 19
9.707416679976093 2.3405609658515107 1.443141072060175 37 39 15
10.463510555798672 2.7581125071172594 1.5482551523430734 44 46 24
9.712699092316658 2.4867104283660812 1.5465123432497399 41 43 22
9.702554868475586 2.7188867445120994 1.7536376761487824 43 45 23
9.99553842494738 2.6274952368863875 1.5471996258218372 42 44 22
10.147286781677137 2.6274952368863875 1.7455396303294877 42 44 22
9.46493872927951 -2.4042519351688902 1.867157605714938 51 53 32
9.50552914332832 -2.2483023381921794 1.8658539460922132 51 53 31
9.911048722647617 -2.328276462742561 1.7497492773784238 52 53 32
9.779841543886555 -3.1327205610221975 1.4440915372608405 47 49 26
10.014445678978399 -3.0301030683510803 1.3456372073278569 48 50 26
9.344073679180783 2.818438594530077 1.760736248873651 44 46 23
10.131988703975644 2.849794438335359 1.5475174668923195 45 47 25
9.822075069828655 3.0476607137874594 1.4446392650925304 45 47 26
9.082062258547827 2.925075726924343 1.7662857391793685 45 47 25
9.364867482530544 -2.9062849940767603 1.87042219314963 51 55 30
8.944287601965748 -3.01741438572514 1.7693368707117347 48 52 29
8.944287601965748 -3.01741438572514 1.7693368707117347 48 52 29
9.082062258547827 2.925075726924343 1.7662857391793685 45 47 25
9.822075069828655 3.0476607137874594 1.4446392650925304 45 47 26
10.68199821368028 -2.8335988805177177 1.263036393640782 50 52 31
9.314483542394488 -2.8007568615860006 1.4377245593185959 51 53 31
8.481889046580768 -2.760454367945813 1.7803173492252307 53 55 30
8.751357805060115 -2.6537771391191396 1.6582267109056534 52 57 28
9.23201413917171 -2.557914845640058 1.5452476763150513 52 54 32
9.851338400016282 0.6625010010790173 2.1958174712873735 43 45 23
10.606961473351653 0.7477175281869738 2.392030441507257 45 47 25
9.310261646512275 0.9422324068228953 2.2384167026515462 43 45 23
10.090534545666259 0.492211844634559 2.1788173579173424 45 47 23
10.037396601226591 0.5559798564876286 2.310265576268068 44 46 22
10.182326533918761 0.636181334008995 2.437985421612792 46 48 24
9.432948089957756 1.0145163058666173 2.100242329940301 38 40 18
10.037396601226591 0.5559798564876286 2.310265576268068 44 46 22
10.431067511932156 0.8401901124044535 2.276359817006061 43 45 23
10.120176031073996 0.680956792220956 1.9519010010916955 43 45 23
10.517139190691402 0.7385536352524746 2.5558860386106668 49 51 27
9.945458816165296 1.3183924823599904 1.9589502249825907 38 40 14
9.242124156479488 1.5330405496469846 2.1123678269683612 44 46 24
9.242124156479488 1.5330405496469846 2.1123678269683612 44 46 24
8.927081505864253 1.782520148836663 2.006067494626665 43 45 23
9.80869463905309 1.1758471434752618 2.077969117221545 40 42 17
9.941901020121835 1.2497885104871918 2.3190621931652022 45 47 23
9.16087150786012 1.812038785719746 2.2513394653056085 44 46 22
10.302414054581984 1.0619651481600298 2.4243565505767135 45 47 25
10.647521599245506 1.2497885104871918 2.387946742755644 45 47 26
10.219553468394235 1.1256002686228679 2.2941257874420224 46 48 25
10.575452596022933 0.9795622991510319 2.5476250440730768 46 48 26
9.311520170418618 0.2266603394925094 1.9869524533951495 45 47 23
9.311520170418618 0.2266603394925094 1.9869524533951495 45 47 23
9.3453364442284 0.12456566014202188 2.2354611730636336 46 48 24
9.28793606614809 0.14408705899814034 2.386595893916194 47 49 24
9.746334150000397 0.379839308137815 2.2036128887633595 45 47 21
9.69130912088222 0.433287778851298 2.343343259505986 47 49 24
8.473198833342861 -0.27838324963591654 2.0311255728803013 46 48 24
9.113105495739218 -0.010370951200427898 1.9965959247873473 43 46 18
9.177190949449189 -0.13012913250682925 1.9934310173191108 42 45 20
8.716601108775329 -0.011791712266884958 2.1490491837220898 47 49 23
8.60707383195439 -0.17074246944457652 2.304601511677523 48 50 26
9.306451539723076 -0.17074246944457652 2.3844839298022804 48 50 26
8.538710558540688 -0.013663510989966687 2.3118452430710565 48 50 24
9.24326231992981 -0.013663510989966687 2.3917463039975706 47 49 23
9.592917050392213 0.34660955154919887 2.51386444741423 49 51 27
9.84133708342143 0.5027726181705567 2.479867708876154 49 51 27
9.592917050392213 0.34660955154919887 2.51386444741423 49 51 27
8.87527262840957 -0.020018772797603702 2.635835845039502 48 50 27
8.842188926274124 -0.37504377661810145 2.4418175732405785 48 50 27
8.087909857452413 -0.24745900623881348 2.561350309838338 48 50 28
9.078876794024334 -0.45556329949928337 2.2586727370369775 48 49 27
9.129975189128638 -0.5273734426801875 2.405166860979258 49 51 28
9.37103154234601 -0.8544259306857267 2.104113095622524 54 53 34
9.744450941616648 -0.45556329949928337 2.3380417824950825 48 50 28
8.773097538243983 -0.40001502016673535 2.014245025708079 45 47 24
8.831776072103747 -0.6568759473172312 2.2818882997728616 49 50 28
8.690044356704206 -0.5638644750945608 2.675774985713516 50 52 29
8.690044356704206 -0.5638644750945608 2.675774985713516 50 52 29
8.346641372607095 -1.2570794730001582 2.038658262278657 54 53 33
8.563459260214074 -0.8915824286895304 2.4814200889972584 51 53 31
8.76966927814595 -1.1462748086800956 2.451697936087331 51 53 31
9.083225002581734 -0.9953902848014725 2.410862166206536 52 54 32
9.008262767104751 -1.0740792988135786 2.265131636154462 51 53 33
8.48251399540653 -1.3605230948369604 2.3179241499604952 55 54 35
9.385054139121237 -1.209627622823679 2.375661905952526 51 53 33
9.308157065829398 -1.7077726590736229 2.557339600921824 53 55 34
8.133922335206208 -0.7520718524913184 2.552776626032052 50 52 29
9.139327569847705 -1.528634535425642 2.2532493012627706 53 55 33
8.2301249870143 -1.0583095146400836 2.5354965496439745 50 53 30
9.256766843577754 -1.8433420153255673 2.3901811347683557 54 56 34
9.126094980649146 -1.6854819860011439 2.40563598482675 53 55 34
9.139327569847705 -1.528634535425642 2.2532493012627706 53 55 33
8.322682798175977 1.9432334072934152 2.0401133486345433 43 45 23
10.042510139230844 1.9432334072934152 2.309801234558002 45 47 26
8.440582711299971 2.2424279755685763 2.033042584459268 43 45 24
9.049748854568564 2.129985857690382 2.261320614931837 45 47 23
9.035793230637083 2.337869567734146 2.0004800040974793 44 46 24
8.914719237164778 2.3340589654554518 2.273900897123078 45 47 25
9.122490013890815 2.508861545277834 1.9961293998752498 44 46 24
8.397509363596237 2.539966742071612 2.174056420139862 44 46 23
9.423061540722758 2.6713808236238528 1.9817268377004191 43 45 23
9.666881949455957 2.612964282688538 2.209654440969682 45 47 24
9.565215772566594 3.0060432675220015 2.3562730339480735 49 51 26
9.565215772566594 3.0060432675220015 2.3562730339480735 49 51 26
9.043942200007526 2.8633840478208543 2.261851203686649 46 48 24
9.82076414244564 2.817700574466476 2.4825619534369556 48 50 24
8.905577822669134 -2.980915359654345 2.274771274020143 53 59 28
10.466045047046 -2.839797239376338 2.406610617113226 55 62 28
9.521843031784158 -3.1287489807530577 2.3608392706189063 50 54 28
9.313804060794185 2.669088319306836 2.3836488991776954 46 48 24
9.307026838410707 2.7314120912911464 2.2386907493703467 45 47 23
10.661345901843967 -2.7908156970476736 2.5357983545817193 54 60 27
10.455621098069956 -3.126496441051737 2.564815919424678 51 57 28
10.511524841457845 -2.953344994311887 2.5566916977825627 53 59 27
9.604144052099816 -2.323542550345743 2.089842947019907 52 54 33
9.21635738865065 -2.492359662742116 1.991520607453134 53 55 34
8.782099972983447 -2.7100127256570024 2.1441890827694268 52 59 25
10.24178211045096 -2.2284985261167396 2.292211004732992 48 52 31
9.666748862115517 -2.05899014553979 2.503414042941876 54 56 34
9.992404933935703 -2.1998627031431224 2.460692124188414 54 56 34
9.992404933935703 -2.1998627031431224 2.460692124188414 54 56 34
9.362350145555114 -2.7100127256570024 2.234037959220768 54 60 28
8.806902683940105 -1.9884910455540787 2.2843237965800087 48 52 30
10.204120817214214 -2.4131443262819157 2.2954619834135297 52 54 33
9.525422658893998 -1.9349731615791705 2.2207309000248148 50 55 30
9.1813627464367 -2.594024116456598 2.116353736339435 54 57 33
9.299531268114167 -2.156549847692418 1.9875223103461286 52 54 32
9.163168539589478 -2.1171650231243224 2.2511365406870314 50 53 29
10.009091894896153 -2.7100127256570024 2.31284799507333 53 60 27
9.525422658893998 -1.9349731615791705 2.2207309000248148 50 55 30
10.463281512920538 -2.519732407006742 2.4069028522428413 53 58 31
10.41317989782247 -2.5606877146437625 2.571111251022071 54 60 32
9.524318213883797 3.03693989512545 1.977098990401342 46 48 25
9.10158420008779 3.023469409826688 2.121683028156718 46 48 24
9.053520351025238 2.779861832893238 1.9995829413350878 44 46 23
9.512862400924767 2.779861832893238 2.095333521205978 44 46 24
9.480758376074059 -3.131700967748881 1.9790766043870471 49 52 27
9.120477994252672 -3.0014878922876944 2.1204109000554054 52 57 28
10.52961102873106 -2.2628037912991292 1.6434326781797275 52 54 33
9.753209904452628 -2.097410413034981 1.8581446827855355 52 54 32
9.389948352502165 -1.5338435816459712 2.102924142135488 52 54 28
9.411336401552601 -1.6572799462267622 2.101586619152794 52 54 28
9.319290646382425 -1.8931816618315933 1.9865839663858866 50 55 28
9.691966376504869 -0.22068073861975596 1.7538396906205131 45 47 23
9.554735143954904 0.9807856182137362 1.650858948773264 27 29 4
10.342108076905484 0.6191408011279877 1.7422149227536545 43 45 21
9.804659169016201 0.5346018002103522 1.751712428236754 48 50 28
9.179195674979969 1.4260947088926172 1.7641907598622995 35 37 15
9.337455560943885 1.5372727699922752 1.8713292339329155 41 43 18
9.898571005504232 1.216338963597818 1.8538076129055745 33 37 13
8.964381524156988 2.260344157529353 1.5444847449781605 40 42 18
8.31509780141432 2.0622875007498687 1.9096717229722917 43 45 21
8.667020191180296 2.337869567734146 1.8953951102150381 44 46 25
9.13830758970547 2.5736394378566505 1.5449856360044998 41 43 22
9.845331245039253 -2.472800617630948 1.6484909703157888 53 55 34
9.583320574542995 2.818438594530077 1.8633877601095734 44 46 22
10.171591035987877 -2.9297827214843224 1.3491743647090726 48 51 29
8.92502082990951 3.03693989512545 1.7697712082664958 45 47 25
9.328031688445256 2.925075726924343 1.8716423536511788 44 46 24
9.489471352757578 0.9168721528317997 1.9786794477253515 35 37 13
9.587020015670596 1.1256002686228679 2.215856202010715 43 45 23
9.028811881028002 1.6718493496631919 2.2632380572902133 44 46 22
10.38637214456788 0.7538836888957835 2.1591273040423693 41 43 21
9.91766726563022 0.4406853333790837 1.9600963200698753 48 50 26
10.517139190691402 0.7385536352524746 2.5558860386106668 49 51 27
9.960386149091683 0.9422324068228953 2.3173406527472307 45 47 25
9.762902942494662 1.4260947088926172 1.9666082560315625 39 41 15
9.812178612621485 0.8401901124044535 2.198700000125962 42 42 19
9.761149901991972 1.0731798206059149 1.96668330314512 37 39 13
10.056884887241168 1.2880844876375557 2.1811479431225482 42 44 22
9.87638883579169 1.4081136392985134 2.1939886248963756 43 45 23
10.182326533918761 0.636181334008995 2.437985421612792 46 48 24
9.746334150000397 0.379839308137815 2.2036128887633595 45 47 21
8.593021652222527 -0.016241630866225383 2.4770014773821227 47 49 24
8.593021652222527 -0.016241630866225383 2.4770014773821227 47 49 24
9.438941382521383 0.29498464731541524 2.369744318318528 47 49 25
8.660956244072876 -0.20216030354381878 2.467053118121177 48 50 27
8.716601108775329 -0.011791712266884958 2.1490491837220898 47 49 23
8.281692327565404 -0.4517802076457032 2.5265704212026314 49 51 29
8.78941760840238 -0.3198096570469209 2.2860472102693716 48 50 27
9.626406529656972 -0.5103491101202163 2.0885222376789865 49 50 28
9.33661665347593 -0.7649034473857812 2.236193220707932 50 50 30
8.58828095457033 -0.6226176029543353 2.477706331366341 48 50 26
8.892121539585103 -0.5754551513039702 2.1362194951526474 50 50 28
9.104036840616287 -1.5217172839321589 2.4083151081506697 52 54 33
9.372168498329929 -1.3207499115382677 2.5470902270888622 50 52 31
9.308157065829398 -1.7077726590736229 2.557339600921824 53 55 34
9.161300738951281 -1.669410548389821 2.2513015358637527 53 55 33
9.008262767104751 -1.0740792988135786 2.265131636154462 51 53 33
8.636947685145916 -1.3895003654743177 2.155080316019818 52 54 32
9.126094980649146 -1.6854819860011439 2.40563598482675 53 55 34
9.083225002581734 -0.9953902848014725 2.410862166206536 52 54 32
9.069910562644878 -1.0583095146400836 2.598345955273103 50 52 27
9.191374434477558 -1.3605230948369604 2.3978278567291427 51 53 32
9.00258206428503 2.539966742071612 2.2656571605872045 45 47 23
9.732718653314974 2.0622875007498687 2.204639310882632 46 48 27
8.625077738763716 2.612964282688538 2.0224127095186626 44 46 24
8.931503614666232 2.2424279755685763 2.1334241084594314 45 47 24
9.717318284550785 2.129985857690382 2.3407379114683984 47 49 27
8.41532538010306 2.430211927822889 2.0345385634586677 43 45 23
8.723097400487811 2.7314120912911464 2.148563199252425 44 46 24
10.256403611131757 -3.1287489807530577 2.4295152300368588 51 56 27
9.675719626349547 2.9826365336041127 2.502165099419863 49 54 27
9.081930318043412 -2.839797239376338 2.2583964723752095 56 61 29
10.661345901843967 -2.7908156970476736 2.5357983545817193 54 60 27
9.491567583749873 -1.9884910455540787 2.364064014341718 49 53 31
9.747286910680996 -2.156549847692418 2.081473137844401 51 53 29
9.953800139549406 -2.426068166037673 2.46549361856622 54 59 32
9.823033034527695 -2.1171650231243224 2.330355700163462 48 52 31
10.137450531863731 -2.323542550345743 2.1755999810883777 51 53 32
10.114747553569734 -2.6454417078777626 2.4458968021227085 53 60 28
10.752044341919063 -2.426068166037673 2.523725219079842 55 59 33
9.292753132943275 -2.877059891398382 2.1090935711611696 53 58 29
9.480758376074059 -3.131700967748881 1.9790766043870471 49 52 27
9.619734778566793 -3.1304166110870115 2.213299767790459 48 50 26
9.255630340776793 2.8979999254702244 2.111490226823272 45 47 24
9.753209904452628 -2.097410413034981 1.8581446827855355 52 54 32
9.538101260928194 -1.7781422331842855 2.093803153474039 51 55 28
9.766140407768617 -1.8931816618315933 2.080391909193802 50 55 28
8.130671760367871 1.782520148836663 1.6649201169615806 41 43 19
8.553622852326585 1.782520148836663 1.8998595500096722 42 44 22
9.686138755129774 0.9807856182137362 1.7539510656199155 30 32 8
8.91293381487855 2.008242327470443 1.7700446680981021 41 43 20
8.970101513910413 2.418510290937029 1.656089394487277 41 43 22
9.544298116758958 2.5736394378566505 1.8646196159596131 42 44 22
8.805848865817321 2.1679324001574574 1.890094702534461 42 44 20
8.365502122579047 1.8997038991887207 1.5426006378991552 40 42 18
8.950741981973225 -2.9062849940767603 1.544444640933123 51 53 31
8.878521203471804 -3.131700967748881 1.7708273892388697 47 49 25
9.396101621995495 -2.557914845640058 1.7596717922436589 53 55 34
9.893124213288043 -2.472800617630948 1.4455500682782292 53 55 34
9.14564946065541 -2.6537771391191396 1.877835607086259 53 55 32
10.182326533918761 0.636181334008995 2.437985421612792 46 48 24
10.144444514003576 0.8520526966947869 2.4423980639604688 46 48 26
9.898449948586208 0.7477175281869738 2.3231451612783722 44 46 24
9.941901020121835 1.2497885104871918 2.3190621931652022 45 47 23
9.570271931669675 0.5925387855380051 1.9750340046038424 46 48 26
9.424440869380824 0.7538836888957835 1.9816630654843777 43 43 19
10.81989734078283 1.2000405688030897 2.5149552677429057 45 47 25
8.58828095457033 -0.6226176029543353 2.477706331366341 48 50 26
8.665514160636825 -0.9305413059048855 2.6814378964343635 51 54 31
9.495428969227442 0.25644653512993726 2.223134067042646 46 48 24
9.172752169426708 -0.5103491101202163 1.993648659593711 44 44 22
9.07323510535387 0.5027726181705567 2.4120915162304044 48 50 26
8.92824994657033 -0.679266472606412 2.006006638756631 47 47 25
9.104036840616287 -1.5217172839321589 2.4083151081506697 52 54 33
8.448055043515344 2.129985857690382 2.1699402768389238 45 47 26
9.035793230637083 2.337869567734146 2.0004800040974793 44 46 24
8.397509363596237 2.539966742071612 2.174056420139862 44 46 23
10.466045047046 -2.839797239376338 2.406610617113226 55 62 28
9.307026838410707 2.7314120912911464 2.2386907493703467 45 47 23
10.361180555644017 -2.594024116456598 2.2821197308728567 51 56 31
8.886227121971212 3.0060432675220015 2.27662174756526 46 49 23
9.306313949067167 -2.0521250915223717 2.1082236995991797 51 53 31
10.296682625402065 3.0060432675220015 2.4249949811269755 47 52 25
8.849307534298728 -1.2937968510727436 1.8884715176680689 51 53 28
10.049821188874148 -2.1849016231755796 1.7472520554681572 52 54 32
9.389948352502165 -1.5338435816459712 2.102924142135488 52 54 28
9.701456007396073 -0.009255735403748175 1.8597215862818328 45 47 22
16.068838304941558 -0.7758890671481654 1.74367610821426 76 72 71
10.082701027812183 0.7583159833182525 1.6466583015285379 41 43 21
9.304047841078022 2.5736394378566505 1.7615634030364775 42 44 23
9.571376633655124 2.7188867445120994 1.6507194486759589 43 45 23
9.890871399612362 2.9468035586225234 1.5469498740856449 45 47 26
9.263853502960451 1.6591514459061054 2.110957384065696 44 46 24
9.129975189128638 -0.5273734426801875 2.405166860979258 49 51 28
9.078876794024334 -0.45556329949928337 2.2586727370369775 48 49 27
9.567249653789379 0.337672855634193 1.9751691489796586 48 50 26
9.158414154770057 0.1096840323481311 1.9943532687761074 44 46 21
8.783579955558158 -0.14771466082151605 2.1440802788048194 46 48 25
9.475346020457184 -0.3198096570469209 2.365804689211277 49 51 28
8.820168324445646 1.9432334072934152 2.141404421436821 44 46 22
10.313387269981494 -2.980915359654345 2.423137509500897 54 60 28
9.681010218555372 -2.3168764202104386 2.344380611794911 53 55 34
10.267021229142562 -2.2483023381921794 2.05333056691455 51 53 30
9.71191077129403 2.8633840478208543 2.341277893213845 46 48 24
10.197935288102952 -2.492359662742116 2.171506128626174 52 54 33
9.666748862115517 -2.05899014553979 2.503414042941876 54 56 34
9.992404933935703 -2.1998627031431224 2.460692124188414 54 56 34
9.656671318434832 -2.0000419160492138 1.9712095696563203 51 55 25
9.328031688445256 2.925075726924343 1.8716423536511788 44 46 24
9.20792437870427 2.106809900414498 1.5451808213630622 40 42 18
9.619734778566793 -3.1304166110870115 2.213299767790459 48 50 26
10.652337830993265 1.354588907384062 2.537020265101529 45 47 25
9.291477494459116 -1.8063952639007905 2.2400115541305996 51 56 31
9.28793606614809 0.14408705899814034 2.386595893916194 47 49 24
8.692003272073515 -1.209627622823679 2.295824719396739 52 51 33
9.286531384840025 -1.5120879300342733 2.5608706461756636 52 54 32
9.24326231992981 -0.013663510989966687 2.3917463039975706 47 49 23
9.542375036209707 -3.01741438572514 1.9762849946915804 50 54 28
8.505570467364716 -0.3180424679298542 2.7209639091621876 48 50 28
9.110383220452738 -2.760454367945813 1.996731453380477 54 58 29
9.444373959235488 0.17079365970630184 2.5358749466754196 48 50 25
9.008262767104751 -1.0740792988135786 2.265131636154462 51 53 33
9.759278594979781 1.3850883468623567 2.3365776591233938 44 46 22
9.14564946065541 -2.6537771391191396 1.877835607086259 53 55 32
8.907638383180286 2.430211927822889 2.135114549342367 44 46 24
8.538710558540688 -0.013663510989966687 2.3118452430710565 48 50 24
9.675719626349547 2.9826365336041127 2.502165099419863 49 54 27
10.647521599245506 1.2497885104871918 2.387946742755644 45 47 26
