16.309911074263557 0.3385736587577299 1.4005444894004762 51 53 26
10.096787866457777 0.7245361185441098 1.8971144927744998 24 26 1
10.495222347369756 0.7976260498892052 1.785549988926956 34 36 14
13.068297905704643 1.7969023289481645 1.8210691313359266 1 2 0
11.413931647404409 0.43626262990425907 2.3769461678667305 35 38 7
11.067176810374923 0.5447150365962602 2.2834973554460483 32 35 6
9.886382468818839 0.640609287982897 2.013660544812737 24 26 0
10.731221190506952 1.2443689449573634 1.97663803160527 34 36 11
11.250680756513576 1.317163354651036 2.269485630993794 38 40 15
10.922874109823805 1.3433428649599737 2.0707856839149086 33 35 9
11.918515975212316 1.317163354651036 2.3337732971113665 38 40 13
10.635065205186974 1.317163354651036 2.197426934405299 31 33 7
11.484813993788382 1.2084049836057338 2.2524807215324945 35 37 12
11.594304905042545 0.49659470890030455 2.4925287807449394 39 42 11
11.16389148691325 0.6135294772926235 2.4005862476187314 36 38 10
10.66133085616406 0.9086919663175052 2.453672072908293 39 42 13
10.447931257678139 0.6135294772926235 2.335932176858724 34 36 10
11.43601957461808 0.6990197446986129 2.510996884198942 40 43 12
11.993600633292349 1.284359721387351 2.4498374773615357 42 45 16
10.264688717425797 0.7139851309461814 2.2238044277769715 33 35 9
11.940602028816107 0.5741748720465589 2.6007860350557253 41 45 14
11.940602028816107 0.5741748720465589 2.6007860350557253 41 45 14
12.763563518200344 1.898879975789399 2.3799010473274507 46 48 24
11.815638788402708 1.5534975426722137 2.2299647698608562 37 39 18
11.844246915320285 1.660334915404754 2.228094766465767 39 41 20
11.956715686347216 1.765168713424189 2.2208552648980913 44 46 25
12.133511990583306 1.6446051133144703 1.9274766444826903 31 33 10
12.075342101923537 1.5551704325057982 2.1135246840768147 32 34 12
12.059657877267021 1.898879975789399 2.322642054948859 43 45 23
12.498043592133325 1.4323916250178013 2.402446298975228 40 42 16
11.864168032511214 1.7877901161039533 2.3381624238412986 42 44 22
11.721977353566508 1.5514235621200192 2.3499299787309047 41 43 21
12.75307109958336 1.7467742325796738 2.1741898462546096 46 48 26
12.62426963452154 1.7315327890570438 1.998524169776419 9 12 0
13.54622926633065 1.8162508443266554 2.54900891177883 47 49 24
13.42187011224062 1.548784621814272 2.562914051001146 45 47 21
14.070274533518525 1.991803358430671 2.6253451654695796 48 53 24
13.80648019672085 1.7023010973515886 2.660077332712704 47 49 23
13.598914689478645 1.872390833208517 1.8876093448565863 0 1 0
13.066212681233898 1.8972070207790113 1.9831582046285023 39 39 12
13.00762130229138 2.0085046264598914 2.070832851455128 42 44 23
12.669701927462896 1.9262855644770294 2.085463796244727 44 46 24
12.680263330974773 2.0965486677912066 2.277803043412378 46 48 24
12.489705264317676 2.1816198417799417 2.1887953036046803 43 45 20
12.489705264317676 2.1816198417799417 2.1887953036046803 43 45 20
12.422430520243472 1.960763113277064 2.19265049527412 42 44 23
12.05470333838445 2.0965486677912066 2.2146895373433964 45 47 25
13.162878722203985 2.2428164197087734 2.3485995617407625 47 50 21
13.672502836521868 2.4615734762360173 2.3125209590848788 46 48 22
13.635917324057 2.3209095378047633 2.3149820774030125 46 48 22
14.200302215369506 2.307060631489044 2.609434908454512 48 52 22
14.371089033672343 2.636035625997578 2.4684871928579977 46 50 21
14.196094796371177 2.4787202102141634 2.484101135043968 46 50 22
14.779882393346941 2.1941324879383903 2.6805349167252053 50 54 23
14.409953785498047 2.6873866063149707 2.585221461710878 48 53 24
14.101433528079715 2.738906186563859 2.492845152828495 47 52 23
13.167416291578302 2.052695043516473 2.4613486077798754 47 50 22
13.381211057111754 2.315120402319847 2.4418349099814622 49 51 23
13.460174029158805 2.1152774787484403 2.5585724212390764 47 51 22
14.847326650058195 2.6221058523371896 2.6714732737324227 49 54 25
14.101433528079715 2.738906186563859 2.492845152828495 47 52 23
13.855353136637888 2.41057352950814 2.6533698826281906 50 55 25
14.745983049879976 2.41057352950814 2.6851843891922598 51 56 26
10.767191874708034 -2.2995168438084206 1.8761165441095138 51 53 27
11.346811612263899 0.3627910820830097 2.52184710307875 37 40 11
12.022710462442584 0.21397002892960887 2.58951906378482 38 41 10
20.524960236563473 -0.8886127559241107 2.9737705365532996 52 58 31
12.331431150233389 -1.9256148024876514 2.417392007608205 55 60 33
12.140318331900481 -1.8063123285405183 2.4353727969298173 56 58 32
11.601335640629491 -1.9256148024876514 2.360252243875331 56 58 32
13.93308969108609 -1.5465457546238823 2.642966597773633 59 61 35
12.838611284990394 -1.420323754301323 2.4936537311337412 56 58 32
13.898656592633834 2.851616346656881 2.5123387227944782 51 56 28
14.211579631881275 2.812043851707947 2.608088771340655 51 56 29
13.170515277172573 -3.045215949469927 2.5928163427820814 53 62 35
13.765714024818225 2.972414910027434 2.525728576428026 51 57 30
13.158276677936321 3.092077033190846 2.5943394571261154 51 60 32
13.528516902929589 3.103269080946166 2.4289987216250686 55 61 35
14.081591641800154 2.9482499026463995 2.623930972793734 49 56 29
13.72502511934405 2.882895654109335 2.4125836523951274 49 54 27
13.528516902929589 3.103269080946166 2.4289987216250686 55 61 35
13.258382261774978 -2.9032993461315644 2.5820714401818394 54 63 38
13.170515277172573 -3.045215949469927 2.5928163427820814 53 62 35
10.999923069724739 -2.134097130383974 2.173616548890375 54 56 30
10.963665764082913 -2.2219881192843443 2.068754276121857 53 55 29
12.306515923929174 -2.371612897525668 2.4196838344403724 56 60 38
11.864799584184086 -2.2780002674966178 2.463049406000998 56 62 37
12.017438649433606 -2.0935656415316846 2.4474460945379573 56 61 34
12.095427076074218 -2.2904723906924556 2.319880440676143 55 59 35
11.527308098580137 -2.2995168438084206 2.0423579511080345 49 54 29
11.879735125532433 -2.4678584961160195 2.461491566593789 56 62 37
11.437925973978981 -2.2904723906924556 2.2558116481381765 53 58 34
11.59618528250859 -2.134097130383974 2.2447118483289406 53 58 31
13.29798759808785 -2.748882451353069 2.3386413033820577 52 60 35
12.061622781896444 -2.650048510217595 2.4430565231047163 54 62 36
13.29798759808785 -2.748882451353069 2.3386413033820577 52 60 35
11.899673091015343 -2.493834154065077 2.606541118229148 54 63 36
12.244363895529562 -2.374858344797975 2.5607958021285597 56 62 37
13.164747896527446 -2.814306301665254 2.4615991733395592 54 63 37
12.939476910578538 -2.713932133249777 2.6227567110133783 54 63 38
18.304897336135173 2.1302698729025784 3.0551835495306094 53 59 32
18.259011310023382 2.757479230804767 3.09204450309374 52 60 32
18.24046679793295 1.1259127450051634 3.121008923554371 53 60 30
12.210052134749173 -1.758840068873173 2.205173314857258 54 58 31
12.379722536750664 -1.649278779676256 2.09876036362593 53 58 31
11.64526373968776 -1.758840068873173 2.135953357854353 55 57 30
12.092822299471115 -1.7799547844195083 2.3200807556962504 54 56 30
11.981631197525585 -1.6672998662227279 2.3287487524740444 55 57 31
12.715304231271451 -1.4374788766935915 2.3838891220351828 55 57 31
11.271689711539736 -2.163925516571633 1.9561234147542021 53 55 29
11.218169614806575 -2.080247661990584 2.056461300548121 54 56 30
15.620736378530736 2.857114855587843 1.7144717718038256 36 38 20
13.258376253288594 2.814417388389712 2.2411174659990367 49 52 25
14.016469094848187 2.8427579730785304 2.1989322311787256 47 51 23
13.897484873441686 2.644405168154728 2.2051643277058615 44 46 22
14.512521881945492 2.644405168154728 2.2606929602643766 45 47 23
14.175172623536545 2.7262365862301214 2.2804937177760083 48 50 24
13.544826072735438 2.7262365862301214 2.224460796181833 47 49 24
14.85258154868748 2.9048412038401383 1.860056830831716 40 44 22
14.311458984828459 2.5692360421418634 2.184042338582493 44 46 22
14.175172623536545 2.7262365862301214 2.2804937177760083 48 50 24
14.066614099845639 2.7902872819137254 2.0301423831723953 45 48 22
14.066614099845639 2.7902872819137254 2.0301423831723953 45 48 22
14.741391146900035 3.115202550391001 2.0839230128634725 43 48 23
14.425843250889756 3.112974530995563 2.178473013524764 46 51 23
14.244342527915435 3.110335747873911 2.2763298730580734 48 53 26
13.596649738289917 -2.974330839069033 2.3176446303602867 54 60 35
13.499052894166791 3.1071611216707997 2.3243584589030473 51 57 31
13.97412619805123 -3.0021874403738185 2.1151406192502247 47 52 26
13.56105458680849 3.006336189684691 2.3200772257405093 49 55 28
14.463435010856516 2.9613903987055186 2.0166163515719124 43 48 21
13.812444874820228 2.9290561532063624 2.2097022297545648 47 52 24
13.678664443324166 3.0186839717586187 2.216987193927174 48 53 26
15.257189076376717 3.115202550391001 2.141055949255988 45 50 25
13.7139543368206 -2.9895145703893626 2.2150478116496903 48 54 29
13.510982812979448 -3.0744964592480386 2.323530305540489 54 60 35
12.848091337090494 -3.0744964592480386 2.2666957463943893 51 57 33
13.343168049813338 -2.785346064974923 2.2360896071339464 48 52 31
14.735138869788415 -2.86379786143677 2.007822447707185 47 50 36
13.754675991780124 -2.8774321102672644 2.307060690010029 52 58 34
13.343168049813338 -2.785346064974923 2.2360896071339464 48 52 31
14.735138869788415 -2.86379786143677 2.007822447707185 47 50 36
17.065437483491085 0.3190582693506293 1.6433223046423442 52 55 26
12.88811643100639 1.7187032567703007 1.8246446269981238 28 30 18
10.440746955352102 0.5447150365962602 2.2109678465752918 32 34 8
10.62351760982305 0.48862568879530466 2.086245262708182 30 32 8
11.918515975212316 1.317163354651036 2.3337732971113665 38 40 13
11.067169612259406 1.151593187381257 1.9636304113558518 32 34 10
11.475904564409593 1.1640261403941246 2.3713333812439696 38 41 12
9.80281570773024 0.7995821964169655 2.017707604979428 27 29 3
11.195612894856746 0.989855472846758 2.3974946633078877 38 41 12
10.814559661155299 0.49659470890030455 2.436608238053634 36 39 9
11.16389148691325 0.6135294772926235 2.4005862476187314 36 38 10
11.115139000118855 1.0549518400562337 2.27977412977464 35 37 10
11.020862431049366 0.8062550532914936 2.5645902269705068 41 44 13
12.150716646239802 1.865861067898239 2.2087714071774665 43 45 24
11.778280352600655 1.4323916250178013 2.345220194546382 41 43 21
11.864168032511214 1.7877901161039533 2.3381624238412986 42 44 22
10.769681695952144 1.4470521752258414 2.0785729628337846 32 34 10
12.403406061146654 1.838734350591071 2.097647168941772 44 46 25
12.103336395042263 1.6517143046273886 2.1121302330935294 28 30 8
12.587146442722743 1.765168713424189 2.2841404379518497 44 46 25
12.648973346892006 1.4138227568591382 2.5137273158167277 44 46 20
13.80648019672085 1.7023010973515886 2.660077332712704 47 49 23
13.447061475390285 1.684548339260519 2.5600526781055377 47 49 23
13.717769219120887 1.9398423824639421 2.5306847238046073 47 49 23
12.333378009685585 2.0021869179445497 2.3020861710773928 44 46 24
13.411751450011739 2.0848600858168886 2.054442590734904 42 44 22
12.65690738253248 2.1295210365287565 2.086035540902009 43 45 23
12.489705264317676 2.1816198417799417 2.1887953036046803 43 45 20
13.022496638364021 2.0021869179445497 2.3592733216752326 46 48 24
14.269344723138692 2.519418902710257 2.2748383427440464 45 47 23
14.48330913984994 2.5375581785096837 2.7236383086308593 51 56 26
13.930329751786637 2.7803965376527167 2.3962312293275354 48 53 24
13.778720909732828 2.222751315041922 2.524395924485312 47 51 22
14.48330913984994 2.5375581785096837 2.7236383086308593 51 56 26
14.235437315165587 2.5024838970386525 2.6052580279937514 48 53 24
17.42621022887069 -0.6169421405726252 2.7699569048394275 43 48 15
20.654227840794345 -0.699659855700052 2.9401560925624057 51 56 26
12.029566250983924 -1.679802542788326 2.446235738252722 57 59 33
13.957358394514234 -1.696007566487407 2.6397826750389957 58 60 34
12.538547453602407 -1.9736150775985566 2.525964000453647 56 61 34
12.801163679898737 -3.066931800953102 2.376826081253166 55 62 36
12.99955228636781 -2.9327631033433756 2.4774703994041243 55 63 38
13.62590270987864 -2.9558176306158837 2.420766200645209 53 62 36
13.704638271263871 3.098385631774573 2.532054303453668 53 59 32
13.590384176311513 2.991251111452837 2.4237461160797493 50 56 29
13.34195351733465 -2.5719169904150627 2.2361610340903386 50 54 33
11.527308098580137 -2.2995168438084206 2.0423579511080345 49 54 29
12.306515923929174 -2.371612897525668 2.4196838344403724 56 60 38
13.058110377301343 -2.8491413334791895 2.3565329232988543 52 61 35
11.215821329407905 -2.035265997401624 2.2720994288440624 55 57 31
11.474980285513784 -2.2219881192843443 2.14539234710286 52 57 32
12.244363895529562 -2.374858344797975 2.5607958021285597 56 62 37
17.385997984962206 2.512140499431494 3.010404389188087 53 59 33
12.663168114925158 -1.5521441348583158 2.388250939907347 56 58 32
12.099938351918382 -1.657363683435203 2.2118863542593994 53 58 32
11.342119293143954 -1.9879642951173218 2.152995588467978 54 56 30
15.550010871606265 2.9202628857546267 1.7804707990044846 36 38 23
14.271126981899348 2.866695240152439 2.10258983620262 45 50 22
15.108836855539163 2.8377616384187996 1.8550129840762852 41 44 22
13.544826072735438 2.7262365862301214 2.224460796181833 47 49 24
13.73557326023617 2.760806871803438 2.125687924163058 45 47 23
13.499052894166791 3.1071611216707997 2.3243584589030473 51 57 31
14.244342527915435 3.110335747873911 2.2763298730580734 48 53 26
14.975823701728142 -2.9372097215467554 2.0751241000310303 42 47 24
13.695983862917128 2.9081955611470525 2.3109512139892656 48 53 25
13.890787431457891 -3.085805893587765 2.1187764708661048 46 51 25
13.98260845378879 -2.785346064974923 2.292384645438532 51 57 34
13.499052894166791 3.1071611216707997 2.3243584589030473 51 57 31
12.938148188181067 -2.974330839069033 2.2608955835340088 51 57 33
13.499052894166791 3.1071611216707997 2.3243584589030473 51 57 31
14.425843250889756 3.112974530995563 2.178473013524764 46 51 23
11.08995539267532 0.8022833278444526 2.407902343457196 37 40 11
11.213870067574518 1.107904559559774 2.160543351541641 31 33 9
10.633141271830304 0.5792868198450883 1.980604934282793 24 26 2
12.8081633663133 1.8160829909005252 1.9919886321225957 10 12 0
11.750813507608465 1.6710044579380992 2.3475094533382483 42 44 22
12.213419541824562 1.7467742325796738 2.106719814975584 38 40 18
11.647481113915292 1.4589161010303748 2.037103736365356 33 35 13
13.903084565502452 1.853076376558507 2.6469445630916506 48 51 24
13.035703789128485 1.9741156883045174 1.9018079779649875 40 41 18
13.162878722203985 2.2428164197087734 2.3485995617407625 47 50 21
13.854112254521372 2.598197956074099 2.300575110890459 46 48 22
13.742352144174204 2.400857622408842 2.5281348614147237 47 51 23
14.200302215369506 2.307060631489044 2.609434908454512 48 52 22
13.492876520919813 2.1536725352632753 2.4320611814807447 47 50 22
14.847326650058195 2.6221058523371896 2.6714732737324227 49 54 25
13.85104093563621 2.5762013682170823 2.5170764433876256 47 52 23
13.846792927174052 2.3940858992154808 2.40279103013152 47 49 23
14.409953785498047 2.6873866063149707 2.585221461710878 48 53 24
13.930329751786637 2.7803965376527167 2.3962312293275354 48 53 24
12.17470079018836 0.3627910820830097 2.5695730075918775 39 43 13
12.140318331900481 -1.8063123285405183 2.4353727969298173 56 58 32
11.108808506459411 -2.2995168438084206 1.962077730065018 52 54 28
12.84351780857447 -2.650048510217595 2.4931492164182716 55 64 36
12.655418173487227 -2.704632550169179 2.3889041248828184 54 62 36
12.140318331900481 -1.8063123285405183 2.4353727969298173 56 58 32
12.1100781844125 -2.450106347590124 2.318756025005163 54 58 35
13.607303248329975 -2.6562904710704878 2.31692009786567 52 56 34
12.401813241049735 -2.5433189062860295 2.4109990470993328 55 60 36
14.528852801228139 2.9161674482283115 2.7166352453367835 50 57 29
12.897437907576224 3.098385631774573 2.487651905600546 54 62 34
18.24046679793295 1.1259127450051634 3.121008923554371 53 60 30
18.332167330477574 2.9593046005019867 3.0394410148403193 52 60 33
12.93742654577036 -1.4622707359326539 2.1644027421508483 53 58 31
12.092822299471115 -1.7799547844195083 2.3200807556962504 54 56 30
13.275015163603792 -1.4715134923044164 2.0598605885706225 54 58 30
11.844367124500744 -1.8565551277045056 2.125328793800664 53 57 29
12.69664714298874 -1.5540744003411213 2.2767011210595087 53 58 33
12.886189143430695 -1.5556426449488372 2.1670882499064152 53 58 31
14.261680097861912 2.887159386635832 1.9467716880841373 43 48 21
14.311458984828459 2.5692360421418634 2.184042338582493 44 46 22
13.939494983668599 3.0289746060073184 2.1166452345217497 46 51 23
16.479799573505034 0.39600252858947504 1.6459044130519334 51 56 29
10.114334515933475 0.8723839683798589 1.8965274564701313 31 33 10
13.068297905704643 1.7969023289481645 1.8210691313359266 1 2 0
10.917494104051944 0.887414283739909 2.295407920284985 36 38 12
12.227855064439458 2.0488151114178876 2.1060188335051073 42 44 23
13.930329751786637 2.7803965376527167 2.3962312293275354 48 53 24
13.381211057111754 2.315120402319847 2.4418349099814622 49 51 23
11.289785179467893 1.4470521752258414 2.156050308122796 35 37 16
12.8081633663133 1.8160829909005252 1.9919886321225957 10 12 0
13.094500492799675 2.1816198417799417 2.2510784490512847 45 48 18
12.444997334026727 1.5514235621200192 2.4071345521867378 42 44 18
14.20323411974888 2.685242419365453 2.37564157138687 47 49 23
12.584649773040441 0.4254578289617532 2.6745009522191614 41 46 15
14.654874144346703 2.760567640921302 2.6980146609014137 51 56 29
11.885615409376477 -2.035265997401624 2.3364233309842084 54 59 32
12.594987978003646 -2.77048248005095 2.519656722947688 54 63 38
12.311369124764054 -2.166627982514309 2.5525547726405913 56 62 36
11.637869676759879 -1.8874876851873108 2.2418545188370014 55 57 31
13.225085731554941 -1.5569419764028967 2.061870860857817 54 58 30
14.070795743901936 2.9465373931384415 2.110986935744778 44 49 20
13.104117905164248 -2.8774321102672644 2.25048475396892 50 56 32
11.163884351156263 1.2443689449573634 2.0590296717561016 31 33 7
9.689717689346898 0.7139851309461814 2.1417430201983585 32 34 8
11.186423928737904 -2.36763424472904 1.77209202381143 50 52 26
11.919449179854722 0.31566805323288455 2.4573826149127473 35 38 9
12.909923784162995 -3.057449200930666 2.486391066920708 55 64 36
12.655418173487227 -2.704632550169179 2.3889041248828184 54 62 36
11.645706983243302 -2.199001858402969 2.3564184931526913 55 60 33
12.340141193928945 -2.581505213019226 2.5490742881931268 55 63 37
13.343168049813338 -2.785346064974923 2.2360896071339464 48 52 31
13.447061475390285 1.684548339260519 2.5600526781055377 47 49 23
11.920808642788476 0.6135294772926235 2.457242810304054 39 42 13
13.590384176311513 2.991251111452837 2.4237461160797493 50 56 29
13.72502511934405 2.882895654109335 2.4125836523951274 49 54 27
13.954668283919114 2.5436528755580943 2.3943434817995985 47 50 22
13.73557326023617 2.760806871803438 2.125687924163058 45 47 23
