11.52580256945048 0.6038346643805814 2.6413321134882013 31 44 21
10.128707577400466 1.2123137441070693 2.6900149662319226 35 47 23
8.961348450471492 0.021222186838644172 2.321559284643519 27 37 10
9.212754169838282 -0.3234839321885506 2.4529756373616953 32 42 18
9.063825072458036 -0.15387941956752 2.4731898651429836 31 41 18
8.464516096815439 -0.3234839321885506 2.377830359903658 32 41 15
8.009198090037547 -1.0932198315329351 1.8378306399384776 33 41 19
8.499930366919997 -0.9851374104178933 1.8220698818689418 34 42 20
9.203392283486494 -0.9851374104178933 2.034142828166529 35 43 21
8.752192144069454 -1.0932198315329351 2.0600706669487003 34 43 23
8.97702453276607 -0.7192404152425157 2.176827653376023 33 41 18
10.003907379345872 -1.3485018795452326 2.361804476764445 33 44 25
8.140539601646426 -0.5612368477174091 2.4203451599912493 34 44 22
8.48413313627179 -0.9105766486024665 2.07697064368198 34 43 22
9.183276439169592 -1.0260964196015359 2.299241852077947 35 45 24
9.358268273571845 -0.8905681266268334 1.9099510792356944 34 42 20
9.342278597200806 -0.18697898111423877 2.622885535721231 28 40 17
11.60128103126007 0.6978287073492149 2.8505535379450375 35 49 25
13.205514058528907 0.08942073068725431 3.023412313151628 40 53 34
12.213058376564799 0.08942073068725431 3.0137581164481135 39 51 30
12.353243452991894 -0.8760633114411535 2.9442183557911377 42 55 36
8.699458134373808 2.1619165267509626 2.3500291353099625 32 46 21
8.151856817246165 2.2333742290968988 2.631320090229825 30 44 20
8.505951291410922 2.403239867797703 2.5612693935714406 27 40 17
8.148772072004245 2.265536968306971 2.41919693051156 28 43 19
10.961932862732592 2.643476441878888 1.7648058851054655 21 36 13
11.117324261887475 2.440046303930774 1.6711148026971374 23 37 13
9.878259221994018 2.2227541361959773 2.000289143470106 28 40 19
9.570470370976395 2.537693190904778 1.9021395811919954 22 36 12
9.938281081391327 2.634433850836693 2.1112392827053963 21 37 15
10.777294383203493 2.3774533217821214 1.8638587520100272 25 39 15
8.506009816245804 2.2843736120439906 2.2157379949245177 28 42 17
9.176021026971389 2.4919972035738676 2.2999474685163226 24 40 17
10.3629041829724 2.78587757458812 2.0868291291707153 24 37 14
10.43238264382539 2.8208612776251907 1.8738503644701519 22 36 14
9.181607686383883 2.2967368415811373 2.035328603945237 27 41 17
10.142582938876236 2.4523170498931406 1.8827972338340264 22 36 12
9.222755768032766 1.9075903666021128 2.6460603617194325 32 46 21
10.024427913425383 1.4385038512562704 2.711961724576335 35 47 23
8.658611876310268 2.6934485500022602 2.534904635049503 27 41 17
9.212491380053148 2.7675327918765134 2.453010297752911 26 39 17
10.176272504062721 2.918972284016604 1.8817296326779542 24 36 17
9.6402374752797 -3.008879425802252 2.4007301840712922 36 48 27
9.032824136299086 2.9355309804338123 2.477548132537445 30 42 19
10.341618445235214 -3.0507294258266766 1.9798621238155023 35 44 27
10.176272504062721 2.918972284016604 1.8817296326779542 24 36 17
9.949892008280816 3.126878978043329 1.8890498377419893 35 46 27
9.877020120194558 3.1251378513862047 2.1149650775582547 33 45 25
10.01391214894043 3.0216278880267757 1.8869443387924911 34 45 26
9.66904078387715 2.9667783057509203 2.3974791382827307 32 46 23
10.707255158329959 -2.3198063229919144 2.2974249446948187 44 55 41
11.226702928183528 -2.325270251362699 2.146638439487459 33 44 32
10.762055397497363 -2.495709855467528 2.2929079123244636 43 53 37
11.829509560444885 -2.3972792851451437 2.1138965755753896 39 48 39
11.801087461683759 -2.325270251362699 2.2177710165245936 40 51 40
11.360947609120426 -2.232444465270389 2.9324580410738235 43 56 37
10.570844892416428 -2.4918384549498005 2.8463312550473865 42 55 36
11.229943431863003 -1.6629482578978445 2.6918861723759564 41 55 40
11.734201414238006 -2.2788117174158127 2.814856675394074 43 56 39
10.931842255308302 -1.8132007178643277 2.5564923243582305 41 54 39
10.634935124442485 -1.636177673625893 2.4385848710710563 37 50 31
10.90406899772031 -1.9136751003025663 2.4099398265145506 39 52 34
11.171264857213687 -2.0366266990300184 2.3836827921404686 41 54 39
11.108717878221432 -1.9666269618361898 2.5328768251613765 42 55 40
11.485142797927578 -2.03752339097355 2.6478472777046527 42 55 40
10.889450686381524 -2.187920309440164 2.5623948874438387 42 55 40
10.849345578835592 -1.4770969091939947 2.5680715709172954 38 51 34
11.361559243431612 -2.299929942710871 2.668453456532544 43 56 40
11.56689435531132 -2.0396704787947715 2.8606483781833805 43 56 39
12.458851313889783 -1.3806068115028507 2.9055579006434518 41 55 38
11.171264857213687 -2.0366266990300184 2.3836827921404686 41 54 39
11.499003850103618 -1.7789633341258004 2.4857568357612423 41 54 36
11.499003850103618 -1.7789633341258004 2.4857568357612423 41 54 36
11.773551786683331 -1.6866246407845595 2.805133379263994 41 55 40
11.56689435531132 -2.0396704787947715 2.8606483781833805 43 56 39
11.777864147235777 -1.4290983308021303 2.8040880998834505 41 55 40
10.177962284027803 -2.95044760539441 2.6801373989429496 39 51 32
9.323104671457891 2.8909659379325205 2.6264997107074577 33 46 25
10.530094950671902 -2.86066823904953 2.450416304272224 37 49 29
10.780133046851441 -2.812502146054633 2.57808888564902 39 51 30
11.060141435337677 -2.602151286506837 2.3943585199281427 42 51 35
10.751967918475186 -2.7240628526833284 2.4258361593601694 40 50 34
10.751967918475186 -2.7240628526833284 2.4258361593601694 40 50 34
10.537302555901103 -2.570136690001325 2.6156888954152437 44 56 39
10.851574061137567 -2.4268647174834825 2.5677537280987526 44 56 39
10.537302555901103 -2.570136690001325 2.6156888954152437 44 56 39
11.148644147121491 -1.9842793534450296 2.2627607150140454 37 50 35
10.700251899520945 -1.753105858383957 2.298006852262743 34 47 30
11.351754722705472 -2.176944226652059 2.139502809262537 39 50 38
11.59126581066946 -2.1221501995310654 2.0276679935249 38 47 35
10.892244969513676 0.8884205105521014 2.7611376371092993 32 45 22
8.895143157863812 -0.8905681266268334 1.6962953055523984 33 41 19
9.563357705419405 -1.1603047352558082 2.4095618687781135 35 46 27
8.32910923725257 -1.0932198315329351 1.9538966831386448 31 39 17
8.395558782169072 -0.8183425454940241 2.2256718351890803 35 45 22
8.802023794736852 -0.9851374104178933 1.9323356742984974 34 42 22
8.140539601646426 -0.5612368477174091 2.4203451599912493 34 44 22
9.536923949100855 -1.2148498076892944 2.2666288607288965 33 43 22
13.359908822556845 0.0544559885368026 2.949196405402927 41 54 35
13.359908822556845 0.0544559885368026 2.949196405402927 41 54 35
11.861335665231904 0.5421931329353419 2.7845761504730038 33 46 23
9.110924248909948 2.0155415581290206 2.466670190727649 32 46 20
11.323217342993908 2.56543689723256 1.669284708715848 21 34 13
10.530236774964298 2.7287373200655507 1.7728672607725215 21 35 15
10.134996395811866 2.7427818056747095 2.218300185447411 24 36 13
10.111955123479198 2.3054718739138917 1.8837743055341805 28 41 18
8.619798378410525 2.392295086603305 2.3591990215735903 25 41 17
9.144959734428372 2.1979350415673378 2.164156401730136 29 43 18
9.215328098303917 2.4687770379321097 2.033495813512408 25 39 15
9.144959734428372 2.1979350415673378 2.164156401730136 29 43 18
10.268449835057293 2.68607955365927 1.9829532862130446 20 36 14
10.019360897504107 1.6789052478381254 2.7130668347813693 34 48 21
9.032824136299086 2.9355309804338123 2.477548132537445 30 42 19
10.10503327828368 2.8936378070775572 2.1013667006705523 24 37 16
11.285708993029072 -2.242012710793409 2.252738290774895 39 50 37
11.285708993029072 -2.242012710793409 2.252738290774895 39 50 37
10.466830027879178 -2.8967842485458313 2.318032521716481 36 46 27
9.941509543574073 3.007590113999709 2.111044436332562 33 44 24
9.871173506370623 2.861966193705899 2.238671115089139 24 37 16
10.10503327828368 2.8936378070775572 2.1013667006705523 24 37 16
10.690016149766425 -2.7749015293633423 2.2988592661055423 37 46 30
13.153172765638361 -1.0016739338685061 3.0638097789276184 41 54 37
10.844664000879499 -1.6472927607710242 2.568740228558381 39 52 35
10.931842255308302 -1.8132007178643277 2.5564923243582305 41 54 39
11.171264857213687 -2.0366266990300184 2.3836827921404686 41 54 39
11.23446445897047 -1.4579703963487003 2.6910531836624014 40 53 36
11.061786202609982 -2.4491501142075536 2.724486081387835 44 56 39
11.734201414238006 -2.2788117174158127 2.814856675394074 43 56 39
11.484537745332222 -1.7265416951717207 2.88667471089969 42 55 39
10.639708985593927 -1.4906905242776964 2.438055580815029 36 48 31
10.723818485225905 -1.7789633341258004 2.4288600295367004 38 51 32
11.061786202609982 -2.4491501142075536 2.724486081387835 44 56 39
11.853900601771832 -1.929875765046296 2.7862615253006378 43 56 41
11.229943431863003 -1.6629482578978445 2.6918861723759564 41 55 40
9.774488885240295 3.1160820962335594 2.5500099551777216 36 48 27
11.519357460943292 -2.146104865893823 2.352272053641682 42 53 40
10.996962442309798 -2.6581287770607545 2.54761313273304 42 54 37
10.508486606866901 -2.5251620617683916 2.452905530350651 44 56 39
10.953249831133961 -2.2201140400100647 2.404953013147311 44 55 41
10.91559458831514 -2.4131891102923415 2.408764646105369 44 56 39
11.15611963411214 -2.0361344466864795 2.0469337251717272 35 46 32
11.38129897888696 -2.2578599191443085 2.0367568937640423 38 49 39
10.907057232887963 -2.0858325782790432 2.165785505602817 36 49 34
11.393079812558021 -2.199953196676444 1.847588611098031 41 50 38
7.858975303123334 -0.7035739723613332 2.27922988562168 34 44 20
8.57966501143568 -0.9399123417678702 2.363916156589357 35 45 22
9.063825072458036 -0.15387941956752 2.4731898651429836 31 41 18
12.242577725264125 -0.5068088032735611 2.996197677390663 42 55 36
8.18674773852245 2.527167110295077 2.4139491758309077 27 39 16
9.808178093287047 2.380829613314805 2.0035641469395262 24 38 14
9.850118262164786 2.3054718739138917 1.7870336873218842 26 39 18
9.602721704289541 3.1200363628088645 2.4050114569530847 35 47 26
9.675009547392422 -3.026526347491812 2.254767183746936 35 45 26
10.690016149766425 -2.7749015293633423 2.2988592661055423 37 46 30
11.098945474189607 -2.1360948219968856 2.7169936108822705 43 56 41
11.484537745332222 -1.7265416951717207 2.88667471089969 42 55 39
10.653138225802985 -2.984891542122481 2.5972474043100675 37 49 30
11.416157485849846 -1.636177673625893 2.4952467843685366 39 52 34
12.263747364277844 -1.8076564262635293 2.9848485578513397 43 56 37
10.452357026694143 -2.3119987408344747 2.4594555549651593 44 55 40
10.720041282231383 -2.896981712062565 2.8035658212854058 39 51 32
10.880892817971048 -1.8728314453210098 2.2833282650416913 36 49 32
11.168821006396495 0.723928740965841 2.70336042844575 31 43 20
8.738990056236556 -0.47590361934882064 2.3455707498347325 30 40 14
8.586667288251538 2.105116890196846 2.547084780090815 31 45 20
11.226702928183528 -2.325270251362699 2.146638439487459 33 44 32
10.999925442111902 -2.6634095895488072 2.2740166902335313 38 48 33
9.871173506370623 2.861966193705899 2.238671115089139 24 37 16
10.996962442309798 -2.6581287770607545 2.54761313273304 42 54 37
10.846252788059978 -2.6468233174747127 2.771884757037319 42 54 35
9.839650324982708 2.9355309804338123 2.5402242072798424 34 46 25
10.310811350463464 -2.745439518165421 2.6548660844504517 42 54 33
11.314153405616143 -1.8605407474773945 2.676704818894473 42 55 40
12.458851313889783 -1.3806068115028507 2.9055579006434518 41 55 38
8.550190612938541 -1.0260964196015359 2.2118565861917148 35 45 24
9.212545416429078 2.5710107869252847 2.1592167895058365 22 38 16
9.069213901824256 2.3854804537199135 2.169800018987202 27 41 17
11.371105957684538 -2.102722805053974 2.500516597568908 41 54 39
13.125701480415321 0.2472799473966755 3.0983006462918405 40 53 34
11.249166672627616 -2.4039447827950036 2.255378467015623 43 53 39
9.071930801226046 2.586486557822642 2.6777532534797652 27 41 17
9.212491380053148 2.7675327918765134 2.453010297752911 26 39 17
11.667284489017579 -1.9136751003025663 2.4672338804405354 40 53 37
12.267887414378215 -1.283044036265166 2.9827274484509507 42 55 37
8.738990056236556 -0.47590361934882064 2.3455707498347325 30 40 14
