5.909771697352855 0.6864968618091173 1.5931063044809244 38 49 16
6.589016322829943 0.8041797708841023 1.5908061020188946 38 51 18
5.909771697352855 0.6864968618091173 1.5931063044809244 38 49 16
6.770184783491386 1.4865026040762934 1.5902705767801057 42 51 23
6.862876501702352 1.4865026040762934 1.736474755190955 42 51 23
6.896071371801568 1.7797299087103595 1.589915033996223 40 49 21
7.017041733981413 1.3421131013547187 1.7328022252459363 42 51 23
6.394446100137905 1.1501578960039553 1.7487368255354634 43 52 24
6.9870932611480985 1.7797299087103595 1.7335028037282072 38 47 17
4.872412179957677 -0.26804273453743505 1.8052326703048325 42 53 18
4.7665364392578695 0.16157335953218419 1.8105409753644768 39 50 15
5.4497099741313075 0.540890327415571 1.780006511414289 38 49 14
5.020916670734506 0.3647340939666071 1.798174710047701 39 50 15
4.674590274225587 -1.2173466587931419 1.8153519188896126 48 58 30
4.961968405502819 -0.7393112345424642 1.800924382926457 48 58 29
15.388400278479745 -1.263653735957352 0.8746403036051267 20 30 7
15.187595672518311 -1.3463132641996196 0.8635387603467897 18 28 2
15.612629836102593 -1.2387931608320524 1.1152970129471858 31 41 15
14.35276811320812 -1.3792925912289915 1.2247518174049359 31 43 19
14.929101830161864 -1.3077164225936342 1.166829677879886 32 42 16
6.154105228620301 1.4719181658231058 1.9245364345686478 43 52 24
5.8019719246892505 1.0744120360584613 1.9470437684904627 43 52 24
5.898029270109102 1.251270835037587 2.1305730533522067 45 54 26
5.701503979953585 1.6611945103757975 2.152322595978091 44 53 25
5.862366997604978 1.8635363703544199 2.134389628463219 45 54 26
5.516957087217165 0.9693609639449755 2.1744746705249347 44 53 25
6.140072261561398 0.9693609639449755 2.3089584095036555 46 55 25
5.5929495725189575 1.6851457258172091 2.402021928944025 48 57 29
5.5929495725189575 1.6851457258172091 2.402021928944025 48 57 29
5.7413422365459335 0.540890327415571 1.951219219322263 40 51 16
5.523978433947161 -0.45841419078707457 1.9670055491417626 46 57 22
5.545942551910045 -0.05577104664125448 2.1708752445592943 44 55 18
5.545942551910045 -0.05577104664125448 2.1708752445592943 44 55 18
5.7413422365459335 0.540890327415571 1.951219219322263 40 51 16
6.361951325223191 0.8183071683514697 2.509249702693781 47 56 28
6.361951325223191 0.8183071683514697 2.509249702693781 47 56 28
6.4903382728206935 0.4546249144794709 2.4827291332943737 45 56 24
6.873744390928611 0.5964672083819551 2.6726935545865715 49 59 29
5.602822079772063 -0.3380884588988079 2.4000925258987236 49 62 31
4.636637572215042 -0.7202540898708544 2.312376689212445 49 62 29
8.177198093337365 2.0944457052104353 3.036212081231009 51 64 32
5.196986952878524 -0.9024957801691903 2.2175831428314425 51 61 33
5.290816914782864 -1.397475490161167 2.4669733588533425 53 66 37
5.277588730370518 -1.702165028540845 2.4701134127219118 54 68 41
4.663153601736663 -0.9024957801691903 2.045602580141996 49 59 30
5.314069736375868 -1.4376561749346153 2.2010477775291206 53 63 34
5.3008995787740885 -1.671532025820255 2.2028614308609065 54 66 39
4.778688572113411 -1.671532025820255 2.033214007609731 54 64 40
4.96951342189844 -1.8950241450677345 2.0141627593575406 55 65 41
7.43564747269958 -3.1072684160702675 1.5885275124555285 49 58 32
6.592284108749084 2.43981981129188 2.0658467207720697 46 55 25
5.966406840744626 2.312352336327562 2.1234075338890204 46 55 25
5.523744083084974 2.2954442692043124 2.4158604082824846 48 57 29
6.030916006428682 2.4667117145148434 2.325549900965199 49 58 30
6.755414106596108 2.4667117145148434 2.4335905731704166 49 58 30
6.414505839416712 2.671014936311365 2.498151636521346 51 60 32
5.51479913739851 -2.790808597017838 2.4176903823906692 54 68 39
5.51479913739851 -2.790808597017838 2.4176903823906692 54 68 39
6.17789737601216 -3.0673488158493565 2.5511185018458935 52 66 33
6.298942879630784 -2.790808597017838 2.523031853753487 54 68 37
6.080170654083577 2.5868895675541133 2.1119091338366047 47 56 28
6.080170654083577 2.5868895675541133 2.1119091338366047 47 56 28
6.304158347479268 2.7663850365496914 2.2855274481806 50 59 31
6.7790853296799725 -3.1019355781647135 1.8906972415616272 50 63 36
5.343806024886211 -2.0896935267292207 1.9811524121065087 56 66 44
6.894949823528306 -2.376337097209167 2.042294741569105 54 66 42
6.409649489762304 -2.0896935267292207 2.2713321818974412 55 68 41
6.770184783491386 1.4865026040762934 1.5902705767801057 42 51 23
6.852683639188354 1.6344770531432535 1.7367234746895719 40 49 21
4.714884414180957 -0.05577104664125448 1.8132197865847588 41 52 15
4.972717886196946 -1.027475234867792 1.5973112808908645 47 57 27
15.187595672518311 -1.3463132641996196 0.8635387603467897 18 28 2
6.142736389111383 1.6455236766846129 1.9252199626938629 42 51 23
6.3089364423570515 0.9257795231864405 1.9154888909644496 41 51 20
5.713750821679673 1.4512601274014059 2.1509142803699204 45 54 26
5.602822079772063 -0.3380884588988079 2.4000925258987236 49 62 31
6.11150992867783 0.655482658028168 2.31321830454349 45 54 24
5.602822079772063 -0.3380884588988079 2.4000925258987236 49 62 31
5.257205416844083 -0.5634081208193588 2.2089613043001544 47 58 25
5.363028981002825 -0.7202540898708544 2.450310962189363 50 63 32
5.280606246654656 -0.7393112345424642 1.9863652024739766 47 58 27
4.663153601736663 -0.9024957801691903 2.045602580141996 49 59 30
5.3008995787740885 -1.671532025820255 2.2028614308609065 54 66 39
4.96951342189844 -1.8950241450677345 2.0141627593575406 55 65 41
5.58992069503433 0.16157335953218419 2.1655018075941834 39 52 17
5.866554526533577 -2.2492510163316273 1.9426983357922387 56 65 43
5.815194082717268 -2.664836805882597 2.6519212864794954 54 68 41
6.7790853296799725 -3.1019355781647135 1.8906972415616272 50 63 36
5.376127241196764 -3.0673488158493565 2.4473718935948794 50 64 33
6.030916006428682 2.4667117145148434 2.325549900965199 49 58 30
6.3067757666192845 2.2954442692043124 2.5212889925374773 49 58 30
6.080170654083577 2.5868895675541133 2.1119091338366047 47 56 28
5.453238616464793 2.146408245385611 2.1825543306399244 47 56 29
6.015735482036494 0.6864968618091173 1.7600703115201628 38 51 18
4.674590274225587 -1.2173466587931419 1.8153519188896126 48 58 30
15.199272425815682 -1.2387931608320524 1.1744159491202442 32 42 16
4.793293782782971 -1.4376561749346153 2.031695758508866 52 62 38
5.196986952878524 -0.9024957801691903 2.2175831428314425 51 61 33
5.621952442845855 -1.759253386399795 2.7209358975400195 55 69 40
5.46638361673126 -0.0713464321575088 2.4277672159822434 42 55 20
7.311846276000451 2.6614045566557607 2.919238505235702 50 63 31
4.195855180362049 -1.1214212041009923 2.1037521000599737 50 60 30
6.101098868271906 -1.8950241450677345 2.314785144667471 55 68 41
5.510996682357423 0.20570089712862916 2.4184712468748506 42 54 19
5.808351570321796 0.3647340939666071 2.140277662338094 41 52 15
6.11150992867783 0.655482658028168 2.31321830454349 45 54 24
5.7568467151663345 1.9355873458195858 2.3713267559276305 47 56 28
5.595797034026008 0.8093132805718757 1.9616425071609749 41 52 15
5.701503979953585 1.6611945103757975 2.152322595978091 44 53 25
6.714175607970789 -2.664836805882597 2.722029881795938 55 69 38
6.815110600332822 3.026265970689918 1.8889465762211637 48 58 30
6.299216926554569 -2.2492510163316273 2.091140298252395 55 67 42
5.376127241196764 -3.0673488158493565 2.4473718935948794 50 64 33
7.017041733981413 1.3421131013547187 1.7328022252459363 42 51 23
5.485151021925256 0.655482658028168 2.1784786190794363 41 52 15
6.8274611301220665 0.655482658028168 2.4213509112081355 45 55 25
5.4893118370676515 -1.1214212041009923 2.422958479592889 53 63 33
7.468506405296191 3.0416765078102466 1.588449493040874 47 57 30
5.646433678784433 2.671014936311365 2.391697435766252 50 59 31
6.822708982341961 2.5188728784433905 2.6876819251593895 50 60 30
7.219072214644722 1.2067620671501995 1.589059513907151 41 50 24
5.277588730370518 -1.702165028540845 2.4701134127219118 54 68 41
5.196544267722533 -0.26804273453743505 1.9935147230298165 44 55 18
5.793158599449624 1.1738367509997418 2.3648873884039556 47 56 26
5.9929309514823235 2.0511092498804264 2.598887790846802 48 57 29
6.239114527710025 1.0744120360584613 2.0966690655387374 45 54 26
5.8963035693271095 -2.507906042460267 1.9407311273039767 54 66 42
5.42148307211454 2.927756503451117 2.4373819642400725 49 62 31
4.714884414180957 -0.05577104664125448 1.8132197865847588 41 52 15
5.732435697034997 0.4546249144794709 2.375726015550762 41 54 16
7.258076289290613 1.9166074770132864 1.7273769576778912 36 45 15
7.43564747269958 -3.1072684160702675 1.5885275124555285 49 58 32
5.605433590683111 1.4197733370567054 2.3995839678672044 47 56 28
6.256598254664266 -0.0713464321575088 2.5326054902099635 49 60 23
