9.688313992995047 1.1042597968170358 1.5631860056888827 27 35 13
9.949301172870383 0.8775718250878424 1.5633856411264826 31 40 12
10.006800426009303 0.8775718250878424 1.463289277975471 31 39 14
9.949301172870383 0.8775718250878424 1.5633856411264826 31 40 12
9.014606512057926 1.0531615454361207 1.7861399748622642 29 38 12
9.248554336022117 0.8080726101205029 1.6711174187399715 29 38 10
9.401505005521908 0.8080726101205029 1.7771471236926555 30 39 11
8.720090559770325 0.4608024577030537 1.9130149459070653 29 40 8
8.83344705098039 0.5214851953988974 2.162388972539742 32 41 12
8.720090559770325 0.4608024577030537 1.9130149459070653 29 40 8
9.02915083151412 0.8928114271914498 1.9008473871881535 30 39 11
9.1839727218248 0.5638757123956347 1.8950778677554536 31 40 12
7.929178529667982 0.3952832947913813 2.088823655864899 30 41 9
10.422588229590847 0.8121895522196917 2.297679876786992 32 42 14
8.996413721407384 0.7267702919708129 1.902094277463187 31 40 10
9.918059852239788 0.9909010626668565 2.2112048496342296 33 42 14
9.215490615187324 0.8121895522196917 2.13478809229416 32 41 13
9.02915083151412 0.8928114271914498 1.9008473871881535 30 39 11
7.783102796368723 0.22095476007805157 1.8208890305448646 29 39 8
7.185364458229587 -0.4846242876592678 1.5605349457453526 30 36 10
7.36619710872508 -0.0471693104832458 1.5607868607373347 29 35 8
7.185364458229587 -0.4846242876592678 1.5605349457453526 30 36 10
7.438719010863965 -0.4846242876592678 1.8327331347454976 31 37 11
7.613536495584015 -0.0471693104832458 1.8265822957733882 27 39 5
7.480339849228995 -0.18111100642737152 1.560939600478858 30 37 10
7.778344794224335 -0.30882351440020345 1.6901627023347592 31 37 11
7.633564930896716 0.08847730842964813 1.8258962135465497 28 39 6
7.613536495584015 -0.0471693104832458 1.8265822957733882 27 39 5
8.154931568035495 -0.20883070649812016 2.219413168584107 31 40 11
7.500741362431769 0.10230363164648763 2.1216923044216554 29 40 7
8.326752167807927 -0.4129346328415838 2.3627320821310485 34 42 14
8.18777250829485 -0.4846242876592678 2.0709135517272297 34 40 14
8.210909549691875 0.2543242419700829 2.214255388752714 31 42 9
20.179613256478195 1.7742756001287256 1.104424684244365 35 45 21
20.008588302046263 1.8426693739573812 1.043185707319699 35 42 20
20.09391956580497 1.950333733808409 1.1022766511386024 36 42 21
19.785875624044575 1.8974821658613668 1.0943813062516274 38 46 24
19.310914416370967 1.786130484145454 1.081646305811336 34 43 20
19.662607725821616 1.950333733808409 1.1476696238493491 39 46 24
19.836615838388052 1.8801654570579676 1.2061705911443559 39 49 26
9.479094653960486 1.2006379637563827 1.7754339886838018 29 37 14
8.967870096767651 1.41516190928139 1.7872800649444796 29 37 13
9.79168930536308 1.7393282221984208 1.5632663528328556 29 37 17
9.7182811859085 1.6372460990891005 1.6662533021897217 31 39 17
9.747973714168802 1.4310644806615183 1.5632325834017262 27 36 11
8.918389277554237 1.2719438335893607 2.0266670038902292 31 39 14
9.201898482127097 1.3952167807431828 2.1357226709263624 31 40 14
9.234459006081485 1.41516190928139 1.893240658854463 29 38 11
9.123836599212536 1.6545397568143936 2.1411550144749754 31 40 15
9.280593787879914 1.758374662002584 1.8915802515908884 31 39 17
9.123836599212536 1.6545397568143936 2.1411550144749754 31 40 15
9.862987927158335 2.063233545900646 1.664848611242704 28 37 13
9.583649649632047 1.9692331368078135 1.7731702828754525 30 38 16
10.175589117117584 2.285635398093253 1.66195110160857 30 38 14
9.552899275797019 2.206122977820199 1.6679110446269312 30 37 14
10.31729800221545 1.931618687102569 1.5636499696467123 29 37 17
9.477017088878092 1.9032652824344551 2.1174274816515473 31 40 15
10.26822019226779 2.638820271790042 2.3111303962912424 33 46 17
10.173749535052911 1.103392937593025 2.319648033633773 33 42 14
9.383884571661689 2.355280538172275 2.1234776502267767 35 45 19
8.933090253489512 1.103392937593025 2.154913432311716 31 40 12
9.012330395255521 1.3694873052307885 2.2883897523324084 33 42 14
8.916660162870688 1.517089999257141 2.2977932875840823 33 42 15
8.932612034953927 1.6670550797336083 2.2962058945046335 34 43 16
9.29306280947035 1.9488758146939915 2.2623166275249584 33 42 15
9.490939675923462 2.1800562956406764 2.116535124124309 33 41 16
10.072586172113091 2.4520313059148 2.329023933232718 36 46 19
9.566092523930383 2.274205554540565 1.9937285551469888 33 43 17
9.625266006071705 2.071720217680082 2.2340694422029577 32 42 14
20.022559074364555 2.001048932507674 1.1557506858427657 39 46 24
10.31380175614957 2.425316320572715 1.7586657139532713 31 41 15
10.368284396413232 2.5623635091315404 1.6602524070095575 31 41 14
10.028118496340584 2.8075009971804734 2.2030511869499305 31 45 15
9.770815402048134 2.5947261325776627 1.984317755110275 32 43 15
9.828308515744364 2.7417149088315895 1.8731195594594883 30 43 15
10.597203706905573 2.7417149088315895 2.0542785011109452 30 43 14
9.79877528565558 2.695738046862551 2.0975658068686904 33 46 17
10.495860961029733 -2.7720697515722503 2.059354856681716 41 53 31
10.541449875647036 2.971843496552948 1.9524547798989205 34 48 19
10.220981992836816 -2.8763851816657784 2.0737050460232638 42 54 31
10.495860961029733 -2.7720697515722503 2.059354856681716 41 53 31
10.565338969717011 -2.9869412533554156 2.166288375264405 39 52 28
10.171638913585058 0.8181325112213873 2.4642676553679888 32 42 13
10.24070960904823 0.5983876249690627 2.4559244545108467 32 42 13
10.61129146512037 0.9456841746238022 2.5703038943542103 33 43 15
11.084930859262471 1.910134723824118 2.6802917244364237 35 45 17
10.692451948770024 1.8535571272600495 2.558601524722384 35 45 17
10.585074367706506 1.6839497129801337 2.5741687333819803 34 44 16
10.968419828802698 1.4940807823665818 2.7021438137415545 34 44 16
10.477660292206574 1.812829157740774 2.428729269061284 35 44 16
10.016839440998417 1.1756512125751386 2.4837195136675 35 44 16
10.652433560277204 1.335085707027775 2.564323133230028 35 44 16
10.407107302176145 2.0872951786443736 2.6015932610447985 36 46 18
10.309570123009989 2.35477940345238 2.6175904914309345 37 47 17
10.392504783377172 2.5670697386809964 2.4382599664950284 38 49 19
10.087651804118464 2.0080688275553853 2.474687559309114 36 45 17
10.902066128807034 2.1970568228592118 2.715274265262534 36 47 18
10.70382947491872 2.4749424608551234 2.5569916357442732 38 49 18
10.676305980758023 2.7616390254773253 2.4074670922749806 32 46 17
10.405123249799223 2.62246148037434 2.6019114488926602 36 50 19
10.608942939438176 2.3542449106743426 2.780895870327268 36 49 19
10.404051840875683 2.582664144527964 2.837360614853765 35 49 20
11.522621746276078 -3.046526583878477 2.8184592416599146 38 52 25
11.090633259258688 -2.3983820457912493 2.679258409726087 45 57 33
11.754150787636743 -2.5691307947708486 2.7640326146613847 45 59 33
11.436481410103285 3.026428218428583 2.6218516826876637 36 50 23
11.948743062175627 -3.089352791794766 2.5512276491602153 36 50 25
10.963712972899874 -3.0669181239514596 2.7030579241916124 34 48 21
11.423122666723472 -3.0801158481956845 2.623899056975236 37 51 26
11.248585372065373 2.8977341558291263 2.4874106696545817 32 46 18
10.688589409541583 2.8566558854615867 2.5591497385092614 36 50 22
11.145640281653478 3.043645720351079 2.4995520289969066 33 47 20
11.371419020251485 -2.801905409211618 2.473450663793015 44 56 32
11.207789528661024 -2.941471442463255 2.4921722619798716 42 56 31
10.60350585116798 -2.5168876148514343 2.571447198892441 46 58 34
11.458048498686571 -2.5168876148514343 2.618571657019382 45 59 34
11.07786376710926 -2.6061538753939457 2.5077798512719056 45 57 34
11.947810076746554 -2.859131289466326 2.725066108827963 41 55 29
19.075710958349173 -0.1462618216397709 3.016337942744185 47 60 30
11.015993461679649 -3.0961782540960363 2.3739127041474792 33 47 21
11.015993461679649 -3.0961782540960363 2.3739127041474792 33 47 21
16.40684453881783 -0.8728067362760109 1.3823383462693342 30 37 7
15.775957054785797 -1.0669979809840202 1.3096129416581872 27 34 4
16.43217698619658 -0.9593407891378113 1.4442595466936008 27 34 2
9.14030789571455 -0.9407428511691908 1.6723095706558524 36 38 14
7.810795008205928 -0.7844338302588082 1.819983501704947 34 39 13
7.757359465402033 -0.5997663742448588 1.6904871628619436 32 37 10
8.477706731914068 -0.6816678908569425 2.190857755702011 35 41 14
8.544517528902361 -0.7842122706657222 2.337237168566786 37 43 16
9.094141202834562 -0.8870233894363737 2.2805645238247183 38 44 18
8.806570395908285 -0.8697495462110199 1.9095189150343417 36 41 16
8.642508345814125 -0.9691663361920893 2.042379757066772 38 44 19
15.847551988353802 -1.213407787172513 1.3108202865345486 25 29 6
16.465851260892304 -1.2941426656371433 1.3207954696845643 20 25 2
16.723337989380934 -1.178065517567258 1.686237073139993 25 30 4
15.829253072766823 -1.1536753529892387 1.439412456555589 23 30 0
10.078342741828289 -2.6243971836448425 2.081507251242809 45 55 31
13.075073836105389 -1.5040144536541555 2.7192661995723775 43 53 28
12.65244523716107 -1.6716555542084663 2.6131033524875567 43 53 29
12.27495317184 -1.8687891326394974 2.6684205142083313 47 57 34
10.960335795546008 -2.3890039639740417 2.522517881829632 46 58 35
11.154014577714605 -2.1169428619427624 2.667983542680459 45 57 34
9.279852888367206 1.0531615454361207 1.8916067791768034 29 38 12
8.754443262151055 0.5638757123956347 1.6768003875108675 29 38 10
9.962481016266727 0.7351242662758646 1.6639065942414732 31 40 12
8.469026580301168 0.3952832947913813 2.1915897482069258 31 42 10
8.317286080205138 0.5214851953988974 2.0624239599483913 31 41 12
9.354965107904503 0.9909010626668565 2.1253855197489067 31 40 12
9.400962918804229 0.8928114271914498 2.0016487398628344 31 40 12
7.438719010863965 -0.4846242876592678 1.8327331347454976 31 37 11
7.724025011932786 -0.18111100642737152 1.8228432766912994 30 38 9
7.652875052600901 0.2543242419700829 2.109524865122771 30 41 8
8.18777250829485 -0.4846242876592678 2.0709135517272297 34 40 14
7.381900512043996 -0.35368620586330124 1.9784010212434597 32 38 12
8.011047810178614 -0.5584369083991717 2.233099206236892 34 42 15
8.06930356651643 0.10230363164648763 2.227481759310382 30 41 8
19.52424505335053 1.8426693739573812 1.087453476531568 37 45 23
19.785875624044575 1.8974821658613668 1.0943813062516274 38 46 24
20.14388386649075 1.9306892766186223 1.2119863886159488 42 50 27
19.958809071445348 1.8279568838117783 1.1543427996209288 39 48 25
8.918389277554237 1.2719438335893607 2.0266670038902292 31 39 14
9.248195694080483 1.7822023522647117 2.1325528280828117 32 40 15
9.34055903826243 2.01502672635034 2.0046232799844943 31 39 15
9.41691209429315 2.1160779711437545 1.886774311772595 30 38 15
9.936712848082474 1.331239996539751 1.5633762527270647 29 36 13
9.327416383771137 1.2006379637563827 1.670266396757726 28 36 14
8.854399976091873 1.1573351509032965 1.9076165004737908 29 38 13
9.7182811859085 1.6372460990891005 1.6662533021897217 31 39 17
9.583649649632047 1.9692331368078135 1.7731702828754525 30 38 16
9.17267489697639 1.3047797200143505 1.782372156620624 29 38 14
9.200955771760711 2.274205554540565 1.894457473284409 31 40 15
9.625266006071705 2.071720217680082 2.2340694422029577 32 42 14
9.216147234412432 1.2302173864053059 2.26924595765416 32 41 12
9.565013324541106 2.4365152269775416 1.9937793388604725 34 44 17
9.960600154772852 1.9488758146939915 2.3397263424560277 35 44 16
10.26822019226779 2.638820271790042 2.3111303962912424 33 46 17
9.65364745396853 2.143196316722199 2.3709698142231397 36 46 17
9.414090471728626 2.2583709634746247 2.2517194838028587 36 46 18
9.8588004209579 2.6477314068730093 1.6648886780532701 30 41 13
10.419932917389888 2.873126411133661 1.8554591052489282 31 45 15
10.940832539741091 2.9875299597471328 1.7477812776322572 32 46 17
9.969182496663095 3.066213846175234 2.0876529437413187 33 47 18
10.445588736616127 2.928618724687294 2.2957233511868735 32 46 17
10.334647960617488 3.0563954840659115 2.305273054202784 32 46 18
9.953854734079023 -3.101427093375295 2.088528423645492 32 46 20
9.754837907609298 0.6976194251473852 2.5193057164323256 33 43 13
10.24070960904823 0.5983876249690627 2.4559244545108467 32 42 13
10.981391662615026 1.707992131045664 2.6996377544559627 35 45 17
10.968419828802698 1.4940807823665818 2.7021438137415545 34 44 16
10.298171831925455 1.0348082748552965 2.4491319351469643 34 43 16
10.405123249799223 2.62246148037434 2.6019114488926602 36 50 19
10.888127440032603 2.7021190662359107 2.53188730015958 37 50 21
10.296834559721024 2.3550838848794826 2.4492885202362444 36 46 18
10.704793865642003 2.2349931885075867 2.55685551425979 37 47 17
9.88531367057408 2.4749424608551234 2.501135667433941 38 49 18
11.090633259258688 -2.3983820457912493 2.679258409726087 45 57 33
11.656628169833619 -2.7473563429460137 2.5897421294503666 44 58 33
11.423122666723472 -3.0801158481956845 2.623899056975236 37 51 26
12.101437519789954 -2.673452332775962 2.6972425216262006 44 58 32
10.196137222442912 2.799581512098448 2.637174860791813 36 50 21
11.948743062175627 -3.089352791794766 2.5512276491602153 36 50 25
11.522621746276078 -3.046526583878477 2.8184592416599146 38 52 25
10.86974037808681 -2.6748029414439967 2.387955845063243 43 55 32
11.59592326307517 -2.7873003281531714 2.8000853680474043 43 57 30
10.701823396716433 2.7156326116104292 2.758547120335393 35 49 20
11.092643344268414 -2.96709055062622 2.36677971845035 39 52 28
16.336124986305308 -0.9593407891378113 1.505021543735103 27 34 2
8.526613810627769 -0.8697495462110199 1.7986760847577996 35 39 14
8.527226793349326 -0.7844338302588082 2.0492862348694505 35 41 15
16.159612080657112 -1.0969428191288781 1.5043020248143357 23 30 0
10.535337737343038 -2.562072659550438 2.2882021390974345 47 58 35
10.440554710653144 -2.6755291995458363 1.9563362433183626 42 52 28
11.799653868519187 -1.6716555542084663 2.5703577842902625 42 50 26
12.27495317184 -1.8687891326394974 2.6684205142083313 47 57 34
11.58044323915296 -2.0297515392468553 2.600522521638512 46 57 33
9.387537600343263 0.9600042491206445 1.6696272650923065 29 38 12
9.945605799069469 0.9140552522024292 2.3411861544034114 33 43 15
7.127259694605065 -0.20883070649812016 1.9938801142088391 31 39 10
8.050359275458973 -0.05457490189693584 2.2292969120153803 30 41 10
8.350724746150425 0.34602944746545256 1.9288169220340925 30 41 8
8.317286080205138 0.5214851953988974 2.0624239599483913 31 41 12
7.36619710872508 -0.0471693104832458 1.5607868607373347 29 35 8
8.661952786725841 -0.5584369083991717 2.324264745464431 35 42 16
19.662607725821616 1.950333733808409 1.1476696238493491 39 46 24
9.936712848082474 1.331239996539751 1.5633762527270647 29 36 13
9.508635567867445 1.867182288119368 1.8836222391636093 31 39 18
9.703620968561403 1.5337629280560243 1.6663979590974591 31 39 11
9.156674710218589 1.644899131427895 1.896080165834334 30 38 16
9.108219638450294 1.524097005167893 2.1422552760464635 32 40 15
9.14111385126988 1.5294875557779326 1.896654343530817 30 38 14
9.490939675923462 2.1800562956406764 2.116535124124309 33 41 16
9.52116802390806 1.103392937593025 2.2426411433205597 32 41 13
10.04436072824062 2.5305603492250195 2.2018670915932073 34 45 17
19.640390964522375 2.0249967243174645 1.0905548249306851 33 40 20
10.49790639732035 -3.0027630987248366 1.9541200128570482 38 52 27
10.585074367706506 1.6839497129801337 2.5741687333819803 34 44 16
10.963712972899874 -3.0669181239514596 2.7030579241916124 34 48 21
10.392504783377172 2.5670697386809964 2.4382599664950284 38 49 19
10.70382947491872 2.4749424608551234 2.5569916357442732 38 49 18
18.083976595427863 -0.1462618216397709 3.009429702962983 42 55 25
10.61129146512037 0.9456841746238022 2.5703038943542103 33 43 15
10.5935663697303 2.9642810885288946 2.7847638196062947 35 49 22
10.289146056895692 -2.6061538753939457 2.450190154489104 47 58 34
11.497058574887104 -2.907196789253894 2.612716570445321 42 56 31
8.476488963869018 -0.8870233894363737 2.1909603359520182 38 44 18
16.291014260212595 -1.2349299809493777 1.5048391454874637 22 27 2
11.896073332143612 -1.823992827360546 2.5578679590589473 45 55 31
9.369525009797831 0.7267702919708129 2.003191578458692 31 40 11
8.83344705098039 0.5214851953988974 2.162388972539742 32 41 12
9.476190768307086 0.6550949265780758 1.775497588570887 31 40 12
8.756313475186468 0.8928114271914498 1.792596815069561 29 38 11
8.378396821272874 -0.35368620586330124 2.1993467124399686 33 41 14
9.91589480677257 0.715092174377389 2.3440979564758466 32 42 14
10.008092163826246 1.8379944011734137 1.5634291748442615 30 38 19
10.233811951999577 -2.7287673938467334 2.1884049392700176 42 54 31
10.484834911892861 -3.101427093375295 2.1714998425536187 34 48 23
10.489415547352092 2.779480128919856 1.755483827290691 29 42 13
10.977630788870584 3.00191435228861 2.7003623485668298 36 50 23
10.902066128807034 2.1970568228592118 2.715274265262534 36 47 18
10.477660292206574 1.812829157740774 2.428729269061284 35 44 16
7.494426816464426 -0.6816678908569425 1.9719268974755795 34 40 13
7.59764108630716 0.22095476007805157 1.693015787535402 28 37 11
9.29167166806386 0.6317684346623293 2.1296105730826884 32 41 13
7.444378717644352 0.08847730842964813 1.695545000352029 28 37 11
8.802421446658903 0.6317684346623293 2.033137001909104 31 40 12
8.916660162870688 1.517089999257141 2.2977932875840823 33 42 15
10.57775125988581 -2.843593997105978 2.284709044735831 42 54 31
16.045205849413936 -1.0113588577711734 1.3780379530656377 27 34 3
11.896073332143612 -1.823992827360546 2.5578679590589473 45 55 31
7.0073680036778665 -0.05457490189693584 2.001597548375829 29 40 9
7.480357304398522 -0.05457490189693584 2.1233672467391473 28 41 8
10.16359763196629 -2.6748029414439967 2.3205768190888816 45 55 31
10.825415070529235 1.1756512125751386 2.5402310490467395 35 44 16
10.656507448292135 -2.4851145489669877 2.409528328598568 46 58 35
9.354965107904503 0.9909010626668565 2.1253855197489067 31 40 12
10.416881218077028 -3.1055888167368724 1.9572587559662793 35 49 24
10.57161624648751 1.5076123488543016 2.5761693056374 35 44 16
8.050359275458973 -0.05457490189693584 2.2292969120153803 30 41 10
