12.023620182730138 0.7664818688037202 2.2540315951615097 22 23 11
12.08588298971716 0.9173974037249665 2.2498450994553085 29 26 13
12.178438180019398 0.8469187036139884 2.3537727375021587 23 24 12
12.013394750657946 0.8382620266223493 2.151487940911806 10 8 2
12.005244988346657 0.8589595772493002 2.4962031060821515 28 29 17
12.005244988346657 0.8589595772493002 2.4962031060821515 28 29 17
12.005244988346657 0.8589595772493002 2.4962031060821515 28 29 17
11.244715627524489 0.6633314171629712 2.4402330846082454 30 30 18
10.329674516777958 0.08162199950846519 2.552851777360433 35 36 20
10.422933325264164 0.25129049968729555 2.5395834617317803 37 39 22
10.969039009376866 0.48198246233817915 2.634852984213158 33 38 21
11.236333043727468 0.6339142600674796 2.593524276687163 24 28 13
10.788162647499389 0.3016448662015183 2.6659326686687406 33 37 20
10.69808813894196 0.09882266988169927 2.6825468677896622 28 29 13
11.584064215545949 0.7582472171779058 2.5461693712372955 30 29 17
10.889325229487321 1.3112907469557549 2.479811383273362 35 36 24
11.386144701275182 1.608658912667283 2.4256521343042166 36 35 23
11.405197468528469 1.475060212341804 2.4237338981424075 36 36 23
11.091061360000692 1.1730772918136068 2.4567988929755926 34 34 22
11.59870794612291 1.8341346345835174 2.2842287012333258 36 33 22
11.846585024601945 1.9849779112243828 2.3820516020049203 34 35 23
11.57462634934888 2.155698318693363 2.407129078728177 38 39 27
11.980723558670826 2.255704833014799 2.370332938711936 38 39 27
11.60929863871519 1.8674755415940412 2.4038276488987576 34 35 23
11.22116908071318 1.9406504606708959 2.1985574177885505 36 33 22
11.477202893720307 2.091519258272438 2.293428350013054 34 35 23
11.36914380921976 1.1095983481377634 2.574677905633748 37 38 25
11.571088108807942 1.614506077449998 2.5478267885214194 35 36 23
11.922074856551445 1.6224871443384503 2.6644625583422132 37 38 24
11.517465091252168 2.111521294541833 2.5547596874511482 38 39 27
11.987561501300625 1.801257408011195 2.654001069085162 37 38 26
11.841358198722858 2.2352762619758866 2.514815396527173 40 41 27
11.790742289877002 1.9101122767742669 2.5207676883960906 35 36 24
12.024448661312613 2.0404913798928574 2.4940850371184067 35 36 24
11.841358198722858 2.2352762619758866 2.514815396527173 40 41 27
12.080457688179322 0.8768444122324259 2.6396927372483905 38 39 25
11.621918158393147 1.2038604093673717 2.717126900611761 39 40 26
12.442503602024276 1.4116413308732205 2.769396314226505 41 42 28
12.219442317217588 1.1110139016506726 2.819375395182591 38 39 25
11.74742927093245 0.7506947398032684 2.6940722492289355 37 41 26
12.15786351302024 0.737325891558053 2.8349085734224904 37 39 25
12.539941547875666 1.2038604093673717 2.749974587373606 38 41 26
11.760397783505777 2.415409968351419 2.165670066941771 38 39 27
11.965288770907641 2.425458843181996 2.3716608114625646 40 41 27
11.786532420851726 2.3417019634299097 2.2705172103748255 38 39 27
10.577593067602628 2.7451072737303637 2.127664435038696 38 42 27
10.293207062109689 2.8520401221343445 2.1449597911357707 40 41 27
12.09062212095083 2.646933794862678 2.2495287870235554 39 43 28
10.84643473797048 3.0912541168089325 2.112305509354412 40 41 24
10.86882072569121 2.8520401221343445 2.222289649308938 41 42 26
11.330359783812446 2.9662183999448293 2.304914181892794 39 43 26
10.653230400660476 3.067292216027905 2.508805399311477 43 45 26
11.244629355843793 3.085188887762086 2.3118154337019554 41 45 26
10.686248195081584 2.9662183999448293 2.235383646038342 40 44 27
11.578636279364208 -2.920812264614885 1.6218241447201942 36 38 18
10.695317201742698 -2.9586626048199447 2.234719471931382 41 43 22
11.128299784066819 -2.875278092821852 2.0971393374489873 37 39 18
11.247503094908382 -3.077413631828304 2.3115816862396987 43 45 26
10.849413949367143 -3.084311306285438 2.112140352430746 40 41 24
12.85818462241958 -2.861568386736994 1.460962659636305 31 35 17
11.727881192865459 2.7673407922134787 2.52830228605003 40 41 25
11.558885490982119 2.9121077235559865 2.5493925379374613 41 42 26
11.978253660458929 2.6372723898112787 2.4992017721515287 41 42 28
12.305036539345508 2.5234637237740016 2.4645078932232827 41 42 28
21.473367696473357 -0.7321975902942778 2.3178406108361287 38 41 12
21.184612290865143 -0.7269544880307472 2.397848434684261 37 43 15
21.289483089024646 -0.7365780873390017 2.203588816852322 42 42 16
21.330471265395545 -0.777449716532188 2.261583042982068 39 39 13
12.178438180019398 0.8469187036139884 2.3537727375021587 23 24 12
11.678141676834711 0.763100404827892 2.3973653854465473 26 26 14
12.08588298971716 0.9173974037249665 2.2498450994553085 29 26 13
12.013394750657946 0.8382620266223493 2.151487940911806 10 8 2
10.422933325264164 0.25129049968729555 2.5395834617317803 37 39 22
11.584064215545949 0.7582472171779058 2.5461693712372955 30 29 17
10.969039009376866 0.48198246233817915 2.634852984213158 33 38 21
10.69808813894196 0.09882266988169927 2.6825468677896622 28 29 13
11.285237465181677 2.255704833014799 2.3085280354090667 36 37 25
11.454695675600712 1.7409267154594945 2.418799596839468 34 35 23
11.836206650853283 1.9406504606708959 2.2669895244408798 36 33 22
12.130351046072658 1.7211560773550476 2.3577255678959554 37 34 23
11.471807769874797 2.339006309857382 2.417110025634728 40 41 27
11.648676709930243 0.973732799149354 2.5380303260603094 36 37 25
11.922074856551445 1.6224871443384503 2.6644625583422132 37 38 24
11.589836847839914 1.4603700743140682 2.5454345342817613 36 37 25
11.94027248528975 1.4403847384299353 2.6615228513611866 38 39 25
11.811148116002085 1.0243896391127791 2.6829614473743506 38 39 25
12.080457688179322 0.8768444122324259 2.6396927372483905 38 39 25
11.470303236523838 0.906163622514241 2.74739219671896 38 40 26
11.786532420851726 2.3417019634299097 2.2705172103748255 38 39 27
11.855494291243499 2.4976065470010362 2.265630534643184 40 41 27
10.94415001561985 -2.977998613888119 2.1069437651720335 39 41 22
10.935287376442519 2.9847843891378423 2.1074254147707667 40 42 27
12.116044476359718 2.5913422581104943 2.3589106893204708 41 42 28
11.271959893106668 3.077464122595302 2.437376260318305 41 43 27
10.598357114488246 -3.077413631828304 2.241897646998581 42 44 25
11.45020304529487 -2.810707243660171 1.8897591617195486 34 37 16
11.529432197314232 2.8149004267351487 2.411480602236263 41 42 26
11.113769544385626 2.881770186225884 2.0978991294141016 39 40 26
10.86882072569121 2.8520401221343445 2.222289649308938 41 42 26
20.806834643553916 -0.7321975902942778 2.282570828074567 43 43 17
20.806834643553916 -0.7321975902942778 2.282570828074567 43 43 17
21.51521121760962 -0.6723823387563627 2.45137766211836 39 43 18
12.005244988346657 0.8589595772493002 2.4962031060821515 28 29 17
10.422933325264164 0.25129049968729555 2.5395834617317803 37 39 22
11.57462634934888 2.155698318693363 2.407129078728177 38 39 27
11.553371689693108 2.039066345719539 2.177845256580535 35 32 23
11.57462634934888 2.155698318693363 2.407129078728177 38 39 27
12.161716104537707 2.091519258272438 2.3551420038497106 35 36 24
11.638549818772322 1.7666072645040685 2.5392936574716267 35 36 24
12.135377728349193 1.966316577382673 2.6315068954297196 37 38 26
11.172430031867226 1.2665010449457572 2.602967094992425 37 38 24
12.650269353501109 2.439605855269972 2.5629063618100387 42 43 29
11.82574151469494 2.439605855269972 2.516641207399159 42 43 29
11.492029019943786 0.586063558370576 2.7428719604653353 36 40 24
12.266358581660683 2.335078894595465 2.612734743782566 41 42 28
11.953986405866118 2.20450237838415 2.6593242520423814 41 42 28
11.138519984609497 2.7451072737303637 2.203952717918141 40 43 27
10.468680299858335 -2.977998613888119 2.024731662021909 36 40 19
11.474862540061496 3.067292216027905 2.5603665196188627 42 43 27
10.94627053311426 2.646933794862678 2.1068286594275287 38 43 29
11.357484022094669 2.942731289313177 2.4285578693532046 40 42 25
11.837628757883845 -2.8381896526581714 1.6207067816709315 33 37 16
11.274826666138816 -3.0686306843138005 2.437077011518164 44 46 27
21.931004314851258 -0.7269544880307472 2.4287250761780017 35 40 11
20.75387099783086 -0.6723823387563627 2.4206940900164073 41 46 21
11.405197468528469 1.475060212341804 2.4237338981424075 36 36 23
11.886628963918682 2.1864931630366358 2.2634493380539675 35 36 24
11.589836847839914 1.4603700743140682 2.5454345342817613 36 37 25
11.811148116002085 1.0243896391127791 2.6829614473743506 38 39 25
10.902355750710958 -2.900131941497953 1.8107073347808798 36 38 17
12.547885383932536 -2.9382748834479044 1.5381616238961777 36 37 21
11.37742854203232 1.0491709867163264 2.426533236357207 34 33 21
11.742236514685052 0.9406512730276769 2.391456783117924 28 27 15
12.332637643091562 2.560731633198686 2.60360937347557 41 42 28
11.236333043727468 0.6339142600674796 2.593524276687163 24 28 13
10.529763885674518 3.077464122595302 2.375851094487065 43 45 26
11.78402182078752 2.697213380128956 2.387659255663099 41 43 28
21.000973399065956 -0.6829413074715323 2.338878509678839 41 46 19
10.86882072569121 2.8520401221343445 2.222289649308938 41 42 26
21.289483089024646 -0.7365780873390017 2.203588816852322 42 42 16
10.422933325264164 0.25129049968729555 2.5395834617317803 37 39 22
10.595307310623605 3.085188887762086 2.2421262304073135 41 43 24
