11.32406590563116 -0.0178418477694683 1.7695243743724154 24 31 20
12.128260456368805 0.06618277921691626 1.590225415295015 25 29 17
10.827001048493274 -0.30666770257516734 1.7787787171819938 27 35 17
11.382242187193254 -0.19550375822960378 1.6795680499691714 26 34 16
10.530549187968644 -0.43225565031345115 1.883109697702876 28 36 16
10.980984225395593 0.07923873823130999 1.9667884573749959 23 31 15
10.72579834179207 -0.23701932284942787 2.080746707753783 30 38 20
10.967614905135578 -0.5190122478484828 1.8702690050355808 27 33 11
10.672534053880113 -0.11807430466185243 1.878817138207493 26 34 18
10.980984225395593 0.07923873823130999 1.9667884573749959 23 31 15
11.701004233066248 0.16094165399262894 1.8509730810935912 6 10 4
11.177189292559003 0.1954991083068917 2.162635802814258 22 28 15
11.701004233066248 0.16094165399262894 1.8509730810935912 6 10 4
10.95345265500846 -0.01960803567029314 1.9678395273358735 26 33 20
11.68713585291439 -0.13090977557324363 2.238405590347185 28 36 18
10.377354748742068 0.8641576586483631 2.487524417754364 24 31 14
10.070605125423794 0.7553629206399373 2.3724248129353174 24 32 14
10.612065588027182 0.6669355690573802 2.3210579250034615 25 32 14
10.583996271970571 0.8497525054006637 2.323532720974993 25 29 12
10.876276066472132 0.9556809861527923 2.4298275057879257 25 29 12
12.69293476864973 1.383524374637636 2.657693040980242 25 31 15
12.67725901511994 1.7247871065580707 2.66005103131997 27 33 18
11.470533082593892 1.5561803382958879 2.5067432690818654 25 30 15
11.951493172493954 1.2236054096410092 2.599112186409675 25 30 15
11.522672331159107 1.4105484460817783 2.500625385011716 25 29 13
13.190070355753546 1.3457216579584064 2.758837563455418 26 34 17
12.25189808329978 1.7561867515911551 2.731419739828843 27 36 18
10.939044747194602 -0.1671787718054547 2.42320090080876 29 38 19
10.826398062333308 0.49166488900880306 2.302760246537142 26 35 16
10.291697797287483 -0.14685370081227006 2.221679153887823 30 38 20
10.405552364356831 0.2872576490843963 2.483997812474229 27 37 13
10.379340635575891 0.21891279659758917 2.2152638684710872 36 43 29
10.862512853155721 -0.02444813193078437 2.299777112021203 29 39 19
10.253137204604354 0.09869089620137032 2.2245465519805903 34 42 26
10.598801890883323 0.3330566244683297 2.199792230170791 29 36 21
11.21632087467179 0.3330566244683297 2.271947865231563 31 38 19
10.624472198666952 0.4306257150393573 2.4577587342175318 27 37 14
11.437281034059446 -0.03881923712213778 2.679082443640383 26 38 14
11.096976297888686 0.13072891446524676 2.553977430530477 28 38 16
11.069733215530912 -0.03245973424070728 2.5576824065373343 27 38 16
10.915668256651745 0.5024308051823345 2.5794010793982114 26 36 13
10.514798176683167 -0.5705755326408248 1.985397856337431 31 37 15
11.499806764115368 -0.8823390251522255 2.3690716691977065 33 41 19
11.39192211912545 -0.6319983145451077 2.259004362696369 30 40 17
11.333795524685272 -0.42324208945855973 2.3842196011242116 32 42 18
10.971771919844791 -0.5340151759160359 2.290918534370399 30 40 17
10.058074874907952 -0.47819223616421636 2.005472808662719 29 39 18
11.093187571128997 -0.30025014762213953 2.407447819680801 30 40 19
10.160709233293503 -0.3760585964433601 2.112132490351766 30 38 18
10.45538875689551 -0.2650014739818021 2.209808845340678 30 38 18
11.312521894916536 -0.7934184176885828 2.264789905354707 33 41 18
10.993154465614888 -0.7949760422901523 2.4175886192013034 34 42 20
11.46422014987984 -0.65318761289372 2.045070382177533 29 37 14
11.093187571128997 -0.30025014762213953 2.407447819680801 30 40 19
10.776472800731216 -0.40697534473542446 2.6002498818159543 35 45 22
11.363179532767054 -0.9030171497548873 2.519683659391194 35 44 22
11.798177445189461 -0.7972844696625784 2.621071173989058 36 46 23
11.023995488570591 -0.5601370418264594 2.5639914774261667 33 43 20
11.354496335775961 -0.6887525241782883 2.520751337966957 33 43 19
10.481107596305968 -1.868334283205338 2.474718842988949 34 43 21
10.767021797118455 -1.9213288428071038 2.6017115575348386 36 46 25
11.890931548155663 -1.033126851334071 2.6076213159735593 37 47 23
11.546389528707337 -1.1070975289303862 2.497877164649519 36 45 22
11.176824873097235 -1.3952402565111868 2.543337034588748 36 46 23
11.123064586322707 -1.554756505352335 2.550465592169212 35 45 22
11.532413285091991 -1.362361378433192 2.6628022604152073 37 47 24
10.32146539365893 -1.9959162687168617 2.6787748070304014 38 50 26
10.805961542407733 2.1141825051525878 2.5957281516621102 29 37 20
11.50526435816394 2.366359645725885 2.5026562283293248 28 37 20
11.285951193801518 2.0343892492698084 2.5292947293020682 28 33 18
11.583343467949621 2.1626802883944127 2.493637342772967 28 35 20
9.616875664077776 2.9793873915984985 2.5989990441884845 30 43 20
10.133190987693744 -3.1080398389818455 2.519632007112894 29 41 18
10.027487668366456 -3.090860320806317 2.741515439858883 31 45 21
11.306344672761066 2.518662847381561 2.7028801925363974 31 41 20
11.594710835210488 2.3689988231166628 2.6525523009965624 30 39 20
11.125071615875672 2.4817730301251153 2.5501968603701233 29 39 18
10.096861861309502 -2.8435907479990625 2.7255678314020173 32 46 23
9.92681108946222 -2.493118439986436 2.7662223135966393 36 48 26
11.42001374734014 2.7749441286293774 1.9507689220210098 28 37 19
11.015910690400457 2.941839936370432 2.172510428178246 27 37 16
10.743207144041719 3.0404345257853915 2.3097394889694787 29 41 18
11.127121123478563 2.8657965740587983 1.9613039479396168 30 40 20
11.385324136784918 -0.7922965445399337 2.048630997519717 31 37 14
10.802738598906581 -0.9544252225180473 2.186124370488007 32 39 17
11.680874011251893 -1.053091444635099 2.353293114988946 36 42 20
11.409224937642012 -0.9544252225180473 2.257757888345316 35 41 18
11.13418065363147 -1.3200959652155029 2.278192720713459 32 40 17
10.756280715873574 -1.209338420020651 2.189180787710067 32 40 18
11.368551764158934 -1.1641988472070277 2.380991533071497 35 43 21
10.989591911227759 -1.4374838045410994 2.2894968748222753 32 40 17
11.88974723595192 -1.346393943943154 2.225041099432535 30 39 13
10.666429429427401 -1.1641988472070277 2.3163177980653784 35 43 20
12.410356844744038 -1.4729300514955734 2.0063093134733947 28 36 13
12.136348190479092 -1.3677676081359134 2.1104018097646335 28 37 13
10.974906623969355 -1.6952633318554864 2.4194711161001043 33 41 19
10.938346486431351 -1.5569845539779767 2.4232739238852794 33 41 18
10.974906623969355 -1.6952633318554864 2.4194711161001043 33 41 19
11.896065450534001 -1.287003313063575 2.4596658810188927 36 44 22
11.760847110264212 -1.4192286697811787 2.4739539302181397 36 44 21
12.103338886631418 -0.01636751993265458 1.590265426114619 25 33 20
11.350698574446996 0.0721256926967333 1.7690518751836355 22 30 14
11.385542549312401 -0.10752222366576869 1.768437101443106 25 33 17
12.235137563198634 0.14784150940737043 1.590055676077146 13 17 7
10.500025193043083 -0.021762254579244866 2.0928137363867814 28 36 20
10.528742496016056 0.08790425384635045 2.0912454573279917 23 31 15
11.627253929339977 -0.021762254579244866 2.242472333447221 30 39 20
11.03275946877959 -0.021762254579244866 2.1714621721162652 29 37 20
10.830470610197679 -0.21429971023664057 1.8741811317145167 27 35 17
12.322561957154385 1.7024304694844117 2.5510543793235514 26 30 14
11.216718972006447 0.5947006038501795 2.2719179016634556 27 34 16
11.216718972006447 0.5947006038501795 2.2719179016634556 27 34 16
12.219159344895356 1.550094293039827 2.737625676347969 27 34 17
10.540139117760061 1.0801611046805917 2.4676358205546913 26 30 14
12.25189808329978 1.7561867515911551 2.731419739828843 27 36 18
11.464680795808484 1.9476706650506073 2.6743117711587483 28 36 19
11.009176375675121 0.21891279659758917 2.2879417818588856 30 38 20
10.40598147897368 0.6406557188210714 2.4839444159837525 25 34 14
10.890274329779219 0.09869089620137032 2.2975027717097953 29 38 19
10.926586657877118 -0.14685370081227006 2.294552211127235 29 37 19
10.915668256651745 0.5024308051823345 2.5794010793982114 26 36 13
11.050220589294456 -0.47819223616421636 2.1703799819280083 28 38 15
11.074844606138823 -0.602810528150448 2.4092850800672685 31 42 19
10.735738099590414 -0.48291444177690773 2.4451397875379355 34 44 21
11.080902783583262 -0.2650014739818021 2.282310947352764 31 39 19
11.491226808189246 -0.705781851699009 2.369838104888656 32 42 19
11.881582389368207 -0.7177167482090265 2.225568224761454 31 39 16
10.955922286041732 -0.5705755326408248 2.069037087666486 29 37 14
11.321771813914479 -0.3760585964433601 2.2641102921070586 29 38 16
11.798177445189461 -0.7972844696625784 2.621071173989058 36 46 23
11.284113366910065 -0.3458839251815641 2.5295266601444677 34 44 21
11.64489667048643 -0.40697534473542446 2.644514383157136 31 41 18
11.854027146966601 -0.9864453241055181 2.464045903213203 37 45 23
9.922575569791224 -1.9213288428071038 2.5498838645245745 36 46 25
10.481107596305968 -1.868334283205338 2.474718842988949 34 43 21
11.95998364735598 2.2529868859122386 2.5979356644452727 30 38 21
11.306344672761066 2.518662847381561 2.7028801925363974 31 41 20
9.370922934511116 3.0065107387575085 2.4529918842723006 29 41 18
11.125071615875672 2.4817730301251153 2.5501968603701233 29 39 18
9.58542685775946 -3.101199945211811 2.60446516110487 30 44 20
11.297617793345914 2.2225144364574505 2.7045293808865454 30 40 20
11.889880660885165 -0.8678304373142097 2.2250324932532055 32 41 17
11.085865924277293 -1.107110016739148 2.1681838295133327 31 39 17
11.3092002232114 -0.8678304373142097 2.1548095311435853 31 37 14
11.137554523412332 -1.287003313063575 2.4030442076675294 35 43 21
10.971482738015187 -1.6802099831609751 2.2909416576994484 31 39 16
10.934911152951537 -1.55866913943112 2.293879643939386 31 39 16
10.566297343992572 -0.13090977557324363 2.0892095182116703 29 37 19
11.766073777918113 1.5536616417692466 2.625850774160979 26 31 16
11.07120331315655 1.8873560391436597 2.5574814815256928 27 33 17
10.612065588027182 0.6669355690573802 2.3210579250034615 25 32 14
10.930841641571886 0.5573964102670158 2.4240597445552465 26 35 14
11.480318276327862 -1.55167146196994 2.6716192939720633 37 47 24
11.300475549017328 -0.7177167482090265 2.1553198884124702 30 40 16
11.363179532767054 -0.9030171497548873 2.519683659391194 35 44 22
11.670278686927102 -1.1869440346281968 2.640520102046852 37 47 23
10.516986522346572 0.37590494803482505 2.3295179195121176 27 35 14
11.159019550978824 -1.715086296937634 2.545682104222938 34 44 21
10.875044343541814 -0.02789013468274285 2.4299588177556664 27 38 18
10.863371062762994 -2.493118439986436 2.799976728636045 35 48 26
11.222930893120301 2.8366093398455567 2.1598985202376695 28 39 18
10.863718941166693 2.9173507986709843 2.2996779664256706 30 39 18
12.106400694971443 -1.2457806910272926 2.2113874582749715 30 38 15
11.493270715659278 -1.0143366558990345 2.1442611484777783 27 35 13
10.938346486431351 -1.5569845539779767 2.4232739238852794 33 41 18
11.680874011251893 -1.053091444635099 2.353293114988946 36 42 20
12.42185496144876 0.22756535539010223 1.5897661468314581 7 11 6
11.517688852051357 0.17656262863361916 2.0426886842260377 4 9 0
10.530549187968644 -0.43225565031345115 1.883109697702876 28 36 16
10.5341163907804 -0.33797211849938386 1.9845908889623616 29 37 19
11.319022161665014 -1.2442028890907129 2.5251470192594816 36 46 22
11.506943271628357 0.4388769225067771 2.25081203675331 29 38 22
11.498152371541305 -0.2307544540883713 2.6685747786188685 29 39 16
10.926586657877118 -0.14685370081227006 2.294552211127235 29 37 19
10.955922286041732 -0.5705755326408248 2.069037087666486 29 37 14
11.132614426546594 -0.19395189619592268 2.5491887383143137 30 40 18
11.015910690400457 2.941839936370432 2.172510428178246 27 37 16
11.00146709814883 2.3734888065444197 2.7662645226264067 30 41 19
10.030720223003318 3.0258974616903207 2.376541064523196 29 41 18
10.993010156895327 -1.4192286697811787 2.417603466257768 34 42 19
10.902773911572952 0.11248232579371789 2.427014595685912 29 38 17
12.112605898639956 -1.1641988472070277 2.4379346651709026 37 44 22
11.854027146966601 -0.9864453241055181 2.464045903213203 37 45 23
11.918170801035485 1.8873560391436597 2.6037683749175553 26 33 18
10.29578146710314 0.2485665962504379 2.3500881857940756 27 36 15
13.040167485040964 1.307932984677313 2.4733804020892327 29 26 10
11.284113366910065 -0.3458839251815641 2.5295266601444677 34 44 21
10.514798176683167 -0.5705755326408248 1.985397856337431 31 37 15
12.410356844744038 -1.4729300514955734 2.0063093134733947 28 36 13
10.998707434300343 -1.053091444635099 2.2887721102780114 34 41 18
11.754456213813025 -1.4518328252530586 2.233898412937395 29 37 14
11.365246468074504 -1.209338420020651 2.2609360042865436 32 40 18
