10.52550309202489 1.1948947535447845 1.554208134271796 64 67 65
11.44076183102919 1.031131369743342 1.6430053881436177 69 69 65
11.182109016278881 0.9078116628967807 1.6446786635106874 80 81 74
10.05903878540787 0.7799586185944223 1.8555099311169765 59 64 54
9.759949328943108 0.7006974821580342 1.9735462043627776 30 35 18
10.18621116986192 0.8584328195212757 2.064306023013135 32 39 18
9.548844419254257 0.7790250336575799 2.1005717595878215 39 45 24
10.434902957436536 1.0653867975089535 1.8449841971663865 60 63 53
10.681191463615518 1.1948947535447845 1.7425387265898429 62 65 58
10.361508193834787 1.286220412474067 1.7478927192907643 62 64 68
10.58355658188679 1.286220412474067 1.8410357125255423 52 55 48
10.427599791432835 1.255844415793925 2.051895165533246 37 41 18
9.607743308249924 1.0126376659853478 1.8692851950310099 42 47 32
9.947841441655319 1.0126376659853478 1.9655129671191451 32 38 16
10.186023093131249 0.8720815276378707 2.3051074058109595 40 49 21
9.944011674766937 1.1103497766379373 2.077454277146991 35 41 19
10.745138663534364 1.2185090341149865 2.259075440936039 41 47 22
9.944011674766937 1.1103497766379373 2.077454277146991 35 41 19
9.744522451362013 1.0534355763398224 2.211567341215095 37 45 21
9.74823406686029 0.9823143275276697 2.346430158711162 40 47 21
10.74850475721057 1.1716641663682845 2.386264002415831 43 51 23
10.47276875011519 0.9823143275276697 2.4146577338558024 43 52 23
9.226592133196649 2.3057385850639722 1.4431449588039311 42 47 18
7.9928490663573095 2.1180066940101834 1.6742491871634166 43 48 19
8.438148612673483 2.385305338882034 1.550104166456353 43 50 18
10.130836738364598 1.3826848853608569 1.7519692593398166 60 62 68
10.357831379709346 1.3826848853608569 1.8470777319036276 48 51 44
9.958908321517107 1.584739362251534 1.7551325875514021 42 47 37
9.35036737914003 1.335969696388545 2.113048319445073 42 47 18
8.36341660376761 1.7156805421022159 1.915406197357608 44 48 26
8.556853291757907 1.8385013164074513 1.9073038520215615 40 45 20
9.201416914434972 1.9243378933369166 2.40651403808054 47 54 20
8.752002922718289 1.7156805421022159 2.023156509630606 43 48 18
8.937032848085648 1.8385013164074513 2.013119441963946 43 48 17
7.833545652580479 1.9243378933369166 2.2344421656002744 45 52 20
8.406539405514415 1.7366559528357826 2.182186770280513 44 51 19
8.291094885095928 1.7646439550979103 2.3498555999863746 46 53 21
10.7180084484697 1.2593794222011772 2.5382061688706665 45 54 21
10.526317280239594 1.3029149167681655 2.4089563493115564 44 50 22
8.078342748172648 2.191198290980588 2.064100648631694 44 51 19
8.63156925198141 2.385305338882034 1.783885841505702 44 51 19
8.706862525453992 2.218486146739698 1.7820151040536287 44 49 18
7.994640140197932 2.0035692674750494 1.9320132614131502 44 51 19
8.593132220213233 1.9536033648900606 1.784853784723994 44 49 20
8.791373972858207 2.067307931278161 2.295118337948183 47 54 20
12.289443180145085 0.41522343526525524 1.30951506029493 0 0 0
11.011242551574554 0.16323596790895528 1.5549399527361725 4 6 2
10.893529927241653 0.07252266837116365 1.5547685983263595 3 6 2
10.866946490243382 -0.019398853373813207 1.5547293868760774 4 6 3
11.217215821383784 0.25132409011744034 1.5552311351038495 4 5 5
11.565188332504812 0.33560911103293933 1.4690582682683153 0 0 0
10.961882850998279 -0.11099458809129813 1.6461657617736527 3 3 2
11.11685240457539 -0.2007625327348925 1.6451131552477387 19 22 19
9.989197664957906 -0.8100670112293048 1.6535207998587036 72 75 68
10.411559320975057 0.27558789799147027 1.7470324226637048 4 6 2
10.411559320975057 0.27558789799147027 1.7470324226637048 4 6 2
10.193311396764749 0.6848938335287802 2.3044621474466327 42 51 24
9.66069151358919 0.6092365774145297 2.0938051260161172 32 38 19
9.970212719954777 0.5470445456109089 1.9645784235498613 38 42 31
9.174322452896694 0.2961728532698357 2.4097865027027874 44 54 24
10.3948125528566 0.5044424571850946 2.2871206601017406 40 49 21
10.197047533076814 0.6092365774145297 2.178865610440395 37 46 20
8.427045004338588 0.11448720295452769 2.1804820618957117 42 51 19
10.073413510579648 0.3859998999254357 2.3152452790250684 41 50 21
9.247353300021258 0.16087463718017894 2.5796700540440622 45 56 23
12.298019545059702 0.5584855291882286 2.8634613526312274 50 63 32
9.962376614899867 0.661876934733664 2.4742938285797353 44 53 23
9.385734457638923 0.35252295557079305 2.5566715120972656 45 56 24
12.482778255843808 0.7722609591599757 2.8156143739616923 47 60 29
11.299338642158338 1.031919847475554 2.6250990667065985 44 54 23
11.821480591168342 0.9236613391375191 2.728143568264818 45 57 26
10.758774786683958 0.8919802704920671 2.532729406175387 43 53 23
8.678684580265822 -0.713589450463805 2.306665638357696 49 57 35
8.678684580265822 -0.713589450463805 2.306665638357696 49 57 35
9.387371636175121 -0.5502878239904034 2.110675027863813 44 52 32
8.901875357660874 -0.8283807080800406 2.4445411253753777 51 61 37
8.476918720700041 -0.174610037973061 2.1763786125424076 46 56 24
8.676386502655255 -0.31161103015810576 2.1605474649814704 48 57 26
9.083444768833495 -0.174610037973061 2.2670157638153894 47 56 26
8.467927058998983 -0.24398973255170237 2.508211106841055 46 59 31
9.000625309495518 -0.03592993704222172 2.4315377441271284 46 56 26
9.004856307701148 -0.030698575798280496 2.2743329204680873 43 54 23
8.914702931930565 -0.5502878239904034 2.0143061227625334 43 49 32
8.676386502655255 -0.31161103015810576 2.1605474649814704 48 57 26
8.55590448655456 -0.3605567705844343 2.3197382355888236 48 58 29
8.667601768807252 -0.42664185395452575 2.4774770797527053 49 59 33
8.974901234483534 -0.583495624935285 2.4348785175078147 50 59 33
8.867075804860805 -0.5009873892567741 2.287589921828396 49 58 32
9.818171410599145 -0.842506099557062 2.6880150212051355 54 66 42
9.216022721408487 -0.043309160247266006 2.5850927477303958 48 58 29
9.608268491252465 -0.5852182602781684 1.7619412918026063 70 73 62
9.209629685837593 -0.7265247930640215 2.1222812052258178 47 55 37
9.143262073891412 -1.2352360787664407 1.8849539328041116 52 55 40
9.434688978158782 -0.7355145089630408 1.765502678052038 67 70 60
9.35884569940496 -0.8141511054725403 1.9918780718680114 45 50 36
8.718606468830876 -0.9327925407999957 2.3025269621872195 51 60 39
8.99650904263298 -0.8141511054725403 1.8902586608060141 50 53 43
10.05090906823679 -1.2693824047191606 1.8557466622689862 51 55 41
8.762694370645898 -1.0143104224935757 2.153970673538384 51 59 40
8.37005457579828 -1.138787868531405 2.185245652341453 55 61 41
9.030809847868516 -1.0789236599640462 2.008206993738092 53 57 42
9.145037324624369 -0.9774056825668805 1.8848908598234708 49 54 39
7.827815891215163 2.4788864042967846 1.6764383400116476 44 52 21
10.964536273238256 1.3924126968501571 2.6817177439676834 45 58 26
11.501887032324507 1.3467401370324252 2.7969181025817424 48 61 30
12.104308559317333 0.765069509401175 2.9265094936258995 54 68 39
12.18054821925318 1.270571125961162 2.8995221777456686 51 65 34
11.883131675352196 0.7404934895908915 3.042987646588011 56 70 45
11.991133668992907 1.121158505100366 2.9751441109791523 53 66 36
9.420107369369376 1.9904063105682426 2.5511841754142264 46 58 25
11.179800446293775 1.6196956530072242 2.8891320664535125 51 66 34
12.013878999084357 2.1366884964992097 2.964229273729724 53 67 39
11.96078123017672 1.6469387306618546 2.9909976425003872 54 68 40
11.852502663245899 1.7420552232214093 3.073964565086129 55 69 44
11.049687631307398 -1.6324615727625018 2.93976933613319 58 72 48
10.372719491820117 -1.3080738527177884 2.8152950024759638 57 71 47
11.10714174384932 -2.045640793252277 2.9158805530900658 58 72 48
11.29234822769698 -1.6132841139190126 2.8530160873142156 58 72 48
12.07770196732155 -2.6260145009176106 2.9368377141956734 58 70 46
10.690549208089397 -1.6032019993112099 2.7365213278822527 58 72 49
11.881765529450872 -2.9582242332909505 3.0441568242552455 55 70 45
11.858766806032664 -0.2394023662403512 3.0665693389116058 58 72 47
11.888014252786627 -1.6830612555281768 3.0389195414967305 58 72 47
11.253514948070782 -2.33911291305784 2.8648774286421954 58 72 48
11.888014252786627 -1.6830612555281768 3.0389195414967305 58 72 47
11.100453456519203 -2.6260145009176106 2.9185196700852867 57 71 47
10.555203103752302 -2.157933771619879 2.767553972192787 57 71 47
11.100453456519203 -2.6260145009176106 2.9185196700852867 57 71 47
10.9010937207037 -2.040338440878767 2.6936111039545554 58 71 50
11.918552005422706 -0.9512763691803982 3.016491370833779 57 71 46
8.00890556502235 2.8578854297782734 2.2174328905701306 46 57 24
7.958138675227443 2.2831950337101583 2.222257452940881 45 52 19
8.641604119597265 2.5060053761023746 2.3105581255149215 43 55 21
8.166541607660335 2.7690071637763327 1.9240727447707697 44 55 21
8.601324842444015 2.2831950337101583 2.3148403826374455 45 55 22
7.7458291431616 2.588411264306022 1.944176945068793 43 55 20
7.57944824079234 2.644122408505667 2.2609346108076913 43 56 22
7.439559882409566 2.588411264306022 1.818692694726522 45 54 20
8.163864708956496 2.588411264306022 2.0584769801153717 44 54 21
10.34404111290848 2.895081508589273 2.8235897498010356 51 65 36
10.689817000960929 2.9530610654225598 2.7366811018694706 51 64 34
10.509378996308095 -2.7657391692807822 2.1583249088643925 57 67 43
10.248195701777865 -2.876288000871026 2.1753958525603228 56 67 39
10.079880128048888 -2.993869940954751 2.1869794058506233 54 65 32
10.887459885223166 -2.6507638732142023 2.696223983180217 56 68 45
11.272601126747016 -3.0744957441035905 2.858976928822966 53 67 40
10.447916818664968 -2.735154424319573 2.576810334279939 55 67 43
11.335478283197473 -2.7731919151890683 2.8404641907503447 56 69 42
10.70422802428301 -2.5829299116939803 2.540076862128772 57 69 46
10.802097644900025 -2.344494650299498 2.713076741909201 57 71 47
10.450008645606204 -2.6595387307223883 2.417109921952931 56 68 45
10.729177554977836 -2.856843776663452 2.728205318181913 55 68 41
10.017964723487378 -2.9467892060649237 2.4672821043119857 53 67 40
10.264073824308525 -2.454910581836229 2.4378221046061777 58 70 47
10.617392729547907 -2.3472977536800146 2.5520982378062103 58 71 50
10.269178516559363 -2.2110103140616575 2.6049060183922026 58 71 50
9.946762561503823 -3.107259884541603 2.476288776231226 50 64 36
9.895942588998382 -2.5829299116939803 2.4828613188216235 57 69 46
10.261944095898853 -2.4815311718203223 2.606092164318289 57 71 47
8.874251873619409 -1.3178966500761145 2.1456999211903023 56 60 43
8.786974369281966 -1.2273449570067183 2.4603081760907735 54 62 40
9.591291934250478 -1.7083382754098106 2.097982003114655 58 62 45
10.19983312665067 -1.7987224774807777 1.9552429683403867 61 63 44
9.099234097435875 -1.4660147459475767 2.004693464110338 57 59 45
9.059197653679497 -1.587419369427934 2.006742162215581 58 62 45
10.038107134466536 -1.6935640755663415 1.9617698700845707 56 60 42
9.310003499248738 -1.4516124506032815 2.2468441422095684 59 63 46
9.270877311480081 -1.5897241612634028 2.2502340787410544 60 64 47
9.51289483078106 -1.8588488750732575 2.229850952993088 61 65 46
9.472299308324843 -1.902115538621942 2.3754133826622117 64 69 49
9.672992041501397 -1.4773205987078495 1.867210405458029 54 58 39
9.268519368324913 -1.4326492215817785 2.3985413835553997 61 66 46
9.760424270312775 -1.8253584656067818 2.0879236903711247 60 62 46
10.05496251057619 -1.7517827339588008 2.4626917653133904 63 67 50
10.469219559383372 -1.9599077651962826 2.573607100444816 59 71 48
10.311719411140071 -1.7855395697381213 2.5980115538156845 60 70 47
9.44111949961467 -1.406574214439225 2.5478713015742787 59 67 45
9.746663796139874 -2.0384441051339772 2.3465881635791286 62 70 50
10.561413593452752 -2.261804083568638 2.2734683130969926 60 72 49
10.150919662694895 -2.0916201119647204 2.182032094778413 62 69 49
10.713204152678081 -2.3490173178788663 2.3897699606477 59 71 48
10.271306744931067 -2.2417682327153403 2.436992838634785 61 71 48
10.403180595050417 -3.009840674009231 2.053120858547622 52 62 30
9.907260815989268 -3.1185281883261555 1.9672199038831157 49 59 27
10.932209949124335 1.1096949514496939 1.5548253119918416 62 65 60
11.152970195461462 0.9078116628967807 1.555141465990561 72 72 69
9.49908155122417 1.1103497766379373 1.9852758277992355 34 40 20
10.334941633637992 1.1566482507173004 1.9499595503001697 38 42 23
10.05903878540787 0.7799586185944223 1.8555099311169765 59 64 54
10.465858113838296 1.1103497766379373 2.161096869600331 39 45 22
10.936302123340203 1.1114580135352947 2.5098217311662827 45 54 23
11.082186161309536 1.1096949514496939 1.7362659921036552 65 68 61
10.896727442379513 1.1948947535447845 1.8330829800980275 54 57 50
11.49700710562849 1.1716641663682845 2.4459260377393592 46 53 23
11.057004727650513 1.0534355763398224 2.3570807214780864 44 50 22
9.544854560584428 0.8720815276378707 2.227259930139877 38 47 21
9.759949328943108 0.7006974821580342 1.9735462043627776 30 35 18
10.05903878540787 0.7799586185944223 1.8555099311169765 59 64 54
9.191047436394607 2.460050787778048 1.55179940971256 41 48 18
8.821183967040463 2.0589770602698385 1.5510027859317748 43 48 18
8.476624910933431 2.385305338882034 1.6683255840247355 43 48 17
9.995341614366678 1.482814946735979 1.7544530044949307 43 47 38
10.198423328082756 1.3618695763520676 2.063662017404879 37 42 15
8.67897195471774 1.5883187829859429 2.027249879623887 42 47 24
9.995341614366678 1.482814946735979 1.7544530044949307 43 47 38
8.2390414888112 2.2965226469626514 1.9208298785821387 45 52 20
7.614894653799302 2.067307931278161 2.0971208968484722 44 51 19
9.16380772724258 1.5883187829859429 2.1253600723219908 44 51 21
7.657758810694653 1.8756746265912783 1.9486864670245518 43 48 18
8.437255000280388 2.1180066940101834 1.9122667770668484 44 51 19
8.080351964726868 1.8756746265912783 2.063966966768253 44 51 19
11.168132087500435 1.444288967787153 2.4819828790198044 46 53 20
8.599006090529247 1.8756746265912783 2.1665816138434804 44 51 19
11.329391919256889 -0.2873742022174209 1.5553852635347853 9 9 9
11.506711043447611 0.33560911103293933 1.555622767336861 6 7 6
10.932157050093839 -0.11099458809129813 1.5548252347039802 5 5 7
11.27719437237866 0.25132409011744034 1.466450757578471 2 2 1
10.923360844850054 0.07252266837116365 1.6464320645430548 2 5 1
11.01781111491754 -0.019398853373813207 1.7372418021559604 2 2 1
8.578668647234519 0.2550126820127225 2.1681897474646306 41 50 19
9.178682104384862 0.34086149410245614 2.00068658165583 40 46 23
9.178473382329889 0.2550126820127225 2.2583928624742624 42 51 21
8.841494444546187 0.3859998999254357 2.148102271978132 39 48 19
9.03691902012194 0.11448720295452769 2.2713268217517557 42 53 21
12.10266096355993 0.7756940418288439 2.6780300196528475 45 55 25
8.48825050398891 -0.43755989881833796 2.0383132621746256 44 50 32
8.983385469273916 -0.43755989881833796 2.1378487680578653 47 55 32
9.000625309495518 -0.03592993704222172 2.4315377441271284 46 56 26
8.82804237403563 -0.15277314766334976 2.0189748986983487 44 51 25
9.019748549924888 -0.2740680594663568 2.0087805342178306 44 50 29
8.901875357660874 -0.8283807080800406 2.4445411253753777 51 61 37
9.269870582405778 -0.31161103015810576 2.25032180337208 48 57 27
10.47023285189478 -0.6574646386458606 2.788806213339473 58 70 46
9.336337811096817 -0.9735906456981505 2.564709808357604 53 63 40
8.76704019574241 -0.906460641983808 2.022323141200827 44 52 34
10.121012195462182 -0.8100670112293048 1.7521470779592665 67 70 62
8.084756080875035 -0.9327925407999957 2.210369155251296 48 58 37
8.607571081248963 -0.8198551583610189 2.1659071546152093 47 55 35
9.068772918073376 -0.6493628810389179 1.8876239069049665 52 57 42
11.991133668992907 1.121158505100366 2.9751441109791523 53 66 36
12.18054821925318 1.270571125961162 2.8995221777456686 51 65 34
12.104308559317333 0.765069509401175 2.9265094936258995 54 68 39
11.991133668992907 1.121158505100366 2.9751441109791523 53 66 36
11.883131675352196 0.7404934895908915 3.042987646588011 56 70 45
11.991133668992907 1.121158505100366 2.9751441109791523 53 66 36
11.918552005422706 -0.9512763691803982 3.016491370833779 57 71 46
11.324492373924702 -1.3080738527177884 2.8436036491009746 58 72 48
11.918552005422706 -0.9512763691803982 3.016491370833779 57 71 46
10.503347499130577 -1.0449200291335616 2.7803405322953627 55 68 45
11.100453456519203 -2.6260145009176106 2.9185196700852867 57 71 47
8.520855129776777 2.391166689641175 2.1728129468876762 44 55 22
8.648316958838853 2.8578854297782734 2.3098499515326996 46 59 27
7.876648015403106 2.7690071637763327 1.8046720481122145 43 54 20
7.997134128645678 2.391166689641175 2.069568294032282 45 53 20
9.948959759614882 -2.973534708281504 2.326831887979268 56 66 37
10.079880128048888 -2.993869940954751 2.1869794058506233 54 65 32
10.383875181773087 -2.7188155621311383 2.2880380173273247 57 68 44
10.098187687315685 -2.540199765224903 2.3129874198927594 58 70 47
10.70422802428301 -2.5829299116939803 2.540076862128772 57 69 46
11.152948129294451 -2.9101003320069063 2.6487039094506537 55 68 41
10.548164853843119 -2.527618319925092 2.769257594479913 57 70 47
10.447916818664968 -2.735154424319573 2.576810334279939 55 67 43
10.887459885223166 -2.6507638732142023 2.696223983180217 56 68 45
9.672992041501397 -1.4773205987078495 1.867210405458029 54 58 39
9.760424270312775 -1.8253584656067818 2.0879236903711247 60 62 46
8.881004578331977 -1.3476189555373408 1.8945639609045508 55 59 44
9.310003499248738 -1.4516124506032815 2.2468441422095684 59 63 46
9.339280865945117 -1.727121960647036 2.2443320542133876 61 65 46
9.51289483078106 -1.8588488750732575 2.229850952993088 61 65 46
9.268519368324913 -1.4326492215817785 2.3985413835553997 61 66 46
9.44111949961467 -1.406574214439225 2.5478713015742787 59 67 45
10.216421685579792 -1.902115538621942 2.4433354670327816 64 68 49
9.991459859329877 -1.5927708328799453 2.470607896724968 62 66 48
10.02690794337931 -1.9356885319956274 2.0728718637085466 61 65 48
10.455122992103574 -1.8990057885374991 1.9453836168092642 60 62 43
10.718094940383192 -2.112631508203673 2.538194458802097 61 71 48
11.193234672502324 1.3113736956539097 1.6446050935220258 62 64 66
10.373357010929107 1.0534355763398224 2.288922734374211 40 49 23
10.384367056177934 0.7799586185944223 1.9480638372863504 36 41 25
10.473134601437266 0.9255249588704831 1.9447075705214885 36 41 23
10.926374297148339 1.255844415793925 2.1331172057495733 39 45 17
10.722097784087385 0.9824779236080389 1.7418770240124748 69 70 63
8.5151523353941 2.218486146739698 1.550291314928372 43 48 19
8.486180257463086 1.9243378933369166 2.327403590425963 46 53 21
7.6982759823333335 2.0035692674750494 1.8101957145755243 43 48 19
9.903544213865041 1.335969696388545 2.1996456175454613 42 48 23
10.896850182181396 -0.019398853373813207 1.6466164297478323 1 3 1
10.123171573385306 -0.9506543698771036 1.652423538132482 65 68 60
9.019748549924888 -0.2740680594663568 2.0087805342178306 44 50 29
8.578668647234519 0.2550126820127225 2.1681897474646306 41 50 19
9.032703040387627 0.133797054670376 2.4274164017524282 45 56 24
9.07925039350908 -0.20363002463856067 2.4215219120782523 46 56 29
9.66069151358919 0.6092365774145297 2.0938051260161172 32 38 19
9.818171410599145 -0.842506099557062 2.6880150212051355 54 66 42
8.392652694544878 -0.030698575798280496 2.1833471204194064 43 53 21
12.178910937405954 1.031919847475554 2.6656584881405014 45 55 25
10.48694173000934 0.5737281897476645 2.4131395002341707 43 52 23
9.206003055986764 0.5044424571850946 2.122523556667157 39 46 19
9.216022721408487 -0.043309160247266006 2.5850927477303958 48 58 29
10.383998077378495 0.777704599452811 2.4243221203157077 42 51 21
9.42833283834819 -0.6493628810389179 1.9885796800052788 43 49 34
9.136703199072691 -1.1927799422537733 2.1271986103877154 54 59 42
8.762694370645898 -1.0143104224935757 2.153970673538384 51 59 40
9.030809847868516 -1.0789236599640462 2.008206993738092 53 57 42
9.25610190697331 -1.130992662256222 1.7693089802609605 56 57 45
8.634101145762253 2.550533989305518 1.6665412539679059 43 51 20
12.04274974078744 2.7877361205692925 2.951319229536386 53 67 41
11.088194384960296 1.1997201285286339 2.659689369816915 44 56 24
10.964536273238256 1.3924126968501571 2.6817177439676834 45 58 26
10.694371719029055 1.1137399491668665 2.73568854183498 46 58 27
9.420107369369376 1.9904063105682426 2.5511841754142264 46 58 25
11.501887032324507 1.3467401370324252 2.7969181025817424 48 61 30
11.619828068257387 1.1137399491668665 2.769675757099758 46 59 28
11.236589295130571 1.957716887267526 2.870231769932698 50 65 34
10.009147138316626 -2.040338440878767 2.6503224556128466 58 71 50
11.858766806032664 -0.2394023662403512 3.0665693389116058 58 72 47
11.82807470082746 -2.1455109550197426 3.1203613295302914 56 71 46
11.253514948070782 -2.33911291305784 2.8648774286421954 58 72 48
11.941435585512759 -2.3245659437519297 3.0020786257666865 58 72 48
8.792871256139607 2.811341839045349 1.779918224041912 44 54 20
7.750497966727607 2.714976542307629 2.0869855114436375 44 56 22
8.001656321584091 2.5060053761023746 2.2181169921118613 43 55 20
10.689817000960929 2.9530610654225598 2.7366811018694706 51 64 34
11.298230145320755 2.895081508589273 2.851267548923441 51 65 37
10.119453149480936 -2.8411850542646873 2.3110618523154107 54 67 40
10.662725695624772 -3.0906839779538613 2.7426508015716866 53 67 39
10.450008645606204 -2.6595387307223883 2.417109921952931 56 68 45
10.28287090766187 -2.9101003320069063 2.602672027491475 53 67 40
9.099234097435875 -1.4660147459475767 2.004693464110338 57 59 45
9.635339952666008 -1.5856149091563692 1.8684040822176065 57 61 45
10.19983312665067 -1.7987224774807777 1.9552429683403867 61 63 44
10.713204152678081 -2.3490173178788663 2.3897699606477 59 71 48
8.716744371692213 -1.279299685761528 2.3027188205138693 56 62 42
9.786121245416563 -1.9810851803616754 2.2084010738092834 62 68 48
10.112885647700963 -2.1583517956442972 2.311655307351375 62 70 50
9.645304503514243 0.9491782023085984 2.0947251539352996 34 42 19
10.15065172827483 0.9255249588704831 1.8528695542816689 56 58 50
10.47276875011519 0.9823143275276697 2.4146577338558024 43 52 23
9.201416914434972 1.9243378933369166 2.40651403808054 47 54 20
9.66069151358919 0.6092365774145297 2.0938051260161172 32 38 19
10.758774786683958 0.8919802704920671 2.532729406175387 43 53 23
9.356714675834956 -0.4916290094574032 1.8775504924420856 57 61 47
8.160426889093252 -0.8283807080800406 2.3657923333092286 50 58 36
8.683072451854676 -0.622791634906283 2.160032274682359 48 57 34
10.168455074135636 0.44401478578471393 2.44897474649301 43 52 22
9.083444768833495 -0.174610037973061 2.2670157638153894 47 56 26
9.178473382329889 0.2550126820127225 2.2583928624742624 42 51 21
9.05195656186693 -1.0683100013282507 2.424966054833906 53 61 39
10.555203103752302 -2.157933771619879 2.767553972192787 57 71 47
10.749922945727251 -1.8344182242136795 2.7238278425254223 57 72 50
11.99732542883064 0.40061859608090267 2.9720997489588874 57 71 44
12.01870846078477 -3.043260766163935 2.962001356851196 54 68 43
8.986082092716359 2.644122408505667 2.4334225130608385 44 57 24
8.834881926910045 2.399981521621372 2.453647490524937 44 57 24
11.348573895607482 -1.9109995460778884 2.8367706167862874 58 72 48
8.90845699028995 2.1506130161237555 2.4436591796057514 46 56 23
10.70422802428301 -2.5829299116939803 2.540076862128772 57 69 46
11.045452880798921 -2.454910581836229 2.496440589157716 58 70 47
10.561413593452752 -2.261804083568638 2.2734683130969926 60 72 49
10.469219559383372 -1.9599077651962826 2.573607100444816 59 71 48
10.249807619930753 -1.596986195455958 2.608091166387216 60 69 47
11.246188183317777 0.25132409011744034 1.6442569314772268 1 4 2
9.50401180467326 -1.130992662256222 1.8726451244581472 54 55 41
9.970212719954777 0.5470445456109089 1.9645784235498613 38 42 31
10.187303320660526 -2.7958025648615634 2.446747931657196 54 66 42
10.548164853843119 -2.527618319925092 2.769257594479913 57 70 47
8.986082092716359 2.644122408505667 2.4334225130608385 44 57 24
11.96078123017672 1.6469387306618546 2.9909976425003872 54 68 40
8.281083103613208 2.4788864042967846 1.918977125055569 44 53 21
12.291979252872965 0.9817990488864534 2.8651875722262123 49 62 31
10.091146992003283 0.7790250336575799 2.186188956823522 41 47 23
10.961882850998279 -0.11099458809129813 1.6461657617736527 3 3 2
11.011242551574554 0.16323596790895528 1.5549399527361725 4 6 2
9.678025314375063 -0.7355145089630408 1.8670515732322057 49 52 42
11.906083333772846 2.5346063670055896 3.025114644388416 54 68 42
10.556374056053492 1.1948947535447845 1.6490667928665028 62 64 66
10.008006829514565 1.1566482507173004 1.8570025877741942 48 52 37
10.526317280239594 1.3029149167681655 2.4089563493115564 44 50 22
11.040755427084681 0.16323596790895528 1.6456263292750453 1 4 1
11.941435585512759 -2.3245659437519297 3.0020786257666865 58 72 48
11.152970195461462 0.9078116628967807 1.555141465990561 72 72 69
9.948959759614882 -2.973534708281504 2.326831887979268 56 66 37
