20.961152081286244 1.7340557278769133 1.804527947034262 58 59 52
20.934626430329658 1.7424316915530533 1.9554153233743365 55 58 50
21.04408383635569 1.9809773677485494 1.706873852473612 50 55 46
21.164060186906884 1.8290279019115017 1.7539575666530085 53 56 46
20.708046155236165 1.954451357788648 1.9081816562846243 52 55 47
20.995383559193755 1.8418966447902065 1.9033847463985818 49 53 42
11.274609820792659 0.3116328913427578 2.015948909945223 41 42 29
11.614104607701531 0.4862794717013906 1.9091203054574115 43 44 28
11.20925193139992 0.40218715376326347 1.9218572929084754 38 39 27
11.255891310247373 0.4429159613175055 2.117827629534301 44 47 26
11.466480942968632 0.822171570147674 2.3254309002530347 50 52 30
11.915210878834333 0.2691495215150322 2.4085631544095274 47 52 22
11.300866603404499 0.6270666806554461 2.471155774370555 48 53 28
11.192080037264278 0.2691495215150322 2.348741983916147 46 51 25
11.514613513298467 0.21548563023287567 2.104199494301458 44 46 23
11.09203564671739 0.4920822410657685 2.2369832752998726 45 49 27
10.858265176282757 0.653548753624483 2.2540216299141655 46 50 29
10.93452134473786 0.5876637267999462 2.1358268294772422 45 49 28
11.10726880866742 0.552279917137614 2.3562928227255364 47 52 28
11.806976069877706 0.4429159613175055 2.190227119857374 44 47 26
10.97585937459578 0.5018847176620513 2.509430972726959 48 53 28
10.535653338136209 0.6270666806554461 2.412147655656328 48 52 30
10.776424426077284 0.43663309945219336 2.3874914107592557 46 51 25
11.496285788793863 0.34486144250802636 2.2096329695777066 44 48 24
11.743670369864008 -0.10096571486696664 2.303462059110992 46 51 21
11.711271951972721 0.013820491592436932 2.3059538944744657 47 50 25
11.764097403120395 0.12824521454871857 2.3019008754435095 47 49 25
10.990107442898244 0.015618421166588846 2.367013219649724 49 51 25
11.961200563070495 0.16598721061719593 2.5390495594021014 49 53 23
11.432361513851037 0.19450297540610975 2.610015904643176 48 54 26
11.941110708636602 -0.13086448008794646 2.541499728493472 48 54 25
11.909249427774903 0.01795404036382935 2.545420725184884 48 54 22
11.778461415229538 0.14471250081303652 2.4215517857278415 50 53 21
11.725700675567746 0.015618421166588846 2.4266967283845418 47 52 22
12.251935806305612 -0.40674093922483984 2.505370510044113 49 54 25
11.25346316705716 -0.27411121545396555 2.4764858509374603 47 52 25
12.056119938805962 -0.27411121545396555 2.5276974360664433 48 54 24
10.974343966006963 0.7024730218892404 2.685965179066839 49 54 29
11.29939478296402 0.8409835692376597 2.6303816286691735 50 55 30
10.481825180368455 0.8296629709167304 2.4179110635489054 49 53 31
11.23270052948464 1.2527360827103413 2.6410683709521825 49 53 31
11.250700148807125 0.8296629709167304 2.4767990333969623 49 53 31
11.701128981355417 0.946865937876377 2.572163907497211 51 55 33
10.785760719993169 1.4592177121623486 2.5339059846104766 47 51 29
11.093939451888977 1.1572627472209227 2.4950398929460302 49 53 33
10.575225557175486 1.0877032112702791 2.5631502310709484 50 54 32
11.116094531525356 0.4248889360003057 2.6605957768026753 49 54 25
11.004942348274582 0.9173645837062124 2.365636677339911 50 52 31
10.222952225386676 1.9323242187532568 2.4470542498681422 47 49 28
10.76852845946613 1.6221046781064061 2.5362107205312725 47 50 28
11.109937125468056 1.6321026981021203 2.6616588406919295 48 52 30
11.182990378482755 1.8220651814737108 2.6492564236860177 47 51 29
11.182990378482755 1.8220651814737108 2.6492564236860177 47 51 29
11.109937125468056 1.6321026981021203 2.6616588406919295 48 52 30
11.757498274782042 2.9177929208063142 2.1932309919586 50 51 43
11.679075879017946 2.8594732407370156 2.4313078482086317 46 49 32
11.8946137911677 2.8176648137313256 2.547236545520172 49 52 31
11.454608248417797 3.0334245436288274 2.0084651708376744 65 65 60
11.400348816930117 3.129954128671264 2.0106934532417444 56 59 53
11.757876603220355 -2.8693076845985157 1.9964294053890854 41 44 33
11.716585585115585 -2.9424330153102587 2.195738979331484 37 42 27
11.854174342098755 -2.85221982745317 2.5523028928054208 53 59 32
12.184751390733542 3.1287047254035136 2.271350676060921 43 46 37
11.737186473338216 -3.003125599494371 2.567382850528607 51 57 30
11.716585585115585 -2.9424330153102587 2.195738979331484 37 42 27
12.323567305670066 2.9896413981231693 2.497543137717242 47 50 30
12.19792143294103 3.0076850723651796 2.383177219668806 40 41 26
11.7047701082488 3.122582738935073 2.5716781520237597 49 54 30
12.008220264475508 -2.96130495286148 2.080095846647051 43 46 38
11.51870315863446 -3.0218622052929613 2.4476527540067514 47 53 29
11.471682466123156 -3.036149089407157 2.325004636292634 43 48 29
11.7047701082488 3.122582738935073 2.5716781520237597 49 54 30
12.587616795953892 -0.4688532653082924 2.610668192818947 51 58 26
12.285287565045545 -0.15354713122945024 2.6542080371179466 49 56 26
12.549262361220395 0.8600698918791986 2.8073556700428393 50 55 30
11.916983177852584 0.9931112951126233 2.7161785066335113 50 55 30
12.119536126091916 1.2527360827103413 2.680674759788425 49 53 31
11.630633250515228 1.4058744110636994 2.7742744022857084 49 54 29
11.971498003683836 -0.3815483046075917 2.7062368792923497 52 59 29
11.875902297650033 0.23463207699732763 2.7238787893501724 50 55 26
19.08579861523229 -1.3370492610634348 2.985850561394516 58 68 42
11.838806630237007 2.082587864394177 2.7309957590120426 48 53 28
12.475048704420562 2.208994316263651 2.824932248725388 47 52 27
11.684552689545256 1.8795896865996822 2.762462651374471 47 52 27
12.792336961923452 2.6848470734995065 2.7563594945667123 49 54 28
12.490609035351659 2.572513708616293 2.8211523581017452 49 54 27
12.698638157339927 2.386372901916048 2.7749850386398 48 53 28
13.443396475614747 2.572513708616293 2.8445849260659317 51 56 29
13.275718995462688 3.105386952261846 2.8891046158819904 52 59 31
13.322342580174475 2.815696735293062 2.875878380037012 49 58 30
12.482105514345566 2.610708040309837 2.625246109776302 48 53 29
12.231208983009429 -2.8015771380287364 2.662616496147791 53 59 32
12.137658922427084 2.9338709253051336 2.6776771027037896 50 56 29
12.117861616766037 -2.977499238013965 2.6809531046209742 52 58 31
12.137658922427084 2.9338709253051336 2.6776771027037896 50 56 29
12.086466280105725 3.119006724391373 2.686215457933307 51 57 30
12.04190870416794 -2.781794351929602 1.9857619370775095 38 43 32
14.038018780105837 -0.8979504440447218 2.57638603022457 55 62 32
15.14499499319437 -1.2915961978120378 2.7258342996319453 63 69 44
15.560551930019752 -1.3305117163155078 2.668974611825107 62 68 42
15.48416440238949 -1.4714558861796747 2.678716745019919 63 69 45
15.979286899521327 -1.624195857375035 2.764199204869397 75 83 59
14.410857047194236 -2.2947479585530464 2.6725948274963525 54 62 39
14.76263747213948 -1.8952873298079254 2.6275536264566806 58 64 41
14.76263747213948 -1.8952873298079254 2.6275536264566806 58 64 41
14.143699302561666 -2.167400825931372 2.711365292241485 55 63 40
14.779468997823525 -2.2038018022515162 2.6255403935596964 56 63 38
14.519095460263435 -2.084065500583714 2.6580894526076206 57 63 38
15.638980362998574 -1.635110897017422 2.8235750656514127 71 77 52
14.952057918801717 -2.019722153979874 2.6055455885348917 58 64 40
14.700734098248548 -2.2284991820568907 2.5088497936308687 57 62 39
21.082004658665376 1.6853168920696082 1.8522114677654413 61 62 55
20.735272680494766 2.0456064461149737 1.7577894839418264 56 59 52
21.039108419591056 1.936165624106227 1.8036458690498558 48 53 42
11.274609820792659 0.3116328913427578 2.015948909945223 41 42 29
11.614104607701531 0.4862794717013906 1.9091203054574115 43 44 28
11.901011918620412 0.2394034522173302 2.291629571549397 44 48 25
11.10726880866742 0.552279917137614 2.3562928227255364 47 52 28
10.858265176282757 0.653548753624483 2.2540216299141655 46 50 29
11.961200563070495 0.16598721061719593 2.5390495594021014 49 53 23
11.432361513851037 0.19450297540610975 2.610015904643176 48 54 26
11.725700675567746 0.015618421166588846 2.4266967283845418 47 52 22
11.130163081884884 -0.13086448008794646 2.4907402080219034 48 53 24
11.373048288985437 0.11512785872162441 2.111565759665731 46 48 24
11.065455074532652 0.013820491592436932 2.2388729073060922 48 50 26
11.149092682921118 -0.23989304701164946 2.35254776487246 48 53 23
11.024625373653578 -0.11399545894639564 2.3638189528226805 47 52 21
11.046382149078878 0.14471250081303652 2.361821128621026 48 50 24
10.492762261877779 0.587446682667648 2.5752999090562874 49 54 29
11.377474310618952 1.0287342057123414 2.462709394403884 51 53 33
11.701128981355417 0.946865937876377 2.572163907497211 51 55 33
10.872296202355468 0.946865937876377 2.522554126043206 50 54 32
11.425628661552942 1.0877032112702791 2.6110188676514174 50 54 32
11.126640645696659 1.4376611919795597 2.6587827448582484 48 52 30
11.301849601275523 1.609481888565181 2.339217690824227 47 49 28
10.631190417036523 1.609481888565181 2.271534020727142 49 49 29
11.43808869666421 1.7533310459595886 2.456167647568086 45 48 29
12.235532821705153 3.021916684250119 2.2678561128589028 46 47 38
11.818978131750782 2.84784589239831 1.9940869468496856 72 72 68
11.737186473338216 -3.003125599494371 2.567382850528607 51 57 30
10.938455416554655 -2.919220983984944 2.248068481734978 43 49 29
11.59135029349542 -2.919220983984944 2.3153491085674274 43 49 29
11.637887500732013 -2.890013579082807 2.4354329435815387 47 53 30
10.487051537589572 1.9953160235657972 2.5761570336120863 46 50 28
10.843881964302104 1.7823343048917468 2.526241506626682 47 49 27
11.794884681482701 -2.8081411148251925 2.2995621945689226 44 50 26
11.917981406106373 -2.841719512300595 2.1836012999658623 38 44 24
11.438513696306813 3.1271548347387363 2.3277324103812846 42 46 31
11.485670177824915 3.125181247220378 2.451116800568088 47 51 31
11.485670177824915 3.125181247220378 2.451116800568088 47 51 31
11.598209980440059 -3.0473988981063416 2.2031215513350757 40 45 31
11.433628302977095 -3.056484877957923 2.0093239745357487 48 51 43
11.855667903127479 -0.18563245105024473 2.7277410283078067 51 58 28
12.397104241669568 -0.31932885567616676 2.6374550029907726 50 57 26
12.298560283149511 1.0877032112702791 2.652175816177581 50 54 32
18.960691067528202 -1.221041042481331 3.0358560590845505 55 64 38
11.875902297650033 0.23463207699732763 2.7238787893501724 50 55 26
12.616009313301522 3.113774021483929 2.7924402553550136 52 58 31
12.270405905845776 2.7620056864570195 2.6565011745977922 50 53 29
11.614654565736117 1.6469308563840102 2.7778665466854933 48 53 28
11.614654565736117 1.6469308563840102 2.7778665466854933 48 53 28
12.995537000233352 2.5154718197014323 2.719468320952649 48 53 28
15.650850964751744 -1.4311936779103605 2.821279045716634 61 70 44
15.99090488195804 -1.4547016431989073 2.762370553911681 61 70 46
15.06650072901027 -1.4547016431989073 2.737797149941054 63 69 46
15.108162891762714 -1.7907014234944705 2.7313912110729026 61 67 42
15.20501913450245 -2.1308905422457083 2.5781683159981768 57 63 39
14.952057918801717 -2.019722153979874 2.6055455885348917 58 64 40
15.5247057616882 -1.7595533616371315 2.673510963881204 63 68 46
14.700734098248548 -2.2284991820568907 2.5088497936308687 57 62 39
20.93534983518624 1.7820249195713862 1.7559815915359667 56 59 52
20.799759924193175 1.69125009322269 1.9580413227981142 56 59 51
21.164060186906884 1.8290279019115017 1.7539575666530085 53 56 46
21.57135574955117 1.906107080707881 2.0452431634813886 50 53 45
11.274609820792659 0.3116328913427578 2.015948909945223 41 42 29
10.96540415299052 0.7330973486985777 2.369318055695781 48 52 30
11.462998572593083 -0.40674093922483984 2.4535143265545702 49 54 26
11.093939451888977 1.1572627472209227 2.4950398929460302 49 53 33
11.591243401298902 0.40218715376326347 2.00295631367586 44 46 28
10.83227385461278 0.721248139071601 2.527759052708941 49 54 29
11.039779419629415 0.21548563023287567 2.026122104980651 42 44 25
11.573201232175283 0.3569044524905468 2.5896713498223654 48 53 25
11.10726880866742 0.552279917137614 2.3562928227255364 47 52 28
11.725700675567746 0.015618421166588846 2.4266967283845418 47 52 22
11.09203564671739 0.4920822410657685 2.2369832752998726 45 49 27
11.757624771355639 2.966035492375781 2.564701378683487 49 54 29
11.009920387046444 1.9323242187532568 2.5052192364407366 46 48 28
18.16396276095213 -1.0412353600200304 2.9568262217468413 58 68 41
12.086466280105725 3.119006724391373 2.686215457933307 51 57 30
12.482105514345566 2.610708040309837 2.625246109776302 48 53 29
12.137658922427084 2.9338709253051336 2.6776771027037896 50 56 29
12.263227275094597 2.3999694667355365 2.8827807988314658 48 53 26
12.665061704166776 2.8875862768635505 2.7819528653373133 50 55 28
12.665061704166776 2.8875862768635505 2.7819528653373133 50 55 28
12.00584431260109 1.6321026981021203 2.7001263025393603 48 52 30
12.231208983009429 -2.8015771380287364 2.662616496147791 53 59 32
12.386060074733717 2.3792197371173174 2.639073621939074 48 52 31
11.85991266924093 2.956362536164464 1.8138934275912835 68 69 62
12.198286101713474 -2.7468930863592402 2.167534751569187 41 46 27
15.48416440238949 -1.4714558861796747 2.678716745019919 63 69 45
15.108162891762714 -1.7907014234944705 2.7313912110729026 61 67 42
14.410857047194236 -2.2947479585530464 2.6725948274963525 54 62 39
20.969623433540367 1.8897641045172933 1.8537611023996043 48 53 42
10.895139440849903 1.3020198205171813 2.519617343672963 48 52 31
11.55369028464922 -2.96130495286148 2.004456000810273 46 49 40
10.42409831407176 0.552279917137614 2.288413522832967 46 50 28
11.659124588284637 0.5326477362035774 2.096896150508118 45 48 28
11.632703449099042 2.891924321780656 2.312078282765367 40 41 29
11.739949801326954 0.3116328913427578 2.0929029349231225 45 47 26
11.296053344441878 0.3070712518934611 2.4716933077499204 48 53 24
11.73213786718371 1.1824276712691806 2.7524088032897143 50 55 30
12.021303040229519 1.4376611919795597 2.6974129344099973 49 53 31
12.373865874662105 1.0754426400527517 2.8509196977558062 50 55 30
12.254321177972438 0.02111091800625834 2.65899727351648 49 56 25
12.665061704166776 2.8875862768635505 2.7819528653373133 50 55 28
12.270405905845776 2.7620056864570195 2.6565011745977922 50 53 29
12.824861129425027 -2.69967484711261 2.0448754872999424 40 45 35
15.472165915398216 -1.6164459355280025 2.680273146597135 80 86 63
14.870280892251545 -2.013627271608732 2.769890677770537 55 63 40
14.779468997823525 -2.2038018022515162 2.6255403935596964 56 63 38
21.11604022185129 1.7927217228144812 1.951940195307383 52 55 46
11.736204747498999 -0.4688532653082924 2.567512166652513 50 56 24
10.760722922323025 0.38562878876589735 2.2614227102830395 45 50 24
11.722518140100295 3.042919954387194 1.81680120094695 67 67 62
14.32395064606332 -1.945763968363758 2.6847138803550195 58 64 39
11.366675070546053 1.6149086043261818 2.4638878212117854 45 48 29
11.29939478296402 0.8409835692376597 2.6303816286691735 50 55 30
10.776424426077284 0.43663309945219336 2.3874914107592557 46 51 25
