12.237452701113313 0.4418265866065184 1.465965089608408 37 43 22
11.184816382852404 0.3979030524501274 1.8163984604656442 38 42 20
12.540322809514866 0.2608730842268617 1.7083458282409163 8 12 6
12.307527754592476 0.01698804867998319 1.7935958312291542 38 43 42
10.122543206146577 -1.0537742828490209 1.5430804838527685 41 49 20
8.882125243373782 -1.457417471999955 1.651888433506466 48 57 24
8.825473089797466 -1.5706159297244449 1.6524101320991753 50 59 25
8.881767936537223 -1.6838189910988823 1.6518917029509836 50 59 25
9.683822612930813 -1.2419460482940243 1.8554522444487302 41 50 17
11.820602382015963 0.19770893887310093 1.8908956876992034 0 3 0
11.675565697711926 0.10899626279933741 1.8950164826948215 1 4 1
11.61512066443794 0.01853185520341394 1.8967659545620026 1 2 1
11.061049528360424 0.020384256794198755 2.011610230328657 5 8 4
11.407164316009478 -0.27260558198499896 1.9973432143246028 2 4 2
11.204070869312375 -0.17768724089177543 2.00559645664654 5 7 5
12.218011409428161 -0.3322581767414149 1.880132161267803 2 5 4
11.692544266339379 -0.36275325817315657 1.9862790858792305 35 38 31
11.692544266339379 -0.36275325817315657 1.9862790858792305 35 38 31
12.054367885051947 -0.447140836356025 1.9730751512820166 38 41 34
12.14335277410691 -0.5252228433492285 1.882097686340122 22 26 21
11.672935597710254 0.5766274791284755 2.1841905300829842 38 44 16
12.12852094856642 0.7250660170890914 2.2607136437881694 41 46 16
12.568715035300654 0.8922863073908481 2.454837568609678 44 49 18
12.922993210788523 0.8052198348420134 2.5489885288629557 44 52 19
12.366949573403264 0.9639139086976388 2.353308596930883 41 46 15
12.552607892653109 0.7143311880915096 2.456404108207286 43 48 18
10.928943811916273 0.38085846024901177 2.232971195170932 34 42 14
10.450760446379997 0.02547732619247479 2.2691606048635045 34 43 17
11.183253659797868 0.1493378894501216 2.3326605233054507 35 41 16
11.297317106286487 0.1329544509447975 2.207795196401867 30 34 23
11.23767804199543 0.5407293599932933 2.328050367817844 38 44 16
11.447147247769962 0.2401115739080946 2.198145185468178 17 20 9
11.262753622278927 0.4837477362763033 2.210067704205427 39 44 17
10.666892953818909 0.022648039361913713 2.136713207864604 28 32 23
12.578399071784654 0.5034244491413429 2.769902535958581 44 53 19
13.417708798955946 0.6989610426777109 2.6330065217853784 43 50 17
12.172105758436501 0.61103816288001 2.49560315347644 40 45 15
13.71360243411026 0.6751421365040569 2.7584874438324727 50 57 21
13.388326224609504 0.29224233393089133 2.8241688837224865 47 56 22
12.79155696235635 0.6751421365040569 2.729260696957795 46 53 19
11.63256479298696 0.4291533735932738 2.418216274719521 38 44 16
13.0779102242423 0.8100493888835741 2.6817626785748163 49 56 21
10.60582095219603 1.7085124118357773 2.3859824411312536 39 44 13
10.000824644155982 1.5706029078735253 2.179617633195199 36 41 10
10.606120178015964 1.4326480338558645 2.385952496123865 39 46 14
10.050538293192016 1.691900565085532 2.176173323766796 36 41 10
9.00769499727329 1.5706029078735253 1.9964570422082188 28 35 0
10.746765039338857 1.299784710140778 2.3721627582851883 40 47 15
9.06320819269539 1.4493109141316867 1.9936817832569442 30 37 1
10.701297469829179 1.5705405539298551 2.5231907604414996 45 50 15
10.747771581008495 1.730361240514257 2.517139053602321 44 48 15
12.149536419150033 1.570301059019239 2.874730641489559 49 59 21
12.190490622612959 1.872882958593271 2.862706085882254 50 60 22
13.253373601783894 0.6333420872168657 2.8567877347259056 49 59 22
12.190750952279009 1.2678070898144975 2.862631519912814 48 58 20
12.45066430004388 1.570418870420427 2.797178905064575 48 58 21
12.610526899097604 1.126429832335468 2.763420616923861 49 57 21
13.124180184542121 0.3814447348883599 2.8926109826473194 49 59 22
13.124180184542121 0.3814447348883599 2.8926109826473194 49 59 22
13.866221108275429 0.10152053932211869 2.9959817329516536 51 61 24
10.373466335119716 -0.7644279186440796 2.4100673759519853 46 52 19
10.790308781059391 -0.37994752768179596 2.3680052392669517 36 46 9
11.11697659703771 -0.44297337385596364 2.219851810705786 35 44 14
10.479054709060666 -0.09916602460063319 2.266896050882474 34 43 13
10.890912605750751 -0.674215190688921 2.3585922315810612 41 49 18
11.496928387484633 -0.5399732165567341 2.195009262142266 40 47 24
11.11697659703771 -0.44297337385596364 2.219851810705786 35 44 14
10.489031590105672 -0.563985495239457 2.3978761411292013 40 47 14
10.81642154186024 -0.33617833579254686 2.2411071514827365 38 46 24
10.602017793012442 -0.22080762207932952 2.2572429787260964 38 44 22
10.69461541973798 -0.08821010945075322 2.1350674494085338 31 35 27
11.964493693472676 -0.3447633965040451 2.6813416906674727 41 52 17
11.325967159689682 -0.25111233099469743 2.449428050742385 36 45 10
11.175480344800084 -0.7590515703371896 2.6254205849167764 47 54 19
10.43376148039421 -0.5097586942197668 2.560200158668537 40 51 18
12.409379689278214 -0.1963812101103773 2.806576718235983 45 54 21
11.450813378703385 -0.1318778408572772 2.5845128822354853 38 48 11
10.361035440617295 -1.0386479124138561 2.2764528997945885 43 52 23
9.668314464409546 -0.9363480895972344 2.080752473480176 44 51 20
10.449776261408157 -0.9665469097587367 2.401968806248958 46 54 22
10.115643660920009 -0.7679821031102017 2.1717259827384856 42 50 20
10.739153609803228 -0.6914793375885777 2.13244475049292 39 47 22
9.953156518930976 -1.0965806180147997 2.064816588036502 40 49 18
10.150775599173402 -1.175434505022213 2.604102807274527 50 56 24
10.001753430500854 -1.3649214047033442 2.629651520009348 51 56 25
13.093070414996621 -0.2592562623173591 2.9021345321862104 49 59 22
10.857632677373758 -0.90174978796893 2.679619954642657 51 58 25
9.951477182021623 -1.5704654764987065 2.6387157638502448 51 57 25
10.482453920542525 -1.3128287332324722 2.7577014804597093 54 61 27
10.477770299108405 -1.2843745598823129 2.3990452142625704 50 56 24
10.333464901021326 -1.4244728689502437 2.4143901455519723 51 58 27
9.557110498512271 -1.5705628412918389 2.35052583821287 51 58 26
8.695429523003325 -1.698168786072844 2.0127998268393155 51 61 26
9.704738843075415 -1.7413784223397148 2.4905200109518324 52 57 26
9.65324451117526 -1.570522558063567 2.497554006431315 51 56 25
9.874104502661938 -1.3194822310392549 2.188592969922907 48 57 23
8.69579448641669 -1.4430233837262385 2.0127799654033667 52 62 27
9.66910505522676 -1.5705927903164354 2.2037405930675047 49 58 25
9.66910505522676 -1.5705927903164354 2.2037405930675047 49 58 25
10.659757921859201 -1.2382847207180316 2.5286889983500855 51 55 24
17.863002123310345 -1.507473865360249 1.088791004448304 33 40 6
17.073307375835608 -1.4363345581446205 1.0644355151150284 33 40 6
17.863002123310345 -1.507473865360249 1.088791004448304 33 40 6
17.129309740821096 -1.32268829577792 1.2574183113991335 39 46 12
17.719409233312476 -1.2641493828690944 1.2084780998875475 41 46 17
17.8475580345809 -1.32268829577792 1.1506128095074843 36 43 9
17.390124374978665 -1.2641493828690944 1.2622746582163857 40 47 14
16.923654410816535 -1.3830143154041528 1.2534778721917972 37 44 12
16.99887042354305 -1.5706958722250361 1.1923611308275703 35 40 9
17.02816555287645 -1.6339186810689168 1.1930450649651734 35 40 9
17.36188029401673 -1.511234744397891 1.3216807175721608 39 44 14
17.332966098262812 -1.5707018530532117 1.3212563140950488 37 42 11
17.96955774166097 -1.514574377191381 1.4435430313116444 40 45 16
18.283666809457742 2.0836518983726573 1.1007903789959386 26 28 2
18.814491918228864 1.9091665319850875 0.9278383223755239 25 28 0
19.197638331881087 1.84519638105279 0.8767026868367062 38 42 11
18.291478964552212 2.055086702580132 1.2203067814964523 28 29 1
18.252189295842488 2.0021857169503896 1.1604960591684206 27 29 1
9.574032792731806 1.7846043421553577 1.7513745385364132 28 32 0
10.11626760010548 1.980623565777428 1.4438756707250011 38 41 12
9.574032792731806 1.7846043421553577 1.7513745385364132 28 32 0
9.76077656596591 2.265138013123565 1.853146146370817 39 44 11
10.307356755406097 2.20213416491925 1.7384006884518521 36 41 12
9.633577459273713 2.1180060153425497 1.6455506578737369 33 38 8
9.148228583914975 1.9212001365987614 1.8726269792465622 29 34 1
9.76077656596591 2.265138013123565 1.853146146370817 39 44 11
9.135314606854132 2.5022109003030537 1.8730671342867005 44 48 15
9.739701190402949 2.4163015943070127 1.8537739405026523 41 47 8
9.688977290601164 -1.9974414739205615 1.6451224349167899 48 58 22
8.495196219608562 -1.8217284856494407 1.8966523384808234 49 59 25
9.651882617859378 -2.140919991922148 1.8564206599719315 50 57 22
11.684161099213922 -2.6162321223433884 1.7184961788166073 48 53 22
10.501169768611666 -2.3023291040305502 1.6393644204917408 47 53 21
20.706554144533246 2.7339592446526813 1.6055498617254016 10 7 0
18.216468551495446 -2.9874722311750057 1.5553965259284313 39 35 10
9.22671241577547 1.8097358216426416 1.9857209522364192 30 35 1
10.029755377379319 2.0774964107297618 2.177608071371692 40 45 15
10.051930276826143 1.8413989325324904 2.302955032279058 41 46 16
9.80739583363987 2.24899623316804 2.1934346467503443 45 48 16
10.422282630850324 2.24899623316804 2.2714566563325502 45 48 17
9.786420854700866 2.426999657551123 2.194974153283155 45 50 17
9.859826008870046 2.3360557140694715 2.3206080408769036 46 51 18
10.301587317627783 2.1180060153425497 1.9401996050509638 37 42 13
10.44064044120101 1.9212001365987614 2.1505398815280694 34 39 8
10.886295071202841 1.8824229047042162 2.4996923658681647 48 51 18
12.342512665374334 2.94352064201319 2.6229659342332265 51 61 24
12.514060670283543 2.3230754429583 2.7833232228231957 49 60 22
12.79056452543432 2.4660633917867867 2.729438122468797 49 60 22
12.342512665374334 2.94352064201319 2.6229659342332265 51 61 24
11.63213063060385 2.789488934853814 2.5599692176403694 50 60 23
11.86230455348228 2.6510190896339445 2.5310876046078814 49 59 21
12.610023566667513 2.014547237537822 2.7635210972837214 50 60 23
11.898342681736976 2.1903563997173507 2.6926861632498422 48 58 21
11.71004906957862 2.4423189662347333 2.549925503266032 47 57 20
12.57738981534582 2.6378328637635073 2.7701084443634243 51 61 24
10.926620500420356 2.760597280331306 2.233136970185894 48 55 19
11.133234021628224 2.7995364908723737 2.1103235504964752 46 52 15
11.916845704939176 3.0085918628999426 2.275461639331464 50 58 21
11.85763067577976 3.1189366293999092 2.2797155770627513 50 60 23
11.232294647291154 3.1189366293999092 2.2120851524473055 50 60 23
11.444651836898915 2.901399615755789 2.1983032882615476 49 56 19
12.10657159461179 3.0217601370707325 2.1591924448804383 48 58 21
11.89341613394543 2.992196387983261 2.39371680785473 50 60 23
11.395803053210692 2.8365094362497603 2.442068198160136 49 59 22
12.858244254745177 2.971234880019992 2.556509206394847 51 61 24
11.89341613394543 2.992196387983261 2.39371680785473 50 60 23
15.891668389883371 2.599388639535323 2.9942516201181157 52 62 25
15.847312639746976 3.039912002631842 3.0144917721251394 53 63 26
9.486203028390724 -2.382144928068591 2.521386729349228 52 63 28
9.116127266340513 -2.5773681753240036 2.249009337762548 52 58 25
9.305191494224733 -1.9655944684400548 2.5491668873945006 52 59 25
9.569922422044694 -2.129523478567601 2.5092411214561183 51 60 26
9.194885106187197 -2.4920643382133436 2.390267092323854 53 60 26
8.983270206568506 -2.3768476517895087 2.2609833413968357 52 58 26
9.717682710191463 -2.0553706899982886 2.6843650945656936 52 62 28
9.763811444323185 -1.8567883412320099 2.3298051544751033 50 58 26
9.189545274961324 -2.1025979165642434 2.110137372380046 51 58 25
9.666673097830786 -2.2049415876169025 2.080847443339723 50 57 24
9.85792992631101 -1.9028186522212822 2.4703883423328974 51 58 24
9.07163220552541 -2.1746748500829445 2.252967552700988 52 58 26
9.583798908168985 -2.3733462434499892 2.0856915608140842 50 56 24
9.518454383396612 -2.0446897925367407 1.9722591110984313 50 58 23
9.593910028172477 -1.9379605983082773 2.0850953554705844 49 58 25
11.144450300992757 -3.0423875398674554 2.3359875197842936 52 62 24
11.258624992930146 -3.0533515952157786 2.2103403470307397 51 61 21
11.991154765864916 -2.9445802887240657 2.2702040975500664 50 61 24
10.44027104151136 -2.3708598795859848 1.9350616153298532 47 54 22
11.404778017595518 0.47976151091394076 1.722141924300129 38 42 21
11.77690472009636 0.283384175664608 1.803815816992688 7 11 5
11.902282507936635 0.36499636464284935 1.7157701224693902 35 41 22
11.780764172984664 0.36499636464284935 1.5469824712996996 38 44 23
9.416224163460772 1.6788509646791077 1.754435079141248 29 34 0
9.987731737082862 -0.9147309810813833 1.7438176267310515 39 46 18
9.653526499229251 -1.0003842285712086 1.8563706545961884 41 50 20
8.881767936537223 -1.6838189910988823 1.6518917029509836 50 59 25
9.298361887979365 -1.2419460482940243 1.540623112068954 44 53 20
9.690287383751494 -1.1438522107874107 1.6451123677441586 40 49 18
11.061049528360424 0.020384256794198755 2.011610230328657 5 8 4
11.124505516245497 0.11979485553727405 2.0089208507649103 2 6 2
11.407164316009478 -0.27260558198499896 1.9973432143246028 2 4 2
12.218011409428161 -0.3322581767414149 1.880132161267803 2 5 4
11.042812705540504 0.5241680379511742 1.914337769967327 39 44 19
11.62868305444764 0.6595187704965841 2.085001024670836 41 46 17
12.999068090399067 0.8019724951525654 2.4153969774138666 41 46 15
13.432778645741 0.9152716290252771 2.630997828397097 47 56 20
12.552607892653109 0.7143311880915096 2.456404108207286 43 48 18
11.997427564726557 1.0637595206617918 2.3844175159309615 42 47 15
11.795295787180136 0.7143311880915096 2.4027282194248905 39 44 15
10.450760446379997 0.02547732619247479 2.2691606048635045 34 43 17
13.388326224609504 0.29224233393089133 2.8241688837224865 47 56 22
11.946730514043326 0.5407293599932933 2.3889183987417564 36 41 14
12.931330047188169 0.415043602912612 2.7052083731574674 42 51 14
13.514994835689013 0.5034244491413429 2.7967789343808787 47 56 23
10.587255128048954 0.033961810915491816 2.538495347686943 36 46 8
9.062858025130028 1.691900565085532 1.9936991717338968 30 36 0
9.85127653914208 1.5705760586903386 2.3214165298677214 40 45 14
10.000824644155982 1.5706029078735253 2.179617633195199 36 41 10
10.748066854928421 1.410732821668512 2.5171009332877596 44 50 14
12.807363594944228 0.9507360655437141 2.726448142561778 48 57 20
12.45066430004388 1.570418870420427 2.797178905064575 48 58 21
12.490631206314138 1.8039730223744865 2.7883668849694363 49 59 22
13.916892402246889 0.5415028916451438 2.9729588704800514 50 60 23
10.602017793012442 -0.22080762207932952 2.2572429787260964 38 44 22
10.815127954118863 -0.1969446890879742 2.1280305098939905 35 39 30
10.420364440788317 -0.496816962090809 2.271611923608839 41 46 17
11.320396637914019 -0.39908424460632336 2.100452680936377 51 57 35
10.81642154186024 -0.33617833579254686 2.2411071514827365 38 46 24
11.693740792730138 -0.4895464571188044 2.0818610462108844 57 63 44
11.28283390063798 -0.5097586942197668 2.608894065684904 40 51 16
10.725884225799344 -0.8754628511252948 2.51997625223754 49 54 22
10.94835842535293 -0.43599160233382017 2.492146801976554 36 47 13
11.333924431377309 -0.572073081289405 1.9051644917337953 68 76 58
10.624735939143896 -1.0855675916192942 2.725802435947702 52 60 26
10.434494075711521 -1.570378321119044 2.7692455470322512 55 63 29
10.00143612308045 -1.7760371162241488 2.629707984179158 51 58 26
10.150775599173402 -1.175434505022213 2.604102807274527 50 56 24
10.394297419499438 -1.0115935629030268 2.5660032500705743 50 55 25
10.713862236426076 -1.1548967631701235 2.375338699126736 46 53 24
9.557110498512271 -1.5705628412918389 2.35052583821287 51 58 26
9.609120016970074 -1.7166627098259266 2.3451883982210804 51 58 26
8.63792036139234 -1.5705927903164354 2.0159528365574158 51 61 26
8.866792843538944 -1.3194822310392549 2.003673560450074 50 60 26
8.866792843538944 -1.3194822310392549 2.003673560450074 50 60 26
9.704738843075415 -1.7413784223397148 2.4905200109518324 52 57 26
9.720515366418242 -1.698168786072844 2.199866013227467 50 60 27
10.891905826478602 -1.0929602872647661 2.499003546680869 46 55 24
10.51794967531227 -1.3996825209744297 2.5481306606110214 52 57 26
18.09802479216922 -1.2641493828690944 1.156787696991969 38 43 12
17.463513105826127 -1.32268829577792 1.20291789431771 39 46 12
17.393177785464594 -1.5706958722250361 1.1389099124668252 33 38 7
17.65027348846172 -1.3830143154041528 1.1456132145870077 33 40 6
17.421809891527932 -1.6339186810689168 1.1396672627927584 32 39 5
17.02816555287645 -1.6339186810689168 1.1930450649651734 35 40 9
19.382966115373307 1.932680700160416 0.8159669090930549 17 22 0
20.00490209941627 2.2781508868693443 1.5567733591886734 35 34 5
9.759343054911753 2.1180060153425497 1.7479090493210552 34 39 10
10.188358115201293 2.20213416491925 1.6414731163188159 37 42 13
9.450842116851348 -1.8993234063558562 1.7537547978506653 48 59 23
10.205668252921877 -2.226606022969001 1.8405227019450425 48 55 20
10.127205795311609 -2.3708598795859848 1.8426652924180242 47 54 22
11.579320290619663 -2.6162321223433884 1.6329713806884925 48 53 22
19.915866586951363 -2.9954664034260428 1.3024458550908313 26 20 0
18.39651924075553 -2.933726314819447 1.5555472588320798 39 36 9
10.347428888251859 2.021003632224959 2.41287494470444 47 50 17
9.957602982154045 2.1773814329492702 2.064576113806361 40 45 13
10.274475025157042 2.0242965575163083 2.0480487671849943 38 43 13
10.297481668346661 1.9652073432165391 2.281723138703408 41 46 17
9.928142355084074 1.9212001365987614 2.0661740062323397 36 41 10
10.68017373534675 2.1432951225512826 2.3786217531962937 46 49 18
9.49363199324614 1.9212001365987614 1.9733693343580558 32 37 4
9.940079930906872 2.5303059211568995 2.3131154533427676 46 53 17
12.253832261763364 2.5715816666473725 2.6357903153794617 50 60 23
12.514060670283543 2.3230754429583 2.7833232228231957 49 60 22
12.031151182962441 2.726314793395385 2.6702891137582108 51 61 24
12.188822133077721 2.3311470569780615 2.645505509025334 48 58 21
10.064826947243766 2.4163015943070127 1.9493236173562454 44 49 12
9.968101787850653 2.6006631906466118 2.1819080899815186 46 52 16
11.916845704939176 3.0085918628999426 2.275461639331464 50 58 21
11.294788592784709 3.0085918628999426 2.207960842267572 49 59 22
10.901062853688744 2.7122677142349745 2.3576570702635995 49 56 20
12.048289067885404 3.1212019284544747 2.1624236246993496 49 59 22
11.678521395278079 2.7995364908723737 2.183853857209632 47 54 17
11.182518258572077 3.1124652667718733 2.4650502423177874 52 62 25
12.858244254745177 2.971234880019992 2.556509206394847 51 61 24
12.037253969035449 2.971234880019992 2.5106131167766725 50 60 23
15.847312639746976 3.039912002631842 3.0144917721251394 53 63 26
8.691897703966704 -2.382144928068591 2.4544696125827072 53 61 27
9.575801273208567 -2.4671194943929997 2.210907809671727 51 56 24
9.717682710191463 -2.0553706899982886 2.6843650945656936 52 62 28
9.37496016740499 -1.9863050740139474 2.2269586076580348 50 58 26
9.740980677539179 -2.1025979165642434 2.1983380202666267 51 58 26
9.366784221502702 -2.0482005200702416 2.3708210572377735 51 59 25
9.593910028172477 -1.9379605983082773 2.0850953554705844 49 58 25
9.873461673016948 -1.8217284856494407 2.1886392347980275 49 59 26
11.373162727196743 -2.9445802887240657 2.2028699582683373 50 61 23
11.882575433425997 -3.0533515952157786 2.2779165208726537 51 61 23
9.049603439887093 -1.3470523091370865 1.6503844801742678 45 54 21
11.276632001316289 0.21688922459475404 2.0026099930770718 1 4 0
11.692544266339379 -0.36275325817315657 1.9862790858792305 35 38 31
12.145190535010558 0.876194536395104 2.259581568069394 40 45 14
12.922993210788523 0.8052198348420134 2.5489885288629557 44 52 19
11.334591687904622 0.2687689671176018 2.319998888809331 34 40 15
10.998857592365686 0.43691563342027184 2.014279519731067 37 42 17
10.998857592365686 0.43691563342027184 2.014279519731067 37 42 17
11.135799218045998 0.34194475259865026 2.1101856220723247 19 28 11
13.138763377938036 0.5697226601168667 2.6724969873604927 40 49 16
13.388326224609504 0.29224233393089133 2.8241688837224865 47 56 22
12.696114148906215 0.49035378993368167 2.576076192149408 38 46 15
10.050854050447462 1.4493109141316867 2.1761515822088775 34 39 6
12.149536419150033 1.570301059019239 2.874730641489559 49 59 21
13.455843271255663 0.8179894220751863 2.8092347673676765 49 58 21
13.916892402246889 0.5415028916451438 2.9729588704800514 50 60 23
10.624735939143896 -1.0855675916192942 2.725802435947702 52 60 26
10.745025468449288 -0.6492226287245859 2.5174937779708593 44 51 16
10.124283347957391 -1.2032774859402837 2.171141117639897 45 53 22
10.949595044363996 -0.6268940920430348 2.0164178384881732 39 47 26
10.891905826478602 -1.0929602872647661 2.499003546680869 46 55 24
10.94835842535293 -0.43599160233382017 2.492146801976554 36 47 13
11.320396637914019 -0.39908424460632336 2.100452680936377 51 57 35
10.479054709060666 -0.09916602460063319 2.266896050882474 34 43 13
9.800026324623914 -0.847400920514523 1.9600930652937554 42 49 21
17.50796906089499 -1.4447540481361774 1.1419297541830635 34 41 7
17.44815351044359 -1.4521859375754822 1.3229384098769912 41 46 16
18.32229858592742 1.9465792950432912 1.1018611279700599 25 28 0
9.522967638468613 2.0242965575163083 1.860398262047438 33 38 7
11.279940756104748 -2.4947367999047385 1.5459249352522426 46 53 22
8.495196219608562 -1.8217284856494407 1.8966523384808234 49 59 25
11.406795687680582 -2.4947367999047385 1.7221149475805415 46 53 22
9.916244115866542 2.5022109003030537 2.0668224304292204 45 50 17
10.573647216196456 2.6006631906466118 2.2594434749078824 47 54 18
11.444651836898915 2.901399615755789 2.1983032882615476 49 56 19
10.886295071202841 1.8824229047042162 2.4996923658681647 48 51 18
12.037253969035449 2.971234880019992 2.5106131167766725 50 60 23
11.834083869191538 3.1161052229762927 2.3991374567269554 51 61 24
11.294788592784709 3.0085918628999426 2.207960842267572 49 59 22
11.057816562049616 2.6510190896339445 2.479220360455554 48 58 20
15.891668389883371 2.599388639535323 2.9942516201181157 52 62 25
9.17285557414307 -2.265739551048834 2.392841742114776 51 61 26
9.73311219867281 -2.1746748500829445 2.33280129424523 51 59 25
9.798083128880833 -2.2939293074292215 1.9601744257432483 48 55 23
11.208965531714501 -3.0283256288898803 2.462117119142659 52 63 25
11.087786540004648 -0.07942958937469398 2.0104728997575636 7 9 7
11.69909496108755 -0.447140836356025 1.8943406348525864 2 5 2
11.692544266339379 -0.36275325817315657 1.9862790858792305 35 38 31
11.247264157952882 0.17028204056305593 2.45791268029754 35 44 10
9.901741052482267 1.7085124118357773 2.3166731890390198 39 44 13
10.666892953818909 0.022648039361913713 2.136713207864604 28 32 23
10.423731698725259 0.029114191828972284 2.4047114053412986 35 44 11
13.063259097492617 0.8334687825215165 2.9116681182591226 50 60 23
12.205303112104763 0.9979361957943392 2.492003926113195 46 51 19
13.070436075517676 0.06782758033832949 2.9093338136042184 49 59 21
11.247264157952882 0.17028204056305593 2.45791268029754 35 44 10
12.490885280580622 1.3369051469246584 2.7883117184619675 49 57 21
9.142743697842068 -1.7760371162241488 2.576107461988771 52 59 25
10.824795091211264 -0.6005887131039047 2.240494058638144 38 47 19
11.563447614001557 -0.29078723575968296 2.569066107167305 37 46 11
10.61518557700546 -0.1318778408572772 2.5346853407276093 38 48 11
10.193883792860232 -0.9363480895972344 2.1664740418602353 43 52 22
17.21920434660095 -1.3706490019016402 1.0691284278970699 32 41 6
9.706697076577479 1.8857301723340223 1.6449865012729674 27 30 1
11.172843448708004 -2.3690030737534973 1.5456864806122064 47 52 21
9.985825068018656 -2.226606022969001 1.743850996750973 48 54 21
10.142638086688617 -2.087545685781743 1.6417922416399404 50 57 22
12.797646450609271 2.9052374399952403 2.728174205040679 52 62 25
11.727656197551475 2.9246367262375084 2.080240118478615 45 52 15
12.806620193152895 2.1903563997173507 2.7265798621975534 49 59 22
12.479800687793857 2.789488934853814 2.6040050774698136 50 60 23
12.797646450609271 2.9052374399952403 2.728174205040679 52 62 25
8.991794876022226 -2.2824314037070064 2.123353180253262 51 57 26
10.029755377379319 2.0774964107297618 2.177608071371692 40 45 15
9.17285557414307 -2.265739551048834 2.392841742114776 51 61 26
10.129399160065349 -0.7705061887118925 1.842604929311871 35 41 19
12.513388748078457 -0.4218939733181038 2.783466658930617 45 56 21
11.397752293803618 0.3049533504846414 2.441864984838338 37 44 13
9.720841843649666 -1.4430233837262385 2.199841573742171 50 61 27
11.61512066443794 0.01853185520341394 1.8967659545620026 1 2 1
17.580070038260224 -1.4363345581446205 1.014670277343439 33 40 7
9.024614445982415 -1.7941972860016955 1.5397075645656029 49 58 24
10.19853648337253 1.8097358216426416 2.166164849398617 35 40 9
9.06320819269539 1.4493109141316867 1.9936817832569442 30 37 1
12.106394646072735 0.8052198348420134 2.502837602854114 44 51 18
17.028351924265756 -1.507473865360249 1.1930494079289495 35 42 10
10.790308781059391 -0.37994752768179596 2.3680052392669517 36 46 9
13.0779102242423 0.8100493888835741 2.6817626785748163 49 56 21
9.835795710456297 2.339355841028521 2.071253933889561 45 48 14
17.116306343276396 -1.4447540481361774 1.1950876078616437 37 44 12
11.855670189967396 -0.15784475874637716 2.700217137551297 42 51 18
10.038816282638685 1.980623565777428 1.5428492649487464 36 39 9
12.313309155573497 1.0123884149370261 2.8297618755455343 49 59 21
10.186365165951017 -0.8588473244515513 2.291155221902482 46 53 21
11.332351540951239 2.8727221100961486 2.3201827656431657 50 58 21
