11.655391217334218 2.2204590331258736 1.553624521097469 32 36 14
12.046920585921471 2.464157850498138 1.301929450303451 27 35 12
11.655391217334218 2.2204590331258736 1.553624521097469 32 36 14
11.123812094709338 0.9735911261300655 2.2284848379305613 19 25 1
11.182965389014033 1.0807279792234206 1.917490492355728 19 27 4
11.047191247698043 0.8855290497634726 2.123521045837818 26 32 7
11.55069733202163 1.1219931930718787 1.727257026535578 22 31 6
12.325275418095085 1.575613055485086 2.1551985557371918 36 40 18
11.349719422362059 1.2912888459073892 1.9121873979627675 25 34 8
11.66854738420521 1.3636232393361376 2.192906993579816 31 36 11
12.325275418095085 1.575613055485086 2.1551985557371918 36 40 18
11.87669854999988 1.2629529469082075 2.1803948910072606 29 34 9
15.203566617075845 1.7133494640652038 1.891997532513318 33 41 21
14.635190892860427 1.7239228423632664 1.9782751839650805 33 41 21
12.563765571139616 2.0691352363923134 2.1426935125743687 35 38 16
13.519203372101062 1.8348387911608812 2.097837557082478 33 42 20
13.329284684721673 1.750535186884573 2.106149502944347 35 43 21
12.973377839691208 1.9460624772382629 2.122501251301877 33 37 15
12.946473465275572 1.6725398660630688 2.2173888965457564 38 46 23
13.259307463319132 1.8591812096975657 2.1996967216719767 33 40 17
13.259307463319132 1.8591812096975657 2.1996967216719767 33 40 17
11.711022184271048 2.1485130551246536 1.9012468149569184 33 37 15
11.752742353598205 2.464157850498138 1.724545673372217 28 36 13
11.228890502197372 2.27611636723334 1.8227999778168034 32 38 15
11.594409236362624 0.025534726015746956 1.9046989371672558 29 34 8
12.024533830476514 0.11633278571786124 1.981410700087826 32 35 11
11.613396087516355 -0.06568524653137874 1.9041318572019392 26 30 9
11.080090326320123 2.534955974804382 1.4622689243766085 31 37 12
11.470350419616123 2.534955974804382 1.2880522138281973 30 37 14
11.894472754162045 -2.316215010494935 1.6380939548426015 35 41 14
11.300275457651365 -2.5028335737085095 1.6416384184056372 40 46 21
11.491965674742724 0.44601567177816853 2.099817712592654 32 38 11
11.368599467856251 0.27924262509610187 2.326895199203956 33 35 10
12.325709895363989 0.586202732030769 2.2559767147727565 30 36 11
11.931628873291483 0.4938095237850129 2.283277518335856 29 35 8
11.368599467856251 0.27924262509610187 2.326895199203956 33 35 10
11.006805943891697 -0.295058449921412 2.125785965595099 34 39 11
11.539907330045512 -0.07226454214639996 2.0973907430195915 28 33 5
11.520799366395932 0.028099616020377777 2.098355221065039 30 35 7
11.103566151780441 -0.43766933228658544 2.229893992739836 35 42 12
11.180803767440644 -0.17119589597415671 2.014508624375513 16 20 1
11.269766033139213 -0.21309428289255253 2.3351981794440846 32 37 10
11.255518797342718 -0.558752574625357 2.4683866435187287 38 45 15
11.281378337216413 -0.6886150402368325 2.217741043566841 34 40 15
11.117104971727326 -1.0544690832239834 2.0172339021443726 36 42 14
10.72335262439373 -1.0544690832239834 1.9330197586491242 34 40 12
10.794011184081661 -0.7685636134714997 2.031611720121125 33 37 13
10.417790626693769 -0.5357852910289769 2.049622180573613 33 37 15
10.851226255701597 -1.000612559290214 2.1346998573482407 36 42 15
10.80886675310798 -0.4853122098828243 1.9300234520191448 28 33 8
10.708396973501836 -0.6886150402368325 2.143157578763918 34 39 14
10.686881607712582 -0.8460802677206035 2.144455268672925 35 40 14
10.86587722424997 -0.8574175467702301 2.3714785067368247 38 44 17
11.46423069758451 -0.5965853018322406 2.3190574101881785 37 42 16
11.193247250355453 -1.1454333196980082 2.1154916903069627 37 43 16
11.015656702282648 -1.4482980409219204 2.357558861407368 40 47 17
11.146553860842895 -1.3233316863424651 2.3458519333596413 40 47 17
11.364270032113751 -1.205753375424931 2.327254534382745 38 45 13
11.73819985039588 -1.4622283353248822 2.2976016987793795 38 44 17
11.699759199988128 -1.5764743596980202 2.300526993867126 39 44 17
11.027554606876198 -1.039364729883267 2.356477574230601 40 47 15
11.07013603691489 2.738994473403533 1.7341088077741291 34 40 15
11.930930651535078 2.738994473403533 1.984828847101043 33 39 14
10.769428378786953 -2.095670044177664 1.9313989900104844 32 41 11
11.161555404652805 -2.095670044177664 2.0153284907880726 37 43 16
11.877812279938288 -1.8016342855097285 2.2871981528002947 39 44 17
12.09055226891335 -1.9072057356936623 2.2719775865373375 39 44 17
11.532394443053652 -2.4459464827163973 2.0000663973812935 40 46 21
11.272959558860077 -2.1772992076675237 1.9146077696271429 37 43 16
12.030652518022432 -2.435290086861448 1.7209667688618135 38 46 18
11.735125183568762 -2.7024722594385207 1.900542347622836 40 48 19
12.354392345313764 -2.919553125215278 1.5545961749739874 34 47 19
11.269897439000127 3.116286680572727 1.3743123129732158 37 47 20
12.173346584923067 -2.9997799960567395 1.5543552197735344 35 46 20
11.574550258864484 3.0262932260566258 1.290666698195953 37 47 21
12.017207117406805 -2.737862447274594 1.5541415809863204 38 47 20
11.990488651147668 -2.8168192350353682 1.806479394497116 38 48 21
12.136187520040588 2.8530590446073933 1.8892539346264743 33 43 15
11.421466134320644 -3.0764944319324696 1.818461101492196 37 47 20
12.60207096805532 -2.737862447274594 1.8770902045931983 39 49 21
11.256057077316196 1.031916550484699 2.1121145509656403 23 29 4
11.269430326002043 0.9476394984167666 2.010773827777777 23 29 4
11.169488616184326 1.1683214195308471 2.0149902018213726 23 31 6
11.841184614586224 1.4785959390139811 2.0826618458687536 33 37 15
11.5115112831256 1.3832835482297219 2.000896942667973 31 35 13
15.668705493561006 1.7041338416699878 1.7504527924975064 33 41 21
11.222681395721061 2.1485130551246536 1.7318694307863511 33 37 15
12.780802289449307 1.9822707277918115 2.2272100950377136 33 37 15
11.718003747687973 -0.1558264078442262 1.901042446545755 17 21 5
11.702543450204606 2.738994473403533 1.2036988475109576 34 40 15
10.795707443093322 -0.3730584016781237 2.3782034425343666 36 41 12
12.201751916592634 0.6685202493230094 2.1619099309325023 34 40 15
11.648199023846153 0.8123081686135807 2.3044932009830856 17 22 1
11.740848851346756 0.22521556447807164 2.087469516265939 32 35 10
11.709212170768225 0.35123144456088007 2.1904188018216417 31 36 7
10.816223406830423 -0.393929527041759 2.030592436668938 33 38 9
10.709425708533297 -0.9720008802826745 1.7396614278409126 34 39 11
11.220127534801863 -0.9720008802826745 1.9162941342723019 33 40 10
10.766067041981996 -0.9358979377071349 2.2544136700512674 36 43 13
10.914673288144773 -0.5357852910289769 2.131027964512139 35 40 15
11.228827840547222 -1.350746970586028 2.2212810025902785 38 44 17
11.70655601095942 -1.5772098065412798 2.4214384844940886 40 47 17
11.146553860842895 -1.3233316863424651 2.3458519333596413 40 47 17
11.651912240742945 2.534955974804382 1.9029875119218838 31 38 13
11.776279222737811 -2.0055414514546257 2.186362124226411 38 44 17
11.877812279938288 -1.8016342855097285 2.2871981528002947 39 44 17
11.499447893044215 -2.377066325542326 1.8167467682243799 36 45 17
10.764764480706011 -2.1772992076675237 1.73878505638882 31 40 10
11.61446031072571 -2.5028335737085095 1.8142616839971684 41 47 22
11.702749391860616 -2.6241177995884133 1.7252077337986835 40 48 19
12.142354167765985 -2.377066325542326 1.9771901390406106 38 44 17
11.35690027846255 -2.250638748891849 1.729949488699639 35 41 14
10.976332983760207 -2.1772992076675237 1.8287289053666753 32 41 11
12.667751257501232 -2.842125226488265 1.475914697675287 35 48 21
12.130539661781595 -3.0818835817286185 1.471699268560026 36 46 22
12.03868095367504 2.9381326105608765 1.214413554295364 38 47 21
11.421466134320644 -3.0764944319324696 1.818461101492196 37 47 20
11.929311450119382 2.1027115416444984 1.5540188566473592 35 39 17
11.609827119253815 2.342100200391769 1.467239054706439 29 37 11
12.973377839691208 1.9460624772382629 2.122501251301877 33 37 15
15.203566617075845 1.7133494640652038 1.891997532513318 33 41 21
13.065611535514035 1.7675912195532328 2.2105236483659336 36 44 21
14.364129513163668 1.8142104525905434 2.0639340918290614 34 42 22
11.882214083251124 2.342100200391769 1.8086682597686106 31 38 13
11.886439534232416 2.27611636723334 1.986474250327439 33 39 14
11.415256212392913 2.6578583846273958 1.4654674394070635 33 39 14
11.862584671551652 0.725736462560108 2.4065719871170077 29 35 8
11.313131129384349 0.1420106702313878 2.215622555924513 32 34 9
10.709297482201034 -1.1454333196980082 2.0355427486006996 34 40 13
10.505773329060801 -0.6236893278382428 1.9408796336188632 32 37 12
10.780175552447279 -0.7017427349100108 1.8335322694502185 30 32 8
11.624428869524063 -0.6706217464100294 2.429528671407886 39 46 16
11.020339028705658 -1.097832932323487 2.235757683780535 36 45 15
11.49749976481989 -0.8978600592383044 1.8167893032656617 33 38 10
10.38210393764917 -1.244541251805748 2.0514073919149283 35 41 14
11.444979032867442 -1.244541251805748 2.2069865031396825 38 44 17
10.630533341306988 2.613452678763921 1.7409268123716743 32 38 13
11.753403049653453 -1.7059099319975004 2.4169070926386915 40 47 18
11.746633345243216 -1.6905729946759513 2.2969634925244353 39 44 17
11.284004824778664 2.9381326105608765 1.5530592933016707 36 45 19
12.612361133714675 -2.842125226488265 1.5549275552750734 34 47 20
11.198638938140279 3.116286680572727 1.7322182719467174 37 47 21
12.051907478952891 2.0691352363923134 2.072865610938537 34 38 16
11.565244504033151 -2.6241177995884133 1.5534906600452294 39 48 18
12.189401580440999 0.7347387127445975 2.2651503255761747 28 33 8
11.35641925267825 -0.7656794074648073 2.3279071450616575 37 43 18
10.499136585506951 -0.4853122098828243 1.8407386064821227 22 26 5
11.626695596619307 -2.095670044177664 2.093056652287039 37 43 16
12.149597927226965 -2.737862447274594 1.7194856031946997 37 48 21
11.594409236362624 0.025534726015746956 1.9046989371672558 29 34 8
11.539907330045512 -0.07226454214639996 2.0973907430195915 28 33 5
11.06126525954679 -0.8378241115533424 1.9214683707967692 31 36 8
11.247830910153512 -2.7024722594385207 1.7315061438280812 40 49 19
10.976332983760207 -2.1772992076675237 1.8287289053666753 32 41 11
11.268046455421738 3.0262932260566258 1.7312153195634037 37 46 20
11.718838464114599 -2.9001995317922553 1.812049888475253 38 50 20
10.694322175682233 -0.7656794074648073 2.2598912303138206 36 41 15
11.588286771349182 2.8530590446073933 1.4670458690785093 34 44 16
10.602258957240473 -0.21309428289255253 2.267065982103276 32 37 10
10.865097799709039 -0.9141430931900688 2.0283661304999874 34 40 10
11.81059961424631 -2.9871406142111856 1.8983561068806871 39 49 23
