23.022429195697796 -0.0462995685837038 1.6465422244433916 69 72 43
22.997983849991062 -0.002725135301063179 1.6466228919361365 68 70 44
22.96296804113051 0.04085964251178196 1.603123018214217 64 68 40
23.07936938808148 0.08428974608174356 1.64635499130408 64 66 42
14.04046264937251 -0.004485563020520531 1.6952003051115967 40 40 14
14.238818466252496 -0.07611640964711988 1.7645924418061536 46 46 19
11.030163502459219 0.37744572751954986 1.822039254033986 64 66 37
11.32028629898482 0.37744572751954986 1.9077075783289261 46 48 20
11.863320653092527 0.41521099380482585 2.1752615213082565 43 46 15
13.27387213375684 -0.10657335558142525 2.2897546205151382 61 63 33
13.231428362684724 -0.006292065309667524 2.292565633535502 58 61 32
12.358276247011636 0.28756920768853994 2.1478541061572374 45 48 17
13.372386724288248 0.1926612263764518 2.2833248596884625 56 59 30
13.43781739704101 -0.09688836731700705 2.1848057737187867 59 61 29
11.842407559168533 0.28756920768853994 2.0770262318089943 39 42 11
13.264452932947863 0.09411551154771955 2.290376295494882 56 59 30
14.001815297935389 0.10457977862141445 2.4452600324171954 61 64 35
13.952779523210648 -0.10657335558142525 2.3437121466987074 63 66 35
13.539441894869977 0.31773845011465596 2.3739378834415845 55 59 29
13.970533867535845 -0.006996498879176038 2.4479425660151826 62 65 36
14.753311206097635 -0.006996498879176038 2.491292043803101 62 65 36
13.358198670892303 0.21361255381422675 2.388100439080598 58 61 32
10.783698682734551 0.863386170392052 2.1323332721117882 58 61 28
10.966557665864501 0.5567952459824157 2.1218778260418967 51 56 23
10.783170784114066 0.7082895181421937 2.1323640701372772 57 60 30
10.984353742130798 0.6425843756713011 2.017197343873771 61 63 35
12.118839349809019 0.7858777661605775 2.3765772356869044 49 55 19
12.200609905485864 0.6189310632394477 2.36962126816372 47 51 19
11.418489050066103 0.7858777661605775 2.3158885207985693 46 51 18
11.521708295158815 0.5567952459824157 2.195889162368423 46 49 18
10.226058989408738 1.2169775525079891 2.1670239342952105 50 53 22
9.699892136249106 1.2169775525079891 2.081614048517238 56 59 27
11.506227761830512 0.9527979864819038 2.3088769985729796 52 55 20
11.13194895010568 1.110878604453345 2.221392642017255 53 56 24
11.469133901688796 1.2169775525079891 2.31182273108445 43 46 13
11.539081088255504 1.1709572843290728 2.430448482422793 49 52 17
11.275593431864069 0.9858927030933563 2.458017152990772 51 54 19
12.588258099209293 0.5165834917341735 2.455789539974029 51 56 25
12.097839768059142 0.7861215495978349 2.663648982584396 56 61 30
12.619196775857187 1.1121381017769572 2.5891736121397297 54 59 28
12.429280438287158 0.8776612544271429 2.4715729867187095 52 58 21
12.428822433881178 0.6941737351271188 2.4716194992887317 53 58 25
12.459243241351567 0.8983059241384104 2.610365774785054 54 59 28
13.330631343883342 0.6737579410152073 2.64843537126924 58 63 30
12.617843393618628 0.45981009218719354 2.589347635231515 58 63 30
12.901661011345347 0.3546832892197403 2.4266199009840923 52 57 25
13.297343035823127 0.3157052911284913 2.65311362987567 60 65 38
13.948404097916612 0.4008298707559206 2.5714614711556614 59 64 35
13.772543765958615 0.2725537251724492 2.5916977100220606 59 64 37
13.386082386740558 0.11765000078659435 2.5022518812018846 61 65 36
13.635722628382505 -0.009015064654463886 2.608292877866429 62 66 39
14.209910150227655 -0.13316057829743458 2.543370065921647 62 66 38
13.188795120056358 0.15675075920700987 2.668833706717057 61 66 39
14.544493511451378 -0.15209394174763324 2.638474290242855 64 68 40
14.08647194008572 0.15675075920700987 2.7011642779031084 62 67 40
13.07022252805948 0.5371956669460864 2.6868914935045907 59 65 34
14.333030962988122 -0.2639257414615745 2.8534646349203308 65 70 42
15.294448391033141 -0.2639257414615745 2.872044857860595 66 71 42
15.031019150630337 -0.021312051342137588 2.945238054707243 64 69 42
10.008655139235577 1.4773022233149546 1.645019025132667 62 64 38
10.298867062811892 1.775986374477415 1.7407767194934114 34 36 12
12.971393643161841 1.9722940048046376 1.5509195514664031 4 4 0
10.67234944847494 1.67787542136107 1.9290542219424764 26 28 3
14.394895728474484 2.2063543184013654 1.9065018052492841 8 6 0
13.982789166897458 2.118998644430458 2.1575902086522074 49 50 26
13.859172161660474 2.144519264875444 1.9200212383406594 15 13 10
14.029340075004296 2.252746671661653 1.9924813781007327 47 47 23
15.171742583950367 2.2063543184013654 2.0312907794180335 10 8 1
14.172734311303397 2.042416379838446 2.235506956658259 47 49 25
14.209469834565832 2.0773211903406623 2.065175790239365 14 13 1
14.498772459476985 1.9593599229734597 2.3076105317821223 46 48 23
11.965023087398352 1.332059746583159 2.3900628914496784 44 47 14
10.160495194753812 1.4669127128359563 2.056383786700215 37 40 10
9.88002619305774 1.357924151952462 1.9592555790336617 62 65 33
13.399240186044151 1.7045670115352454 2.500932332118925 51 54 21
14.361898301390447 2.2399300969487617 2.2252261453789552 48 50 24
14.314891471701424 2.305119447154702 2.1422418767340847 49 51 26
14.301240427076902 2.3643587456811104 2.2284843333668647 52 55 24
13.771363863449666 2.4314022738137364 2.258557793659724 52 55 20
13.295692820082595 2.507166317536922 2.288319113474889 49 53 22
14.54972431279034 2.201731741542648 2.5099158407219617 54 57 22
13.704465608607917 1.9396479614533038 2.4716314824778034 53 56 25
13.96240479446952 2.0444150481911176 2.4486430628774416 53 56 25
14.554166507847741 1.9979505418914612 2.401021501765637 51 54 25
14.158946209561826 2.086649954262294 2.3296068706212454 50 53 24
14.991614249955934 2.2399300969487617 2.278173475917673 51 53 26
14.417818237373863 2.2983263218947148 2.312716556341655 53 56 25
13.892388838224294 2.3655245304166597 2.3479608064251525 53 56 21
14.154379979543812 2.2894520747369143 2.432465097465559 53 58 27
13.999791690555009 2.687567697564552 2.445432943703051 47 53 18
14.936271373367838 2.4429135736159022 2.4753550823321198 53 58 27
13.973540087107342 2.507166317536922 2.342264098152315 48 53 20
13.421007880889109 2.4429135736159022 2.3831251092375427 51 56 25
15.529795630487751 2.566007077665731 2.6570578153789777 54 59 28
13.752059928803453 2.7924252029191554 2.4672746962183347 48 53 19
13.84168133446085 2.874047825514472 2.583602298700812 51 58 26
14.277727308585874 3.025913353385843 2.536435890324998 52 59 28
14.016674258121764 2.747714390424884 2.563909199103109 51 58 26
15.11677919028619 2.31483300037834 1.7532064629254283 2 0 0
14.22715337166087 2.263025481795874 1.6229869881414583 15 12 16
15.043874439594765 2.2204373085447 1.4870889942987207 13 12 18
14.26444453763377 2.3104862353108793 1.9096944613476126 38 37 20
14.692345560214724 2.263025481795874 1.8283371000116189 6 3 1
15.186107070445125 2.5041449204590958 1.4215668801072672 11 10 0
15.35400981747634 2.949059790484957 1.5540043213563093 41 43 18
15.882021061002648 2.5417448138617265 1.491516045228918 12 13 3
16.155009220539263 2.627899927755524 1.5548369769126005 14 14 6
15.210357569157551 3.013711670829804 1.619610585757831 44 47 20
15.736959127121454 2.885995443237682 1.4268275332028413 41 43 16
15.210357569157551 3.013711670829804 1.619610585757831 44 47 20
15.368898552877683 2.7422215199599678 1.6843985105252943 37 36 19
15.010930272142176 2.8040541650083863 1.687119741968192 41 40 19
15.120720789518122 -3.1374453661170327 1.487515399519833 46 48 26
14.89770746776392 2.6535550986070646 1.6880078570457078 30 29 16
14.407224329262679 2.363451926809408 2.057791701606909 48 48 26
15.197560259277923 2.519451580431001 2.030448238643148 43 45 24
14.977110629466397 2.4739802970410905 2.1140624819015303 43 45 23
13.925222353452895 2.5618767321345746 2.249513713371498 45 50 14
14.381417438965792 2.721987437121291 2.1392702581125076 42 44 20
14.679140389712803 2.7532368282530637 2.048007798477943 42 44 19
14.679140389712803 2.7532368282530637 2.048007798477943 42 44 19
14.069475912778627 2.799804493480254 2.153498954430739 44 46 22
14.44886734365274 2.848939177851641 1.9051987906514114 39 42 12
14.44886734365274 2.848939177851641 1.9051987906514114 39 42 12
15.184702754445087 2.581702002363316 2.1058271673599576 42 44 20
15.261403532934606 2.6535550986070646 1.818528486126095 38 37 21
14.995736158252289 2.462298078006875 1.8925552709953968 36 35 18
14.943545180237166 2.721987437121291 2.195694006336937 43 46 16
14.901425699365094 2.363451926809408 2.117132453074163 47 48 27
15.056708900048735 2.415615970126622 2.0350843066641082 46 45 25
15.045005073925005 2.684368135959948 2.035473928107273 39 41 20
14.596170306632233 2.608759084870653 2.2129694360387964 45 48 13
15.20307396092948 2.559808289016768 1.8880126053428747 38 39 24
14.19581549258699 2.64299203423996 2.327147103361353 45 51 15
13.879703253529643 2.731945973489451 2.348860242949089 46 52 16
13.82299306831652 2.8821722578986684 2.1652966399072247 45 47 21
13.902147572959688 -3.136810660006078 1.9188957784613256 48 50 25
13.933582534075017 3.069975655985809 1.918077230430372 47 49 22
14.144237412904271 -3.0458907178563837 2.237086844739539 55 58 32
13.864597795093417 -3.0537782921937238 2.0786329121114884 52 54 31
14.208967324226741 2.9204846396492363 1.9110710805795434 43 46 15
13.539760233462916 3.0570914393020816 2.17950831683797 49 54 27
14.036371943184314 2.9944034698516484 1.9154279094492281 46 49 18
13.958943989439296 2.9824043614542255 2.074875392949465 46 49 20
14.104413035859816 -3.1359465798109003 2.2393087507401397 52 56 29
13.855580182972204 3.0640641401481736 2.0789951491302 49 52 25
14.144237412904271 -3.0458907178563837 2.237086844739539 55 58 32
13.902147572959688 -3.136810660006078 1.9188957784613256 48 50 25
14.361598877301578 2.828323809485959 2.41580958874023 48 54 17
14.314591064351726 2.8577112594260026 2.3193467747223053 46 51 15
14.190859988703242 2.9310977319372427 2.4294742323525327 50 56 20
14.143284704978784 2.9514781183270467 2.3306573681184157 49 54 20
14.08919771049605 3.038574389028592 2.4378741682020406 53 58 27
14.314591064351726 2.8577112594260026 2.3193467747223053 46 51 15
20.976375094273163 1.9195674660078612 2.9920253717250413 61 66 39
23.011814050851438 -0.13873988406971643 1.2953888070941297 61 61 36
22.90018779408796 -0.09376535733781524 1.294011068938608 66 68 40
23.731261989267683 -0.25845732493167073 1.6020761021058534 61 52 33
23.300704405453583 -0.17533614899656172 1.6026542932614969 44 40 18
23.495697706107656 -0.21727780521772652 1.602389812229233 47 43 22
23.953008586600873 -0.39184402138419794 1.434364987368037 41 29 11
23.88834172456881 -0.39184402138419794 1.6858418124048025 46 32 15
23.763740664082647 -0.39184402138419794 1.5178416775783647 37 22 5
15.074610805615096 -0.34854136107952804 1.7537224812088807 45 48 19
14.191002826486987 -0.14697439395417475 1.6938738691963866 39 42 14
14.103197730350434 -0.14697439395417475 1.6234461240882632 40 41 14
14.768849177721966 -0.28373102772003095 1.7575538100430086 43 45 17
15.03205478728142 -0.21637866875068687 1.891749996863318 57 59 30
15.916583359730064 -0.41044009338292087 1.8733302881738143 60 60 34
15.60679438687839 -0.28373102772003095 1.947576804277915 61 64 35
15.027703930460868 -0.9334276598862159 1.6202043771065007 62 61 42
14.88486651005283 -0.4336919874917628 2.198540533377563 65 66 39
15.437543877439692 -0.3731363877234333 2.022767526935446 63 65 37
15.461678139886777 -0.4701024124160135 2.0952428271559476 63 65 39
15.461678139886777 -0.4701024124160135 2.0952428271559476 63 65 39
14.575124909091645 -0.35580500844848334 2.2140498238682653 64 66 37
15.79375654726716 -0.4383812026767013 2.0118465436436854 64 64 39
14.947053262642223 -0.29910122211405343 2.372702206881812 64 66 39
15.17580248143963 -0.5480397445117731 2.267842076245679 68 66 43
14.804728840785996 -0.471397151819319 2.289016648166521 66 66 40
15.067685497891565 -0.3303129718782039 2.4643379835253176 66 68 42
14.493274686651464 -0.3882736276041435 2.3079547406390057 64 66 39
15.30229169666558 -0.4268665406354105 2.4454918511398347 67 69 44
14.774620683110443 -0.2047549734729997 2.3848413426794974 64 67 36
15.143475355248858 -0.5735929782243006 2.1074415245597864 66 64 41
14.873027458984762 -0.7342889628185443 2.1991182901003903 69 68 50
14.952799094771736 -0.681885359124121 2.115044609740842 66 65 47
15.259994121281423 -0.7919338039324152 1.956585347126615 66 65 47
15.259994121281423 -0.7919338039324152 1.956585347126615 66 65 47
15.514869824625503 -0.7396625493279817 2.093260678747215 67 66 48
14.702381627311967 -0.8915617157018239 1.8281573102886792 63 65 44
15.602242334425453 -0.6181354298373467 2.245171574680265 69 68 45
14.49729341258154 -0.3684685393746831 2.5148754992561795 68 70 44
14.31944591749316 -0.25439410426852455 2.5322368544509404 66 69 41
15.063772642470976 -0.5301099778416631 2.579014632003944 71 73 48
15.693203507174323 -0.4160159190825174 2.6376336576956096 73 75 51
15.109203203287331 -0.3346244115158258 2.712934486539945 70 74 49
14.825392450710654 -0.4160159190825174 2.6050556636461772 70 72 47
15.109203203287331 -0.3346244115158258 2.712934486539945 70 74 49
15.04730826770746 -0.5680717511932675 2.4660238194625435 70 72 46
14.5450285709766 -0.6307911213245192 2.510357203646965 72 74 48
14.664995602109325 -0.652606882273015 2.3927912221252887 71 72 48
14.485137592170206 -0.7962926895998135 2.5160353763193775 71 74 48
14.149150717869754 -0.7185974444945911 2.432895946674142 71 73 49
15.155011094627204 -0.6890449283446315 2.7063675367253555 74 76 50
13.536185620233915 -1.1203554363484423 2.6208832952945587 73 75 50
13.536185620233915 -1.1203554363484423 2.6208832952945587 73 75 50
14.571031919007734 -0.7984726081693349 2.635174853245894 73 76 50
14.26189032244103 -1.0110435630991763 1.9851786123323354 63 65 44
13.919089078797802 -0.9912322067537432 2.2498691571919247 66 65 47
13.788411647336321 -0.9178331695764652 2.1669932597213393 66 65 47
13.313777292095143 -0.9912322067537432 2.1913884503380467 65 64 46
13.191428309236452 -1.1614487058698333 2.295237798143541 65 64 44
13.486929809633356 -1.0381349833612876 2.0942857392180505 64 66 45
13.803546123965589 -1.078602344135955 1.9998315367693935 63 62 44
13.191428309236452 -1.1614487058698333 2.295237798143541 65 64 44
13.57338575684593 -1.0218193239011444 2.3713502266067144 69 68 50
12.981122484529779 -1.2220253726264043 2.419597765937003 66 65 47
14.420959082180746 -0.8606628366707011 2.312516937987473 69 68 50
14.411894598433422 -0.7274861541585712 2.313093373253159 71 71 47
12.981122484529779 -1.2220253726264043 2.419597765937003 66 65 47
13.769393269047093 -0.9612049315598522 2.4657013400459746 68 73 48
14.60559656239562 -0.7947357936695079 2.3971775748175057 70 71 48
12.981122484529779 -1.2220253726264043 2.419597765937003 66 65 47
13.185936866673373 -1.1773198000805511 2.5229562957109444 70 72 48
13.443681081637859 -1.0628101601252042 2.4965116268645797 70 72 48
14.890063310217128 -1.0829182801916801 1.6880683075913092 60 62 43
15.396270213673336 -0.4831059162244756 2.8490607706311906 71 76 50
15.68147845279062 -0.3960981985613177 2.793725394281811 68 73 46
15.171733800708246 -0.6130621098925635 2.9030684808704654 70 75 48
15.844044665798094 -0.5556936438563079 2.766451925703822 73 77 51
15.339703107492717 -0.8071949718620569 2.86156491545999 72 76 51
11.815566052285279 -2.233184262205494 1.8050145422808341 58 57 42
11.245942873268032 -2.1608223850877404 1.8171176071969837 58 57 41
11.774016562553179 -2.1134553794796904 1.6338741979776523 56 55 40
12.449255027787357 -1.8198719108919956 1.5500857757779418 59 58 46
11.810152872318316 -1.9231920228760269 1.6336809392173337 55 56 42
12.381010712129308 -1.7452019129492733 2.6212203583158296 65 65 41
13.247681351830744 -1.418288181379677 2.6602150572366794 68 70 46
12.95319213068734 -1.9586352965544809 2.7057371066633475 63 67 40
13.711193285789673 -1.5842641771868067 2.763383458144422 68 69 45
13.711193285789673 -1.5842641771868067 2.763383458144422 68 69 45
13.374297604503019 -1.5875787855345749 2.8329176960634013 67 71 48
13.374297604503019 -1.5875787855345749 2.8329176960634013 67 71 48
11.95568968813802 -1.4683353430334842 2.2751920322651067 64 63 45
11.919517018157999 -1.5783200546578362 2.2777738849786386 64 63 45
11.967090539193997 -1.688123769176024 2.2743826908321854 61 60 42
12.097422287428623 -1.7951675101206435 2.2652770823043675 60 61 40
12.63707367127637 -1.688123769176024 2.334759830123191 63 62 44
12.15943526154628 -1.6765553626675551 2.1585366663310523 61 60 42
12.634430965156758 -1.755617449291684 2.0425927946274247 57 57 42
11.892614348396636 -1.5792531890424997 2.3966014054675977 65 64 46
12.690745489008826 -1.7025173840797172 2.4459792984251103 64 63 45
12.033023981245153 -1.5804505523560368 2.514302247070939 64 66 44
12.080150502387347 -1.7209061944549666 2.5089409425018006 62 62 40
12.570811295643638 -2.6751330177605124 2.3398219952802384 55 59 35
12.329392179261797 -2.5200525891282313 2.3589500843775673 57 59 38
11.784631580280042 -2.446303036153834 2.4065908030961234 58 61 40
11.784631580280042 -2.446303036153834 2.4065908030961234 58 61 40
12.28414879933539 -2.7788158642763254 2.3626604385199586 56 60 36
11.784148520885756 -2.267100613821887 2.4066361514164742 58 60 39
11.49652758081807 -2.4326363133468747 2.1974706338528365 57 59 38
12.17432385535992 -2.1618216606707135 2.4984651583621544 58 60 38
12.710710692485975 -2.039306449149224 2.577602366875843 61 63 39
12.211606437755691 -2.8576761816556187 2.4944022639095262 60 65 39
13.07413253421612 -2.356894623657604 2.68628012525514 63 68 43
11.87905495693982 -2.6742079472524485 2.5324077578752755 61 66 40
12.798303461597563 -2.217647031627678 2.7324946732851565 65 70 44
12.552830415038557 -2.2477244679430664 2.5978108576819823 61 66 39
12.175258994225342 -2.551648988082499 2.4983626769697107 59 63 39
12.307883490977767 -1.8972422516540859 2.2511178035117076 59 60 39
11.610313139719334 -2.215987325912166 2.088143771085349 58 57 41
11.895183106960681 -2.038102462146631 2.2795228023822505 58 58 39
12.2818315458654 -1.9344242304665873 2.362851586126679 58 60 38
11.52435492003692 -2.356597341366699 2.0923933328859006 56 57 41
11.865411332174697 -2.0807123484928725 2.075951684736906 58 59 41
11.496032415397533 -2.280614729746047 2.197501820293898 56 57 41
12.307883490977767 -1.8972422516540859 2.2511178035117076 59 60 39
11.952186881138287 -2.0934019407727105 2.3912128891326523 57 59 39
12.41784104482522 -1.980630225638985 2.472736560539151 58 60 39
13.017621372206712 -2.3565084641264815 1.3964719593220367 58 57 43
12.919867503607485 -2.4663707599375218 1.628273410647656 56 57 45
14.399970725208542 -2.9272475001549605 1.5528916879460262 50 52 33
13.87826434889756 -2.5120342900259565 1.4073830518811636 53 54 42
14.237926358160252 -2.9960228192063445 1.622947462739444 48 50 31
12.739456484675625 -2.640485889951028 1.7079814662648576 53 54 39
12.327145309061915 -2.5522905864864214 2.0553534199753036 53 54 38
12.433789501885409 -2.479899837660484 1.9621014261749121 52 53 40
13.681120267669229 -2.8463097918188236 2.2639892541462916 56 58 35
13.522857757374283 -2.972324715137565 2.009347572406478 50 53 31
13.711041785095922 -2.89307287394952 2.002920028933015 53 55 33
13.062231494598281 -2.712609078642219 1.942330910620947 52 53 37
14.158991554226112 -2.89307287394952 2.067098474406113 53 55 32
13.663823106988378 -2.9573614509132855 2.1731936173246256 55 57 33
12.953851804164605 -2.632422562954834 2.2113937761055853 55 57 39
13.114163401147884 -2.7898167538583887 2.0240149971840857 54 56 36
15.010592145104116 -0.818102424631525 2.9522012046064705 74 79 52
15.010592145104116 -0.818102424631525 2.9522012046064705 74 79 52
23.1196155043919 -0.0462995685837038 1.6896848988266728 66 68 41
11.32028629898482 0.37744572751954986 1.9077075783289261 46 48 20
11.25365016390785 0.5049904000872578 2.0057749922950743 57 62 32
11.71020994737597 0.5049904000872578 2.0832960607762163 49 52 19
12.38370770743887 0.08555022882874248 2.052950536188451 50 48 23
13.428513193324154 0.08555022882874248 2.1852942639157225 56 55 27
13.27387213375684 -0.10657335558142525 2.2897546205151382 61 63 33
14.630087030392463 -0.006292065309667524 2.395362225959102 62 65 36
14.010738790314901 -0.11839956090721492 2.4444985675441258 62 66 36
13.943818939242906 0.09411551154771955 2.344339113092353 59 62 33
10.047464228737466 1.110878604453345 2.0623299952912837 60 62 30
10.819272501183583 1.2169775525079891 2.243578858486897 47 50 17
11.662016858742222 0.8776612544271429 2.4182978744189936 51 54 19
10.967013142501674 1.1121381017769572 2.493331250552341 52 55 20
11.347798565361078 0.863386170392052 2.206993089731239 54 57 23
12.458786338424982 0.6737579410152073 2.610428193441872 56 61 29
12.067451356466954 0.9858927030933563 2.510377661569623 53 58 27
13.479404545672084 0.45981009218719354 2.62827608815755 60 65 35
14.544493511451378 -0.15209394174763324 2.638474290242855 64 68 40
13.117682793800775 0.4008298707559206 2.5303036760341326 57 62 30
15.257626508717127 -0.015892709079805965 2.88092303384751 64 69 42
15.068394792182893 -0.3476794141126403 2.933136391078901 67 72 45
14.664426446559192 2.144519264875444 2.0485266857370545 12 10 1
14.467437849879348 2.252746671661653 2.055589058669634 49 49 25
11.062703907741694 1.67787542136107 2.013810290604982 19 21 0
12.50238107840757 1.578425264771978 2.345132688351124 47 50 21
10.300451086020797 1.357924151952462 2.0492267389994447 54 57 26
13.490418183483609 2.086649954262294 2.2757905009567443 45 47 21
13.89704115243146 2.167259558141056 2.25115034591912 47 49 23
13.771363863449666 2.4314022738137364 2.258557793659724 52 55 20
13.799700824532035 2.305119447154702 2.0812520242079344 48 51 23
14.314891471701424 2.305119447154702 2.1422418767340847 49 51 26
13.421007880889109 2.4429135736159022 2.3831251092375427 51 56 25
14.546894094354764 2.167259558141056 2.3046133394138724 50 53 24
14.48985274292942 2.367078685820766 2.515585016829518 54 59 28
14.952096589383304 2.4585710108572174 2.590973474021708 55 60 27
14.23229101554258 2.1011590851779682 2.5410665896719147 54 57 22
13.95482399383246 2.22350989110751 2.3435692628632285 53 56 25
13.578836749606516 2.5924163055109273 2.370936525595023 46 52 16
14.501612069612024 1.9396479614533038 2.514464338739974 53 56 25
14.611052071374566 2.3655245304166597 2.3967723503386913 52 57 26
14.54972431279034 2.201731741542648 2.5099158407219617 54 57 22
15.067928940338618 2.1011590851779682 2.578577326163698 53 58 27
12.902818369804622 -2.99238936351375 2.5544839710739478 61 66 38
14.699541393008214 2.874047825514472 2.619630430092143 52 59 27
14.378056620832671 2.905913708439304 2.526420610329816 50 56 22
14.469991121654543 2.263025481795874 1.761457961901048 13 12 16
14.919098936861756 2.31483300037834 1.486387249705938 9 6 11
14.976447944070266 2.4099697876372783 1.6873887881142589 14 13 1
14.92785543946104 2.4099697876372783 1.4864368808918182 4 2 1
14.633057540867464 2.362726411438982 1.8294044141728811 24 23 9
15.099522750342045 3.079455067799143 1.5537212819384696 47 49 24
14.463310732834309 3.0047309911730475 1.7615471092930817 46 49 18
15.32155076122015 2.7422215199599678 1.4886095001933752 32 31 17
15.544061015754279 2.559808289016768 1.9491742293158432 38 37 22
14.236730568258823 2.9682965657429623 2.231989035500578 48 53 20
13.645516563076503 2.9682965657429623 2.1741164633463015 46 51 22
15.057981862386491 2.6198641724535845 1.962040050845571 41 40 21
14.552749995555812 2.768795907196706 2.30425051613981 45 50 15
14.587553504991462 3.0750507768711244 1.830229677598616 47 49 23
14.135398196713941 3.0570914393020816 2.237578591527559 51 56 26
13.634893363969427 -3.0604673433317915 1.8488209616924007 50 52 30
13.823967849833876 -3.136414418867408 2.0802693281456444 51 53 28
13.855580182972204 3.0640641401481736 2.0789951491302 49 52 25
13.925222353452895 2.5618767321345746 2.249513713371498 45 50 14
14.636260038029071 2.415615970126622 1.9739554577043372 44 43 23
14.381417438965792 2.721987437121291 2.1392702581125076 42 44 20
14.752788977274976 2.7803461985130915 1.8980497777245908 40 40 18
14.754666470216154 2.649213422060451 2.1231919552581147 43 46 17
14.050176403358522 -3.0364521100032023 2.3369731001355385 58 63 35
14.324017340821918 2.422584950209199 2.1418322673756744 48 48 25
21.85446572218392 2.0746517565513547 3.0401831226663396 62 67 40
23.193409106996217 -0.09376535733781524 1.2525245038691486 69 72 43
14.52562980141757 -0.21637866875068687 1.760718728152947 40 43 14
15.074610805615096 -0.34854136107952804 1.7537224812088807 45 48 19
23.187099990671253 -0.08969887283195807 1.6893372493610816 61 60 36
23.20090980724367 -0.13276220455890866 1.6459584202050443 42 39 16
14.86060854142123 -0.14697439395417475 1.895587895571277 54 55 27
15.896446645108064 -0.34854136107952804 1.9403771550390059 61 63 35
13.55359440527444 -0.1864768187823317 2.1787970607849854 63 65 35
13.391066661390155 -0.2047549734729997 2.2821203357980036 63 66 35
13.55359440527444 -0.1864768187823317 2.1787970607849854 63 65 35
15.097632463236877 -0.401265045771885 2.10924880357007 63 64 37
15.183523508814812 -0.3882736276041435 2.3567362598236423 67 68 43
14.859365433163994 -0.5156448188026921 2.3788208938522555 69 70 44
15.481097217225937 -0.471397151819319 2.337674390209754 68 68 43
15.067685497891565 -0.3303129718782039 2.4643379835253176 66 68 42
15.229107852490163 -0.5963231671791361 2.3537442532542014 70 70 46
14.121819512970106 -0.22693749714581013 2.4351565604577208 64 67 38
15.634891452821094 -0.6354695174318074 2.0888458363112314 66 65 45
15.049523766839 -0.8448551765001109 2.0353234195711916 66 65 47
15.514869824625503 -0.7396625493279817 2.093260678747215 67 66 48
14.998186252415252 -0.6181354298373467 2.1930685594183736 66 66 42
14.149150717869754 -0.7185974444945911 2.432895946674142 71 73 49
14.10516150532176 -0.8878799593963798 2.554355266113315 71 75 49
15.529058291188164 -0.2891984179387449 2.6571480250530484 67 72 44
14.939163335261915 -0.7064920926025892 2.592385175858784 73 75 49
14.859701588705674 -0.8017430226045836 2.7512944821952274 73 75 51
15.363665940475457 -0.6307911213245192 2.5487782292808197 71 73 47
14.49729341258154 -0.3684685393746831 2.5148754992561795 68 70 44
13.289697358368988 -0.936490954388355 2.288712885141881 68 67 49
13.523217472577175 -1.0724164326711412 2.2737286230509537 66 65 47
13.919089078797802 -0.9912322067537432 2.2498691571919247 66 65 47
13.313777292095143 -0.9912322067537432 2.1913884503380467 65 64 46
14.373749363210697 -0.9178331695764652 2.2245937326287537 67 66 48
14.01362375297613 -1.0381349833612876 2.1561278714492444 63 65 46
14.47841619914831 -0.9032578061204212 2.055189713558843 66 65 47
14.294870262539042 -0.7935682301349488 2.228828583687974 68 67 49
13.185936866673373 -1.1773198000805511 2.5229562957109444 70 72 48
13.967835583118799 -0.936490954388355 2.3426613549484103 69 68 50
13.415492759141241 -0.8721928459539866 2.383559070443429 70 72 48
15.339703107492717 -0.8071949718620569 2.86156491545999 72 76 51
16.183243844937167 -0.47658862147622577 2.7163867163423294 73 76 51
15.396270213673336 -0.4831059162244756 2.8490607706311906 71 76 50
15.68147845279062 -0.3960981985613177 2.793725394281811 68 73 46
15.171733800708246 -0.6130621098925635 2.9030684808704654 70 75 48
15.396270213673336 -0.4831059162244756 2.8490607706311906 71 76 50
12.258042101535818 -2.298217033763864 1.7134052984403554 57 56 42
11.595682213141592 -2.037376371941936 1.80954141771535 56 55 38
14.36035658981722 -1.3453261130366376 2.847112255699213 70 74 50
13.84644652125834 -1.2062574882157333 2.7395142719424035 72 74 50
12.831555492121447 -1.778745921711546 2.7265581818905766 65 67 43
13.355324450290817 -1.2623181981044516 2.6450061121194937 71 73 49
12.15943526154628 -1.6765553626675551 2.1585366663310523 61 60 42
12.097422287428623 -1.7951675101206435 2.2652770823043675 60 61 40
12.070916124880753 -1.821901338255201 2.3807215680712 59 60 39
11.92886859733903 -1.4557327698624931 2.393311965890266 66 65 47
12.509695271516554 -1.6670570623101704 2.04768698224517 59 58 40
11.940295057778005 -1.7025173840797172 2.392281756925339 63 62 44
12.186916184129778 -1.303795770967561 2.4970876627454435 68 70 46
12.792416151199621 -1.3356246928222673 2.4365125099287273 67 66 48
12.28414879933539 -2.7788158642763254 2.3626604385199586 56 60 36
11.302263996908998 -2.3567564032272226 2.4551254281566037 60 62 39
12.570811295643638 -2.6751330177605124 2.3398219952802384 55 59 35
12.419674580966477 -2.7327310077316027 2.472549800334364 58 63 37
12.70327916734783 -2.619940626859471 2.4447982591899744 57 60 37
12.265283584231092 -2.11566136463468 2.6379296834154324 63 67 40
11.708508719248453 -2.2477244679430664 2.5536084304625133 61 64 39
11.708994899194241 -2.465896641753261 2.5535461480119532 59 63 40
12.508850337402231 -2.813956142268542 2.6036545837162466 63 68 41
12.0746207327775 -1.8413462279600596 1.8859070480582916 54 55 43
12.594457751510836 -1.9927380682802744 2.2328395747476306 58 60 39
12.279112384902255 -1.954997203358312 2.057413754561011 58 57 37
12.421045302401248 -2.5298832753922333 1.7115212826670954 52 53 41
13.957109183717925 -2.8401944481471992 1.7685552758031835 51 53 33
13.525743844685664 -2.676064184805864 1.6256961137144825 52 53 37
13.672550844351134 -2.675690982654148 2.172754721367731 54 55 39
13.272109920397547 -2.816879577613304 1.8566314076750277 52 54 34
12.673220052450581 -2.5995985195541964 1.9543190916350048 51 52 36
13.31693177145314 -2.8716528930503347 2.1016698782981216 54 56 33
13.492518922423685 -2.939535651893807 2.275658032155648 57 60 35
14.485732012093065 -2.972324715137565 2.1346767317618798 53 56 31
13.974649416528957 -0.07611640964711988 1.5523466956820804 38 38 11
11.647022012958663 0.2625107630391341 1.8084687131371453 36 38 10
13.372386724288248 0.1926612263764518 2.2833248596884625 56 59 30
10.765570917813857 0.7858777661605775 2.2475598031614163 52 55 22
11.114389202031191 1.0551861434328187 2.3414318695286633 48 51 15
10.857538029675041 0.6189310632394477 2.240773828553506 48 53 20
10.801204440308306 1.1709572843290728 2.3699831026090767 47 50 14
11.661528720238529 0.6941737351271188 2.4183452856016974 50 55 22
13.772543765958615 0.2725537251724492 2.5916977100220606 59 64 37
12.901661011345347 0.3546832892197403 2.4266199009840923 52 57 25
13.493043272669706 0.23957886250141702 2.491665443212378 58 63 35
13.667770362854144 0.13443135075320126 2.604334369218376 61 66 39
14.170270342201462 -0.007878544864733524 2.5474870859229046 63 65 38
12.882379509992017 0.3743351621385415 2.7176936076597342 61 66 39
13.117682793800775 0.4008298707559206 2.5303036760341326 57 62 30
13.635722628382505 -0.009015064654463886 2.608292877866429 62 66 39
13.667770362854144 0.13443135075320126 2.604334369218376 61 66 39
13.085327777547624 1.9722940048046376 1.7043333803010585 8 10 7
12.812179089395805 1.899242938467742 1.3936473118045118 2 4 0
10.309136613861272 1.577657598924423 1.8400331635199265 47 49 23
14.410626743038776 2.165142386574759 1.5529049290438646 14 14 15
14.879532682399342 2.305119447154702 2.198800685340225 50 52 26
13.448338088842975 2.6333339881619873 2.4960515658030995 50 57 23
14.154379979543812 2.2894520747369143 2.432465097465559 53 58 27
14.546598478180446 2.7924252029191554 2.5102095833206564 49 55 20
14.554166507847741 1.9979505418914612 2.401021501765637 51 54 25
13.712807982067666 2.3643587456811104 2.1707392210806145 51 53 23
13.515768849399905 1.8256874446675384 2.489456527472009 51 54 23
11.844751897320766 1.4539372898964749 2.400993188605719 49 52 19
14.630870529399525 2.9357452484894506 1.7593361221529913 41 44 13
14.630870529399525 2.9357452484894506 1.7593361221529913 41 44 13
13.548988043119712 -3.0458907178563837 2.179033687204453 53 58 32
14.104413035859816 -3.1359465798109003 2.2393087507401397 52 56 29
14.041277974335364 3.0487445401564446 2.3375831068462447 52 57 26
15.466971027578753 2.6198641724535845 2.0218440529989765 41 40 20
13.645516563076503 2.9682965657429623 2.1741164633463015 46 51 22
14.754666470216154 2.649213422060451 2.1231919552581147 43 46 17
14.381417438965792 2.721987437121291 2.1392702581125076 42 44 20
14.050176403358522 -3.0364521100032023 2.3369731001355385 58 63 35
15.544061015754279 2.559808289016768 1.9491742293158432 38 37 22
14.406925847200247 2.8821722578986684 2.222830474374242 46 49 17
14.361598877301578 2.828323809485959 2.41580958874023 48 54 17
23.883763640397415 -0.26969013620626814 1.2620330786551741 37 33 11
23.75157385192204 -0.3522816190307111 1.3905576018103725 41 31 13
23.676699203854845 -0.4861878554823375 1.5599072415913848 59 47 28
23.72105437376807 -0.25845732493167073 1.55992760351349 61 54 34
15.267208521347275 -0.28373102772003095 1.8866337809825415 59 62 33
14.54141088232835 -0.9891247229355566 1.690893516662642 63 62 44
14.825392450710654 -0.4160159190825174 2.6050556636461772 70 72 47
14.414602684161252 -0.9487513783230834 1.9060248287271968 63 65 44
14.88486651005283 -0.4336919874917628 2.198540533377563 65 66 39
15.17580248143963 -0.5480397445117731 2.267842076245679 68 66 43
14.493274686651464 -0.3882736276041435 2.3079547406390057 64 66 39
14.158383416568823 -0.8721928459539866 2.432135607501594 70 72 48
14.406864699711928 -1.0492186584376477 1.8335599505073021 63 62 44
15.79375654726716 -0.4383812026767013 2.0118465436436854 64 64 39
15.561816134337064 -0.661742298089914 2.815592158649842 73 77 51
12.54195781047682 -1.7406011098563154 1.791217990128915 58 57 39
12.361030945774099 -2.1831505332415757 1.4688636224207066 57 56 41
13.215045638466496 -1.5820428791433614 2.664964387979463 65 65 41
13.215045638466496 -1.5820428791433614 2.664964387979463 65 65 41
13.74265081027585 -1.388771194085683 2.7576636443308002 70 72 48
12.626277793516577 -1.4683353430334842 2.3355792935224002 66 65 45
12.63707367127637 -1.688123769176024 2.334759830123191 63 62 44
12.63707367127637 -1.688123769176024 2.334759830123191 63 62 44
12.209275416151344 -1.8556720546391643 2.4946549220620122 60 61 39
11.555005469033853 -2.3566637599357363 2.3050440326597705 57 59 38
12.211606437755691 -2.8576761816556187 2.4944022639095262 60 65 39
12.266211788604018 -2.5980479906523772 2.6377923824193217 62 67 41
11.708994899194241 -2.465896641753261 2.5535461480119532 59 63 40
11.668220780188859 -2.1319893095140334 2.1868573510839076 58 57 40
12.00430594647421 -2.3565473929204086 1.8878170125072622 55 56 42
12.163351772849763 -2.422563987981626 2.0624555654696306 54 56 37
11.640737359324044 -2.1932500939997177 2.298416351607276 56 58 40
12.701934744032272 -2.0934019407727105 2.444924751819975 58 60 39
14.082229421455292 -1.575645003474685 1.6235245918275207 69 67 61
12.440070589979156 -2.4148342937965785 1.7930534929149464 55 56 42
14.070834434129765 -2.7720034578712145 1.4812853798652694 51 53 33
13.344157970935674 -2.9850583584489367 1.7017281728239166 51 53 32
13.939083064710474 -2.758074406711353 2.2487119650372214 55 56 36
12.433789501885409 -2.479899837660484 1.9621014261749121 52 53 40
14.464726969939429 -0.07611640964711988 1.8324841117395092 49 51 21
11.98382230843133 0.7859749567557991 2.5199877829647113 54 59 28
14.170270342201462 -0.007878544864733524 2.5474870859229046 63 65 38
13.91240710721397 -0.006292065309667524 2.3465464125484337 61 64 35
13.746060940106068 -0.08881276163224967 2.083438429342963 57 59 28
13.39589308294708 -0.005716504769970815 2.187013587803469 59 58 29
12.159439818672592 0.1926612263764518 2.1585364166190635 49 52 21
12.887396439910454 0.58601170564527 2.5562848919456247 55 60 27
10.350938493496459 1.4773022233149546 1.8389189745133705 62 65 37
10.022271087451355 1.67787542136107 1.6449180032654651 57 59 33
12.902818369804622 -2.99238936351375 2.5544839710739478 61 66 38
14.285836260847097 2.1390523979885194 2.4218064782916504 53 56 25
14.943354291613076 2.277369707934832 2.591927096975443 54 59 28
15.118047094615871 2.5041449204590958 1.686291850864438 22 22 9
14.64358314963445 2.799804493480254 2.2105499921904133 45 47 18
14.596170306632233 2.608759084870653 2.2129694360387964 45 48 13
15.116871293410467 2.7151285740337174 1.889885300894929 39 38 20
14.373661589426902 2.826210952710331 2.0590285797235315 43 45 20
14.781118456814546 2.519451580431001 1.9697791492898251 46 45 29
14.90613603990628 -0.5028409100998218 2.9931409804967632 69 74 47
20.832592900908992 1.6059739372466348 3.0483965611654877 62 67 40
23.633194886363505 -0.31153462242458385 1.3464432084038027 41 33 13
23.290123449293954 -0.4481108209542289 1.6456699688780962 55 40 23
13.523217472577175 -1.0724164326711412 2.2737286230509537 66 65 47
14.740980333646359 -0.4733416109190747 2.492392519485416 69 71 45
14.952799094771736 -0.681885359124121 2.115044609740842 66 65 47
15.529058291188164 -0.2891984179387449 2.6571480250530484 67 72 44
15.063772642470976 -0.5301099778416631 2.579014632003944 71 73 48
14.985537557566834 -0.6690517550202298 2.278520224282228 70 70 47
15.396270213673336 -0.4831059162244756 2.8490607706311906 71 76 50
12.110099975496096 -2.4326363133468747 2.264405464464594 57 59 38
12.080150502387347 -1.7209061944549666 2.5089409425018006 62 62 40
12.183947083037108 -2.356894623657604 2.650180284377279 61 66 41
12.928661243034806 -2.5812237184673466 2.3133704720714947 57 59 38
12.129205740318838 0.37744572751954986 2.0639637700243147 40 43 12
11.418489050066103 0.7858777661605775 2.3158885207985693 46 51 18
13.117682793800775 0.4008298707559206 2.5303036760341326 57 62 30
13.705079586147653 -0.005237416260969798 2.0851222275777226 56 55 27
14.444887085505835 2.189041662279759 2.1364658543944666 51 51 27
14.854546358831733 2.685648922774975 2.286089518863764 44 49 14
9.965417589005241 1.577657598924423 1.6453416561153857 63 65 39
14.01008465566943 -3.13538580988929 2.339730449053227 56 61 31
14.333085054078806 -3.137150570823766 1.7633018367110846 46 48 25
14.394895728474484 2.2063543184013654 1.9065018052492841 8 6 0
14.863962713273434 2.868688379327596 1.7563448084025663 39 42 12
15.330481254285926 -0.8392025667163872 1.8173889818135518 62 64 43
15.183523508814812 -0.3882736276041435 2.3567362598236423 67 68 43
13.242853579620077 -1.117063358479264 2.3974312845425736 70 68 48
15.25399081973504 -0.5063475817955455 2.181090090547988 66 66 41
15.509287258000134 -0.6004958584611331 2.659575918269878 73 75 50
13.323223777774146 -2.89307287394952 1.9347095903288047 51 53 32
12.592031644899807 -1.5783200546578362 2.338192357560845 64 63 44
12.11261721729151 -1.5775723785831581 2.161114238162797 62 61 43
11.415060713009796 -2.0807123484928725 1.9992145773139736 58 57 41
12.588258099209293 0.5165834917341735 2.455789539974029 51 56 25
13.983033701667027 0.0671912653402155 1.6238989971878957 38 36 11
15.5338687353988 2.595755774847416 1.748255875440171 25 26 14
12.114913841560911 1.2992166856566945 2.505037616972928 51 54 19
14.236730568258823 2.9682965657429623 2.231989035500578 48 53 20
16.18645740059884 2.2714507116159126 1.304616393506686 12 11 19
14.89454785155237 -0.7926601916826068 2.1174132677101136 67 66 48
13.416713697508921 -1.827914693877244 2.8231524779542845 66 70 46
12.068856453952572 -1.4396154681863906 2.5102184080069185 66 68 44
12.17432385535992 -2.1618216606707135 2.4984651583621544 58 60 38
12.507029874473355 -1.8995602414846453 2.603898595722516 62 63 40
14.215411955828992 -3.0662112732714295 1.6936614632622466 48 50 28
14.132485004196356 2.902826628521222 2.068114398485266 45 48 20
12.568999806990323 -2.038102462146631 2.3399614845190104 57 59 38
