12.289098436499806 0.4372618483851194 1.8164470447484597 26 31 4
11.90832334193499 0.2750768433556219 1.912336276826588 32 37 4
11.979674251228232 1.047376607057313 1.8229280767602207 10 14 0
11.598117659866933 0.8011143711779236 1.8314124708786776 16 20 4
11.462733672021864 1.0008471561592112 1.9261889933265997 22 28 7
11.598117659866933 0.8011143711779236 1.8314124708786776 16 20 4
11.071032601786674 0.3334506295005859 2.142328276594548 37 43 7
11.327236899296556 0.39173923324178417 1.930632402013562 30 35 6
10.989895374804767 0.8033839946523103 2.0419584049605914 29 34 9
11.242686570490184 0.7348609141228752 1.9334632336008095 26 30 8
11.386975301013647 0.4311706246198572 2.124584264923375 36 41 10
10.910511786630046 0.8064196761570985 2.26599001719039 34 39 12
10.893092693047201 0.7270096470614155 2.1528698400307062 33 38 9
11.242686570490184 0.7348609141228752 1.9334632336008095 26 30 8
11.226887615575817 0.47875395662748516 2.242708708429208 37 42 11
11.30404964761442 0.520850989600101 2.0278509423057045 31 36 7
11.779586161744657 0.520850989600101 2.1041037406656167 33 38 9
11.784607845482306 0.602182810254237 2.007893289465515 31 36 9
11.54369009886691 0.6596114669351112 2.1162115284901866 33 38 9
11.40999403343177 0.30154934731813093 2.023289700192815 35 40 7
11.08697143120502 0.716274799694445 2.375370512985112 38 43 13
11.641230527556608 0.6386572060060667 2.327088987967068 37 42 11
11.572582840616557 0.3725510397336718 2.332700164340165 38 44 8
11.933293844451443 -0.0879573457590297 2.002079467651662 35 42 5
12.384692716585954 -0.0879573457590297 2.075496443981725 38 45 9
12.326846620642359 -0.16398037547059768 1.815679362995166 28 35 1
12.342322397066422 0.17184375648218395 1.8153660329520236 28 34 0
11.045139250068111 -0.3237328918632631 2.143836716733232 44 53 18
11.664888851296942 0.20601494083559357 2.109918668805336 36 42 6
10.880022981605784 -0.361890220136133 2.268329693864969 45 54 21
11.483847118495131 0.004870202513304994 2.1193767190181676 39 46 10
10.838464800595704 0.22866081077261846 2.156190603840189 37 42 9
11.276661741480606 -0.10781030879236905 2.2392028934528008 44 51 15
11.285122387635642 0.1185194020180769 2.238611007452224 40 47 13
11.276661741480606 -0.10781030879236905 2.2392028934528008 44 51 15
10.820838446694717 -0.21834630481063944 2.1572708155408296 40 50 13
11.648513096907527 -0.1966640844612618 2.1107598965927963 38 48 11
11.42144609670713 0.22866081077261846 2.229231782101384 39 46 12
11.333466169825359 -0.24529411907338244 2.3530281696928075 44 54 17
11.946166667053685 0.1335468232029972 2.422527416191396 40 49 15
11.333466169825359 -0.24529411907338244 2.3530281696928075 44 54 17
11.3187271968921 0.15290431812437977 2.4883732340025038 42 49 15
12.120223174172851 -0.13916320865906648 2.539448602558233 46 53 19
11.310291688790441 -0.13916320865906648 2.4893484130915278 46 53 17
11.454650976513266 0.29255283421849404 2.4730211863194427 41 46 13
10.897462966541566 -0.4096745762414049 2.393614670645494 46 55 23
11.164154365410694 0.0061191595477378844 2.3682132437480954 44 51 15
10.510208263299134 -0.7965694369902652 1.9600451229841094 42 49 13
10.321677822923329 -0.7191176579448749 2.075226448530639 43 50 13
11.009400578682419 -0.5657700376036476 2.145932797088138 44 51 16
10.52055814892152 -0.5265801112488551 2.2973213486302595 48 55 25
11.353398496367676 -0.422181046519127 2.126413962074473 45 53 20
10.880805227354063 -0.8634459964613015 1.8490356515815598 42 49 13
11.261753951983586 -0.5126513654295791 2.0296987793599652 45 53 19
11.739003951837327 -0.5126513654295791 2.1061459008314594 48 55 21
10.3435674430734 -0.7068341954706332 2.3126324612181275 45 52 16
10.325191931510675 -0.6295463448418464 2.189518422941221 45 52 17
11.043844401097042 -0.7068341954706332 2.3794369040755603 48 55 23
10.63305895740797 -0.5982598120869606 2.4208172759279902 47 53 25
11.415750831781045 -0.9212853211124916 1.745883570799776 41 48 12
11.6887386290343 -1.0432347658248509 1.7417536418722062 44 51 16
10.476496648423517 1.7864773645666365 1.7617661207003281 23 25 8
10.990766604579692 1.083147541680368 1.9421751530806532 29 32 11
10.959035366050092 1.3936611674504358 1.9433030312335635 27 29 8
11.166815518924647 1.2991453276248142 1.9360426125552856 24 27 7
10.615018541034551 1.0331202059898452 2.0600334356813788 30 32 9
11.315278580733958 1.1297851881670127 2.236510782947832 34 36 12
11.149796850473171 1.2093443455219037 1.842151012944399 17 19 0
10.704178478699776 1.2708096415393566 2.055603972358801 32 34 13
10.362664307268675 1.4827529873663716 2.073044214991264 32 34 12
10.362664307268675 1.4827529873663716 2.073044214991264 32 34 12
10.809297109474668 1.3509111865728816 2.2738259910249794 34 36 12
10.809297109474668 1.3509111865728816 2.2738259910249794 34 36 12
10.419226780172819 0.9730178242503922 2.183107286922841 33 38 11
11.449994371087499 1.4579564954947406 2.473536197052577 35 40 13
12.65541442702011 0.7007150751011358 2.6225387717450452 40 45 12
11.759974339115484 1.1927917108797301 2.4408051842568677 35 40 13
11.310048515801327 1.0764448463299663 2.355087725699589 33 38 11
11.848889322603302 0.9000527867931001 2.4319565444109195 36 41 14
12.00744204761438 1.1373802802449164 2.5532538497549417 38 43 13
11.704018077912323 1.4394970374672413 2.593326756098081 39 44 13
10.875657047668666 2.051930906248762 2.153925317938752 31 33 12
11.172458268561485 2.0925395333397763 1.9358494829688264 17 19 2
10.393192441279394 1.910877935673085 1.9646676605311244 27 29 9
10.484689746930185 1.5908323827826172 1.8598444747228537 28 29 9
10.129943820220662 1.809462672245571 1.9754921667114342 31 33 12
10.270079920683402 1.8378011938849714 2.1933443276052795 32 35 11
10.660500862632025 1.595809823933496 2.2857150613658 34 36 14
10.777828366079515 2.1083638359889845 2.276303039395001 33 37 13
10.720570602024019 1.7396320125151943 2.41157321979491 35 40 13
11.678472780665238 1.6040765150638467 2.5969189646662163 38 43 12
11.12366884954161 1.9971690524283487 2.371948536442455 33 38 13
11.73837355894671 1.7668877023315062 2.588553086864435 38 43 13
13.052131036385829 2.23996387735035 2.735100132974176 40 45 14
10.86477115998452 2.177955411599691 2.3968633977781186 37 40 14
12.777428573657332 2.3807727103790786 2.788363211403043 44 49 17
12.533592617041654 2.611568884052317 2.6398137880963364 41 45 12
9.048052802133206 -2.056842028694343 1.6802710649608044 48 53 33
10.608354512112617 -0.5515429561685399 2.581694396027816 54 59 32
9.810553709421127 -0.9666589745851707 2.1042250789532457 44 51 14
11.247596684735571 -1.1251623845296708 2.241245121967888 45 52 17
10.655107670795266 -1.1251623845296708 2.1676418483628512 45 51 17
10.738426599076577 -1.3483578241481824 2.2794324672047432 52 58 27
9.711823692167322 -0.892293475090257 2.2352450938145454 44 51 15
10.616802397350895 -1.4707008242181625 2.2892937765056427 54 60 30
10.528268097803604 -0.80521535204177 2.5939502953919864 51 58 29
10.137646363773163 -0.9164707752828934 2.4783645740919953 49 56 22
10.953705941160774 -1.1880915343806884 2.388097033704502 48 55 20
10.9429879604776 -0.9164707752828934 2.5346553303601445 50 57 25
11.3001595055393 -1.4707008242181625 2.355961292859905 53 60 29
11.614139236695479 -1.2324019271144384 2.329291912109973 49 56 23
13.110193298500706 2.942819670805797 2.724931733332945 47 53 21
12.86739774155924 2.6880782746023724 2.769861968066305 45 49 16
13.110193298500706 2.942819670805797 2.724931733332945 47 53 21
9.464018405160012 -1.7207317033767897 2.125989633171823 54 60 32
9.078479806774876 -1.953515718329106 1.906243255474219 47 52 30
10.195461902242698 -1.8408530894767472 2.1986074170741254 55 61 33
10.305400620525843 -2.1500271303104443 1.9682106717533454 52 58 40
11.426790224477598 -1.7419051737343105 2.476113836187926 54 62 32
11.36524735822219 -1.5997490517065327 2.483043264274048 54 61 29
14.521671077848398 -2.2743409139916144 2.6779417158802805 52 60 37
11.27369913432457 -1.5961099096930806 2.3583100462829645 53 60 30
11.703288381046969 2.292399074937544 2.210732984623059 26 29 8
13.918497816441544 2.8217401353913245 2.3712126914184877 29 30 15
13.48689432490823 2.741234280393558 2.5231081179553767 36 39 11
11.793442706003445 2.227333615134128 2.1034102371807406 23 25 5
12.980509666827473 2.6847991262481825 2.5802529366593223 41 44 12
11.318488377586089 2.227333615134128 2.0272236795159486 16 18 1
13.81804461681161 2.639836238027101 2.27903107099619 9 10 1
14.171098232048193 2.727164941770284 2.3530136877375094 16 17 4
14.296658682641674 2.683123379993121 2.4474619113471334 33 35 16
14.091351480709978 2.563309855299125 2.5882527160292805 38 41 11
10.799038337572213 -2.4384354337967515 1.4769982712714198 49 54 42
10.875033844484681 -2.831116187178806 2.0473463842360733 43 49 33
11.718192188525824 -2.9325199979845387 2.2097864935183296 43 49 27
11.449075937601451 3.135773938824089 2.3430435409737846 37 42 12
11.823493938627042 -2.796059259117398 2.3126437574064593 44 52 32
11.488511487085399 -3.0259978268189283 2.3397054713382306 43 48 23
12.167927166580142 3.135773938824089 2.4019491311695353 42 48 17
13.282285208159207 -2.8768566316217976 2.545096798039675 46 54 27
13.65193390259287 2.822659199168999 2.642794376100783 43 47 14
13.172491942945204 -3.0101192641773507 2.557485510127627 49 55 21
12.661071990098574 2.9742224269168696 2.621757156484861 43 48 15
13.179735629332594 2.997116582660764 2.5566546213065866 41 46 17
13.497570596541506 3.133897405806813 2.664211070725619 47 54 22
10.035863844903197 -2.5983562985965847 1.8731706032015571 52 57 41
11.477040279377107 -2.692524596067852 2.225489906331738 47 53 36
10.89703362701107 -2.692524596067852 2.152631842453594 49 54 38
10.591253729808969 -2.4508704090720728 2.061228442400984 55 60 46
10.134071881837338 -2.2991668287256966 1.9753176913519628 51 56 43
11.634407163102617 -1.2369420149773975 1.6558672048225105 45 50 17
11.275722432925027 -1.4080226207857867 1.7480808279093827 52 57 26
12.121627548413109 -1.1578469025668259 1.7355914521458906 46 51 18
9.889120495164608 -2.0095873288421644 1.569639080360017 45 49 28
9.430988969300778 -1.81191018998972 1.783244206506764 52 56 32
11.987220381564583 -1.3206179942240464 1.909997624527934 51 56 25
11.971368069244319 -1.2369420149773975 1.8231068230157859 45 50 17
11.47893757359553 -1.2966681608295787 2.0203720006017214 49 54 23
11.746638730759877 -1.1215169329531565 1.9172333715525642 45 50 17
11.696823281004274 -1.267802633424144 2.211144519549203 49 54 22
10.919764213638015 -1.3725201083491425 2.1512631916914615 53 58 29
20.914962655762118 -1.3729847412306067 1.9627061197432654 52 61 31
9.514093615508893 -1.7041935769116419 1.8903246773535478 55 60 33
18.12233865354273 1.1989212504506062 3.0200088987587357 47 54 22
17.11560444771796 0.5274543293592466 3.019673251977522 49 56 24
18.03673237140302 0.919482863303465 3.0684870802831363 49 56 24
18.006339744699538 0.05968167040757273 3.097144734923898 50 61 28
15.036698790762665 3.1018898257392515 3.061550091311427 53 62 30
15.43433402957671 -2.21150270528847 2.9006679604359156 53 62 32
15.274623091016716 -2.416086222191196 2.9477524104755686 54 63 33
15.066747057279885 -2.4713325787483105 3.0396696534786996 54 63 31
15.17924748492798 -2.7333112230710546 2.982916595531866 52 61 29
15.43433402957671 -2.21150270528847 2.9006679604359156 53 62 32
15.116505413995005 -1.6735656604950995 3.011391298916395 56 65 35
15.450462708063515 -2.5939759144781642 2.896455348178665 52 61 32
15.213468282815601 -2.625338104321005 2.7375647777346153 51 60 34
14.901239205904853 -2.529057863606919 2.789784534754437 52 61 35
15.608374491188698 -2.3966470256849055 2.8588337880405152 52 61 33
15.213468282815601 -2.625338104321005 2.7375647777346153 51 60 34
15.438723184129083 -2.4918127578741713 2.7046967933659194 52 59 33
15.65641157163666 -2.078983389304753 2.848458627078354 52 62 35
11.70531777479061 0.9263858214774162 1.8289709309503004 16 21 4
11.662684180556614 0.6753502687094436 1.829936369191481 21 25 8
11.40999403343177 0.30154934731813093 2.023289700192815 35 40 7
11.397362430210272 0.602182810254237 1.9283186322494021 28 33 8
11.47329857214362 0.7270096470614155 2.225740274528424 36 41 12
11.662684180556614 0.6753502687094436 1.829936369191481 21 25 8
11.8278504903719 0.716274799694445 2.4340300251463685 38 43 12
11.8278504903719 0.716274799694445 2.4340300251463685 38 43 12
11.974970407724564 0.5370087625918869 2.419784068612839 38 43 12
11.576544352803547 0.8064196761570985 2.3323737268625613 35 40 13
12.054379218439717 -0.1788570627528414 1.9974619325637786 36 46 9
11.895332934142452 0.004419207897233097 2.0035484953379212 33 40 4
12.524204724163948 -0.24518717825516909 1.8117433559623803 28 37 5
12.208463918319671 -0.08053615728075669 1.818103307534886 30 37 1
11.94128926247771 0.09672061438103612 2.0017713744130012 32 39 5
11.42144609670713 0.22866081077261846 2.229231782101384 39 46 12
11.404720794289574 -0.21834630481063944 2.230366785480852 43 53 16
11.523163671704815 -0.09688032587765995 2.11729281371033 39 46 9
11.42144609670713 0.22866081077261846 2.229231782101384 39 46 12
11.236482708919361 0.0054237088317002245 2.2420297054426923 42 49 13
12.461123898695154 -0.16277103155380435 2.6505189300489995 47 55 21
11.270232549579157 0.007019186132352699 2.4940165911829055 44 51 16
10.303270666530373 -0.47092603732331356 2.4580523694614533 45 54 20
11.350296470439062 0.25677725032717724 2.3515557995961913 40 47 13
11.93025980480516 0.1185194020180769 2.304472505404568 39 48 14
12.12809536010908 0.15290431812437977 2.5385048343686853 42 51 17
11.204592766301115 -0.12150646216861176 2.3645233041055165 46 53 17
11.437974228395987 -0.27963249428688086 2.474869098284808 44 54 17
11.009400578682419 -0.5657700376036476 2.145932797088138 44 51 16
10.935570407105779 -0.6295463448418464 2.2640802031247818 46 53 21
11.19283058230574 -0.46906455041819245 2.245131164948928 47 55 24
9.892783483861443 -0.8756260262213044 1.985783642586786 42 49 12
10.859214783357464 -0.422181046519127 2.0480985490085875 45 53 19
10.24289178440845 -0.7984705782926608 2.1952508206420247 44 51 12
10.859214783357464 -0.422181046519127 2.0480985490085875 45 53 19
12.43197713139679 -1.0838691805999707 1.650397550990787 43 49 17
12.890859411563602 -1.015257075745562 1.5699085544578752 39 45 12
10.731247334073963 1.8792414025535071 1.7571787513256374 19 21 4
11.391841917028989 1.083147541680368 2.0240644672014594 31 33 12
11.00803114018211 1.1732986371958423 2.0411192988630456 30 32 11
10.487236252917153 1.3745581491786762 2.066531884169415 31 33 12
11.019900937860424 1.2361205956709767 2.2577385648555355 34 36 12
11.759974339115484 1.1927917108797301 2.4408051842568677 35 40 13
11.48036870052277 1.009961148735404 2.470190379077083 37 42 13
11.68394240439157 0.9730178242503922 2.323645803456607 33 38 11
11.562857941585854 1.3209192108070122 2.4612616594648924 34 39 12
9.960576011465722 1.702802756763802 1.9827870349664622 32 34 14
10.270079920683402 1.8378011938849714 2.1933443276052795 32 35 11
10.484689746930185 1.5908323827826172 1.8598444747228537 28 29 9
11.205546466340166 2.2065845746426307 2.2442244211017672 32 35 13
11.205546466340166 2.2065845746426307 2.2442244211017672 32 35 13
10.878112030753407 1.873542950942823 2.3955339193766987 34 39 12
11.296799402681517 2.0576450042313357 2.490913806230327 38 42 14
11.485109739972716 1.7396320125151943 2.469671003867997 35 40 13
11.423881057616791 1.5993571746433266 2.476438339080775 36 41 14
13.063895601066138 2.514011854844318 2.7330131848542707 43 46 14
12.777428573657332 2.3807727103790786 2.788363211403043 44 49 17
10.564273511157593 -1.0707288153889363 2.293649942936983 46 53 17
10.950393531883453 -1.2324019271144384 2.262956008701395 48 53 21
10.354905880386896 -0.9666589745851707 2.187476836670826 44 51 15
11.614139236695479 -1.2324019271144384 2.329291912109973 49 56 23
11.504932545317061 -1.3176325902122417 2.467507723385321 51 58 25
11.391495081548166 -1.456420770246177 2.48007119432732 53 60 27
10.92894056249684 -0.6889794637393818 2.5365088930244752 51 58 29
12.746547807285408 2.897199680850343 2.7949938779804633 48 52 19
13.227721344212092 2.766536935001378 2.7052905715792592 45 48 15
9.45494089395876 -1.953515718329106 2.0062798452609103 49 54 31
9.95701103538615 -1.5961099096930806 2.2161000531095425 54 60 31
10.654664132936169 -1.7207317033767897 2.286190722991953 55 61 33
10.195461902242698 -1.8408530894767472 2.1986074170741254 55 61 33
13.747427474524578 2.6295232957134367 2.4969544812927777 37 39 15
14.091351480709978 2.563309855299125 2.5882527160292805 38 41 11
13.538089069166784 2.9742224269168696 2.6584572325617515 45 51 19
11.554519264745306 3.136406303430602 2.220352612913886 37 41 17
13.138112026582347 3.1349659569972097 2.5614559806868598 44 50 19
13.65193390259287 2.822659199168999 2.642794376100783 43 47 14
13.296649010001369 2.8645522322313686 2.5435077149422027 38 42 10
10.994672528330979 -3.048514078377755 1.9420368022509455 38 42 22
13.179735629332594 2.997116582660764 2.5566546213065866 41 46 17
11.019725953809584 -3.0384664159109644 2.1453255227199306 37 41 19
11.488511487085399 -3.0259978268189283 2.3397054713382306 43 48 23
11.634407163102617 -1.2369420149773975 1.6558672048225105 45 50 17
20.756645928775782 -1.424187255512123 1.9658604526895935 52 61 31
11.420852675705467 -1.1694993573146166 2.1227511691710483 46 51 19
11.445803150707839 -1.1215169329531565 1.8349630099350973 45 51 17
11.494304158608438 -1.4080226207857867 1.833821842785474 52 57 28
11.276909822249337 -1.3919982270113922 2.0290348542516847 51 56 26
18.193858055757406 0.8500611352108159 2.9912235413727557 48 53 24
18.07831805453444 0.026525703601640624 3.041900129053858 53 60 26
18.10858987654691 0.5274543293592466 3.0263893187284143 49 56 24
14.901239205904853 -2.529057863606919 2.789784534754437 52 61 35
15.323706458161789 -1.957254711925861 2.932061871258875 54 63 33
15.274623091016716 -2.416086222191196 2.9477524104755686 54 63 33
15.608374491188698 -2.3966470256849055 2.8588337880405152 52 61 33
15.131142925619484 -2.386731601092099 2.7504859087002353 51 60 34
14.701908433745729 -2.078983389304753 2.8288031799440554 52 61 34
10.894314792572331 0.4311706246198572 2.046432960092939 34 39 8
12.604568970370437 0.716274799694445 2.485620194141222 40 45 12
11.058013808656755 0.6596114669351112 2.038822774250921 30 35 8
10.91593328011994 0.8823244315336938 2.151493373886071 31 36 11
11.90832334193499 0.2750768433556219 1.912336276826588 32 37 4
11.26481834203251 0.8693331695603266 1.9327178395252655 28 32 12
11.674950647853192 0.42142512081133865 2.449482287542752 39 45 9
11.531443460254241 0.10652033239871064 2.1168561046656316 37 44 10
11.523163671704815 -0.09688032587765995 2.11729281371033 39 46 9
13.145718975591999 -0.24518717825516909 1.9600320319602005 32 42 6
10.303270666530373 -0.47092603732331356 2.4580523694614533 45 54 20
11.884260825734106 0.0054237088317002245 2.3079675779572115 43 50 14
11.043844401097042 -0.7068341954706332 2.3794369040755603 48 55 23
10.743422938808074 2.0055225206697984 1.9511572188268254 22 24 5
13.052131036385829 2.23996387735035 2.735100132974176 40 45 14
10.803031603809691 2.1445749504993312 2.0507901513933855 28 30 10
11.528889039546746 1.125239751435909 1.833014180882032 14 18 0
10.513136152868114 1.4914767843362058 1.859039930710128 26 28 8
10.393192441279394 1.910877935673085 1.9646676605311244 27 29 9
11.814455207391415 1.2817168540915826 2.578207457616694 39 44 13
10.553160023248148 -0.8011514364654904 2.429478871090978 48 55 24
10.35840871630276 -0.892293475090257 2.3113201655135622 46 53 17
11.426790224477598 -1.7419051737343105 2.476113836187926 54 62 32
13.991384363036271 3.132418009081715 2.760678806710213 50 57 25
11.414504699284583 -1.3483578241481824 2.34599787591325 51 58 26
10.284731709438441 -2.056842028694343 2.0772107478920945 51 57 36
13.837295361335464 2.6847991262481825 2.61873243551339 39 42 8
11.51233055327883 2.300747772483104 1.92459048799153 10 12 1
14.046316451364826 2.7857951491067663 2.4691600262237285 37 39 18
12.232301435299435 2.243049982658807 1.9029370426710959 9 10 0
9.526026952186163 -2.2991668287256966 1.7810927087233337 51 56 41
10.57511971358696 -2.9525043249805103 1.7599634876163806 38 44 24
10.065199811489533 -2.735889023439714 1.4701372020059311 48 53 37
12.358329966175225 2.997116582660764 2.511961561745112 39 44 13
9.558720026942876 -1.914226527970142 1.6744008446407668 47 51 29
11.477771084305887 -1.3206179942240464 1.7449277781306753 51 56 25
11.498624360665234 -1.3725201083491425 2.224049769513157 52 57 26
11.971368069244319 -1.2369420149773975 1.8231068230157859 45 50 17
15.43433402957671 -2.21150270528847 2.9006679604359156 53 62 32
14.735751542003797 -2.7065985508477692 2.821777928249151 53 62 33
15.17924748492798 -2.7333112230710546 2.982916595531866 52 61 29
11.071032601786674 0.3334506295005859 2.142328276594548 37 43 7
11.624906415487441 0.5744433250148477 2.215761908475007 35 40 11
11.896220884747127 0.5529699980046286 1.824735689946219 28 33 8
10.649638993382874 -0.8634459964613015 1.7586239715038088 41 48 12
12.490944838207708 -0.08053615728075669 1.895803712309815 30 37 1
12.070204343184784 0.18740236609176347 1.9968660029341077 33 39 3
10.63305895740797 -0.5982598120869606 2.4208172759279902 47 53 25
12.490944838207708 -0.08053615728075669 1.895803712309815 30 37 1
10.3435674430734 -0.7068341954706332 2.3126324612181275 45 52 16
12.052788059398093 -0.9714854422320087 1.569846824609515 38 44 12
14.84188728611894 -2.3807192898581664 2.636497258856007 51 58 36
11.1200598169588 1.0331202059898452 2.1394953497404225 31 33 9
10.72608810157825 1.718979581942908 2.280418897756835 32 37 12
13.531037224564509 -2.9892228984938667 2.659451614139914 50 57 26
11.678472780665238 1.6040765150638467 2.5969189646662163 38 43 12
9.164781502448015 -1.8408530894767472 2.021061935863976 52 58 33
10.333803697853977 1.5930461746381508 2.0745787566687146 32 34 12
11.055088847394448 1.9198845066801682 2.5202017853955314 37 42 13
10.31282185940341 1.689795208870494 1.7648353079589243 27 29 10
9.817946565858279 -0.8011514364654904 2.362874444773367 47 54 21
14.074345661642127 2.5302349785800677 2.4666627374962764 38 40 15
9.865851509118906 -2.831116187178806 1.773746139661812 44 49 34
11.374805879294307 -1.2061759085636887 1.9290595477591657 45 50 19
14.884515407458993 -2.2516049010159116 2.7928582496638303 52 61 35
11.350296470439062 0.25677725032717724 2.3515557995961913 40 47 13
11.045139250068111 -0.3237328918632631 2.143836716733232 44 53 18
16.26511306512008 -1.0611060298559771 1.384574426255312 41 46 14
11.458406587002223 1.2093443455219037 1.9263291565567806 22 24 5
12.358329966175225 2.997116582660764 2.511961561745112 39 44 13
13.282285208159207 -2.8768566316217976 2.545096798039675 46 54 27
9.502254212795847 -2.1500271303104443 1.5695919652409889 48 53 36
10.661914938736468 -1.0027715947083913 2.4177416800242466 48 55 19
10.529825682216432 1.9494004148571165 2.17574902658366 33 35 14
12.176939116603386 0.8106879068686438 2.5327047909329834 39 44 13
11.189349973103141 1.1373802802449164 2.503634550970161 37 42 13
12.320421525795215 -1.267802633424144 2.276276626386064 50 56 24
15.162830317984195 -2.122429649888398 2.9898322113894427 55 64 34
15.43433402957671 -2.21150270528847 2.9006679604359156 53 62 32
11.913290760571178 0.3586266113384232 1.8243638243946034 27 32 5
11.102969481443555 0.9464217466269157 2.0367771307092877 28 32 11
11.261753951983586 -0.5126513654295791 2.0296987793599652 45 53 19
11.721848805067264 0.47568950534491344 1.9179969284812586 29 34 7
11.242686570490184 0.7348609141228752 1.9334632336008095 26 30 8
13.067395570617292 0.6094125338635842 2.5697662729414965 42 47 14
11.141824279121964 -2.567405225020729 1.389270080365966 54 59 45
15.356179262086412 -2.8524658958912266 2.9223398137117877 51 60 30
11.437974228395987 -0.27963249428688086 2.474869098284808 44 54 17
11.276661741480606 -0.10781030879236905 2.2392028934528008 44 51 15
11.92225699010078 -0.10781030879236905 2.3050778425871914 43 50 14
11.95740904251329 -1.1578469025668259 1.5698392508439785 43 48 17
10.619403063378392 -0.9407525518349857 1.9558310765070122 42 49 12
10.688479373677893 1.471880153561024 2.2834448833400294 34 36 14
12.606675188767117 -0.16398037547059768 1.8927120332171918 31 40 4
