9.908214913568328 0.7876920330722043 1.9256386805148042 45 51 26
9.899942761115772 1.0300126513327443 2.036155203205697 38 47 18
10.18988014991278 0.8700549335225412 2.134253135063645 42 48 24
9.607237119815947 1.1782278706970517 1.827857205766709 35 44 17
9.961574862829767 1.6294516583632241 2.2740969666567343 20 30 4
10.274268561024838 1.245921699337642 2.248563640529287 33 42 14
10.71604537314616 1.6383341345028577 2.478091178693067 47 56 30
10.282791628144833 1.39164867015546 2.12855487217264 25 34 8
9.952776725315394 1.4867691252177235 2.415515704390306 36 46 20
10.71604537314616 1.6383341345028577 2.478091178693067 47 56 30
10.819059212805653 1.3389500267695527 2.4660042810092673 41 49 24
9.874224752328665 1.0757992323938654 2.281622214264236 39 45 20
9.951468575956463 2.1934618701330577 1.9240286842446688 42 48 23
9.963298023770612 2.2751652017176953 1.615227501749226 36 46 20
10.517648830525028 2.0528620626976486 2.3569254978659657 48 57 31
10.247661193506264 1.882683808449481 2.2506554678388504 45 55 31
10.228717378832469 2.164618469997361 2.252153603259509 48 57 31
10.98249582874765 1.9263834581539463 2.447643905482017 49 58 32
9.650362124610297 1.882683808449481 2.1699843599680144 33 43 17
10.531161048595752 1.9971818622676025 2.229078995918609 44 54 30
9.630540520086765 2.261768436320469 2.0502523239479866 47 53 28
10.235172460520774 2.417460876842881 1.8117628671807486 43 49 23
10.479618115645756 0.2641995720952128 1.9055093924458315 44 54 27
10.15331918630571 -0.24759773452799022 1.813744450454286 33 45 12
9.960161630125407 -0.24759773452799022 1.7161380124333168 33 43 15
10.164346271146965 -0.04343407703036002 1.916317760702393 36 46 16
10.580048040196532 0.05534516720895637 1.6126358854032266 39 48 18
11.028350459699832 -0.6716126575399031 2.4426613229368197 40 53 24
10.83671131668422 0.7881038811545653 2.327858616708213 42 49 22
10.754461784106372 0.7056735850414385 2.2131191812098354 42 51 23
10.545356572757099 0.5004636776880643 2.3542976257903745 41 51 23
10.259590364202987 0.32965685882115187 2.2497158376637376 43 52 24
9.41786472617211 -0.18519045536219358 2.1869431494376697 36 46 16
10.72289182739147 0.5731095616348852 2.4772748408609644 40 49 21
9.937340374127038 -0.05491209221972509 2.276166696569441 34 44 15
10.304742367982103 -0.5289041017469353 2.1272265620103807 30 43 12
10.282968591860048 -0.6716126575399031 2.380050948932432 39 52 21
10.488953087730502 -0.48034309820757 2.3596690793400503 39 49 19
10.704258746750337 0.08897556870994341 2.479501011626035 40 49 21
9.945864498436144 0.07724824791537542 2.2754371341807986 37 46 18
10.207233894969214 -0.3530444740508722 2.3878655012433456 37 50 19
10.356873333740964 0.6900351954796071 2.3725953561375315 41 50 22
10.696339018906608 -0.06326886385469588 2.4804514963733864 39 49 19
10.054337747024894 0.20677371029144234 2.2662993805934644 41 48 21
10.270781925238568 0.6103696566381522 2.2488369366171823 44 53 27
11.933632176479504 0.2779191104076663 2.636337261431738 47 54 25
11.502276731937599 0.33484133738715516 2.708964044065486 44 54 26
11.255931460022438 0.43553190462414143 2.566044700909109 38 47 19
11.37542868455114 -0.7698643981509856 2.550050539645759 43 56 25
11.89348289896981 -0.6434032954082107 2.642474138867413 45 58 28
11.04617786352973 -0.2494816457943601 2.5960074602168177 45 55 25
11.835227209627732 -0.07462018168928626 2.6515792863861076 46 56 28
11.645789899276238 -0.48758424962127794 2.683005907049247 46 56 26
10.979490531445952 1.6503802561416947 2.6060969746542586 47 56 30
11.413360426311586 1.6676399709387821 2.7261545606214335 47 56 28
10.984462628437731 1.4718139779041484 2.605334561305111 46 55 29
11.53195733394148 1.0039809846538243 2.5301394018456773 43 49 22
11.329724181225085 0.6287185057738642 2.7432205344466722 46 55 29
11.096274814179116 -1.1436316743887756 2.796620249913722 54 68 38
11.279916739817702 -0.9285780324833053 2.7538462922726423 48 62 32
12.065229926670648 -0.3789083911440821 2.818913802442503 45 55 27
10.732286054072599 -1.0462716173269133 2.6462905687954317 47 60 29
12.618891796562114 -0.7385121875162477 2.9742112938377665 52 65 36
12.222940982980809 -0.5968161018617784 2.7823188264545444 46 58 27
10.269408417516036 -0.8715101762600023 2.381436954917308 45 58 27
10.168883495004298 -0.9534141363223787 2.2569342886339365 45 60 26
10.04534680460536 -1.468737169810815 2.568895422771783 49 63 30
10.641269338809945 -0.9899313840622233 2.487132595940192 46 59 27
10.641269338809945 -0.9899313840622233 2.487132595940192 46 59 27
9.948047125916249 -1.3330502467271088 2.4160513340543277 46 61 25
10.031755199715853 -1.6236742571002987 2.1442431519739795 42 53 22
9.838692850335267 -1.4961431062475452 2.2847357230870635 44 59 25
9.642066967051852 -1.388119535191756 2.049630895155186 38 49 16
9.34651572073665 -1.1237937781520484 2.0661179011258812 38 48 18
9.835915199338741 -1.6401128026580316 2.428999975217971 46 61 26
9.945304616183064 -1.364140029576927 2.2754850011046788 43 58 24
10.149788142135233 -1.2912359147132406 2.5531286165656666 46 60 29
10.607600255845208 -1.6236742571002987 2.223518054375776 44 55 24
9.546372086469537 -1.2390239275312298 2.1774428504797894 41 51 21
9.841465069491266 -1.4845600304793558 2.428347563325515 46 61 27
9.861157483721602 -1.1237937781520484 2.155457045249148 42 55 22
11.180897863608452 -1.130009655955617 2.576471812150353 48 61 30
9.92227040612416 2.1235715370479307 2.4189852776543113 47 56 30
10.373506941828756 2.6984170376994516 2.52155309854199 47 57 27
10.373506941828756 2.6984170376994516 2.52155309854199 47 57 27
9.511198378743718 2.3435618767218425 2.180011423102985 47 56 30
10.116717125658816 2.3435618767218425 2.2611640591288586 48 57 31
10.20622525241489 2.215251425471244 2.54489311413694 48 57 29
9.894142832069148 2.5593997612756 2.422215515137542 48 57 29
9.601260374783413 2.5233092969926973 2.1734811899997246 46 55 27
9.600962373147873 2.441791511364908 2.306393676893261 48 57 29
9.806770936287657 2.3407644028867867 2.432446310974256 48 57 29
9.792843543893174 2.634023883415583 2.288799310979399 47 56 28
10.137452047529917 -2.7830623767199794 2.395228452119683 50 64 32
10.22439079365651 -2.4602866551480416 2.3860793589987965 49 63 32
9.521492456249266 -2.5409880159243525 2.179257253930439 50 64 33
10.126395676408903 -2.5409880159243525 2.260374889979739 46 59 28
9.946729157163457 -2.925446491736498 2.4162007431472765 47 60 29
10.126395676408903 -2.5409880159243525 2.260374889979739 46 59 28
9.83400498329166 -2.5814255546053317 2.4292248140280845 50 64 33
11.111650229875705 2.991023985148352 1.8857928375744342 43 53 23
10.227169240820777 2.557330895451835 1.7123175913062947 41 50 20
9.923423763368517 2.4980317160807384 1.9250708644646093 43 52 25
10.207626823701773 2.644240826880707 1.9147919350993685 44 52 28
11.067329568371802 2.6076198371622668 1.7015100162390195 44 50 22
11.98515665458232 2.9194858890894833 1.7760307838909524 42 51 19
11.415866991111297 2.7279869511012707 1.609570982303805 42 50 17
11.644287111030046 3.004006239391008 1.6949989422525737 43 52 21
10.207626823701773 2.644240826880707 1.9147919350993685 44 52 28
11.052263670793751 2.810998527755794 1.6108472834151888 41 50 20
11.310290617411644 2.810998527755794 1.7884680854767623 42 51 21
11.297710287535876 2.899012713188656 1.8804312002697703 42 52 21
10.19368575456101 2.740178432793027 2.0217371169516825 45 53 29
10.645969883036647 2.9318735884387004 2.3449261845307334 47 58 25
10.753256969277217 2.8744809067127406 1.9966890669827762 44 54 24
10.179444526089782 2.8074501872117543 2.2560850239867563 46 56 26
10.739757774005344 2.95610382886592 2.214143895339666 46 56 26
10.667534863478126 2.740178432793027 2.1062091875937106 45 55 25
10.179444526089782 2.8074501872117543 2.2560850239867563 46 56 26
10.152315844502631 -2.9928635040466016 1.9167443453619237 45 58 27
10.617464065705372 -2.7946399832199678 1.900997456375464 54 67 34
11.550754755170907 3.0905471972238767 1.6960099418715562 44 53 23
10.617464065705372 -2.7946399832199678 1.900997456375464 54 67 34
11.96620562315665 3.0905471972238767 1.8626083729363745 45 55 25
11.717721886735688 3.0905471972238767 1.7807841342317676 46 57 24
11.622433548706958 -3.018564247546891 1.6952336911363715 43 55 22
10.454356107733979 3.0797637889826515 2.0096984084655465 43 56 23
10.446246920177485 -3.0976570376184434 2.0100628553818924 46 57 25
9.947016800013488 -2.953748884823819 2.2753386416741606 49 62 31
10.446246920177485 -3.0976570376184434 2.0100628553818924 46 57 25
10.055762150306293 -3.092462647749051 2.1427020457949797 46 59 28
10.421332419597613 -2.711521506095552 2.2372552110288826 51 65 34
10.421332419597613 -2.711521506095552 2.2372552110288826 51 65 34
10.146372037015768 -2.9755581093101995 2.1369645436123292 49 62 29
10.535544643279197 -3.0858767806298917 2.355225845386649 48 58 28
10.064185974709023 3.072464848153979 2.1421633888592653 44 57 24
11.333407566893944 -2.7043219235776093 1.9735855296535219 51 64 33
10.543585151196256 3.0632159520882016 2.354465012984993 46 59 27
10.713780887124921 -2.891249699395275 1.9983612582791979 51 66 32
10.055762150306293 -3.092462647749051 2.1427020457949797 46 59 28
10.13773427890835 -2.8279071868840426 2.2594529309515714 51 65 34
11.065261200020426 1.8240509390878084 2.5931730805845925 50 59 31
11.134904687758418 1.9540649922898248 2.7870919366581415 47 56 29
11.308266688579225 2.1694538471472136 2.7477534291816954 47 57 31
10.671579910857412 2.336375729425972 2.65692560822802 47 57 29
11.49589445478087 1.8761957126389195 2.7101678028658123 48 57 29
9.094065273654973 -2.1374367142799064 2.3580717253948884 46 59 26
9.523460553166185 -1.994959569932707 2.467854497907778 47 61 30
9.316947344122227 -1.8316276799195483 2.4961223678322773 47 62 28
10.221442515459582 -2.258153261335808 2.386385625870668 47 60 29
12.553690478018222 3.014938544117726 1.60605505060598 42 53 20
9.824619136690337 1.0830113852278096 1.718157716038602 37 46 18
9.681138908421502 0.965669112547528 2.167814850591645 40 46 20
9.595565067869469 1.2815659543267586 1.937738849094311 30 39 13
9.989230729576526 1.1325403036060118 2.146994971630062 35 44 16
10.71604537314616 1.6383341345028577 2.478091178693067 47 56 30
16.08007938272258 2.7138954498157104 1.411072534477793 23 29 7
10.247661193506264 1.882683808449481 2.2506554678388504 45 55 31
10.803907697397891 1.78687623639843 2.4677561679336235 49 58 32
10.04187984060316 1.78687623639843 2.4055774924578697 45 53 31
9.850177893036452 2.100930419468774 2.03869372997604 42 49 25
10.233774661759869 1.9263834581539463 2.3851063989426646 46 54 31
10.517648830525028 2.0528620626976486 2.3569254978659657 48 57 31
10.130764112830498 2.261768436320469 2.13794404606284 48 55 30
10.723541205629104 2.4793626453323396 1.5187877615525092 39 48 21
9.949302171260072 2.417460876842881 1.6152900450869705 43 50 20
10.27876008766493 0.16436543413558377 1.9123138717868393 39 48 20
10.27876008766493 0.16436543413558377 1.9123138717868393 39 48 20
10.572035263981544 -0.039323361036555676 1.6126676150556558 36 46 16
10.17268017927313 0.06112394400381624 1.916022880075082 38 48 20
9.619079430510995 -0.30943677058116786 2.1722070903060415 33 46 15
11.100007930470106 0.886648999736014 2.4350149999010418 41 47 20
10.996368906933572 0.37561771315081965 2.4461289250339915 41 50 22
9.937340374127038 -0.05491209221972509 2.276166696569441 34 44 15
10.196253192513062 -0.592795196158165 2.254738193489346 34 47 16
9.833426029840968 -0.379842630492779 1.928458219982297 29 42 11
11.502276731937599 0.33484133738715516 2.708964044065486 44 54 26
11.079542997673062 0.6668003727890918 2.591066782218303 40 49 19
10.797536113729327 0.5161805598617937 2.635217508287849 40 49 21
11.08005533113346 1.2993033477202256 2.5909914576330846 46 55 27
11.263961694111572 1.141784629044321 2.5649468507850024 45 54 26
11.013227086184823 -0.8929697897365855 2.6009563094812376 46 59 28
11.443680694679864 -1.232253597696077 2.7201884134439878 52 66 35
11.443680694679864 -1.232253597696077 2.7201884134439878 52 66 35
10.269408417516036 -0.8715101762600023 2.381436954917308 45 58 27
9.44423588766 -1.276069267953902 1.9439048030117752 36 46 16
10.612746585744953 -1.5049869744770965 2.223147381918296 44 54 24
10.641269338809945 -0.9899313840622233 2.487132595940192 46 59 27
10.1524799199449 -1.1918361382945748 2.39362930216081 45 60 26
9.34651572073665 -1.1237937781520484 2.0661179011258812 38 48 18
10.449021745135678 -1.0648215311606268 2.363524761975139 46 61 27
9.53206423035843 -1.5049869744770965 2.055631189524058 41 52 19
9.945304616183064 -1.364140029576927 2.2754850011046788 43 58 24
10.192562979329605 2.4629647524719163 2.5468692135073066 48 57 29
10.312237541232914 2.2430869875201602 2.377078545799237 48 57 31
10.413727849260436 1.9835180244063129 2.5161637964380725 49 58 30
10.179163451185678 2.7602058679193124 2.390808205860579 47 57 27
10.201434780714298 2.5233092969926973 2.2543241999879067 47 56 28
10.585736960533147 2.3407644028867867 2.494000603624486 48 57 29
10.637737802124155 3.051117682211386 2.4875653997042186 46 59 28
10.42105786885244 -2.654331418492335 2.366251570256689 51 65 34
9.521492456249266 -2.5409880159243525 2.179257253930439 50 64 33
11.741969103745607 2.9194858890894833 1.6084936011809665 41 50 18
10.67318844378403 2.7788626865670807 1.8992085190382026 43 52 22
9.915168912891737 2.644240826880707 1.8197017859082802 45 52 21
10.77967382000684 2.6896975740158475 1.7993685715867351 42 51 22
9.894721166811884 2.692877716685702 2.153213660151121 46 55 28
10.753256969277217 2.8744809067127406 1.9966890669827762 44 54 24
10.55760619351337 2.9753614620531144 2.0051123529898827 45 55 25
11.543415807468175 -3.105327026667285 1.6960899678924894 43 53 23
10.339247075901707 -2.891249699395275 1.9102352013402022 50 63 32
11.013595412992963 3.085670050570809 1.8886952403215258 45 55 25
11.013595412992963 3.085670050570809 1.8886952403215258 45 55 25
10.13773427890835 -2.8279071868840426 2.2594529309515714 51 65 34
10.611780797469441 -2.757305228477007 2.1093287985408002 54 68 37
9.854574071452696 -3.0858767806298917 2.2833403091738234 47 60 29
9.854574071452696 -3.0858767806298917 2.2833403091738234 47 60 29
10.446246920177485 -3.0976570376184434 2.0100628553818924 46 57 25
10.454356107733979 3.0797637889826515 2.0096984084655465 43 56 23
11.333407566893944 -2.7043219235776093 1.9735855296535219 51 64 33
10.595778334538728 1.8761957126389195 2.6706922559319635 48 57 29
9.931566890634581 -1.7924021174282527 2.4179242587242467 46 61 27
10.024151305254206 -2.3589696386711356 2.2688154059573185 43 56 25
10.125552528021135 -1.9349779953273951 2.3965000460352806 45 61 27
10.125557045495928 -1.7408956358565695 2.1382716326697153 43 55 21
10.011643360508861 0.9386944011574317 1.9218135476350202 38 47 17
9.96705476322849 1.4978053037391126 2.273630856651475 21 31 5
10.05817933074439 1.3389500267695527 2.4037902228642944 32 42 15
10.057453868213994 2.2751652017176953 1.7147221903285812 38 48 22
9.850177893036452 2.100930419468774 2.03869372997604 42 49 25
10.056031366415285 1.7591047918032405 2.2661588218927946 26 36 10
10.253996694449539 -0.14705374906538507 1.9131724028162005 36 46 16
10.781566745950553 -0.2126533874911384 2.470355388286261 39 49 19
10.560080821496 -0.7698643981509856 2.497219385365917 45 56 25
10.632059496941412 0.7886959803336494 2.4882624147700625 41 50 22
9.86506332700455 0.5004636776880643 2.282422046013312 43 52 25
10.805121111185116 0.23722323781627672 2.4676155448986195 43 49 23
9.977154431523182 0.44304939047781783 2.14778162552447 44 54 28
12.396732637629274 -0.30127245396767527 2.74667520609532 46 56 26
11.502031959969734 -0.06326886385469588 2.533860317685174 39 49 19
11.096274814179116 -1.1436316743887756 2.796620249913722 54 68 38
11.91230943996652 -0.2494816457943601 2.6395827783900008 46 56 26
10.149792648823226 -1.2390239275312298 2.2584754710606436 42 55 22
10.083892371024287 -0.7726961404433956 2.263855674277457 41 51 21
10.179163451185678 2.7602058679193124 2.390808205860579 47 57 27
12.056515413902268 3.004006239391008 1.8603590685999003 44 53 23
9.62233175413349 2.4980317160807384 1.827444850894905 43 52 23
10.374334347490645 2.844591453163519 2.1230595997647397 46 56 26
10.629768512848438 -3.0772547316012164 2.4885440250670414 48 58 28
10.840025906819617 2.8074501872117543 2.3275697384610625 47 57 27
9.616060362414643 2.4276142127533795 2.0510353942528603 45 54 28
10.73922494674259 2.900502790758891 2.4753349775573845 47 58 25
9.807646153801178 2.5896492685526677 2.0408863275619686 46 55 27
10.982514010340532 -2.7946399832199678 1.9872391680308454 53 67 36
11.550754755170907 3.0905471972238767 1.6960099418715562 44 53 23
10.33341079235401 -2.863042749888854 2.12550187908099 51 66 32
8.986784920429587 -2.35959603246274 2.3701274311839855 46 59 28
11.03509904298016 2.4629647524719163 2.5976635649844044 48 57 29
10.260418039965403 1.2007139519054653 2.382359012890812 40 46 21
10.721139647666243 1.4867691252177235 2.4774835819101058 45 54 28
10.723541205629104 2.4793626453323396 1.5187877615525092 39 48 21
9.83631196144256 2.3455006990375327 1.9283485697456706 45 51 26
11.547542100492791 -0.7654080422144088 2.700552333896772 47 60 31
11.255931460022438 0.43553190462414143 2.566044700909109 38 47 19
11.049674624661952 1.6944106415402402 2.808555018463679 48 57 29
11.218224390817696 -0.4101593730454522 2.5712460751347757 41 54 21
9.841465069491266 -1.4845600304793558 2.428347563325515 46 61 27
10.141722052881045 -1.388119535191756 2.1372559823692603 43 53 23
9.833141415529651 -1.6307891360216629 2.2852249657862 44 59 25
10.350237013501808 -1.130009655955617 2.5247090273316477 46 60 29
10.53349836508842 -2.9928635040466016 2.0061742318757387 48 61 28
11.036395351622115 2.7788626865670807 1.9850807593560522 44 54 24
9.947016800013488 -2.953748884823819 2.2753386416741606 49 62 31
11.788385487202659 -3.018564247546891 1.7795067357203331 43 56 24
11.0158122414143 2.9753614620531144 2.0875562543421893 45 55 25
9.792843543893174 2.634023883415583 2.288799310979399 47 56 28
10.692825670187865 2.1235715370479307 2.480873973680112 48 57 31
10.391911503628643 2.1694538471472136 2.710818568877858 47 57 31
9.518025861283602 -2.258153261335808 2.3143083603027854 45 58 26
13.46335370892691 -3.1107178046021717 1.5293784136402406 42 53 20
10.04534680460536 -1.468737169810815 2.568895422771783 49 63 30
11.480152842540104 -0.30127245396767527 2.713156136323013 46 56 26
10.094999824420722 -0.6904994243651992 2.1402022472982125 23 33 5
11.292263522990003 -0.5968161018617784 2.7511779174492386 49 60 29
11.08226299281196 0.9112917951897013 2.5906670667909304 42 51 23
10.545384183291375 -1.4226280832661566 1.5179082992472497 31 42 9
10.777815716055201 2.0607876213761522 2.6385265029028284 48 57 29
12.553690478018222 3.014938544117726 1.60605505060598 42 53 20
10.90913129071691 -3.0976570376184434 2.0931222025478275 46 56 26
9.946729157163457 -2.925446491736498 2.4162007431472765 47 60 29
9.863169725790229 3.0632159520882016 2.2825876197043 45 58 25
9.854574071452696 -3.0858767806298917 2.2833403091738234 47 60 29
11.710487577589902 -3.105327026667285 1.7809157997795226 45 55 24
10.226501761850685 -0.379842630492779 2.0201838911855 34 44 14
9.972542501776669 2.9318735884387004 2.2731647773690984 47 57 27
10.477826848920127 2.634023883415583 2.360738945025833 48 57 29
11.065261200020426 1.8240509390878084 2.5931730805845925 50 59 31
11.842385317726736 0.1048855486616165 2.650447299920661 46 55 28
9.521191957975995 -2.4602866551480416 2.3140026237554068 46 59 28
11.475150176478731 -0.5512682468602518 2.5372365182047707 42 53 24
