5.890846159526455 0.26670847336958 1.5423204042622989 36 47 14
5.260289267536765 0.3201845843119856 1.9265769132842505 41 51 17
5.3334265452738645 0.49919481508449165 1.5393433263849683 38 47 13
6.335725277513776 0.4222432637425492 1.3854286119661536 37 46 12
5.890846159526455 0.26670847336958 1.5423204042622989 36 47 14
5.709480832530936 0.09686543242030388 1.5414155919299821 38 49 12
5.056356996889465 0.1173888850084019 1.9416064934832342 42 53 18
5.341846196114967 0.14886577433434303 2.370868738658849 44 56 22
4.896393274632602 0.3990679237597081 2.187612726753359 44 55 21
4.927341171623117 0.5248564322546131 2.461886198826706 44 56 23
5.2746501719698085 0.9243643400770161 2.137625543338735 41 51 22
5.2746501719698085 0.9243643400770161 2.137625543338735 41 51 22
4.927341171623117 0.5248564322546131 2.461886198826706 44 56 23
5.327531146764109 0.7608790562882427 2.3736397302510874 43 53 23
5.327531146764109 0.7608790562882427 2.3736397302510874 43 53 23
5.186593669648265 1.217181348412099 1.9318620451077675 41 50 22
5.427582008210934 2.0421054979004736 1.915147427650011 39 48 22
5.186593669648265 1.217181348412099 1.9318620451077675 41 50 22
4.923027839936055 1.217181348412099 1.7406697790950603 38 47 18
5.269291365906892 1.381569313553669 2.3851538238770695 41 50 22
5.370684402959761 1.6409228383499186 2.126284779351815 39 48 21
5.234969401942653 1.6605715927225666 2.3921271003667455 41 50 22
6.005785162701528 1.6605715927225666 2.505803669186195 45 54 26
5.269291365906892 1.381569313553669 2.3851538238770695 41 50 22
5.506912490851974 1.310287660006411 2.641405203839108 44 54 26
6.094535964809604 0.3173846027445194 2.847163373615819 47 60 29
6.094535964809604 0.3173846027445194 2.847163373615819 47 60 29
5.3892836054276 1.9265414095010844 2.3618461614515582 41 50 22
5.626612949136497 2.322414762987822 2.0982923213919333 44 54 26
5.716979177868817 2.1493396262244855 2.305452733728975 44 54 26
5.936708229588699 2.3085649021457653 2.5217423920422766 46 56 28
5.580377003849897 2.55196306817034 2.617824431365891 47 60 31
6.177838225940516 2.2755074304019756 2.8055412455453568 48 61 32
6.980425404584768 2.74547334767268 2.9351991533481154 49 62 32
4.969346144353821 -0.300053881373428 1.7390712321273336 41 54 19
5.230578541963995 -0.300053881373428 1.9286884667363071 41 54 19
6.056957464734319 -0.8795771754058185 1.878118702646969 48 62 31
6.510200442989133 -0.7599650017141049 1.6989888894719976 46 60 29
6.090646473571464 -0.12114820350087442 2.4871590958097896 45 58 26
5.488843208097096 -0.09544124864393881 2.112977856578541 43 54 20
6.454092378681583 -1.0284890870683705 2.20653804430762 50 65 35
5.915298610493446 -1.0284890870683705 2.07008952492595 51 66 37
6.434283051570969 -0.16563539575593542 2.705567349213567 48 61 30
6.244363647951573 -0.3748592928067831 2.4557125727152287 45 60 26
5.915298610493446 -1.0284890870683705 2.07008952492595 51 66 37
6.51335215629979 -0.9100340994596174 2.4067003701918233 50 64 34
6.548906799587979 -0.5869752702497314 2.400712980275841 47 61 29
5.658931229914725 -0.300053881373428 2.094968529897193 42 55 20
6.244363647951573 -0.3748592928067831 2.4557125727152287 45 60 26
5.7840454362859415 -0.75283368017556 2.082507928303051 46 60 27
5.9932967193969935 -0.48192376675918036 2.0630053865800617 43 56 22
6.869658229591524 -0.7401487048719609 2.584868447801972 50 64 34
5.125128565309801 -2.3372371131941567 1.9363946955040312 51 67 40
5.340746443366337 -2.0515093643041507 1.920984723579175 52 68 41
4.9883964790176085 -1.85922279433509 1.9469088248775086 50 69 41
7.017093297920712 -1.1316168834759734 2.911572311050835 51 67 40
6.854412344639626 -2.1906020442959946 3.0612019614379378 52 66 39
5.975173854615857 -1.3760086262215447 2.512778351497011 52 69 40
5.282913691578766 -1.64255529215639 2.1366302403535844 49 68 40
5.282913691578766 -1.64255529215639 2.1366302403535844 49 68 40
5.910520680402487 -1.4190370571421025 2.276253603381627 51 67 40
6.169540457151571 -1.117353686851395 2.4706681328823157 51 68 38
6.361693993922086 -1.299754999181519 2.730739081417437 52 68 41
4.7079045688436025 -2.5835465268454434 2.5218168874604254 49 65 40
4.7079045688436025 -2.5835465268454434 2.5218168874604254 49 65 40
5.089964210872488 -3.0074373512569625 2.4232661004227536 50 64 39
5.378923062171265 -2.9507945798713555 2.686845880013808 51 65 39
5.552379328773248 -2.5835465268454434 2.6266219329426757 49 65 40
4.735081328838412 -2.065229996353531 2.5138183479541705 51 67 40
5.003537817422182 -2.5061892726622226 2.1725082525308816 50 66 39
5.029117263670594 -2.163010623121329 2.169019921238304 52 68 41
5.756798519424746 -1.629417329047444 1.894711193399059 48 67 39
5.788026956813181 -1.4465756156850782 1.8929003084707454 51 68 38
6.178128493393519 2.6943056931087246 1.8719001023820374 46 56 28
5.761453750719168 2.6079913754727424 2.084711458473403 46 56 28
6.537399539324856 2.3300259587716456 1.8548778201561653 42 51 23
6.3303271602275695 2.3300259587716456 1.7026523793260728 41 50 22
5.292477024001032 -2.6260084737124116 1.9243179058311553 50 66 39
4.83880289087981 0.6062925740856374 1.95914757413158 42 52 20
5.347591043856155 1.038640407691385 1.7270671597896303 38 46 15
5.739620353544498 0.5248564322546131 2.5716195867647356 45 58 26
6.099169743842022 0.14886577433434303 2.485339817789483 45 58 25
5.553318350738849 0.20309160676837149 2.6263232113400976 47 60 28
5.676215901678782 2.486217875153549 2.311959149741123 46 56 28
5.936708229588699 2.3085649021457653 2.5217423920422766 46 56 28
5.717220657054142 0.9885221169212582 2.5777619426176557 43 54 26
6.177838225940516 2.2755074304019756 2.8055412455453568 48 61 32
5.580377003849897 2.55196306817034 2.617824431365891 47 60 31
6.094535964809604 0.3173846027445194 2.847163373615819 47 60 29
6.177838225940516 2.2755074304019756 2.8055412455453568 48 61 32
4.843697717355618 1.128936957766675 2.1953486119756116 41 50 22
5.716979177868817 2.1493396262244855 2.305452733728975 44 54 26
6.140759607815691 1.9265414095010844 2.4765949183902363 44 54 26
5.046072629463791 -0.09544124864393881 1.9423990172192416 41 52 17
6.510200442989133 -0.7599650017141049 1.6989888894719976 46 60 29
5.864330923532478 -0.24961026088974037 1.5421916169627943 40 51 14
4.969346144353821 -0.300053881373428 1.7390712321273336 41 54 19
5.5070433616060335 -0.3748592928067831 2.340449469366937 43 57 22
5.332112497385864 -0.12114820350087442 2.3727504263843753 45 57 24
5.810267251230801 -0.9100340994596174 2.2910422731588307 48 62 31
5.850096536676951 -0.5869752702497314 2.2850835010207615 44 59 25
5.316926173289929 -1.4190370571421025 2.1325726686350883 50 67 39
5.534458491285357 -1.2096145203073425 2.1080202373339962 50 66 39
5.975173854615857 -1.3760086262215447 2.512778351497011 52 69 40
4.597748121476791 -2.7302783447618584 2.234468378309164 49 65 40
6.106945355331959 -1.2096145203073425 2.24916970426759 51 68 38
5.8799428444433355 -1.64255529215639 2.2806909460681606 51 67 40
5.4358670157689915 -1.85922279433509 2.1188590924033464 52 68 41
6.544591456450849 -0.969278273826439 2.6706910072925596 53 68 40
5.165038717385361 -1.6632615423893626 2.4067921287224543 52 68 41
6.3303271602275695 2.3300259587716456 1.7026523793260728 41 50 22
5.885039986150936 2.4534248788159805 1.8874039525148913 44 54 26
5.934128966685114 0.6491859193619224 1.7115125818925832 42 49 17
5.081257060551074 1.8529871771792579 1.9397019538182534 39 48 21
5.370684402959761 1.6409228383499186 2.126284779351815 39 48 21
4.896393274632602 0.3990679237597081 2.187612726753359 44 55 21
5.488711903385532 1.128936957766675 2.3436908624386406 43 53 26
5.000609202578469 0.3201845843119856 1.738009254583804 39 48 14
5.000609202578469 0.3201845843119856 1.738009254583804 39 48 14
6.305764852701054 2.2009173517268046 2.0366173729304773 42 51 23
6.035725497408818 1.381569313553669 2.499112551614007 44 53 25
5.234969401942653 1.6605715927225666 2.3921271003667455 41 50 22
5.716979177868817 2.1493396262244855 2.305452733728975 44 54 26
5.739620353544498 0.5248564322546131 2.5716195867647356 45 58 26
5.6368910115711754 0.49919481508449165 1.9018616696965782 41 50 18
6.501506151966733 2.0480684947496828 2.683879224313137 46 56 28
5.321381220373589 -1.9363428499660096 2.374837217275684 52 68 41
5.864330923532478 -0.24961026088974037 1.5421916169627943 40 51 14
4.597748121476791 -2.7302783447618584 2.234468378309164 49 65 40
5.5906220392264725 -0.48192376675918036 1.9047077166964177 42 55 20
5.378923062171265 -2.9507945798713555 2.686845880013808 51 65 39
6.056957464734319 -0.8795771754058185 1.878118702646969 48 62 31
6.544591456450849 -0.969278273826439 2.6706910072925596 53 68 40
6.980425404584768 2.74547334767268 2.9351991533481154 49 62 32
4.953809345795451 1.422449752375605 1.9496675778233867 38 46 23
5.388572204854206 2.908000292329211 2.6831970134509984 50 64 37
6.047730778603969 -1.1316168834759734 2.8738637256926185 49 68 42
5.506923539514208 -1.0284890870683705 1.9099850431570204 50 64 35
6.095174951329563 -0.6349486695961019 1.8761293329571553 44 59 24
4.597748121476791 -2.7302783447618584 2.234468378309164 49 65 40
4.404079648453129 -2.329288110553518 2.269339383535982 51 67 40
5.912466222472283 0.8908921743121553 1.7120316028184963 39 48 18
5.591178833983095 1.038640407691385 1.9046731709363092 40 49 19
5.5070433616060335 -0.3748592928067831 2.340449469366937 43 57 22
5.7003749244123165 -0.07871565733772974 1.5413686449362962 40 51 16
5.260289267536765 0.3201845843119856 1.9265769132842505 41 51 17
5.10016007259892 2.9768369967264596 2.4209820449852355 49 63 36
4.9883964790176085 -1.85922279433509 1.9469088248775086 50 69 41
4.785623815005004 0.1173888850084019 1.7455967222763085 40 51 14
