20.563526186680733 1.7681695370543171 1.1104660671691056 36 46 25
20.592200570804174 1.8720279374755162 1.164659535808927 39 50 29
20.174202642643046 1.7794114522534794 1.04444101600886 33 43 22
20.69465870807657 1.7794114522534794 1.0026478355026263 31 41 21
20.15387226773925 1.8885443278684486 1.1003615725887104 34 46 25
11.668107501777667 0.7658258569688677 1.6449789029209256 35 41 21
11.000642205426823 0.7000506611541553 1.6494889855421402 35 41 21
12.197746014163943 1.456311585573608 1.4775931532756117 18 24 4
12.712391305656418 1.2970902849551074 1.4020324209335537 28 35 15
10.455852322549498 0.9009799016619774 1.7501032410385975 34 40 15
11.137172763707834 1.159738437651548 1.7390258836073593 31 36 11
11.3067707039985 1.4460679096977629 1.7364789646315886 33 37 15
11.604436592737938 1.273730278526179 1.6453866803351267 28 34 11
10.580698429553856 1.034590721427079 1.652619120773086 33 39 14
10.561497762660807 1.313291690494874 2.049483461174785 34 40 15
10.420671802738985 1.2131991456958817 1.9507483939569552 33 39 14
10.870674609098044 1.4338235525818213 1.9342700652600913 33 39 12
10.999611417634963 1.2461640859493976 1.8342777894488698 33 37 15
10.11334178010679 0.9818936870274845 1.857995322669002 33 39 15
10.390575987605292 1.072587066527235 2.058039015314906 34 40 17
10.856967242042291 1.2830098454256422 2.255304795209355 35 41 18
10.679625509053208 0.9009799016619774 1.8423691178650135 34 40 20
11.83118588524565 1.1237349023139147 2.4177584973280033 35 42 21
10.78390337764067 1.0150982960470072 2.2608469638778663 36 42 20
10.646019814371941 0.919337116272072 2.1542255567524027 35 41 19
10.615955742407936 0.7631182278450125 1.844039538802664 35 41 19
10.176591710176526 1.0150982960470072 2.1849911264497535 35 40 23
11.101684837383003 1.1237349023139147 2.3580688385451642 37 43 21
10.66292493286185 1.3769009078685868 2.4002781124326082 38 42 23
10.517275237115927 0.6260931638341237 1.749044786509341 35 40 19
8.432075826465365 0.00778559103951345 1.6735349433631532 29 36 16
8.440364078603658 -0.11098335743227504 1.5547746039410022 28 34 10
9.265416048711247 -0.43864182060171686 1.5562013869900322 25 35 9
8.608666681789964 -0.2267030371981965 1.5550878605450504 26 34 9
9.265416048711247 -0.43864182060171686 1.5562013869900322 25 35 9
8.592406878513017 0.00778559103951345 1.7895632557762997 28 36 14
10.090142584528708 0.45132790951127044 1.9638651199101396 33 39 16
9.378209872477854 0.3503867597197942 1.8812299719226888 33 39 17
10.090142584528708 0.45132790951127044 1.9638651199101396 33 39 16
10.739768695642756 0.6260931638341237 1.8408101111794943 36 40 23
10.532880950496972 0.5432975422880797 1.9464975478911615 36 40 19
9.10056133823726 0.2414365478051424 1.891032987544567 33 39 17
8.15616838066521 -0.2561404239013246 1.9296920120470216 28 36 13
8.926903882634583 0.12633631766667133 1.8974916665780817 29 37 15
8.909208737185502 0.1432187244090295 2.1484253116656613 31 39 17
8.863352028920778 0.00778559103951345 1.8999221905354864 29 38 12
10.857786217260117 0.9445679720296515 2.3808793222257227 35 42 22
10.042472278175415 0.670470139234007 2.1944406005506814 36 42 21
10.58214785377449 0.7595413711006604 2.1582149497017418 36 40 20
11.823755320552918 1.19581124194878 2.557691562478773 38 44 22
11.112626648149286 0.8569953050284616 2.4943029168439246 35 43 20
11.262608743537777 1.061464656357822 2.4768863540776125 37 43 22
11.141570191508094 0.6464386583288063 2.490874157991975 37 43 21
11.595055204329451 0.9813611369519303 2.5882535029692137 38 44 22
8.671691343204623 0.01022325349328171 2.313541900435853 31 40 18
8.671691343204623 0.01022325349328171 2.313541900435853 31 40 18
9.727353733791706 -0.3447746115563119 2.5124319716725987 33 44 17
8.083197002914838 -0.1453042763930677 2.2165971518305643 30 39 16
7.25069610661377 -0.4987941237516416 2.132963926052195 32 41 15
9.047426755981178 -0.7310587449000826 2.4321953461476666 35 43 20
7.709863182264763 -0.6308108985841501 2.0958702125045843 31 39 16
8.021677697516305 -0.4306880352911563 2.073494385436282 30 38 15
10.4220259112111 2.3934670931270974 1.6538677023759025 34 39 21
11.991073726520188 2.3890008291890603 1.3917738691415484 32 40 22
10.564733020862894 1.8247606460751997 1.7482355470498634 33 39 14
10.694847278219166 1.9153956925790803 1.5581522012326905 32 38 13
12.124779947433519 1.538702101330069 1.4770306185785302 30 36 15
12.56987447127618 1.7036681730091598 1.3187113254842537 26 34 12
10.663006914490714 2.1251665780059454 1.5581144431113207 34 40 15
11.115937766351955 1.6261057649923405 1.6486711151217393 32 38 16
10.413758148777204 1.7468462231078017 2.056859876028232 34 40 15
10.413758148777204 1.7468462231078017 2.056859876028232 34 40 15
10.803950671333736 1.5280923951658605 2.144606961807807 34 40 15
10.23512444405163 2.1787650510922583 1.8544827373871984 35 41 18
10.170438251677178 1.9500201341832883 1.8563375599725438 34 40 15
10.877504336335253 2.149178224420433 2.2537648522975076 36 42 23
11.172482842323584 2.0434600289162086 2.351728353609602 40 44 23
10.5983158846133 1.5228053022986714 2.2753887290274495 36 42 19
10.788737062535285 1.5323306686647018 1.937160495755551 33 39 12
10.608938709299823 1.6466107537947667 2.2745377545699528 34 42 19
10.9087186430372 1.884065444107221 2.2514390570253737 34 42 19
10.06290438493012 2.0903065670548253 1.964987744432725 36 42 19
10.23512444405163 2.1787650510922583 1.8544827373871984 35 41 18
13.059956762360143 1.7952000299083457 2.5533465593013847 38 44 24
11.172482842323584 2.0434600289162086 2.351728353609602 40 44 23
10.251159694849814 2.242110228950163 2.0652588958789724 38 44 24
10.569451324471238 2.528031688113974 1.6527063847260992 33 41 21
13.33927056358468 1.671462321812283 2.6669633083839326 39 45 23
11.662858647213499 2.190335315658812 2.578912409355351 40 50 26
12.573367371015935 2.6222512708095915 2.8042681005994092 38 50 27
12.149947378746816 2.2973065732082683 2.6774912819058754 40 50 25
12.268925955433318 2.04699730687508 2.6584780904563408 39 49 26
12.77576497857371 2.437973855031615 2.761671897515923 40 50 27
12.915321731466637 1.691160146258318 2.7354688192199 38 46 24
13.54935186370858 -1.959766104753659 2.822356508723543 40 59 34
13.36255637169549 3.1235186824202446 2.8677845282099077 42 57 34
13.36255637169549 3.1235186824202446 2.8677845282099077 42 57 34
10.694405392940137 2.7005820196674666 2.043044864449925 37 45 24
10.104904711381618 2.9062378116024887 2.0730787037196805 38 48 25
10.39431594692296 2.6099511616118063 1.8500204682420733 36 44 24
11.455959506844941 2.4879281020916237 2.3274921897788206 41 49 27
10.719631780913971 2.3993402083944857 2.149699512201201 37 45 23
10.699230274417111 2.7587957240834227 2.2673970544557047 38 48 25
10.804417184295602 2.832903825225336 1.9366037230429216 37 47 24
11.184804867819704 2.7005820196674666 2.122750442843163 38 48 24
12.402039175842782 2.7889965584489302 2.638400299151912 38 50 27
12.483849656814607 2.4191834471171827 2.6266208078617894 42 52 28
11.689679349369785 2.22098138082477 2.431562397163759 39 47 25
12.05579653025579 2.5147356855797494 2.5291739846258956 41 51 27
12.265272405671992 2.7075263141754964 2.505267877102832 41 51 28
11.782951994466622 2.5903782222040723 2.4224020621539246 40 50 28
11.115307597252908 -2.892718656425763 2.3568394083371884 40 56 34
10.432559302675271 -2.5301675322400117 2.424726406579981 41 57 35
9.400566079150687 -2.6645452169351813 1.994480537090003 38 51 29
10.047902905333698 -2.773645544660124 2.1940518246159995 38 52 31
10.768092135794905 -2.8452844967056317 1.9378962150474932 39 55 35
10.66254688231989 -2.773645544660124 2.270278402288155 39 55 33
9.948793669831538 3.018527212683387 2.0817181508509797 33 43 22
10.293255728879677 -3.019421752660012 2.3008637215480787 42 55 34
10.079021989320841 -2.9206259118751863 2.0744897644522484 41 54 33
9.891809326086797 3.1340107024459116 2.084950391812021 33 46 25
10.030656321795641 3.1347994247917366 1.8604309752143982 39 52 32
12.275177065033187 2.954019840413226 2.657508206675413 36 48 27
13.125506522010902 3.129958392575707 2.6997098381124247 42 56 33
12.764130866239768 -2.941661453477562 2.7639610092766214 40 56 34
13.125506522010902 3.129958392575707 2.6997098381124247 42 56 33
11.578951554502472 -2.435344978996781 2.5905091190742913 42 58 36
12.87604104642698 -2.744445909362746 2.742622482971351 43 59 37
11.365434549128908 2.7757725173470327 1.558898270579374 33 43 19
18.945696902614365 0.6548356728726171 3.049134945424259 42 54 29
15.416630659282037 -0.9955194266978414 1.5620249470021705 26 29 7
14.631252557565977 -0.9582130628125722 1.4931293261973055 28 33 10
9.46764165196235 -0.8264602096480893 1.6622640499806305 30 38 15
14.762601502174789 -1.1121082297310994 1.3567904617167628 26 29 10
8.51182880373782 -0.8337032363157557 1.914062143020844 32 40 17
9.236916468330676 -0.9103189691111216 1.8861410966770054 34 40 17
8.564843978598182 -0.657791671328258 1.9118506630679732 32 38 13
13.280395109854549 -1.6736622302007942 2.675665429304959 39 50 27
12.864660820055498 -1.6943138520937542 2.7447260575723207 40 54 30
13.112972962312481 -2.0577198118863 2.701734566960237 40 56 32
20.174202642643046 1.7794114522534794 1.04444101600886 33 43 22
20.69465870807657 1.7794114522534794 1.0026478355026263 31 41 21
20.45492234969331 1.9404722599986324 1.107831611993121 35 46 26
10.97132688514356 0.8292422539090093 1.6496996887159145 35 41 16
11.095024418329603 0.8292422539090093 1.7396710959735504 35 41 21
11.12401376098008 0.7000506611541553 1.739226790788776 35 41 19
12.712391305656418 1.2970902849551074 1.4020324209335537 28 35 15
11.013948608288462 1.159738437651548 1.6493937173400681 30 36 11
11.352895207061012 1.3583016313780982 1.6470425228637473 28 34 9
11.3067707039985 1.4460679096977629 1.7364789646315886 33 37 15
10.561497762660807 1.313291690494874 2.049483461174785 34 40 15
11.584569064012245 1.2449421775759102 2.442183706364586 35 43 23
10.440748784637519 0.9818936870274845 1.949980569925866 33 39 17
10.129569816401077 0.919337116272072 2.071741743959644 35 40 23
10.856967242042291 1.2830098454256422 2.255304795209355 35 41 18
9.689098587726697 0.919337116272072 1.9810902362682055 34 40 20
10.838481774502059 1.2449421775759102 2.382752445272079 37 41 22
10.417190264458235 1.1237349023139147 2.290265407019604 36 41 24
8.681077711074025 0.2414365478051424 1.6705780957528666 32 36 19
8.642849774506987 -0.11098335743227504 1.7882658706010435 27 35 13
8.498853245261028 0.12633631766667133 1.6727248842299423 32 36 15
9.734773317669472 0.5030774483407143 2.0940855364785422 36 40 21
10.310066236751243 0.6874379163879814 1.9550363499835737 36 40 20
7.978326039651758 -0.12585791090629123 1.9380674526677963 29 37 15
8.337496228416773 0.008839446566244953 2.0527843545122266 30 39 13
10.657429459329203 0.670470139234007 2.2706824912251085 37 43 21
11.262608743537777 1.061464656357822 2.4768863540776125 37 43 22
7.590636327751069 -0.4306880352911563 1.957793412677086 30 40 14
8.25660605284629 -0.6308108985841501 2.2008623454145595 33 41 18
8.030389537186343 -0.5521108203021489 1.9355743412070812 28 38 12
7.829568778235512 -0.4987941237516416 2.241240289827556 32 40 17
8.258781389933327 -0.29411047433203485 2.2006702856976856 30 38 15
10.430455103440503 2.2575467254804678 1.5578316789909308 36 42 20
11.105799902653393 1.535803932124682 1.6487423469118005 33 39 16
11.183013911749688 1.7155159632757162 1.5587041765756986 30 38 15
11.129936479127329 2.0005074636287854 1.4686213470745189 31 38 15
10.482965950984475 1.6315879057281213 1.8475966849300374 31 37 12
10.877504336335253 2.149178224420433 2.2537648522975076 36 42 23
10.195199189138041 1.8513946723793133 1.959596150452267 34 40 15
10.814371505374053 1.6382745369054408 2.1439842502603175 34 40 15
13.001185191163458 1.8790200371990886 2.7203754199818504 39 47 25
11.332401437623394 2.1079921025890167 2.4690665519752666 39 47 24
13.39504792994476 -2.888414634944705 2.8592768765096928 42 58 36
13.501729715273338 -2.649922210589504 2.833205464802343 43 59 36
11.138782606121621 2.876670463110344 2.354731409183706 37 47 24
10.909341285102295 2.4074084758814647 2.375927147421209 40 49 27
11.676201669587686 2.651100918089557 2.3098289347479257 38 48 25
12.896311410405758 2.7206128308722963 2.7389104705642353 37 49 26
9.891809326086797 3.1340107024459116 2.084950391812021 33 46 25
10.073900064262922 -3.0446610245684074 1.8591519443274986 40 53 32
9.935657401623478 -3.033489426051563 2.0824594529261655 42 55 34
10.597935529331613 -2.9206259118751863 2.1572234039615923 41 54 33
10.030656321795641 3.1347994247917366 1.8604309752143982 39 52 32
9.973195328982383 -2.7239055500248157 2.329970591247867 43 56 35
10.317755595089018 -2.813188165981633 2.061782309127396 40 56 35
13.158583423686926 -2.9765725987662677 2.694425847725821 42 58 36
12.719066364491068 3.131717665192948 2.594829291520189 42 55 34
12.763434213625672 2.9818642236697186 2.5891446310901376 37 49 28
8.925926561695624 -0.5889196805074668 1.6678322160329202 27 36 10
15.184789220740063 -0.9043042277886509 1.5618910220174993 29 33 10
14.938816171627932 -1.0518773364199578 1.49473147516319 27 30 10
14.19750961007804 -1.016536501006906 1.4198293103491655 28 32 10
15.795465530138147 -1.083327410161137 1.625572123387444 24 28 7
8.977253066515514 -0.9103189691111216 1.7800423280380795 33 40 18
8.916075112618273 -0.7486788143704038 1.7814996304523887 32 38 15
15.370845969435237 -1.1409971081443 1.4968733967219774 25 29 9
12.855902032429984 -1.4924598542291259 2.7463548433076506 39 53 28
20.342405054481492 1.82078653558454 1.1593727325161431 38 49 28
12.351507069115847 1.375449820242872 1.4787567264027326 9 17 0
10.70890902379041 1.034590721427079 1.745821779361111 32 38 13
11.420486913722337 1.3769009078685868 2.459439525673909 35 43 23
10.2787815666573 0.8357502306634297 1.9562673050371253 35 41 19
10.129569816401077 0.919337116272072 2.071741743959644 35 40 23
10.733905733077734 1.337912761964083 1.8409612904048656 33 39 14
11.101684837383003 1.1237349023139147 2.3580688385451642 37 43 21
10.531804381229719 1.17317542417707 2.1614010622720157 34 40 17
10.470700389663985 1.1200524909531333 1.8479294925067933 32 38 13
8.807283831208867 -0.2267030371981965 1.7841422891827612 28 34 12
8.16473671895698 -0.37814157408915317 1.8012240550696286 26 36 10
11.298948649856328 0.8445243463280033 2.340695278973731 37 43 23
9.083204504136457 0.2726121505248915 2.1359899443628825 31 39 16
10.192959103598515 0.6010446504872277 2.068339851205212 35 41 20
11.544054316986042 0.7545968402479533 2.4463658318481474 36 43 19
12.124779947433519 1.538702101330069 1.4770306185785302 30 36 15
10.340867563031434 2.0414779559666782 1.7521190508169957 33 39 14
10.434751102899128 1.8247606460751997 1.6537661634843357 32 38 13
10.58857195646011 1.729663940585539 1.8447643925417978 32 38 13
10.092197460991063 2.3231123029906158 1.8586142028301278 36 42 22
11.28180542999818 1.6466107537947667 2.3421694905114308 35 42 19
11.63308407676303 1.9249868507119567 2.4372409486676623 37 43 23
11.897643719857774 2.0434600289162086 2.411461214587927 39 43 23
10.82296083384155 2.7414918132843638 1.8386832829978885 37 47 23
12.55258980953975 2.5903782222040723 2.4749074600724685 39 49 26
13.666864809983794 3.1274364433245814 2.797291204262464 42 56 32
12.719066364491068 3.131717665192948 2.594829291520189 42 55 34
12.483849656814607 2.4191834471171827 2.6266208078617894 42 52 28
12.774358858781893 2.914619599455991 2.7619476447817175 37 49 28
13.40479453508938 2.8548380587262394 2.856780923423121 38 50 29
13.162678197181666 2.04699730687508 2.693777595140781 38 48 25
12.149947378746816 2.2973065732082683 2.6774912819058754 40 50 25
10.743127002572551 2.317451800786574 2.263983981038782 38 46 26
12.194912812838306 2.5550611308742153 2.670178532576941 40 50 27
12.05579653025579 2.5147356855797494 2.5291739846258956 41 51 27
12.730029085265953 3.1274364433245814 2.7707729011523354 39 53 29
10.863019042825623 2.5544810613289437 2.1410963243612384 39 47 25
11.476382442332712 2.7075263141754964 2.453465020342155 38 48 25
12.885490160128668 2.8388659927048274 2.5739656486522744 37 49 26
12.01031026961903 2.3094560696924757 2.53458579120337 40 50 27
11.080255049951106 2.8604102025397498 1.6489224127913076 35 45 22
10.971371903886991 2.94938730441964 1.7415930120085321 37 47 24
9.732282918950393 -0.5318088521296653 1.5569015663329988 26 35 10
9.594278454661127 -0.9103189691111216 1.9853931850280675 34 40 17
12.950860163043403 -1.8866519460692885 2.729134261856036 39 54 30
11.63680280190328 0.7658258569688677 1.5591757438561542 36 42 17
10.6817142183459 1.4004476239597416 2.268769539891686 36 42 19
9.974090167630806 0.5432975422880797 1.758865105764882 37 40 20
8.432075826465365 0.00778559103951345 1.6735349433631532 29 36 16
9.361367838365672 0.393317925830637 2.1172553032239425 33 39 16
8.449407015438458 -0.37814157408915317 1.9167038769418347 28 36 13
8.73663748206553 0.16526169489632758 2.3067378836668384 33 41 18
12.268089358113727 1.6215298076397182 1.3958584752099659 32 39 18
12.412018303229084 1.9249868507119567 2.489435042267816 39 45 25
10.866389707907674 2.656624651115932 1.558351818304398 33 41 21
13.422422289443524 1.830663828916901 2.6550441619183087 39 45 23
10.472663463546509 2.4688421414189685 1.9487665636990565 36 44 22
9.885672829774132 -2.813188165981633 1.9724568527560367 40 53 32
13.54935186370858 -1.959766104753659 2.822356508723543 40 59 34
8.977253066515514 -0.9103189691111216 1.7800423280380795 33 40 18
8.927938816971952 -0.3365815903876498 1.66781027637262 27 34 11
11.63680280190328 0.7658258569688677 1.5591757438561542 36 42 17
10.556609930950023 1.4338235525818213 1.8456153777142092 31 37 12
10.60640703338905 1.9919223230519842 2.1566928360822866 34 42 19
11.952578782629208 0.6464386583288063 2.541576007015893 35 43 21
8.337496228416773 0.008839446566244953 2.0527843545122266 30 39 13
11.027426363672804 2.651100918089557 2.242752989719645 40 50 29
10.465368932223281 2.2575467254804678 1.653522868102732 34 42 24
12.607187611055904 2.641715827381487 2.6095886591663295 41 51 28
10.58214785377449 0.7595413711006604 2.1582149497017418 36 40 20
10.472696632938229 2.7414918132843638 1.6534648524300415 36 44 22
10.25093738354384 3.133014779829371 2.3045647968692147 40 53 32
11.904121742681626 1.1933133787897716 1.5594367070039772 29 34 11
9.734773317669472 0.5030774483407143 2.0940855364785422 36 40 21
10.885773705207134 1.4189339907221135 2.1397561908293063 34 40 15
8.575098946872977 -0.48940630105933247 1.790012017805007 27 37 11
11.380000646220106 1.7681418259846524 2.3338132914810212 34 42 19
9.739660884326504 2.149178224420433 2.0937960412354863 36 44 25
19.898574985076586 1.8347817152217103 1.0938264829672897 34 46 25
11.595055204329451 0.9813611369519303 2.5882535029692137 38 44 22
9.674940212019784 -2.604837961547985 2.2220477974887562 42 55 34
11.663038661855538 1.3459277237309675 2.5788879372107036 38 44 22
