14.156810681719337 2.326029373686098 2.070381510659614 27 32 15
13.625224494116887 0.6194140559598782 2.271215914310771 47 47 18
14.918012171310629 0.4034821911859835 2.3785684650669765 50 51 21
13.896575881301276 0.5368304617235821 2.3516881437277095 47 50 21
11.324930844168149 0.9728135796337861 2.106624646510701 45 52 20
11.085560385072498 1.1624481373201498 2.229111848701799 40 47 17
12.119648502058402 1.0043662021301984 2.3812603259509255 46 48 22
11.786504681393897 1.1119134988162918 2.411462999906477 47 50 21
11.415862427766745 1.0043662021301984 2.3208547649027405 41 48 18
11.212588342344182 0.9097213232156073 2.220379235242777 41 46 17
12.450870349636984 -1.2873047392887267 1.5532852039149803 74 74 72
12.967984575450174 -0.5164298412792452 1.9484633820987345 42 47 23
13.456327055145664 -0.5856207895295811 1.9341067967357906 44 49 25
14.105639605472204 -0.44495476860775696 1.7693226696166426 37 38 13
14.584921142324687 -0.5284410892284058 2.4027603944482525 54 58 35
13.989715569886295 -0.27451822732216347 2.2494500186275967 54 55 24
13.44753724398794 -0.6865878060629781 2.187920288121065 54 59 31
14.276407491448895 -0.4360215835247346 2.426802470115364 56 61 35
14.228854350058807 -0.5605496369290889 2.2359694125804968 52 57 30
14.249914868167151 -0.6118795687511541 2.3274045536823613 53 58 31
14.234333689788594 -0.36054863788110514 2.2356674921909914 50 54 24
14.753858103399438 -0.2516506436935405 2.2083518391543997 58 58 27
14.49552162197021 -0.48129153608533887 2.3115277990272496 51 56 30
14.892279814414728 -0.3948975641926242 2.380377178749357 55 59 31
14.276407491448895 -0.4360215835247346 2.426802470115364 56 61 35
13.962678991312236 -0.4413494727292896 2.1619769237707294 49 54 22
14.745056809744849 -0.30663219093295785 2.0487347214565115 52 54 25
13.197151604181007 -0.8649710997745782 1.7062378518557206 70 74 61
13.063725309534872 -0.756653108046931 1.630691199492466 35 41 20
13.180325955983664 -0.6490030586061817 1.6301607093354704 36 41 18
12.49572933330871 -1.1064510225656838 2.4699909877478254 58 63 47
13.520042540982526 -0.6523754854681602 2.493905543708518 58 62 45
13.639494609335433 -0.8203666383617458 2.370544630316569 56 61 38
13.106002050894713 -0.9253571028212318 2.53689701135977 58 62 44
13.917458969794335 -0.7427964612793235 2.457051273706478 57 61 40
12.470271093501301 -0.9030718352803332 2.352139241572071 56 61 41
13.678299841028673 -0.6719952233129388 2.367629393238044 56 60 36
11.916373448297202 -1.147635943580889 1.9837266927764117 69 69 65
13.38300179783081 -0.971456632901834 1.7043456274661357 72 75 70
13.027068540372637 -1.0363829988118134 1.7860077578750755 72 73 66
12.666790745979009 -1.0575416536089237 2.3368651183899343 58 62 47
13.504664461595182 -0.8868875399825238 2.278765768369513 54 58 40
12.967349243338186 -0.9440849646351679 2.1211685615490707 59 62 49
12.348416926614247 -1.158062028412675 2.361975674240124 55 59 44
13.408064162489978 -0.8158383331866595 2.1900108182934717 56 60 44
12.497518121202194 -1.0213209014547209 2.1444046027943235 55 58 45
12.362182235174938 -1.1998334179659043 2.251704694324913 56 60 45
12.371789463580972 1.4912525216184904 2.6290438490082186 47 52 19
11.765440242731062 1.1813541927753832 2.552448633184039 48 53 22
11.466883913509916 1.2716387875909116 2.3167171379625637 41 46 17
12.147315877609252 1.3635288900093265 2.5069427771107406 46 51 24
12.066196410695943 1.502500680194094 2.516131341182255 46 51 24
12.373236735884712 1.6562214009037495 2.628836021861116 47 52 19
11.205402815966059 1.5109651126525754 2.3384999950093492 42 47 18
10.788583806591301 1.2321871713012797 2.3764974165883306 43 48 19
10.510241012174346 1.502500680194094 2.404489888031983 43 48 19
13.352913982705678 2.033755255375383 2.51063490131878 47 52 22
12.371275852490122 2.411004305398977 2.6291176332999893 48 54 27
12.853187374945886 2.097628760416354 2.5659758543348845 47 52 22
12.853187374945886 2.097628760416354 2.5659758543348845 47 52 22
13.219224607553187 2.393577111329838 2.4038392669968034 47 52 23
12.733591494644143 2.300841828259311 2.5806149793817132 48 53 24
12.954217143678603 2.25153556333177 2.2152098191745395 39 45 21
12.539697274024777 2.235029433827777 2.346662302487795 43 50 20
13.906696155579342 1.9828866799906406 2.458000036634613 45 50 21
12.770445529012642 2.508669613116371 2.576038556400762 49 55 28
13.127828984956075 2.171812343265821 2.303604032313079 44 49 23
13.14656735120827 1.9828866799906406 2.4099399107200714 43 48 19
12.875253775241116 2.140836204523236 2.4337258667025115 47 52 23
12.914288288450484 -1.3607529588423966 2.558725332499643 57 61 47
12.838015998910546 -1.5015617005117838 2.5677995220022223 56 60 46
12.918447289455134 -1.7857619315444653 2.5582371841346436 56 60 46
11.960239177771875 -1.526806179963501 1.9821203968706484 27 29 20
12.627711423446387 -1.6971196668452442 1.8749634581390329 65 68 59
12.360731878690153 -1.4474228924008568 1.7978072615133094 12 15 5
13.270068969959047 -1.6285852511234986 2.39963380306599 54 58 42
12.134056379463708 -1.4229595088135878 2.1638806813630636 58 62 48
13.405922894534887 -1.510245417794454 2.505242464077242 56 60 44
12.697496973522467 -1.7594096307938334 2.4502437257898784 55 60 44
12.644007064451582 -1.6227895609638046 2.233776010811048 50 54 41
12.693265577438725 -1.386531866679198 2.4506466210851543 56 60 45
12.627713175455497 -1.406725571147678 2.339846608276749 55 59 44
12.296321052612855 -1.3263776620764016 2.1550124111617475 59 63 49
14.42903473039489 -2.471922551902443 2.414698672873455 54 58 42
13.65655079008055 -2.3239746330842634 2.369260171968355 53 57 40
13.934174911341831 -2.401540378702183 2.4555828123777474 55 59 40
13.601239603199852 -2.14707743883227 2.486055449425288 56 60 45
13.302552610404453 -2.0392513698137473 2.5158353838635215 55 59 44
13.182956799922703 -1.962046178321068 2.0248313010547294 50 54 42
12.83348094213733 -2.0374982548013865 1.8699342665857965 56 58 47
12.52720813833482 -1.7784274566190585 1.7947386428974732 68 71 62
13.024523177335183 -1.9452293115902766 2.310765540667091 53 58 42
13.247113412269123 -2.07704873408932 2.1082604102583584 54 57 46
13.391559571828578 -2.0874622071218445 2.389789808782195 56 60 45
12.790715038881428 -1.8449783100026216 2.3275852879592724 53 58 41
12.303600098519908 -1.8185999190957833 2.154621276616922 45 49 36
13.069266074005741 -2.1774143891114206 2.3076441961247505 56 60 45
15.949525335528536 0.11007141403835903 2.5004319613227954 61 61 31
15.153600935644958 -0.10007039124786618 2.461483067808029 61 64 32
16.76160264629897 0.11007141403835903 2.5361238369652694 62 64 33
15.915133436280017 0.005056125839718201 2.5033329704597054 62 63 32
16.300290723213653 -0.22619999645366545 2.5783071249012424 68 74 44
16.046284447271123 0.2127127215454627 2.492395812159104 58 60 29
15.249122439757354 -0.2030311734146748 2.4537752370075605 61 64 33
15.804669588252798 0.09964349935699682 2.412043180949115 57 57 27
15.18664804124139 0.013767590218427819 2.9102257204589637 60 70 42
18.106533138924096 0.3060143973858622 2.7567214796634816 60 69 39
18.48812401299501 0.267168903659029 2.7086065736358242 62 70 38
17.91586562899205 0.5074239929286931 2.783910041009694 56 62 35
14.505708824346431 -0.4859538480906816 2.5187624078146027 60 65 41
13.824717158219444 -0.8485309684909704 2.7507138876856954 59 65 45
13.543527632632307 -0.8351721371342212 2.6258658890520423 59 63 45
13.246242996674516 -0.9579519943968267 2.666955100601745 60 64 45
14.814710994134062 -0.33492229578678373 2.490281111726432 63 68 37
13.417643039729818 1.698048088139979 2.8325494616525404 46 54 21
13.417643039729818 1.698048088139979 2.8325494616525404 46 54 21
13.941647123856969 1.3396017223737973 2.990104818312483 54 60 33
15.12818111300072 0.6898517852981566 2.9272463194738254 57 66 36
13.941647123856969 1.3396017223737973 2.990104818312483 54 60 33
14.015746505566405 2.2086324640312998 2.9586978993965207 53 62 34
14.196374052636305 2.0328507395469284 2.8993816394553527 50 56 29
14.015746505566405 2.2086324640312998 2.9586978993965207 53 62 34
12.871884593811815 3.1100181547588552 3.023334220955907 52 66 35
14.123222389391799 1.413925749746879 2.9213221307473285 50 57 25
12.827849159982655 -2.0690111510403373 3.0570031469246457 54 67 38
13.01897233764144 -2.2317245425586396 2.9504962152493412 53 64 36
12.871884593811815 3.1100181547588552 3.023334220955907 52 66 35
13.29182095896382 2.1794380390671995 2.660324171250202 47 52 23
12.94513878917802 2.286252298657353 2.714435672775332 49 55 27
13.590743805849026 2.300841828259311 2.619770323449911 48 55 25
13.379420173897266 2.2612506590468513 2.8416265781036945 50 56 29
13.29860611916249 2.8520743459300517 2.86194242780648 53 62 34
13.414500022240652 2.614402865256062 2.8332841621736735 53 59 32
12.654366850688852 -2.9339017094084614 2.7681053118701477 53 64 36
12.332768853778907 -2.87729214934727 2.8416031690770076 51 64 35
12.085585414437535 -2.78009425730856 2.916973102729086 52 65 36
12.768598758585235 -2.7337479711696355 2.7459032081969204 53 63 35
12.449951866038303 -2.6350016056755363 2.812536065023566 54 64 36
13.36234851061596 2.6369293100038522 2.6503130363608047 50 56 29
13.052225306476425 2.9539110196292278 2.6967536959712928 53 62 34
13.170287452637169 2.7862060334469687 2.678304976449877 52 58 31
13.464787859748439 3.1342371931852187 2.636277100189659 50 63 32
13.010176759635325 3.132904238599163 2.703582471321988 51 64 33
13.922236320387078 3.132904238599163 2.7340519991516343 51 64 33
13.283022734868286 -1.3267540894206382 2.661594071448845 58 62 47
13.431413930929013 -1.1757089281758422 2.6407869217221913 58 62 46
13.351198576528978 -0.871666823040407 2.8485379732916245 61 68 45
12.437929523249128 -1.701101088637074 2.815378555326417 56 63 40
13.607300147194554 -1.0100059881211418 2.7915189280066914 58 63 43
12.790864110420525 -1.6750015975937596 2.7417565903425523 56 60 40
12.870198812851246 -1.8682243384203274 2.7274130995872063 57 61 43
12.15721912936428 -1.7444680741014265 2.8924925185337917 55 65 39
13.127304712394581 -1.4089176104134957 2.911715304984833 56 66 40
13.019169186934413 -1.106169380728134 2.702110025513367 59 63 44
12.790864110420525 -1.6750015975937596 2.7417565903425523 56 60 40
12.870198812851246 -1.8682243384203274 2.7274130995872063 57 61 43
13.21023537099833 -1.6575907305499786 2.6722877088069508 57 60 47
12.404418670035625 -2.2769906114975513 2.8234607728311936 52 62 36
12.645371300701383 -2.4434304315779674 2.769924811689937 53 63 37
13.92067773661228 -2.410186990931757 2.5799202621842214 55 59 41
14.827572094876503 -2.5591246203152718 2.4891440810470233 53 57 40
12.679657582421534 -2.138058652317081 2.763048128430753 56 60 40
13.660810990947674 -2.104601873904166 2.6109179922706076 56 60 44
13.951830335890362 -2.2200640621366308 2.576381921759089 57 59 45
12.679657582421534 -2.138058652317081 2.763048128430753 56 60 40
12.962859433883496 -1.5335921085108861 1.553976900583085 19 20 12
16.548581143912404 -3.065683189359186 2.2804026321345505 50 55 43
16.811158324939495 2.9912374654866354 2.191827849802224 53 56 50
16.962043814359486 2.9198266295767286 2.1854778073048706 63 66 62
14.511568656816436 -2.2862475705764034 1.5557720530145607 67 68 61
14.252744968797748 -2.5827391117442464 2.234655223096614 50 55 38
14.195790580185632 -2.6646227609803748 1.990294950491245 44 49 35
13.634572145817113 -2.278702258682497 1.8518642445084095 59 62 53
14.569572336576382 -2.701559078508869 2.2177542400251746 48 53 37
13.249958814174114 -2.3313483478493287 1.9400349293458843 55 57 44
14.605777698434418 -2.6149841789495807 2.4011941839450808 52 56 38
14.651012563015206 -2.7648869792333466 1.9764802800483208 43 50 36
14.897392021711392 -2.782168476590727 2.287129916027135 49 58 39
15.260274733542573 -2.835783965579908 2.1059233957128507 44 50 36
14.681836643802264 -2.840842639257044 2.3955425966543893 49 59 37
15.396882410854884 -2.8906919966924423 2.2592221014131106 48 57 37
15.396882410854884 -2.8906919966924423 2.2592221014131106 48 57 37
14.07156850604961 -2.4570696228505833 2.2447678754500426 55 59 44
14.316170441675206 -2.557541867473115 2.0643163661153365 52 57 42
14.1358069168319 -2.44558657063084 2.0711926166493333 53 57 43
17.222406190440992 3.058071880937878 2.324176094641747 43 48 34
15.066140619080343 -2.707181819926321 2.4686922918572756 48 57 35
14.835244497074227 -2.8079761347026224 2.488467517920137 48 57 32
12.058930346584017 1.0626526407817545 2.2722507521397506 43 48 17
11.061542738730898 1.1119134988162918 2.3511304532035404 42 48 18
13.874979048270326 0.4892038128902222 2.256136776782908 47 50 21
15.163639323984446 -0.18411864662525632 2.3617751432899934 57 58 26
14.629734858241989 -0.35200844259787967 1.7621208903941763 36 39 9
12.88195668862247 -0.5856207895295811 1.7884708581754531 37 41 18
14.225210964326973 -0.4071821931318052 2.0677591411280645 49 52 26
13.830999733808602 -0.5164298412792452 2.08328362226571 49 54 24
14.658645374143301 -0.30181829185437664 2.397255947461445 60 63 32
13.840382301412626 -0.48129153608533887 2.2581820708523987 50 55 27
14.422776360930886 -0.33149226153549544 2.140713155852128 55 56 27
14.49552162197021 -0.48129153608533887 2.3115277990272496 51 56 30
14.228854350058807 -0.5605496369290889 2.2359694125804968 52 57 30
14.872128981285785 -0.36054863788110514 2.288609746888119 52 56 26
12.81044256769601 -0.9981455538554768 2.4396579971992276 57 62 45
13.917458969794335 -0.7427964612793235 2.457051273706478 57 61 40
14.026964658075654 -0.5846636641098342 2.4475417199976826 55 59 38
13.480781763940199 -0.8264767682666163 2.497764855801749 57 61 44
12.81044256769601 -0.9981455538554768 2.4396579971992276 57 62 45
14.026964658075654 -0.5846636641098342 2.4475417199976826 55 59 38
12.024962943564788 -1.2342223348431045 2.072399251398323 47 51 37
13.054186110644572 -0.9672245800506856 2.308692821940803 55 59 42
12.348416926614247 -1.158062028412675 2.361975674240124 55 59 44
12.092302178694139 -1.1066068540242107 2.166209915441842 56 60 46
11.508142188160546 -2.6350016056755363 2.784452221947694 54 64 36
12.003716271252678 1.3886787585031666 2.3914700590391154 43 48 19
13.127828984956075 2.171812343265821 2.303604032313079 44 49 23
12.30940576304738 1.2321871713012797 2.489269051690599 47 50 22
12.147315877609252 1.3635288900093265 2.5069427771107406 46 51 24
13.12174398254849 2.4006446566300372 2.5351631627717532 48 54 25
13.010757876282925 2.3171429581567424 2.3117319505114318 41 48 18
11.92312165093034 1.6350603547137936 2.3987526473831062 44 49 19
13.448719117853903 2.082330054710301 2.3852549903918043 43 48 19
11.292707358157577 1.3886787585031666 2.331064418709367 41 46 17
12.067680332713715 1.6441478283648647 2.5159610912454866 46 51 25
13.259259880096415 2.235029433827777 2.4005235349975704 47 50 20
13.537948562378864 2.310398798107567 2.492159313702147 47 52 23
11.600380824333774 1.8166961413964564 2.5740912401745906 47 52 19
13.601239603199852 -2.14707743883227 2.486055449425288 56 60 45
12.839410717761034 -1.6451558277423919 2.567631475795938 56 60 46
13.934174911341831 -2.401540378702183 2.4555828123777474 55 59 40
13.357758406715105 -2.217752329744828 1.9369137483757366 53 57 47
12.724257441476706 -1.722151739888635 2.228860442093765 44 48 35
12.790715038881428 -1.8449783100026216 2.3275852879592724 53 58 41
13.407258535781596 -1.6358330819326288 2.505107650782668 57 61 45
12.61565708992063 -1.510245417794454 2.458119753180197 56 60 44
12.783713359212125 -1.3003254255866872 2.3281026423379987 56 60 45
12.118554468530832 -1.3003254255866872 2.2681016472661453 56 60 45
12.838015998910546 -1.5015617005117838 2.5677995220022223 56 60 46
13.53446258727744 -2.2001271842056704 2.1833703516388887 54 57 43
13.04183885155719 -2.2693368473690168 2.030118951882676 54 55 41
12.801353039261505 -1.932196650307204 1.6319203005233143 69 71 64
12.8484698788734 -1.268246504678619 2.436165117898498 58 62 47
15.769961783713187 0.00457377452723181 2.414508123181734 60 60 28
15.804669588252798 0.09964349935699682 2.412043180949115 57 57 27
18.914938982952307 0.23690904803523358 2.66211126631129 60 67 36
18.24671007181911 0.43953260389861076 2.7381794816737 56 62 35
13.824717158219444 -0.8485309684909704 2.7507138876856954 59 65 45
15.62176771954655 -0.33492229578678373 2.5290976052439036 64 70 41
13.493293057392766 1.929551347914741 2.8154465198537246 46 55 25
13.941647123856969 1.3396017223737973 2.990104818312483 54 60 33
13.94293144633592 1.8184940864191617 2.989502610420157 53 62 34
14.9889990165993 0.019313174128213956 2.9752006779720133 59 69 41
13.642022222667634 2.127250713874296 2.7846130912112783 48 55 25
13.29182095896382 2.1794380390671995 2.660324171250202 47 52 23
13.603113503193413 2.42764955604321 2.7923628529215887 50 56 29
13.044876894125398 -2.9707353451931127 2.6979368539802504 53 63 35
12.04812271450344 3.1225541085514124 2.9310144896383585 50 64 33
12.085585414437535 -2.78009425730856 2.916973102729086 52 65 36
14.158988766835387 2.458763379398253 2.910310779275125 53 59 32
12.661941899248701 2.9136699454388046 2.7665816518782935 53 62 34
12.981392256922474 2.5480929766782947 2.708341065328728 50 56 29
12.618592890092039 3.130981263415934 2.775407812943116 51 64 33
13.29860611916249 2.8520743459300517 2.86194242780648 53 62 34
13.438078141584196 -1.9709982885083766 2.63988163080714 58 60 45
13.460848044863841 -1.2120096278790484 2.8226496889607624 59 66 43
13.38768997542102 -1.4494105573358527 2.839635832727087 57 64 41
12.866024215315944 -1.2799924284776603 2.7281518000797225 58 62 43
12.915476344236541 -2.2981402975410257 2.719509529459413 56 60 39
12.519500933199618 -1.9375037665225152 2.796636919987162 56 62 40
13.208879807390995 -1.4899766198995372 2.6724901290826106 57 61 46
18.075782165572722 -0.8038737108017151 1.669540688609318 35 41 21
16.59691387601798 -0.938855379145014 1.3138330700512633 41 48 35
16.521241600155893 3.137762713414302 2.281824726719496 47 54 42
16.120152205059835 3.138046034415652 2.1469264663394174 52 59 51
16.718826456785596 3.0642248067218296 2.1957847218372755 50 55 46
16.811158324939495 2.9912374654866354 2.191827849802224 53 56 50
14.451303475884936 -2.8110575547347363 2.139448616865196 45 53 36
14.781746281476439 -2.8906919966924423 2.2069550133666582 47 56 38
14.681836643802264 -2.840842639257044 2.3955425966543893 49 59 37
14.915107813932371 -2.7480319761389214 2.3787721271536193 48 58 36
14.518973452810222 -2.6618463201113585 2.310051755024687 50 55 37
15.290115672695675 -2.9409885639611195 1.820738767616111 56 60 53
14.089183953372101 -2.436445618971627 1.7695576417183536 55 59 52
17.312052481511504 2.979428179033664 2.319330246681287 37 42 30
11.217210280210127 1.0483997789245738 2.4701139260343625 48 53 22
14.469692211796955 -0.18411864662525632 2.313161344303465 58 59 25
11.439136167561557 1.0626526407817545 2.2054211137467794 42 49 17
12.508405478705885 -1.2873047392887267 1.4732658519114292 74 74 72
14.638172924585534 -0.27451822732216347 2.3026524166746647 55 57 26
12.940197047506675 -0.6978615426651963 1.8673919925235936 36 39 17
13.469819433209436 -0.7486936394256218 2.280982266882643 56 61 35
12.750552343646392 -1.0363829988118134 1.632164135958576 72 74 68
13.021227621229867 -0.8746064176910409 2.030902011803555 66 70 58
12.447484999641008 -1.2629634283729394 1.9651077889771233 61 62 56
12.913236173112532 2.3884480399853256 2.2175966615818403 41 47 19
12.770445529012642 2.508669613116371 2.576038556400762 49 55 28
13.16207576663127 2.212384530811928 2.530759358890332 47 52 23
11.595749087331502 1.330474842501944 2.5747181617698587 48 53 22
11.92312165093034 1.6350603547137936 2.3987526473831062 44 49 19
11.207000716477799 1.6350603547137936 2.3383623821422805 41 46 17
13.07371764883671 -1.9182817762571165 2.5404797142058033 55 59 45
14.42903473039489 -2.471922551902443 2.414698672873455 54 58 42
13.06686761263523 -1.227872388887427 2.541244577805612 57 61 46
12.623456635193746 -1.4474228924008568 1.8750692639021111 24 27 17
13.270068969959047 -1.6285852511234986 2.39963380306599 54 58 42
11.961736244399601 -1.6180496298007474 1.982065804283677 17 19 12
12.549699312439568 -1.5169954659353762 2.345880659037669 55 59 43
14.031298631819686 -2.328137758317983 2.247062363542892 52 56 39
18.404207219704258 0.1391549235076298 2.718578552369913 73 80 49
15.222685862311206 0.29232996854633825 2.9003823069469643 60 69 41
16.046284447271123 0.2127127215454627 2.492395812159104 58 60 29
14.809446389472276 -0.5846636641098342 2.4907476074220285 58 62 43
13.906521058294956 -0.734643532166449 2.58154004665868 58 62 45
12.906956529807541 -2.5814005671511038 3.0023205456166937 53 66 37
14.347978148567794 3.1342371931852187 2.6700223053913152 50 63 32
13.416308432297471 1.452258717375707 2.832861185909861 48 55 23
13.61955521946902 2.837157424465769 2.6161028756340956 51 57 30
15.019127983526419 -0.3662629464224944 2.9636527937097354 59 69 41
15.02551089493077 0.3994977099794826 2.961306002068574 59 68 40
12.783608989405858 2.7160022251139337 2.7431016871445584 52 58 31
14.172306836388112 -1.1055064318031378 2.9063536078072962 58 68 41
13.38768997542102 -1.4494105573358527 2.839635832727087 57 64 41
14.306969718027096 -2.318361467838889 2.538373163891894 55 59 43
14.346465816976897 -2.4918731483211554 2.5343882717744943 54 58 41
13.431413930929013 -1.1757089281758422 2.6407869217221913 58 62 46
13.460848044863841 -1.2120096278790484 2.8226496889607624 59 66 43
13.150802553692156 -1.610761456155389 1.4013260433295596 16 17 10
15.655904293270664 -3.076108302911298 1.9490696497677473 53 58 49
14.27126102340875 -2.531692710606948 2.3259934859905966 54 58 41
14.195790580185632 -2.6646227609803748 1.990294950491245 44 49 35
12.739861893567726 2.082330054710301 2.331361583722917 44 49 20
12.642590788870283 -1.5223925600266455 2.23386349239479 50 54 41
11.595749087331502 1.330474842501944 2.5747181617698587 48 53 22
12.967349243338186 -0.9440849646351679 2.1211685615490707 59 62 49
12.546489077641318 -1.9105727604457825 2.1418849320992623 47 52 37
12.151737382104635 1.782924878025472 2.5064487459358142 47 52 25
14.16195831489343 -0.2851456583154389 1.6969595682429928 33 37 6
12.868803992437519 -2.107627840102218 1.709715762082876 59 61 51
13.088088285718424 -1.9873033538227094 2.414929988644515 55 60 44
15.36982104487894 -0.11177531860732938 2.5528302232906794 64 68 37
13.205974200876078 -2.0457282357703823 2.887508634116741 54 64 38
13.50542106867081 2.982177839527113 2.6308651407918484 52 61 33
12.404418670035625 -2.2769906114975513 2.8234607728311936 52 62 36
13.92067773661228 -2.410186990931757 2.5799202621842214 55 59 41
12.789464097458113 -1.4737499464008166 2.7420156998754 58 62 43
13.287066318350682 -1.8204961115988485 2.6610098439231082 57 59 46
13.660810990947674 -2.104601873904166 2.6109179922706076 56 60 44
16.046284447271123 0.2127127215454627 2.492395812159104 58 60 29
14.123222389391799 1.413925749746879 2.9213221307473285 50 57 25
14.124490201465381 1.7391087011434447 2.9209216026540896 50 56 27
15.290115672695675 -2.9409885639611195 1.820738767616111 56 60 53
15.415308042821744 -2.9868973985845377 2.1769277479422544 50 55 46
12.818123590853315 -1.106705784058915 1.870303771019385 70 70 66
13.010757876282925 2.3171429581567424 2.3117319505114318 41 48 18
13.387632251152864 -0.4071821931318052 1.936058343137018 46 47 23
13.965297402301388 -2.2416891725220256 2.4528650831027865 54 58 42
13.228941056280348 -0.4782411467910098 1.7826731993885245 35 39 17
12.855436289122435 -1.877444648078077 2.4355290261576488 55 60 43
15.261693212713494 0.2127127215454627 2.452773403762687 54 54 25
13.019169186934413 -1.106169380728134 2.702110025513367 59 63 44
12.205141894939068 -2.4821140120805247 2.8774987119650675 54 64 36
13.94293144633592 1.8184940864191617 2.989502610420157 53 62 34
18.625429274353685 0.3868393472747029 2.6929237118588105 53 62 34
16.620555094537888 2.8506401154999197 2.1274886056302877 68 70 69
14.089183953372101 -2.436445618971627 1.7695576417183536 55 59 52
12.520059096737251 -1.3660359647966063 1.7948686988381457 18 20 13
13.020396360172219 -1.8570476288164768 1.8655101230932876 68 71 62
12.720034947426596 -1.4229595088135878 2.2291170721979885 57 61 48
12.69291345374517 -2.0381793471268033 2.2307707252243136 53 57 44
12.940549754056017 -1.830134646984394 2.984885088166918 54 67 38
14.505708824346431 -0.4859538480906816 2.5187624078146027 60 65 41
17.773079505308875 0.3575159598920763 2.8060630257576027 58 67 37
14.270136768689367 -2.537333193824183 1.7670041745825809 55 60 45
12.798558612169192 -1.041461695773612 2.572587189644076 59 63 46
13.485086377055596 2.322156389146037 2.185945860199521 37 43 20
12.296059276646625 3.127965201971524 2.851410383508194 51 65 34
