10.410812400947966 -0.28760126482708354 1.774233080091724 44 48 24
10.814693729035683 -0.08259267167942017 1.5803541204266587 39 43 21
10.99766536943604 -0.17379702420179916 1.6712924248451566 43 45 22
9.748695762323335 -0.31829930279414426 1.8947702209947177 45 50 25
10.99766536943604 -0.17379702420179916 1.6712924248451566 43 45 22
10.296752246212892 -0.09099562026420466 1.8769489651477136 43 48 20
10.258595896557189 0.011029292891517467 1.8781248674833642 43 49 22
11.38998290300713 -0.23865473756423322 2.362350713842667 50 56 31
10.640950751418266 -0.09099562026420466 1.9666759870280353 46 51 24
10.922879725951677 -0.35602381024134 2.278801433607511 50 56 31
9.886840965662222 0.013865231584257467 2.2361302374803653 49 55 28
10.15369735917354 0.012285737890900386 2.0974130065330128 48 54 26
10.44165275191576 -0.4173792256607999 1.9746666537520945 49 52 28
10.300610439842265 -0.35602381024134 2.2049853210887997 48 54 28
10.15369735917354 0.012285737890900386 2.0974130065330128 48 54 26
10.192246421310562 -0.10129554424857137 2.0952155115983135 48 53 28
10.083658384247205 -0.464006594130447 2.1014559205664023 50 52 28
10.44165275191576 -0.4173792256607999 1.9746666537520945 49 52 28
10.770986488949804 -0.19116187645941415 1.9616355201221538 46 51 26
11.133447307541022 -0.4639331725248606 1.7608614946144712 47 49 30
11.804171978535212 -0.7323463562971344 1.579552922196393 74 74 72
11.864857663220201 -0.8521767312678565 1.663925093188449 72 72 73
10.510208535572888 -0.5614902863881021 2.077802813242096 49 52 30
11.011303306705315 -0.6483513801742368 2.0526988295885933 48 52 31
10.6218683630562 0.1620296717577708 2.4385744393665676 48 54 32
9.906871842757136 0.5767537636870655 2.528641369902608 47 53 31
10.172762585229941 0.3498394986737232 2.492403875645614 49 55 33
10.14737415229481 1.9108826538016852 1.8816055345710663 46 52 32
10.233796955015736 1.8101563545447223 1.983362971492756 41 47 27
9.371340890086481 1.6021126242350172 2.280065793244704 45 51 29
9.834716225785995 1.8383605796358116 2.116375295111933 38 44 24
10.107767873577655 1.9491240631073827 2.100056825370735 44 50 30
9.370862991392833 1.60723563380167 2.431078387851337 40 48 25
10.122948399395101 1.7411454235157229 2.348589584389509 40 46 23
9.448140463741904 1.7411454235157229 2.273110105934815 39 47 25
9.371340890086481 1.6021126242350172 2.280065793244704 45 51 29
8.783624656717514 1.4197703252392573 2.512743879891716 44 50 27
8.927862788243647 1.2359380417940862 2.490859365000517 43 50 25
8.395894890762738 1.1624478868262458 2.579331636539774 42 51 25
10.601543360480807 -0.1308859623199566 2.4408397250391727 51 57 33
10.564487899236973 0.015910731798902598 2.4450079865523726 50 56 32
10.952687146368017 -0.40334329376695777 2.4036460679937566 51 57 33
10.858216001299127 -0.7156446846507826 2.1677145546647894 49 53 32
10.930619639694719 -0.7937978812980279 2.05656346769923 46 50 31
11.099773113360756 -0.889507307598972 2.3891879685007895 52 56 37
11.641734828979557 -0.625234414805385 2.3406935747599 53 57 36
11.4602454598716 -0.873164778382776 2.2393178295892744 51 55 37
11.661444173819836 -0.9646789353492187 2.3390563457378173 49 53 35
11.099773113360756 -0.889507307598972 2.3891879685007895 52 56 37
11.565450057118232 -0.795237397890416 2.3471081025352225 53 57 39
11.52886885072942 -0.9388923344835683 2.128687440947579 47 51 33
12.061073286939635 -0.8612483455359649 2.101381487483885 47 51 35
10.994541214070603 -1.187731879545432 2.39946926994872 52 56 36
11.288693828938175 -1.0694416005835938 2.3714767715308183 51 55 36
11.269968914789354 -1.1243994681389098 2.2527246576747997 49 53 32
11.687632270486235 -1.6937719538569702 2.1202330869030073 51 55 46
11.450309240510386 -1.3492888974552102 2.357031207915853 48 52 32
12.055671980389064 -1.4835998559129204 2.307921111336086 43 48 30
10.937669956899592 -1.791815203350003 1.9553643981913615 50 54 45
12.203147867478682 -1.4923764533872867 2.1920962873944116 54 58 48
10.785419076340395 -1.3184169466241926 2.420865030021651 53 57 38
11.446534720748446 -1.7074386366558645 2.240264271909304 42 47 32
11.596054728125853 -1.8157352390582964 2.2301007741612544 42 47 32
10.785419076340395 -1.3184169466241926 2.420865030021651 53 57 38
11.527831291308805 -1.8453153556233615 2.350317694683956 48 52 33
11.377414738704404 -1.7244958483344002 2.363469692431888 48 52 33
11.338205759630037 -1.4726182736458187 2.366984784060513 48 53 32
11.085654444884796 2.170171895289404 1.6704921030530837 69 74 64
10.480978084162292 2.1430478946293103 1.9730637079260314 67 72 63
11.216120469142835 2.75950392814113 1.7594436146701342 61 68 62
10.456675761803268 2.502711840027021 1.7733283666650055 67 71 71
10.537217572896855 2.0914461528914647 1.4856009185936876 69 74 59
10.039639042734295 2.00492656948178 1.5810920020465968 61 65 46
11.582454647559265 2.3632255465954604 1.4933054166483268 69 73 72
10.103048545927102 2.3655062964691163 2.1003300764578148 61 68 62
11.071032548044158 3.0336428243557165 1.9504938969578633 41 50 41
11.996725108938541 2.5260532528631785 2.312390895176656 48 53 45
10.726074342468358 2.2044820039841007 2.176111329948696 55 62 51
10.349513166910967 2.3642067784013014 1.775455074572693 68 72 70
11.257159683506702 2.4396297707710146 2.14382106832649 63 67 63
11.758348298549498 -2.2384619637834233 2.1165545968520774 48 52 36
11.445402287321695 -2.120484733014221 2.357460745400422 48 52 32
12.421847245294423 -2.9392366890569277 2.2814741603035316 40 46 36
11.994993954239416 -2.8377127685914956 2.2045751849573842 44 49 40
12.277363515159438 3.129900092845403 2.291647951488925 42 47 38
12.351068816129603 -2.4572990919574123 2.2864170256151484 49 53 35
12.538337688630385 -2.6048870696883277 2.273504793499485 49 53 41
11.506129563950823 -2.1018502835655997 2.0303345603073457 46 50 30
11.288174942760937 -2.181382882035957 1.8493044788451412 46 50 33
12.091617368632127 -2.13230282885894 1.8303550575879255 45 49 35
11.70399580465011 -2.4998174952242254 1.751491266892811 47 51 36
11.929563984351578 -2.8077604271365013 1.6634185064457094 49 54 45
12.32428049856904 -2.3051900793033187 2.288308217760231 51 55 35
12.274534492732112 -2.742247893111635 2.1879390627005515 46 51 43
11.403105436516535 0.1620296717577708 2.4953019768120175 48 54 32
10.838641139031367 0.18945665821907096 2.56789329163886 48 54 33
12.639631283567246 2.1336448615706614 2.643418058676586 45 55 31
12.04571574839668 2.0667641057347463 2.743413766752669 47 53 31
11.90184606465659 1.8600879518952236 2.7732100282159293 44 52 28
11.972005391186235 2.374330483859428 2.758314923799805 49 55 33
11.74238412513413 2.191637300122803 2.810168673401583 50 56 35
12.819513540116512 -0.46438659992928644 2.8057590139835282 56 62 42
11.791345087309278 -0.3165040628598619 2.5999164392826453 54 60 38
11.50581438879507 -0.27225662594062444 2.4835597422693354 53 59 36
12.089134111980997 -0.9510194954623155 2.7349605424543486 56 63 41
12.079632377768874 -0.6534489903520727 2.736791027387347 56 63 42
12.56126010994203 -0.59805512522285 2.8707540812562335 57 63 43
12.710452798944669 -0.23193676307620525 2.8312761438375635 54 60 39
11.334952453027885 -0.37711369599960254 2.6711017744658148 54 60 40
12.357258410872225 -0.8003683835007642 2.6872042800865854 55 62 41
11.992503325788277 -0.4641308376743491 2.5726539900290173 54 60 39
11.349675354270852 0.015910731798902598 2.501568543839575 51 57 34
12.710452798944669 -0.23193676307620525 2.8312761438375635 54 60 39
12.120377722480079 -0.18462151126521834 2.7290155285297653 54 60 40
11.672681864806494 -0.15321362999153376 2.6170563819389745 52 58 37
11.998016454875538 -0.521300784748317 2.432171410891095 54 59 38
11.83426301948978 -0.6836482246240504 2.593919167987461 54 61 42
11.83984983210871 -0.7026243372675652 2.447875949414707 54 59 40
11.849543841106504 -0.889507307598972 2.446892779141875 54 58 40
11.843961601165542 -0.9132877477037106 2.5925780428515086 56 61 42
11.843961601165542 -0.9132877477037106 2.5925780428515086 56 61 42
14.125180702730082 0.13785223509114491 3.0860050375720074 56 62 42
14.105532887103859 2.690564596340846 3.12405220597114 55 61 41
13.241146704761272 -1.687934881725997 2.9972055562416466 58 63 44
14.125180702730082 0.13785223509114491 3.0860050375720074 56 62 42
14.21532278002818 0.06060161308391507 3.0160032391738505 55 61 40
13.358042886898883 -0.8166790784090178 2.9460086610550906 57 63 43
11.791429933059138 -1.3736714879428522 2.798286232744831 57 65 43
12.570397795815426 -1.019756997307149 2.868148290953213 57 64 43
13.190488131618567 -2.511221011417991 3.026593264467735 57 62 44
13.190488131618567 -2.511221011417991 3.026593264467735 57 62 44
13.295611840054617 -2.1444773725556106 2.971330799567702 57 63 43
14.467274880306217 3.1081416809272167 2.916824741061169 54 60 40
13.494269761203105 3.1081416809272167 2.9003073409039968 55 61 41
13.160724147984412 3.05361827000584 3.048193756633301 56 62 42
13.52329965057163 -2.871517709467718 2.8917331772517 56 62 42
12.199144742308945 -2.2623722120800833 2.71450395017456 55 60 41
12.772439165219863 -1.8751702380657025 2.8164827702781645 55 64 41
12.906608011930652 -2.0896661055003514 2.7869332647748406 57 61 43
12.504034755958255 -1.9707608511060741 2.8877580542760652 57 65 42
12.641052698355555 -2.2260414315279045 2.848880491830349 56 62 42
12.85463112916868 -2.4101918480864897 2.798018225824389 55 61 40
12.135380713503121 -1.6162794212716407 2.7262000300471265 56 64 42
10.988524635977106 -1.2778317002488406 2.5471177426950513 54 59 41
10.871660490461704 -1.439626628294383 2.563210160726061 56 61 42
11.698079160207243 -1.6085682516656468 2.6133161944623673 56 61 41
11.759693201051856 -1.7753996145004272 2.604406383125681 55 60 41
11.905280858814523 -1.9315154472267735 2.584215662363629 54 59 41
11.42027350877756 -1.6030919642941217 2.4933118092455406 51 55 37
11.632424652842888 -1.8827579043065295 2.4696039683738187 50 54 35
11.759693201051856 -1.7753996145004272 2.604406383125681 55 60 41
10.871660490461704 -1.439626628294383 2.563210160726061 56 61 42
12.131819338897431 -2.0712880741452397 2.5549405758155403 51 57 39
12.33523900662018 -1.997246885488323 2.690872427696205 56 62 43
11.632424652842888 -1.8827579043065295 2.4696039683738187 50 54 35
12.55402124798402 -2.153291651706096 2.6561033583351557 55 59 43
11.365301698532438 -1.2223197747305503 2.6658780301835128 56 63 43
12.657786906697899 2.6048073447370723 2.640787437992574 51 57 35
13.102095157636544 2.678393899898072 2.581958576056783 46 53 35
12.32527713541101 2.62447319634158 2.401777178863277 33 42 30
12.93967744282455 2.475112224097488 2.602328042555074 50 56 35
12.56940428898491 2.3699770063306493 2.653788816868274 49 55 33
13.349554767879779 2.7579909249009416 2.70606887340709 47 55 33
12.143029526186803 2.2782294654916506 2.418371839765639 36 44 29
12.901519855071076 2.814987441593886 2.607290910565789 45 53 34
12.446944151523143 2.8906508958912003 2.3911298616269065 40 47 38
13.654312787395863 2.9654053366215116 2.660334422731742 50 57 40
14.149263430506576 2.9325690436499134 2.7546866432571613 50 58 38
13.811456385243392 2.8850189965078354 2.8199944024773353 53 60 40
12.776287865488296 2.9654053366215116 2.6240957131666973 48 56 38
13.349554767879779 2.7579909249009416 2.70606887340709 47 55 33
12.082999671220026 2.261608396549705 2.5610469716122717 45 53 31
12.082999671220026 2.261608396549705 2.5610469716122717 45 53 31
11.767205629217806 2.558120787998956 2.4553329939376094 38 44 30
12.872831418634535 -2.501142406219263 2.611069360198422 51 56 37
12.809047457185338 -2.2960327986106748 2.4795980089765104 53 58 38
14.10623878561897 3.1209468394811912 2.7622425986968504 50 58 40
14.13401180585085 -2.972401348856912 2.7573437132987575 48 56 37
13.896376456996666 -2.7203232930223673 2.8021302130207286 54 61 39
14.23216802806099 -2.7940045923375556 2.7406317215449763 46 54 36
13.740204105075474 -2.8464012461308705 2.648497854836985 39 46 31
13.495636248646187 -2.6358590543330136 2.6833590870859676 54 61 40
14.13401180585085 -2.972401348856912 2.7573437132987575 48 56 37
12.84713110539565 -2.282874978206812 2.614489501033105 54 58 40
13.275823660634927 -3.0186931005938784 2.561404706157199 42 50 32
13.795831311796364 -2.933376185809842 2.823411439479627 55 61 41
12.555846755087355 -2.2192510820349356 2.3818739860863163 51 55 35
14.13401180585085 -2.972401348856912 2.7573437132987575 48 56 37
13.945506052621203 -2.915415025108277 2.491778893800162 46 54 36
13.557880659245185 -2.76071717493762 2.5303928168069394 40 46 33
11.17124715125567 -1.7720935667129836 1.669725734890839 73 73 73
11.734028259861079 -1.9406364724573875 1.6649665022901918 53 57 48
10.591129935162028 0.1414929874343376 2.305934729622998 49 55 32
10.591129935162028 0.1414929874343376 2.305934729622998 49 55 32
10.942665009213888 -0.17379702420179916 1.5802423414696238 41 43 22
10.870341601213022 -0.08259267167942017 1.672473580023441 41 46 20
9.926426412930635 -0.11421338148849033 2.2330048223340073 49 55 28
10.300610439842265 -0.35602381024134 2.2049853210887997 48 54 28
10.327933199035915 -0.21232398431815205 2.087632553558477 48 52 28
10.570745830145842 -0.11421338148849033 2.3076797488947216 50 56 30
10.640950751418266 -0.09099562026420466 1.9666759870280353 46 51 24
11.506692942191618 -0.7927258115825064 1.8438785177390173 50 52 33
10.602496844641522 -0.7251298690913414 1.7705049417626602 48 49 35
10.266400396155543 -0.5084782781527832 1.7771357324226162 46 48 29
11.278176111041343 -0.7927258115825064 1.7583932391848291 60 61 54
10.845260043671251 -0.7251298690913414 1.861001944412409 46 50 29
10.778835472592247 -0.5911981715058772 1.7671947297176023 44 45 32
10.238913436679788 -0.6483513801742368 1.8787350408059096 48 49 33
10.854143413582676 -0.5084782781527832 1.9584808290576388 48 50 29
10.6218683630562 0.1620296717577708 2.4385744393665676 48 54 32
9.834716225785995 1.8383605796358116 2.116375295111933 38 44 24
9.371340890086481 1.6021126242350172 2.280065793244704 45 51 29
9.628742719949855 1.873868779361906 2.257341875361257 36 44 24
10.990111652976864 -0.9646789353492187 2.27357611994727 50 54 37
12.307375420095028 -1.393021894391967 2.186046828168572 56 60 50
12.180400076349699 -1.5933016756449199 2.1934338741904766 52 57 47
11.288693828938175 -1.0694416005835938 2.3714767715308183 51 55 36
10.349711961201537 -0.625234414805385 2.2015001536382313 51 54 32
11.338205759630037 -1.4726182736458187 2.366984784060513 48 53 32
11.38322577167428 -1.5958315924504203 2.2446733650194868 43 48 32
10.994541214070603 -1.187731879545432 2.39946926994872 52 56 36
11.099773113360756 -0.889507307598972 2.3891879685007895 52 56 37
11.450221867068215 -0.7156446846507826 2.2400094584049612 51 55 35
12.055671980389064 -1.4835998559129204 2.307921111336086 43 48 30
10.469589272293293 2.050954860163251 2.079959048947359 60 65 54
10.98910940466156 2.8165648527932623 2.0537554500768676 53 61 52
10.942877284387796 2.585737386750036 2.05597216286861 65 69 65
11.331059597477507 3.043196775691661 1.6683259686272673 45 52 44
10.507831856812853 2.00492656948178 1.870605706136755 64 70 50
11.777813226279656 2.241264204611537 1.409057351056093 68 72 64
10.507831856812853 2.00492656948178 1.870605706136755 64 70 50
10.6002352383655 2.6358092663980646 1.675073748302182 68 72 70
11.814430874854779 -2.519828687449953 2.113674361140041 48 52 38
11.75018884579375 -2.6952436544341767 1.8380791904439002 47 51 44
11.833011140019703 -2.155389837881909 2.2146731698688713 47 51 33
11.09884189761276 -2.1018502835655997 1.9494942029515954 44 47 32
11.701271973736953 -2.3796057063426463 2.119519473636441 49 53 34
10.334319712851116 0.6884658302870033 2.6485282502362764 45 51 29
10.494624949661763 0.41552595997347813 2.620811956012717 47 53 31
13.206829409374144 2.405424076178837 3.016336443787542 53 60 39
12.555675325207742 1.9456110649678435 2.872360688475779 49 55 34
12.269661610474921 2.2360237410845425 2.7020456514223605 48 53 31
12.120377722480079 -0.18462151126521834 2.7290155285297653 54 60 40
12.679562031204789 0.02854185887737087 2.8389656782607653 52 58 37
11.467131697109508 -0.8003683835007642 2.6489191985254585 54 61 44
11.16739863655916 -0.6534489903520727 2.7015170908752 53 61 41
11.639037110773046 0.018664130553817132 2.622074146064186 52 58 36
11.544066188455139 -0.5443744048814806 2.636644754954717 53 61 40
11.50581438879507 -0.27225662594062444 2.4835597422693354 53 59 36
11.791345087309278 -0.3165040628598619 2.5999164392826453 54 60 38
11.482901087560379 -1.0007184262846567 2.486145618992574 54 58 42
12.358669665562488 -0.625234414805385 2.3988217312368056 53 57 38
12.641052698355555 -2.2260414315279045 2.848880491830349 56 62 42
14.494356126208901 -2.871517709467718 2.9087935968260497 55 61 41
13.320446887952391 -2.759887260310313 2.960808259344072 56 62 42
14.105532887103859 2.690564596340846 3.12405220597114 55 61 41
13.625855954404516 -2.6106818859777006 2.8637678970326315 56 62 40
14.125180702730082 0.13785223509114491 3.0860050375720074 56 62 42
13.295611840054617 -2.1444773725556106 2.971330799567702 57 63 43
11.89926433532144 -1.1424299216492149 2.773772519463157 56 64 42
14.125180702730082 0.13785223509114491 3.0860050375720074 56 62 42
13.290973938870328 3.0931116563328516 2.9733725794114783 55 61 41
13.262075173690581 -1.1809975914830282 2.986729395773419 58 63 44
10.988524635977106 -1.2778317002488406 2.5471177426950513 54 59 41
10.846120502938193 -1.6085682516656468 2.566827026814228 53 57 39
11.555604299494945 -1.3184169466241926 2.478005337272149 51 55 37
11.483378211993053 -1.7463690422353326 2.4860915792227263 50 54 36
11.759693201051856 -1.7753996145004272 2.604406383125681 55 60 41
11.759693201051856 -1.7753996145004272 2.604406383125681 55 60 41
11.44453226964284 -1.4584853867275018 2.4905186785785207 51 55 37
11.252351347298685 -1.4132193860236597 2.6857469402123284 56 64 42
13.292060027182156 2.9893947748931216 2.559543692068466 48 55 41
12.930800714917929 2.261608396549705 2.6034762775008153 44 53 31
12.802480212440653 2.7352497168276835 2.4802565224196824 33 40 28
11.747673724165745 2.1756941718753673 2.4573654100470224 37 45 24
11.672081353592201 2.367308938474075 2.4653443540593796 36 42 28
12.500578410145437 -2.396900614640943 2.664269688973947 54 59 39
14.10623878561897 3.1209468394811912 2.7622425986968504 50 58 40
12.38092806333176 -2.3888582363035917 2.525326827344305 50 55 37
12.502411720568062 -2.3834688135953295 2.3863840294249483 52 56 35
14.23216802806099 -2.7940045923375556 2.7406317215449763 46 54 36
11.39143919434613 -1.6825801547337425 1.846713369958084 73 73 73
10.296752246212892 -0.09099562026420466 1.8769489651477136 43 48 20
10.065697113581216 -0.23865473756423322 2.222262235462818 48 54 28
10.557012892612116 -0.31829930279414426 2.0753419792238526 48 53 27
10.922879725951677 -0.35602381024134 2.278801433607511 50 56 31
10.83420553044995 0.010005986281056773 1.6728138906018595 40 44 22
8.637496577668617 1.60723563380167 2.355495712932201 44 50 28
9.371340890086481 1.6021126242350172 2.280065793244704 45 51 29
10.772175753814265 0.30152984585211007 2.4222658086267135 49 55 33
9.500128891050078 0.9762872954656082 2.592453213772239 43 51 24
8.783624656717514 1.4197703252392573 2.512743879891716 44 50 27
11.376594463506384 -0.9195518456810942 1.756751292987691 64 68 56
10.74710943712972 -1.9184894214463348 2.065600283274013 42 47 32
11.64331873633665 -1.0264691847775205 2.2269586547849953 47 51 31
11.18382547389104 -1.8857332428323332 1.9464724274567629 52 56 47
11.269968914789354 -1.1243994681389098 2.2527246576747997 49 53 32
11.096373116971597 -1.9584694536043503 2.265492146530169 47 52 32
11.678308989669166 2.4849791051637165 1.493942714397831 70 72 74
10.991055862979945 1.9665197115217798 1.4891267857776518 43 47 28
11.30171002599467 2.7802290858355097 2.2504466469147943 46 53 44
12.188564672350836 -2.4337784039411914 1.6614448651041818 49 53 39
12.378292283891135 -2.548390199850619 1.6600517240310142 48 52 42
11.688141549993079 -2.573075734673124 1.9295105783793456 47 52 43
10.833655819769309 -2.0620857235202714 2.1692560839620256 47 51 31
12.639631283567246 2.1336448615706614 2.643418058676586 45 55 31
12.269661610474921 2.2360237410845425 2.7020456514223605 48 53 31
11.384175319203997 -0.1308859623199566 2.497509497688746 52 58 35
12.234699554407603 -0.37711369599960254 2.7081625679284476 55 62 41
12.234699554407603 -0.37711369599960254 2.7081625679284476 55 62 41
11.50581438879507 -0.27225662594062444 2.4835597422693354 53 59 36
12.272100597292752 -0.5928521492861732 2.5379600062779395 54 60 40
12.449937288942087 -0.3108166305555647 2.9050866254117156 56 62 41
11.193853024365005 -1.130320967770638 2.520506032250116 55 59 41
12.199758123237265 -0.7972723313500735 2.546614832889222 55 60 42
13.52329965057163 -2.871517709467718 2.8917331772517 56 62 42
11.791429933059138 -1.3736714879428522 2.798286232744831 57 65 43
12.570397795815426 -1.019756997307149 2.868148290953213 57 64 43
13.320446887952391 -2.759887260310313 2.960808259344072 56 62 42
14.21532278002818 0.06060161308391507 3.0160032391738505 55 61 40
13.135587120718284 -1.8153787571310396 3.0715327774914374 57 62 44
13.42455296632967 -2.4363431561732085 2.9224051655560057 56 62 42
12.158212735319008 -1.4132193860236597 2.7219626310368965 57 64 43
11.905280858814523 -1.9315154472267735 2.584215662363629 54 59 41
12.131819338897431 -2.0712880741452397 2.5549405758155403 51 57 39
12.55402124798402 -2.153291651706096 2.6561033583351557 55 59 43
12.194785492416575 -1.8157027367743404 2.715290097779076 56 63 42
13.654312787395863 2.9654053366215116 2.660334422731742 50 57 40
12.467726705341816 2.367308938474075 2.515564780129773 41 48 28
13.073540524142079 3.0076688702400975 2.454053367182299 37 45 28
13.246251425110573 3.126662779982781 2.5648197309652363 37 45 27
13.343715001471896 -2.8033773671846647 2.429754893442075 49 54 45
13.91321407512165 -2.7065173744939464 2.625833479119318 49 54 38
13.141037615477048 -2.5410639569969535 2.741527364971439 55 61 39
13.015134227012267 -2.6473259387177714 2.4595362946031143 46 51 40
12.434885146877551 -2.1926150600696 2.519226766105445 55 60 42
13.609723536761225 3.124263953427498 2.6666464705316333 48 56 38
12.487929804525484 -2.5826474816013527 2.513330744720675 48 53 38
13.740204105075474 -2.8464012461308705 2.648497854836985 39 46 31
14.13401180585085 -2.972401348856912 2.7573437132987575 48 56 37
10.53358202866031 0.013865231584257467 2.3108858064975206 50 56 30
11.213070972268168 -0.2621785392791232 1.6693555346985363 43 45 24
11.804171978535212 -0.7323463562971344 1.579552922196393 74 74 72
10.51692460600538 -0.5084782781527832 1.870338451025579 46 48 26
10.73169753108809 -0.37884981295004777 1.7680687322358632 46 48 26
9.886840965662222 0.013865231584257467 2.2361302374803653 49 55 28
10.942665009213888 -0.17379702420179916 1.5802423414696238 41 43 22
11.115390473313948 -2.008176627892952 2.387688235680471 48 54 32
11.431761534509835 -0.7937978812980279 2.133996974079462 49 51 33
11.995494898340684 -0.7937978812980279 2.2045444943583044 51 55 35
11.647381491500456 -2.252962838053 1.7523793267377328 47 51 39
11.90653311755025 3.1310437914196156 2.109013732046879 43 49 36
11.258138068848037 -0.521300784748317 2.374279177543615 52 57 34
10.737191107097308 2.289889440262176 2.0660987749531223 65 71 64
11.313719016844018 -1.5990021744182001 2.3691988501941883 48 52 32
10.434691063785406 2.225395590275401 1.773761029500945 69 73 69
12.446106099251356 -1.647633642855557 2.906367210812733 56 64 42
11.830232446984908 -1.2778317002488406 2.5944780339496054 55 60 42
11.711877808465811 -0.40334329376695777 2.4611211087639777 54 60 37
13.41247712822592 2.85764146269024 2.5460395585901283 41 48 35
10.838641139031367 0.18945665821907096 2.56789329163886 48 54 33
12.120377722480079 -0.18462151126521834 2.7290155285297653 54 60 40
11.972005391186235 2.374330483859428 2.758314923799805 49 55 33
13.945506052621203 -2.915415025108277 2.491778893800162 46 54 36
12.063415013153092 -2.475333100027065 2.4258798198379035 48 53 37
13.63850768222472 -2.999190645172588 2.662558298278711 47 55 37
12.449937288942087 -0.3108166305555647 2.9050866254117156 56 62 41
11.229141488049585 -0.464006594130447 2.2556799894326978 50 55 30
10.604032998962175 0.011029292891517467 1.9681314975426285 46 52 23
11.964726037223707 -0.8521767312678565 1.4116057736524525 74 74 76
12.041781120909631 -0.9701255090977695 1.6625529199816624 73 73 75
11.90343514049688 2.3655062964691163 2.319593762449783 47 53 44
12.31709120540099 3.0076688702400975 2.4025055971066176 35 44 33
11.563941998915165 -1.054456602301996 2.63354391956901 57 62 42
12.1739048621569 -2.120484733014221 2.415503545493248 50 55 37
11.767886301738017 -1.6279424155488795 2.8039276566709623 56 65 42
12.55682501249874 2.558120787998956 2.5058168740630697 43 49 34
9.6579664058925 1.7204687688019709 2.127522618353413 45 49 28
13.527452887511366 -0.59805512522285 2.890532895574483 57 63 43
12.906608011930652 -2.0896661055003514 2.7869332647748406 57 61 43
13.190488131618567 -2.511221011417991 3.026593264467735 57 62 44
10.1784427982232 -0.19116187645941415 1.7789449139561953 43 48 23
10.090658358966039 -0.4173792256607999 1.8834115160025096 46 48 24
12.309263663371516 -3.0451572662429056 2.2893733438938773 37 44 34
11.565450057118232 -0.795237397890416 2.3471081025352225 53 57 39
11.033476622824713 2.678284706212296 2.156958243849263 50 57 47
12.05353403687658 -1.4995505550157822 2.0079819086931954 73 73 73
12.750277353871605 -0.8056480998796286 2.8216794759473203 56 63 42
11.403105436516535 0.1620296717577708 2.4953019768120175 48 54 32
