11.093324018639503 1.4077558374545793 1.6534612853036625 37 43 16
10.911087424638364 1.5896311632857454 1.563096294751507 33 39 12
11.028637231474622 1.68085571130737 1.4723464489269777 32 38 11
10.192551338373057 1.7898045734248207 1.660785823760456 31 37 8
10.399089508454448 1.691859595533139 1.8550151835088922 30 36 7
10.331025215080874 1.5915314570713062 1.8569403616607154 30 37 8
10.483707396442144 1.3916360809403299 1.8526581226516226 32 39 10
11.475439238254035 0.5428275441162318 1.6507026885368032 37 43 17
10.537181934915445 0.46483480320280013 2.1669200629225576 39 46 15
10.485369297872273 0.5090938779297239 1.852612226746723 38 45 17
11.34256245305733 0.2632205606702398 1.7405300981751022 37 44 13
9.62739073361141 -0.010366469339872585 1.9896949627878389 38 46 17
9.279652241581323 -0.13908838212452745 2.1291134573722084 39 47 17
10.11613957942784 0.10297493774977146 2.0782514644279453 39 45 17
9.279652241581323 -0.13908838212452745 2.1291134573722084 39 47 17
9.68860128706053 -0.12344328094144755 1.9868837084662976 37 46 16
10.486734232660721 0.3194283304200214 2.058706930436912 39 46 14
9.68860128706053 -0.12344328094144755 1.9868837084662976 37 46 16
10.228826103584995 0.9384832520202501 1.859881256487863 36 42 15
10.26439164941326 1.2311486434994718 2.1850637677717 34 42 12
10.119300638343312 0.7937403913066196 1.8631018689259233 37 43 16
10.124793970291595 1.266837997484039 1.96792473752117 32 39 9
10.528889851526998 1.0770770479234426 1.851415713813839 36 42 13
10.785242205938864 0.7951659223346842 2.2669162891102834 39 45 17
9.742421291084659 0.7971790299862658 2.3601292576060917 39 46 15
10.259670617408476 0.6256477931274856 2.185388347157226 37 43 14
10.167204567106563 1.1864305412551417 2.3188656567756873 38 45 16
9.515255040961792 1.1864305412551417 2.24175469719588 37 43 16
10.48623231190221 1.0685474037064444 2.2909896879052045 38 45 16
10.270110342594835 0.8728928084041693 2.0699346425212948 38 44 17
10.453475687758724 0.5220538800654816 2.2937424353828177 38 45 15
10.28262758495977 0.8891339332569036 2.308498529907304 38 45 15
9.695593029958465 -0.013417570038980578 2.3650092875075863 37 46 15
9.881287318895799 0.2738773098121114 2.346064022797852 40 47 15
9.247832641329653 0.6540336954586043 2.598245017343936 41 48 14
9.701104470720416 0.5453313645023504 2.5252326534101037 39 46 14
10.046346867883248 0.6839839146696388 2.4782633825365648 38 45 15
10.232323653091761 0.4652442406704027 2.4553391226712202 39 46 14
9.701104470720416 0.5453313645023504 2.5252326534101037 39 46 14
9.344109752839424 -0.03261357591291415 2.8377117225930943 41 50 19
9.387760356501689 0.31443031078377437 2.823218844831083 40 49 15
9.260186100195213 0.9501252962988816 2.59604032464583 40 47 17
9.31884103308175 -0.22377605294312172 2.585757864968762 38 47 16
9.344109752839424 -0.03261357591291415 2.8377117225930943 41 50 19
10.232323653091761 0.4652442406704027 2.4553391226712202 39 46 14
9.449538111137272 0.3788915723881707 2.563875139124332 39 46 14
9.31884103308175 -0.22377605294312172 2.585757864968762 38 47 16
9.536650457529657 0.5992687989139723 2.7788239316593213 40 49 15
9.536650457529657 0.5992687989139723 2.7788239316593213 40 49 15
9.299253361202709 0.18733351029064962 2.589158193517263 38 47 15
10.265785965343346 1.1290317332309556 2.4513690406053423 40 47 16
9.767379884533796 -0.33800049008441074 1.8739622334132506 41 47 23
10.099967611723216 -0.5786032869229166 1.9689559029055075 42 48 26
9.44956550782571 -0.26211521713967484 2.117921232488625 40 46 18
11.088225173345272 -0.6057494497058366 1.8369062957440774 43 48 26
9.634677119439647 -0.48335182221103606 1.9893582586000758 40 47 24
9.160034280404036 -0.8153983810579861 2.2729291390254467 44 48 27
10.17602829637337 -0.42696382507063163 2.318061282302809 40 47 21
10.34815282056445 -0.6430572155014228 2.17936634762573 42 48 26
9.738871585308377 -0.8103525606192818 2.0999231253367183 44 48 27
9.300513490683821 -1.013670806810357 2.2602196408597344 45 48 26
9.720866597581027 -0.7208765101416135 2.2250739234603696 44 48 27
9.929887659489035 -0.7308693281520345 1.9761714240604422 46 48 27
9.906809529854007 -0.6147699665642223 2.3435425811847947 41 49 24
11.87785263172756 -1.2411588738292643 1.7328115496964882 47 50 45
9.871116599825045 -0.9762750207335352 2.0921069846666174 44 46 24
9.984082018513062 -1.0794619523067173 2.2050068169884725 45 48 22
10.706334072490494 -1.2725761380908043 2.0478525329630255 44 48 24
10.14796280334507 -0.9303024666924676 2.4655525563369984 46 51 28
9.488052527355244 -0.41128480474758716 2.5576778570201126 42 48 20
9.757329723026498 -0.5726625876235594 2.5171447240696763 42 50 23
10.200086142828663 -0.9715311540779045 2.6343943496533004 45 54 27
9.659885929576436 1.916184157561347 1.7704648859383403 28 35 6
9.777780450594305 1.6005307071959236 2.356491072385091 42 48 20
9.018187675429951 1.9558678668512728 1.9000584872374602 38 45 16
9.56977892998337 1.8427516229685983 2.1102868248222704 40 47 19
9.763883149714264 1.481849357147815 1.9834792026170698 34 41 11
10.246333275691308 1.7052935380616152 2.0712002032818613 33 40 10
10.508218116218375 1.596772876546841 2.289155402997659 42 49 20
9.908566856663267 1.470673656306473 2.2106244813188676 39 45 18
9.938965203661953 1.3166703936463118 2.3403929453140724 39 46 18
9.35921906708041 1.8797986574931111 2.255059760746203 44 51 22
9.938965203661953 1.3166703936463118 2.3403929453140724 39 46 18
10.021324850559694 1.8797986574931111 2.332460613796471 43 49 20
9.777780450594305 1.6005307071959236 2.356491072385091 42 48 20
10.287756430371774 2.005206907834631 2.3080455088465985 44 51 19
9.629869457945004 1.8134793900905668 1.8784321453152197 33 40 10
9.482142327927201 2.3026144886767317 1.7742597020386977 33 39 10
9.482142327927201 2.3026144886767317 1.7742597020386977 33 39 10
9.16006109939467 2.059517249132471 1.781519657103167 34 41 14
9.1934030193466 2.543553348881732 1.8935532623765847 42 49 19
10.480564686746655 2.2929965749096706 2.291464267971748 45 52 23
10.5363451785077 2.543553348881732 2.166973944720705 47 54 24
9.495471707426947 2.216504856775686 1.9958893600734018 42 48 18
8.98626743071533 2.117597450503381 2.0216947919730672 42 50 20
9.5452596742229 2.6970291696552393 1.8812497242833457 40 48 19
9.558501036659608 2.644541889263765 2.1109934130360646 45 53 23
10.020825453325818 2.117597450503381 2.2023123147515906 45 52 21
9.764031775559063 2.4547478960280955 1.874069497971393 44 49 19
10.156521086419772 3.0312836459715076 2.1925744874360467 45 53 23
9.997913044232655 2.8009164688101227 2.0848386068616387 44 51 21
10.731692939873808 -3.1304821012578685 2.2710934748828984 46 55 25
10.52569406048272 2.8009164688101227 2.167660730263985 44 53 23
10.116188172473542 -3.1304821012578685 2.1954344704227 46 54 24
9.627441793542765 -3.009387678578878 2.1067045654828642 46 53 23
9.899191756668973 1.1404077524773997 2.692123990162147 42 49 18
9.880248140450322 1.6055591424145534 2.5000824306072524 42 49 19
10.385193553685154 2.06785670761954 2.4375592906970045 44 51 20
10.670827424541713 2.1492812123537925 2.5599251960899014 44 51 21
9.485762207564296 1.2203205189102113 2.5580433578849577 41 48 17
10.41420075253694 1.9930601086512572 2.5985439349754986 44 51 21
10.180059729378796 1.6126332722090653 2.63794586947784 42 49 19
9.880248140450322 1.6055591424145534 2.5000824306072524 42 49 19
16.235826503085033 -3.113158093006162 2.9427723746002554 49 59 29
16.272197294781133 -2.8134893819865407 2.9319682985556295 51 61 32
11.861822453637572 2.4975125937223748 2.560672404851437 45 54 24
11.165760447364288 2.2929965749096706 2.358807047581462 44 50 19
12.111681259313169 2.644541889263765 2.398157023764647 45 55 25
11.544775542079078 2.5794786103598026 2.4532439874189893 45 54 24
11.039513653543652 2.4975125937223748 2.510940164621084 44 52 22
11.012608162218525 2.2791786146839654 2.514294134932887 44 51 21
11.192297777495888 2.4723353211353474 2.356426437385716 46 54 25
11.621424527621649 2.882628129826397 2.4452643955372944 48 57 26
11.85236253477927 2.84317511870783 2.5618893214694283 47 57 26
11.360788574990238 2.790122638499375 2.631758430602072 45 56 24
11.697999093000798 -3.1269016755338366 2.5823648913353914 48 57 26
11.57087613293067 2.6320182112668307 2.600172953049484 46 56 24
11.826883168832012 2.757904004078821 2.424735648923247 47 56 25
11.697999093000798 -3.1269016755338366 2.5823648913353914 48 57 26
12.054300646999717 2.536476425856298 2.7035123805473624 46 54 24
11.499558713846813 3.016125167849792 2.4580382135853824 48 57 27
16.462473776698594 -3.1199169403178137 2.8832079414679073 47 58 28
9.250106120248953 -1.441092321791674 2.415335982624392 49 54 29
9.389008607177681 -1.2842933449616456 2.3988321984192753 48 52 28
8.773319785785336 -1.2319184690940652 2.478833254784918 48 55 30
10.220569112605945 -1.6896927851933878 1.4645343745016102 47 49 24
10.12105287083731 -1.9097799781009688 1.261159396687416 47 49 25
9.683160231745582 -1.9097799781009688 1.6655336550266737 46 49 25
11.283453592392222 -1.499284054800096 1.7414279633999197 51 55 49
10.65621752848064 -1.3948063959089545 1.8479735072309493 43 47 28
10.054709252138105 -1.4729154717559716 2.1998496217586503 47 49 27
10.572980367187375 -1.6896927851933878 1.8502139908206916 45 48 25
10.489831737543811 -1.3759112778067568 2.0585502262940585 45 48 23
10.365691028204148 -1.4836242600463716 2.06491441934812 43 48 25
10.53403781199349 -1.4922252616293048 1.8512748617431076 45 49 26
10.33724001377556 -1.5933957602351252 2.0663976386840317 47 49 25
10.14142603917121 -1.8087953564089874 1.9672369949094068 47 49 25
9.775416002599053 -1.9953450996233333 2.2208009826756863 50 52 28
10.411086794312753 -1.9953450996233333 2.2973404263074197 50 52 28
9.313259193399945 -1.7391852760835043 2.2590919735316444 50 52 29
9.407648748375811 -1.3229373726364406 2.2508675787030885 48 50 28
10.33724001377556 -1.5933957602351252 2.0663976386840317 47 49 25
10.025375741349656 -1.5961877237419313 2.201980371572229 46 48 26
10.489831737543811 -1.3759112778067568 2.0585502262940585 45 48 23
10.095500946731306 -1.71869674472687 2.196912563294533 48 50 26
9.543435448316622 -1.9479977982977854 1.9936153565362984 46 51 24
8.904014624489461 -2.36549097525515 1.7876746833649408 46 51 26
9.792563495904869 -2.6794382389570957 2.3549816963261696 48 57 27
10.13012173110076 -2.175066432007225 2.3222681064952413 50 55 30
10.622523021424977 -2.526472000789325 2.1614793364707046 49 54 29
9.574218598565743 -2.4754876458345603 2.3779982110538205 49 58 30
9.400340763368257 -2.277952532657522 2.1211141810975382 48 53 28
10.181142017411382 -2.625197335974354 2.1908426238501786 50 56 29
9.791321568106017 -2.8920542817165207 2.0967936336093738 46 51 22
10.403588956416257 -2.6790740837936657 2.0629531297267607 45 50 23
9.822082784048167 -2.7363369861686415 2.2171939942456445 47 53 26
9.524282506274396 -2.816557162521969 2.383490793904062 49 58 26
10.052478331837486 -2.781315001062003 2.0817761544258113 45 50 23
9.412494064574453 -2.45451785871782 2.120322174439882 48 53 28
9.971309579513267 -2.45451785871782 2.2059493666222414 48 54 27
9.164727498505648 -2.0501289330417314 1.6709102714330755 46 50 23
9.61581088599013 -2.289683465274371 1.7713925336185183 47 49 25
9.650696251346393 -2.289683465274371 1.3531372645734099 45 47 23
9.681904270461914 -2.1424855471748683 1.4585980907471414 47 49 24
9.628955229649957 -2.2040308396608084 1.9896226201450804 48 50 26
9.414088989324314 -1.611136518620119 2.5696771452442153 49 57 32
10.54051068896453 -1.0448179647543754 2.795631530431908 46 55 26
9.942736712271373 -2.13270917065655 2.4917145633243973 50 59 31
10.33769908267655 -1.8032949762674884 2.6109319621572418 48 56 29
10.06073529475515 -1.7661793484533093 2.4764353955230805 49 55 30
10.83749678208781 -2.175066432007225 2.389741212670158 51 56 29
10.308685364281882 -2.2612124423088296 2.4463444379736226 50 59 31
10.319768989079451 -2.4754876458345603 2.4450579427334334 50 59 29
10.319768989079451 -2.4754876458345603 2.4450579427334334 50 59 29
10.042859275568333 2.7400445186729234 1.662130860812098 36 43 15
9.59456501190757 2.937132556100845 1.7718428029975621 43 51 21
9.251399498285942 -3.1316889659886122 1.6699692492829772 43 48 18
10.063133005352793 -3.023608342374699 1.970496039644601 44 53 23
9.698968529929807 3.0431847406450925 1.876169381639495 45 52 22
10.418122462104401 2.83553284893156 1.956144756886072 43 52 22
10.184282900499593 2.937132556100845 1.9654761001639716 44 53 23
10.063133005352793 -3.023608342374699 1.970496039644601 44 53 23
10.700333647321713 1.2959134226130062 1.846800742854599 34 41 11
10.16410804694655 1.691859595533139 1.7604359509680445 30 37 8
9.074959864910674 -0.1592363603265256 2.280886389490352 37 46 16
11.221156079436145 0.6658888609347013 1.6525174470980954 37 43 16
10.254459392306469 0.21373262844670152 2.0707669231119983 38 45 15
10.258973067557346 0.7157904711595264 2.0705265971190423 39 44 17
10.535823535719109 0.648649580574881 1.9516174236458377 39 44 17
9.074959864910674 -0.1592363603265256 2.280886389490352 37 46 16
9.291165331818728 0.9127388815370056 2.410374394277555 39 46 15
10.271503882235022 0.7028381514079843 2.3094832632512072 38 45 15
10.112789037441587 1.1681408586270712 1.8632956397098646 34 41 11
10.390249375718101 0.41823930745431975 1.9572331422277114 38 45 14
10.043497114174727 1.0258140371871063 1.9713220886287006 34 40 12
10.455875112551666 0.7252341341944617 1.658513595778097 36 42 16
10.055584772030436 1.1234539524458453 2.08160296428254 32 40 12
9.82747326709774 0.11607444850674174 2.2167801872330215 38 45 15
9.785977691937402 0.8054397091500773 2.7167365167806157 41 48 15
9.299253361202709 0.18733351029064962 2.589158193517263 38 47 15
9.255185337844079 -0.01901347583513814 2.596931123448904 37 46 14
9.449538111137272 0.3788915723881707 2.563875139124332 39 46 14
10.046346867883248 0.6839839146696388 2.4782633825365648 38 45 15
9.247832641329653 0.6540336954586043 2.598245017343936 41 48 14
9.701104470720416 0.5453313645023504 2.5252326534101037 39 46 14
9.609373860977524 0.8002372665058274 2.5388385618935505 40 47 16
9.724644160494744 1.0532696066342238 2.521823955343224 40 47 15
9.894540122499473 -0.5419834661031551 2.21168000044964 40 47 24
10.39365009595431 -0.8856886577335333 2.0634659014423185 44 47 27
9.388779411788914 -0.9303024666924676 2.3988587862336663 46 49 27
9.810825479179224 -0.6430572155014228 2.0956398814731116 43 48 27
9.719908993848321 -0.3775573588400187 2.101064285910526 40 47 22
9.835557850626513 -0.8153983810579861 2.350630398348931 44 49 26
9.300513490683821 -1.013670806810357 2.2602196408597344 45 48 26
9.918125292946616 -0.2985732684079154 2.342430776408121 40 46 19
11.179264806727286 -1.300640228427354 1.9286770713054082 26 29 18
9.912925480750197 -0.503690782444821 2.6892605191223837 42 50 20
10.118686964515726 -0.7064087173939891 2.469167650350573 43 51 26
9.338618051204449 -0.9715311540779045 2.582357801410339 47 54 30
10.294298325621098 2.913029517268436 2.1830162582850527 44 54 24
9.87872847757261 2.380678103797236 2.0916645215935636 44 51 21
9.766230329286254 2.757904004078821 2.221516197862855 46 54 24
10.6418472541597 2.117597450503381 2.2782304588268283 45 52 20
9.938965203661953 1.3166703936463118 2.3403929453140724 39 46 18
9.807854501868063 1.4563001011177255 2.353427620224005 41 48 19
9.763883149714264 1.481849357147815 1.9834792026170698 34 41 11
10.731692939873808 -3.1304821012578685 2.2710934748828984 46 55 25
9.386619470964355 -2.9912985133702983 2.252680854799926 45 54 24
10.046919692499333 -2.9912985133702983 2.3300340315301633 46 55 25
10.575142012674373 1.722055469119837 2.2836365832601033 41 48 18
10.119912992886716 1.8427516229685983 2.195169142620519 41 47 19
9.848433854119353 1.9558678668512728 2.093430213830839 40 46 17
9.896663703652338 2.6970291696552393 1.9776125424598898 43 51 21
9.807854501868063 1.4563001011177255 2.353427620224005 41 48 19
10.769721017451344 3.0312836459715076 2.268121263749045 46 54 24
9.938965203661953 1.3166703936463118 2.3403929453140724 39 46 18
9.910011236454855 1.4371365442506856 2.496072084619216 41 48 18
10.208948794244654 1.4103346349434251 2.632834279857293 41 48 18
9.951396079298751 1.7720495656817827 2.490570487016039 43 50 20
10.249126631275976 1.8116068690279161 2.6258492489542835 43 50 20
10.121327212243122 1.9280348372253078 2.4688400903378347 44 51 20
16.235826503085033 -3.113158093006162 2.9427723746002554 49 59 29
11.431907939831069 2.3855169346147225 2.4653359163151602 44 51 21
11.544775542079078 2.5794786103598026 2.4532439874189893 45 54 24
10.736071244068484 2.189351428669013 2.399899843381685 44 51 21
10.67035842556045 2.3855169346147225 2.406646471502607 43 52 23
11.826883168832012 2.757904004078821 2.424735648923247 47 56 25
11.463951900423094 -3.1289402993255555 2.461860281032168 46 56 26
11.236096279742036 2.9687444277640056 2.6519725464739827 46 56 25
12.40521979918332 2.882628129826397 2.4969919091112343 48 57 26
11.732895645058955 2.996170914990188 2.5776306284310464 47 57 26
9.389008607177681 -1.2842933449616456 2.3988321984192753 48 52 28
10.273507824490883 -1.591156887833478 1.75839236816029 44 47 22
10.20411551361715 -1.6896927851933878 1.6606835642613822 46 48 24
11.39760257078033 -1.4103901631446354 1.73970253294914 40 44 39
10.972098351233543 -1.3948063959089545 1.9357477719205618 39 43 27
10.147893753311713 -1.8723315561570175 2.320633027302273 50 52 28
9.798803594987303 -1.8087953564089874 1.8729592472963772 47 49 25
10.365691028204148 -1.4836242600463716 2.06491441934812 43 48 25
9.959838185547326 -2.277952532657522 2.2067985259457887 49 54 29
9.562270845615895 -2.2612124423088296 2.3793042801358912 51 57 30
9.634504790795205 -2.625197335974354 2.1062692510158154 48 53 26
9.971309579513267 -2.45451785871782 2.2059493666222414 48 54 27
9.381686102203725 -2.36729656694502 2.2531078056919513 50 56 29
9.652670869299135 -2.526472000789325 1.988529159265713 49 51 27
10.454916567411676 -2.7363369861686415 2.293620845601099 50 57 28
9.536530651280355 -2.36549097525515 1.9939411665027869 48 53 28
10.33769908267655 -1.8032949762674884 2.6109319621572418 48 56 29
9.445321110936714 -1.415988608553821 2.5645603541307285 48 57 31
9.990366062408395 -1.6045192993619946 2.4854672355481338 49 55 30
10.228850144632217 -1.918191901234764 2.4557538258729474 50 56 29
10.28674052968635 3.052774028145795 1.6599596459809622 41 48 18
10.359493297667907 1.4907855020414031 1.856131940418251 31 38 9
10.976011041937532 1.4980928907599544 1.6543468693653776 36 42 15
9.830727146769442 0.8728928084041693 1.9805041487472963 36 42 15
11.128165417691724 0.17502392985029774 1.7438329269672392 37 44 13
9.85540957466194 1.0685474037064444 2.2146449249121716 37 43 16
11.516918434401541 0.3474246008531775 1.6504142879794559 37 43 17
10.816157580165187 0.7252341341944617 1.8437690593660427 38 44 17
10.12212905057858 0.4045057709751356 2.323006146105424 39 46 15
9.701104470720416 0.5453313645023504 2.5252326534101037 39 46 14
9.785977691937402 0.8054397091500773 2.7167365167806157 41 48 15
9.31884103308175 -0.22377605294312172 2.585757864968762 38 47 16
9.75108963269759 -0.2800106137258415 2.724715415371674 40 49 18
11.203724564079097 -0.4793606540554295 1.7426542820129978 41 47 25
9.851463721784446 -0.23344620738615943 1.9795901957720234 40 46 20
10.572843112998354 -0.8067594824738121 1.950215984567027 45 48 30
9.68497839419743 -0.8230007182143897 2.5275869271052134 45 53 28
10.170960335627637 -0.6836061263977216 2.6395718043597958 44 53 25
9.895576463807634 1.372025679177246 1.977659881124711 32 39 9
9.84966858073076 1.7435427200014975 2.3492146336373096 43 50 20
10.009125811269369 2.543553348881732 2.084206136970991 45 52 22
10.177247416975202 1.593858154609909 2.0749159939177573 34 41 11
9.733601252461108 2.3026144886767317 1.8750479610870607 41 47 17
9.128636959135898 2.216504856775686 1.8959270839150597 39 45 15
9.978294242600073 1.8134793900905668 1.974090495206946 34 41 11
10.412552355135977 2.380678103797236 2.1750632645814587 44 52 23
9.949671007696153 2.216504856775686 2.087578630338379 44 51 21
10.174458496789777 -3.009387678578878 2.1913117094649337 44 53 23
9.84966858073076 1.7435427200014975 2.3492146336373096 43 50 20
9.767547186756431 1.3702678384225393 2.720926737009809 42 49 19
9.899191756668973 1.1404077524773997 2.692123990162147 42 49 18
10.039787950771219 1.275948749076146 2.4790998269277047 40 47 17
10.182641972239871 -1.352542974280496 2.1907374550835055 47 49 26
9.90083637313327 -1.5933957602351252 1.9774309689737848 44 48 26
9.42336874824703 -2.289683465274371 1.561880618634871 47 49 25
9.554630691695586 -2.859133093019662 2.238487530852799 45 54 24
10.152666762153316 -2.5587195891404977 2.32019529435126 50 58 29
9.652670869299135 -2.526472000789325 1.988529159265713 49 51 27
10.490012196921082 -2.0552242040334763 2.425872886472244 50 56 29
10.063133005352793 -3.023608342374699 1.970496039644601 44 53 23
10.044996802359496 3.0431847406450925 1.9712588751564333 46 53 24
10.281931592562152 0.9641298108563766 2.183861123699942 38 44 16
9.881287318895799 0.2738773098121114 2.346064022797852 40 47 15
10.486734232660721 0.3194283304200214 2.058706930436912 39 46 14
10.441163266258245 0.5620294574592871 2.0610246558276826 38 44 15
9.648464870776408 -1.1954012396179519 2.2308420754112284 47 49 25
9.031066351956557 -1.068803203286269 2.4430798050685882 49 52 31
9.537427981316664 -0.49006025471772136 2.382036230146781 41 49 22
10.706334072490494 -1.2725761380908043 2.0478525329630255 44 48 24
10.899749916017758 2.913029517268436 2.25816891217176 45 54 24
11.11855231897233 2.8009164688101227 2.242118875616449 46 55 25
10.038362244049337 1.3476746004816844 2.201035103330429 37 44 15
10.021324850559694 1.8797986574931111 2.332460613796471 43 49 20
12.053885477049928 2.7032554148472685 2.5368317654450894 47 56 25
12.438534668459479 2.6320182112668307 2.6416167994250244 46 55 24
12.709634225124821 2.4975125937223748 2.603865161246705 46 53 23
10.41420075253694 1.9930601086512572 2.5985439349754986 44 51 21
16.272197294781133 -2.8134893819865407 2.9319682985556295 51 61 32
10.204064771919818 -2.859133093019662 2.31551864043851 47 56 24
10.40526365416144 -1.7026273733374704 2.062866838004338 46 48 24
10.147400585079916 -2.1060972862688905 2.1932187146833697 48 53 26
9.907461148451796 -1.599766549936145 2.343478456235383 49 51 29
10.33724001377556 -1.5933957602351252 2.0663976386840317 47 49 25
9.640104867625425 -1.9097799781009688 1.5620810734539083 46 49 25
9.965705666231658 -2.6057229836237332 2.488688002076731 49 58 28
10.501381001286552 -1.9795910534127796 2.5849425471742102 49 58 30
10.319768989079451 -2.4754876458345603 2.4450579427334334 50 59 29
10.004214278063852 -3.1316889659886122 1.9729852610892817 46 53 25
9.84242527051726 2.83553284893156 1.7667132046267544 40 49 19
10.095500946731306 -1.71869674472687 2.196912563294533 48 50 26
10.263046330191795 -1.8369111601408736 2.1851562228786414 48 50 26
9.57372292013682 -2.0501289330417314 1.8802960308644945 45 50 23
11.34256245305733 0.2632205606702398 1.7405300981751022 37 44 13
9.46493383765459 2.117597450503381 2.116932435477395 45 52 22
9.181194084123806 2.8009164688101227 1.89399804173076 43 51 21
9.255185337844079 -0.01901347583513814 2.596931123448904 37 46 14
10.103233634470755 -2.1424855471748683 1.2605950848987169 46 48 24
10.128378565732994 -0.4354188664900698 1.8628321645671446 41 47 24
9.215725861953638 -0.011696325618900058 2.133452042047546 38 46 16
9.643959879417377 2.005206907834631 2.231204703259 45 52 21
9.697492716721834 2.83553284893156 1.6653932177869077 39 48 18
9.737668182916023 0.13297001464017755 2.360621351741235 38 46 15
10.791194192587932 2.5794786103598026 2.394341310751747 45 53 23
10.077139923085667 -2.2040308396608084 2.080404623549234 47 52 27
9.26902560051635 -1.4592195682194407 2.2630233493420553 49 51 29
9.738871585308377 -0.8103525606192818 2.0999231253367183 44 48 27
9.656724760837541 -3.1316889659886122 1.8775486839552415 45 52 24
10.976011041937532 1.4980928907599544 1.6543468693653776 36 42 15
10.12212905057858 0.4045057709751356 2.323006146105424 39 46 15
9.720866597581027 -0.7208765101416135 2.2250739234603696 44 48 27
9.912925480750197 -0.503690782444821 2.6892605191223837 42 50 20
9.751803395859557 2.6024704120019093 1.768557823225769 37 45 16
11.463951900423094 -3.1289402993255555 2.461860281032168 46 56 26
9.85613568601742 0.9999407560844296 2.348567786034571 39 46 14
9.995455485921092 -1.9479977982977854 2.08497744826319 49 51 27
