12.550990497405872 0.32294301845952034 1.514482491690312 37 42 13
19.340521487271356 -0.05715008924577548 1.9574744402276614 52 54 30
11.896095421357408 0.3825571545679739 2.0319533760742536 30 36 10
14.52014822326118 0.8702277947357866 2.461933132040196 51 57 32
14.52014822326118 0.8702277947357866 2.461933132040196 51 57 32
14.131309350568001 0.6260172640422944 2.496740164998263 7 16 2
13.786043400052296 1.490499440824932 2.2162894399890165 38 42 22
13.959051589405785 1.2600111778297214 2.4000278071326573 40 46 23
13.76426739612061 1.384224137998899 2.312026789607059 42 46 27
12.772111845330288 1.6637651969907614 1.9136417750107109 23 27 9
12.772111845330288 1.6637651969907614 1.9136417750107109 23 27 9
12.702261641581538 1.6721792112053193 2.0891712107064144 12 16 2
11.801979458924853 2.2905953467203437 2.236987761513761 30 39 13
12.5385122612013 1.7798568141508329 2.19160623850828 3 8 0
13.142069821483648 1.6637651969907614 1.985366391600564 6 11 0
10.006542828308877 2.6860094478138765 2.0142672009949463 39 47 18
13.658524194058067 1.5837949880258684 2.4243754134602105 20 26 8
13.703600638311402 1.694557557374802 2.4206119685347858 23 27 8
13.291662305389867 1.904967598978986 2.345079350783977 13 17 4
13.021830156808265 1.6822608390359957 2.2612644058730265 10 14 2
13.657786268412003 2.047224948160091 2.424437365171081 30 38 15
12.629621093700779 2.367757195789866 2.3977258923206257 41 47 22
11.933209025325993 -1.0400113261966426 1.3420081859605855 37 39 15
13.939422135861935 -2.144081793007777 1.2263943203556331 44 49 22
14.103454369691645 -2.251481331942595 1.154242280671242 46 51 26
14.258325641695519 -1.9731498887917185 1.1590429634257697 26 29 8
13.880432215395508 -2.005377287714483 1.0665399697836615 51 53 29
13.425854039476016 -2.005377287714483 1.1317988174295057 56 58 34
13.63431874663647 -2.144081793007777 1.29548664997673 27 29 3
11.559682068238274 -0.595828207567441 1.9513419256726354 39 41 15
11.873259925907519 -0.18379651892977075 1.940798592844303 46 49 20
11.565440355025308 -0.47022228814458533 1.8595708084563993 44 46 20
12.925236941844837 -0.38658189700336804 2.1703690551016837 42 44 18
12.572033679710554 -0.002126805219739702 2.0950898109924943 41 44 13
12.572033679710554 -0.002126805219739702 2.0950898109924943 41 44 13
11.740333088213852 0.08951715463251705 1.945193861749528 43 46 15
10.730299041657005 -0.7954536132786789 1.9824615825340421 38 40 16
12.613576981137982 -0.09373515428440388 2.0931862802177763 45 48 19
12.44122138340628 0.19741424141823313 2.197209861312807 32 37 9
12.47428366226309 -0.27094736676794917 2.0090505978108473 47 49 23
11.865459435137417 0.1796818617537108 1.9410535929162918 39 42 10
11.397853671840677 -0.668983221443043 1.6845346144017903 41 44 19
11.412636102981818 0.08951715463251705 1.8635507696809959 39 44 14
12.938989184993089 0.09851873290073715 2.266565233973536 33 38 7
13.25151367922314 -0.29684631157129665 2.247028745969464 41 43 17
11.293825682485089 -1.4908352214862373 1.7753013945875582 43 45 21
11.415877073079692 -1.3149597826720552 1.5088762035454155 32 34 10
11.352676844758692 -0.9191218926797564 1.596659111097368 32 36 11
12.036319842443055 -1.0747362189895553 2.1210252072539335 52 54 29
11.251826110971658 -0.7941893597699219 1.5968909730455798 34 37 13
12.18138183270782 -1.2906943056534033 2.1137365222233724 50 52 27
12.372493114206032 -1.4015800076860032 2.0129097552913437 46 48 24
11.153310698898146 -1.1174386923783362 1.5971215159140328 39 41 17
13.039446090604935 -1.4828967580233434 2.260148849730914 55 57 31
10.96701868238521 -2.8213978602987666 2.0745104670775145 48 53 26
10.914884255719894 -2.5874163826729686 2.077144852393273 53 55 30
11.078076400574192 -3.139053722391901 2.175005186898108 43 50 18
10.96701868238521 -2.8213978602987666 2.0745104670775145 48 53 26
10.684072070466646 3.04533252330445 1.884170276014442 40 47 17
11.078076400574192 -3.139053722391901 2.175005186898108 43 50 18
11.125199780330972 -3.0298324717090077 2.1720840595153255 45 51 19
11.906643100983773 -2.503186740084607 2.127719839321516 57 57 30
10.269219712328384 2.928059562324463 2.002151016307453 41 48 16
10.829971202772326 -2.9442153444682058 1.8798077883383835 44 49 20
10.587271844933252 3.0348499659998254 2.0943889052337976 41 48 17
10.495116759181562 -2.7260017677764656 1.8900100994856772 50 55 28
11.314471845193571 -1.6717563314267183 1.7749229465235812 53 55 30
12.093098075067918 -1.5805017713122433 1.6779697565192095 40 40 14
12.093098075067918 -1.5805017713122433 1.6779697565192095 40 40 14
12.279199800681354 -1.6717563314267183 2.0165093005039636 49 51 26
12.693798432837939 -1.5813821687049303 2.0895515530110007 47 49 24
11.340726198790303 -1.872268125412092 1.9590776674310666 53 55 29
11.697769814518583 -1.760509706397351 1.8562118158184864 52 54 28
11.558738310853958 -1.6717563314267183 1.8597430664446835 48 50 24
12.023019580268498 -1.7789189400675018 2.121703934296203 52 55 27
10.728671877330871 -2.2963938414517475 1.5981637172147598 58 61 34
13.010016973257624 -1.5824382171826987 2.262014764097074 53 55 29
16.490622167804446 -2.6162890066972175 1.0145973387907967 30 34 15
16.32018146903375 -2.6499999264559952 1.1473244912793858 23 29 9
16.240490312855144 -2.5164373643837266 1.0049937678161984 40 43 18
16.40066385243704 -2.592633174004645 1.2154251118425516 14 19 0
18.986010986947207 -0.05715008924577548 1.9086735301520972 51 53 29
12.162433554801023 0.4209205660023297 2.21389862034904 28 33 3
11.811952606153083 0.3503353356445593 1.7662121133910573 34 40 13
14.067018086317805 0.7932854939740589 2.502841632593131 53 58 31
14.361587154610579 1.117746720445083 2.4757135550996914 49 55 28
14.955107820516004 0.960117591270137 2.535766843368694 45 51 26
13.142069821483648 1.6637651969907614 1.985366391600564 6 11 0
13.179575930949357 1.5814268097255872 2.1572372636999506 14 18 2
13.095060591615916 1.5805392828175648 1.9869467441067836 40 44 25
13.635315601086287 1.5824922315914847 2.3207180964833425 7 11 0
13.021830156808265 1.6822608390359957 2.2612644058730265 10 14 2
13.703600638311402 1.694557557374802 2.4206119685347858 23 27 8
14.17352802452831 1.943274750094949 2.492790090287169 37 43 19
12.697544969815034 2.2035763448810046 2.3919308707608224 33 42 16
13.837880762023266 -2.0773902483667546 1.1457348446611686 49 53 27
13.837880762023266 -2.0773902483667546 1.1457348446611686 49 53 27
13.989551594155586 -2.041413974338506 1.3026524714278078 10 14 1
14.474821585297672 -1.9451603713490198 1.3118523612855324 10 11 1
11.699645910775526 -0.002126805219739702 1.9465607022368074 43 48 19
11.91165117003434 -0.38658189700336804 2.0313045775974556 43 45 20
11.753964266937732 0.2669941355761438 1.8548092616107301 38 43 11
10.6369382633985 -0.7277582376877364 1.6927100803361719 38 40 16
12.083898157609525 -0.27094736676794917 1.9340463731043074 48 50 24
11.646088940700881 -0.5473217804019438 1.6821001214429556 44 46 21
12.14177002027851 0.08951715463251705 2.021924192608737 37 42 13
13.566535768124838 -0.0023419961410974938 2.325450827167733 39 41 15
11.69085199017302 -1.2320859435649898 1.5959108322231657 24 26 4
11.242384153291951 -1.2011695502039763 1.8681184856934188 40 42 19
12.538205966246057 -1.3850661251738823 2.191623708536972 52 54 29
12.234931174607093 -1.1643846728385865 2.2094655640287706 55 57 32
11.257439897622179 -1.4015800076860032 1.6859595349980578 39 40 16
10.137275323933068 2.7900683339677403 2.1202126444139053 40 47 17
11.261277173020552 -2.9232148567691882 2.1638176674217275 47 51 22
10.688404129595792 -3.0408008649055156 1.8840389391739585 43 48 18
10.639346287354451 -3.1393046859912683 1.8855328287747701 41 48 17
10.41932040988281 3.04533252330445 1.7927415160047242 40 47 17
11.227331327619533 -2.428299024767624 1.8685293175458537 57 58 32
11.075700501744253 -1.9605086634563178 1.7793877689411033 55 57 31
10.807366219170628 -1.9988248476222048 1.9793502134274181 55 59 31
10.964471978589357 -2.222174224554189 1.9731554343171491 58 60 34
16.44913587699141 -2.5567190191484817 1.0832041267376264 17 22 0
12.534533125294196 0.32294301845952034 1.5942200911123214 35 42 10
13.208627272544279 1.490499440824932 2.1557766469391155 47 53 32
13.787258921567815 1.3639996906967884 2.413734223935847 19 25 5
13.959051589405785 1.2600111778297214 2.4000278071326573 40 46 23
13.663397975853883 1.4824910089698315 2.318805389734034 17 21 5
12.65361859376734 1.5814268097255872 2.091365340413531 28 34 14
12.702261641581538 1.6721792112053193 2.0891712107064144 12 16 2
12.593418782921205 2.14113227025259 2.289705970776272 25 33 8
16.989134847946808 -1.4460865796380982 1.0999857850830859 29 20 2
13.077468003962212 -1.9282153233454646 1.1192524667271897 54 56 32
11.29667257207367 0.1796818617537108 1.7752491265744772 38 42 10
12.543581255479117 -0.51463450514052 2.1913172757659036 38 40 14
11.81071921738262 -0.7277582376877364 2.0355484708935734 38 40 15
12.089273671006177 0.292557479604762 2.1183404917643918 32 37 7
12.260178349262901 -1.4908352214862373 2.0172506969740134 46 48 24
11.622552385644108 -1.3149597826720552 1.7694387945668137 39 41 17
11.696106409874146 -1.2906943056534033 2.0404677078761027 46 48 24
11.26401941784345 -0.9929997191175676 1.8675300148368708 39 41 17
10.41308285738648 -2.6379947596342483 1.598993356624639 52 56 30
9.860844977916772 2.825979595047925 1.8055409091071393 41 47 19
11.505261580865682 -1.5813821687049303 1.8611250506405324 45 47 21
16.75592924845016 -2.6499999264559952 1.092888944806404 3 8 0
16.080078762361833 -2.592633174004645 1.2737612284228508 17 21 0
11.59041119942795 0.4209205660023297 2.1448004352295613 20 25 1
13.60504267406494 -0.10315525900568975 2.3227926963284036 40 43 14
13.566535768124838 -0.0023419961410974938 2.325450827167733 39 41 15
10.881486095594335 -2.362810234962327 1.976403276892772 58 60 34
13.930773948706973 -1.9006822002950179 1.1487511989465196 34 36 14
13.057332382194708 -1.6817502478138902 2.2590202966750286 53 56 28
10.804971608711904 -2.851211854380349 1.7846943768181613 43 48 21
11.40989092580217 -0.8617158850321018 1.9565993493372988 36 39 15
11.88240672346844 -1.6717563314267183 1.9405000401686736 49 51 26
13.093315070900218 1.8023611808282853 2.360004502429052 20 24 8
11.765773943109474 -0.27094736676794917 1.8545162808152804 47 49 23
10.364338720907597 -2.503186740084607 1.7939387944816627 56 57 32
11.74427553546169 -0.09373515428440388 1.945061961802528 47 49 22
12.446154857464435 -1.6817502478138902 2.1969230523383136 52 55 26
12.733758976610615 -0.18379651892977075 2.087760861266171 46 49 20
15.823458507052697 -2.501500414501451 1.2687933422716808 19 23 2
