8.3397700831898 0.29960455509462225 1.2691528703593986 29 45 21
13.213429880281845 -0.7898508997403362 0.5183536954173179 20 32 8
15.428115128643023 -1.059547053839954 0.3528412090074371 18 30 9
15.156757813056803 -0.9502655093233882 0.30047799675436315 18 30 7
12.512132464977322 -0.4893592523274005 1.289144133699289 24 40 9
11.745407646528445 -0.33135284885952077 1.2702031035723396 19 33 8
12.721142787399911 -0.22441195706609754 1.2111045391014026 21 32 7
12.229992744592552 -0.1411674810754124 1.2824626066519793 22 33 8
12.418105816418185 -0.4130827784227104 1.2019118100796886 22 37 6
11.489093894537717 -0.33135284885952077 1.3534354930138237 19 33 6
12.191632706593344 -0.6053816370868197 1.2815292512248513 23 37 8
13.158868330604024 -0.7890598868785583 0.6497363478740444 18 32 7
9.239686186415078 -1.2421690636415958 1.0648769860300302 26 35 20
15.290838977472609 -1.2377492152036802 0.3275939169190691 16 28 8
15.784999868945517 -1.0252144444403752 0.19765533436874186 20 30 7
15.218172585672939 -1.440669734367031 0.31323956501697714 12 21 7
14.204125385140598 -1.988107370467486 0.6299597170297715 54 59 53
9.770043638672279 -1.6113462825171216 1.4189696302985804 21 27 5
9.770043638672279 -1.6113462825171216 1.4189696302985804 21 27 5
10.264716130162132 -1.6113462825171216 1.2251577103858204 21 27 7
10.050860317715308 -1.8137336818680474 1.4232431159972063 21 27 5
9.140219117915978 -1.3869377199517576 1.2962893562518438 18 27 10
9.981285225603656 -1.507821893548615 1.3199429965183487 22 27 10
9.893821924660713 -1.40562706595155 1.4208835349109035 20 27 7
9.018127618072864 -1.5005640560484284 1.2924746473254747 15 22 10
9.42831710931056 -1.4914193273578533 0.950864431232736 12 19 12
8.884697026240865 -1.4914193273578533 1.0426020304032133 10 17 9
9.689048315403356 -2.7822435140908692 0.5054151142993045 20 25 12
13.280804050842036 -2.4889694493090055 0.7761211559616636 39 41 39
12.887215650320163 -2.5800780316190264 0.7444934253177002 46 50 45
13.319631145426257 -2.1847357503193012 0.7790863031924784 6 9 6
12.771575659690697 -2.252080914110565 0.7346130228149931 0 3 0
13.085880627489919 -2.2668252966222235 0.8660403427792349 4 5 0
13.085880627489919 -2.2668252966222235 0.8660403427792349 4 5 0
12.382654183125362 -2.154451958254635 0.6991364865203837 65 68 63
13.918045942919376 -2.1281841469671146 0.8217207857053811 34 41 33
13.696162816771066 -2.0919351911875217 0.6997440473360764 70 74 71
13.066134202213082 -2.4089752593361546 0.864754379798443 36 39 36
14.00813743231704 -2.11133190883982 1.0900722568842662 7 10 5
13.574722443212714 -1.9978768770513395 0.8962818481975744 35 42 34
13.779833365077446 -2.155806075038592 0.997204518985995 1 3 1
13.773579981835093 -2.2244478604067646 1.081170042823938 2 4 1
12.319918865221702 -2.6818746163737335 1.0171555075657737 40 44 39
12.252530661011457 -2.6000145548816724 1.1073163500292413 62 65 61
13.07270697638135 -2.40240464773411 1.0523740822181669 32 33 26
12.347818202111908 -2.525480455939034 1.1997103357561383 42 45 38
12.347818202111908 -2.525480455939034 1.1997103357561383 42 45 38
8.895595423576603 0.519401403121805 1.7427768652318987 31 45 21
8.329848091327195 0.4147876237963593 1.6335443851128317 32 47 23
8.779916867805868 0.519401403121805 1.6303239385535684 32 46 22
11.592586553710055 -0.4130827784227104 1.5295806417675857 22 37 6
11.321571863261914 -0.33135284885952077 1.7056684139042546 19 33 6
11.684245754655201 -0.5807882643343848 2.063070424617826 25 39 10
11.526161134000283 -0.7264945945540178 1.5293429794709483 26 39 11
10.007465703110862 -1.3067882808037419 1.523047705815211 17 25 3
11.705438434745318 -0.9703189370134635 1.5299782232101111 24 36 11
12.04630859042619 -0.8493538470646905 1.8675317347221019 27 40 11
19.179571064599813 1.052794108479908 0.9292542973893121 27 37 14
8.674810431442424 0.4147876237963593 1.2811476085915299 31 46 22
8.099163091013947 0.29960455509462225 1.3873225384978431 31 45 21
12.162106284939577 -0.22441195706609754 1.3656404807510731 19 33 6
12.484600326577493 -0.33135284885952077 1.116585355462871 18 32 7
12.229710392947723 -0.2447650191443698 1.1063835386035314 20 32 6
11.61422240117266 -0.8493538470646905 1.4432219688550572 27 40 12
9.488005208326356 -1.1755676939443653 1.4144198618415236 24 34 12
12.376978266237122 -0.9031268307910942 1.4511230020488703 27 40 12
10.104686638613055 -1.3067882808037419 1.424034820157358 17 25 5
15.290838977472609 -1.2377492152036802 0.3275939169190691 16 28 8
14.943003306843043 -1.4055932278385554 0.25021640759471436 18 28 6
15.017001285742445 -1.1556892136987964 0.26882102230109306 17 28 5
9.00859706257092 -1.3635475006546927 1.050608517529042 16 25 11
12.751342518516644 -2.4177213985126733 0.7328546214524505 13 15 14
10.200488189861982 -2.6888640916946844 0.37872178252206684 21 29 13
13.319631145426257 -2.1847357503193012 0.7790863031924784 6 9 6
12.527603233576272 -2.3363979848930065 0.8274999409418249 10 10 10
13.696162816771066 -2.0919351911875217 0.6997440473360764 70 74 71
13.69451352972866 -2.207173156571735 0.9032571063992915 0 2 0
13.930402349630636 -2.080311402675841 0.9165358533189164 30 37 28
13.56204197961659 -2.0405895445129305 0.7970256051495586 73 80 72
14.278771313250152 -2.238150311680147 1.2518263220736237 10 14 3
12.57983036125464 -2.54903550837708 0.9342562399908161 64 67 64
12.80265695723211 -2.635609037196006 0.8470723183106821 53 57 52
14.623222369974426 -2.238150311680147 1.186845603529799 2 5 1
11.694868158966203 -0.6053816370868197 1.5299413096928853 25 39 10
12.12037446226479 -0.7880999567585699 2.0438699011532586 26 39 11
11.428234572309114 -0.531543244797203 1.7933398746372349 24 40 9
10.944825488204396 -0.2447650191443698 1.5271398157422007 19 33 8
15.428115128643023 -1.059547053839954 0.3528412090074371 18 30 9
16.63797205518839 -0.7980500449041267 0.13892988869040387 22 34 10
14.730713452148771 -1.3450664893350999 0.18562306865889855 17 29 6
9.8608707989656 -1.7140112929834599 1.420378779660224 22 28 7
10.351203671319702 -1.7140112929834599 1.2281647830669877 21 27 6
9.781141676165866 -1.507821893548615 1.4191432320510926 22 28 6
10.334544660436478 -1.9087731997419461 1.4273218951164794 22 29 7
9.781141676165866 -1.507821893548615 1.4191432320510926 22 28 6
12.513841882944035 -2.4714824324696174 1.0267063596749593 22 25 20
11.16633308974161 -0.6577212650915045 1.798650663837202 24 38 9
11.794347986148404 -0.9703189370134635 1.7002310274227366 26 39 12
12.551017679790412 -0.1411674810754124 1.2060023687495305 23 33 8
15.218172585672939 -1.440669734367031 0.31323956501697714 12 21 7
13.002613958109455 -2.3390297279298466 0.9580833108447357 19 19 15
12.513841882944035 -2.4714824324696174 1.0267063596749593 22 25 20
11.592862972081832 -0.4506988697497364 1.9715330572606773 22 37 6
8.451689000369234 0.4147876237963593 1.7519072552112815 33 47 23
9.018127618072864 -1.5005640560484284 1.2924746473254747 15 22 10
12.484600326577493 -0.33135284885952077 1.116585355462871 18 32 7
14.085461170156092 -2.039438312120148 1.0111600728058727 13 20 11
10.007465703110862 -1.3067882808037419 1.523047705815211 17 25 3
9.368061982672025 -1.2779002664907364 1.3031320763851213 20 29 10
12.440600496946178 -2.4089752593361546 0.9259581130132198 24 27 22
13.614969657058664 -2.2779190659189124 0.9893615749627449 6 9 3
10.40910122587532 -2.478371856747873 0.42626417140559664 23 31 14
13.213429880281845 -0.7898508997403362 0.5183536954173179 20 32 8
11.619991187045962 -0.8493538470646905 1.7021843506838001 29 42 13
12.764749741162394 -0.8865533704230084 0.6079375655696023 17 31 7
13.067862796870175 -2.3328132658501133 0.6405144489096358 1 4 1
