10.50609630609959 1.0104159188751862 2.041414349640151 27 35 12
9.76333138181658 1.0104159188751862 1.8578057379823814 27 35 13
10.476633147677084 1.151885197603117 1.938273181143848 28 36 14
10.227563254988631 1.0624214556969749 1.5477051954683887 26 34 13
10.279098540265975 1.3743042181185596 1.7432460726199321 30 36 15
10.934344584381362 1.572898093666642 1.5491980153027023 26 32 12
10.424166162203448 1.5736930322548606 2.276885442639774 35 43 20
10.474215594004638 1.6990602584144023 2.2728177455069334 34 42 19
10.314041707151901 1.3529612076150483 2.0509105898143454 31 39 17
10.359798895674732 1.6734347580395892 1.8408535097584027 31 38 17
10.665891376478372 1.4727382345280735 1.9314512021625128 30 37 16
10.840912497564013 1.2117371867772708 2.2445442740824357 32 40 17
10.530414401285976 1.8662614368391168 1.7390906387220122 29 37 15
10.494163100062194 1.993992782313823 1.9376301996003384 32 42 18
10.564526349968647 1.8971466444192107 2.038602609170307 39 48 23
11.016591618036987 2.1353226738230395 2.1213951682976706 39 49 23
16.45897207610705 -0.633838722944548 0.9750076563630544 40 48 25
16.694770139659028 -0.5331446988277229 0.9845526417248756 39 47 25
15.825989893401905 -0.7321320485999379 0.8674239567131876 40 48 25
16.60577713806556 -0.6163751028733139 0.8276056073767601 39 45 23
10.373528195285758 -0.4254973116570808 1.2535390956121566 18 24 2
16.147873265294123 -0.7422421219177916 1.1742989110782645 44 52 28
16.559773580307887 -0.7422421219177916 1.1185676547218695 43 51 28
15.798983623924356 -0.7377167151313249 1.0224127154342537 43 51 28
16.448766866138243 -0.6904601851967636 1.0463716929150488 43 51 26
17.36034263093463 -0.7061808819652395 1.383289295851722 46 53 29
9.474476739494934 0.31566569577606396 1.651506316074975 32 39 15
9.803139286612975 0.4128144924439481 1.5467052824448495 32 40 18
9.957758773670395 0.4128144924439481 1.7488696897855802 30 38 15
10.405435460638529 0.19125530191553256 1.3542052235466526 33 39 17
9.379537180264252 -0.22644016702070127 1.7599762572139275 36 42 20
9.243809158297351 -0.22644016702070127 1.6535248826614775 34 40 17
10.096398206291664 0.09312148641140164 1.4480541025630955 34 39 17
10.66834749399329 -0.00760034879101242 2.141561711812556 35 41 18
10.66834749399329 -0.00760034879101242 2.141561711812556 35 41 18
9.393109621939926 -0.00760034879101242 1.8694594869984733 36 42 20
10.205364698926596 0.10342464641278638 2.0564641846395446 34 40 17
9.45341039114132 -0.11843904870286738 1.8674962455503201 35 41 20
10.096038461691583 0.6393969642597348 1.7464051532099236 29 37 12
9.56102228803281 0.8592246597692499 1.86405703967815 27 35 12
10.297680768383492 0.9480904667238085 2.164848549867744 28 36 13
9.565754267874324 0.7046022118769144 1.8639076660798317 28 36 13
9.67496908355233 0.7815981528910577 2.0856295356966355 27 35 12
10.268895336129424 0.3522027912851445 2.166743135993833 30 39 13
9.777226714894747 0.5537283950997771 1.8573862861351809 28 37 9
10.897291140951687 0.6153143119561976 2.2404205585254573 29 38 11
10.02929065676825 0.237592738590754 2.1830364792537433 31 40 14
12.017736407427224 0.7808311650894382 2.519144828774592 32 41 12
12.493604682912679 0.6686038273284819 2.609109685234427 35 45 16
10.965131498662863 0.8726965048214647 2.357528470692263 29 37 13
11.63924140530062 0.8921596470388673 2.5660073072178764 35 44 18
12.493604682912679 0.6686038273284819 2.609109685234427 35 45 16
12.177409481017902 -0.2881823900356315 2.501098680844674 52 58 36
13.356297156125354 -0.33313373753583014 2.6482867187148194 52 60 39
11.88723099019741 0.11627981859279665 2.3997865033577845 37 46 18
11.850853145148157 -0.008553084903247438 2.4031423002694456 39 47 23
12.047939326491745 -0.15192699192409923 2.5156598931881047 46 55 30
12.02978136023197 -0.25368731210894485 2.386945411366653 49 55 33
10.012424133199515 -0.4254973116570808 1.747887131360959 40 46 24
9.881289760474353 -0.32933943692692214 1.8542840886505194 44 50 27
9.711859192005768 -0.5660098868799368 1.3384628664438352 30 36 14
10.008336043811859 -0.7918917884039508 1.4469685788946143 37 47 23
9.413472292152234 -0.7158458027481862 1.759286064233406 44 54 31
9.48276669782003 -1.018066920982944 1.545891207761211 43 53 29
10.17282992735905 -0.5660098868799368 1.9497956031648573 48 55 34
9.075766329877537 -0.9572971844760356 1.8802426521705748 48 58 35
10.976355238342498 -0.9572971844760356 2.2347310364648694 52 63 42
10.896068118310742 -0.7158458027481862 2.128200227483518 50 60 39
10.560602560969302 -1.0582838553520635 2.2659194812153007 53 65 44
12.527052508373348 -0.8838727124547543 2.4645383465936685 53 63 42
12.0739272964824 -0.7158458027481862 2.2692398926662074 51 61 40
12.249301022825982 -0.5524482433029826 2.6439958474384198 55 65 44
12.241409201090487 -0.36718952636423113 2.368735532700933 48 58 35
12.074377205222003 -0.7944774150571219 2.512637331958726 55 65 44
11.756569346564694 -0.7033039341312233 2.411995857195373 53 63 42
12.295160457192987 -0.6282364634790136 2.3642629818804144 51 61 38
13.547218658318043 -0.4742604958786458 2.6226809594843488 55 63 42
12.149410401659983 -0.597617395409622 2.5041972049629018 53 63 42
12.966722140498781 -0.597617395409622 2.550108070052 55 64 44
12.174883462843761 -0.7967342863844155 2.6553679685815825 54 66 47
9.75072214417639 -3.1318777293728397 2.3373782985132654 48 58 35
9.808824699549385 -2.9906446574392462 2.3316891785555356 52 60 40
10.561166359603057 2.362730230276365 1.9351936959521816 38 49 21
9.317821187332953 -2.8551941362724973 2.237735560458387 52 60 38
10.513360248688269 2.63122318820569 2.2696729213630933 44 54 30
10.513360248688269 2.63122318820569 2.2696729213630933 44 54 30
10.31253276032022 2.455477316390672 2.28615324864691 43 54 30
12.445624963360041 1.825334910562512 2.8090645556534235 40 50 26
11.839909585028604 1.5754550799808773 2.7119539775021253 38 48 21
10.993349035158994 1.1056475836618314 2.4934328308898444 35 44 15
12.00381417370025 1.1895357682026566 2.6830598682482023 37 47 23
11.880130758926422 1.375220500160606 2.7046234144127514 36 47 16
10.594125991642631 1.292961120194245 2.393290683632088 35 44 17
11.173858767348936 1.5741109176591053 2.4723918085872385 35 44 18
10.825412389111806 1.16514119212489 2.37055497516036 34 42 17
11.880130758926422 1.375220500160606 2.7046234144127514 36 47 16
11.466182330431252 1.4075516956079834 2.5897023243615003 36 45 15
11.47018925299923 1.7415736248338103 2.58913521759035 38 47 20
16.880169215684525 -0.034497689637560364 3.0241319146002144 49 57 36
11.32145697055239 2.166746820903626 2.456076684746054 42 52 27
12.219710118453712 2.1206905170014956 2.648472396655408 40 50 26
12.567399606166472 2.045992683417767 2.7820595181015477 38 50 26
12.567399606166472 2.045992683417767 2.7820595181015477 38 50 26
12.291297430077572 2.174791932464973 2.847577936213077 42 52 28
12.494876735970392 2.371509796368184 2.797833209802179 42 52 28
11.8591815408408 2.511826549374087 2.708420836031168 44 54 30
12.145111245479017 2.367659582093779 2.660026451934996 43 53 29
12.011467988825403 1.9600585055680393 2.6817706688332743 39 49 26
11.337557563607385 2.5632549150820854 2.4543420754424154 43 53 29
11.655022846419696 2.255053360955725 2.5639238968514437 43 53 29
11.32145697055239 2.166746820903626 2.456076684746054 42 52 27
11.355484314532156 1.8547512704998323 2.4524207945246888 39 49 21
10.838139424694209 1.9820348514392707 2.369347222826585 42 51 23
11.81766244925553 2.0421139451515473 2.5431405849513062 39 49 22
11.652323651194102 2.6939228546747116 2.7485599326285035 44 54 30
10.041476956530015 -2.8108185576443945 2.4546343365208143 53 61 41
10.808012343406517 2.8312244874592185 2.5164275130368803 46 55 33
10.808012343406517 2.8312244874592185 2.5164275130368803 46 55 33
10.760798071029543 -2.6667252716159515 2.707742899772367 54 62 42
11.23120978792533 -2.801918539699124 2.8520965639117635 52 59 39
11.219053168305834 2.84260313263191 2.8557568589418083 47 55 32
11.01958929803016 2.958175915399303 2.659540190621519 49 57 35
11.180501493530219 -3.1190260692498475 2.8677341545599595 50 58 38
11.219053168305834 2.84260313263191 2.8557568589418083 47 55 32
11.491282164288458 -3.1246342414980184 2.7838723643049867 49 57 35
11.03196571805666 -2.9320458479223204 2.6574004112174547 51 59 39
8.321898639249046 -1.6969140279565058 1.784369701445741 52 64 41
9.17760192817965 -1.714527073688334 2.249821816751452 53 65 44
8.956422981240053 -1.450287884486195 2.0045070769619406 52 64 41
9.387524080073497 -1.2173129554562117 1.9833414774638087 51 63 41
9.119844323584825 -1.3304930852813102 1.996224077925981 52 64 43
10.352827066837095 -1.2173129554562117 2.16125504119167 52 65 44
10.110735898454541 -1.3304930852813102 2.1773907221124755 51 64 43
9.78315567598726 -1.5740469264315178 2.3341904148655903 53 65 45
10.226058800105442 -1.172162466023299 2.29352442838195 53 65 45
9.369694483401528 -1.5736440399385025 2.10415952067844 53 65 44
8.072477078609072 -2.262230345467992 1.7910757688225303 51 61 39
9.018671378725797 -2.0333388609534415 1.5446093196905757 50 60 36
8.553094083152391 -2.3524518073162044 1.5431835087046593 51 60 40
8.066869198367677 -2.4420641831722825 1.7912314300011274 49 60 37
8.838570630822371 -2.516474497237638 1.7717086387585184 51 61 38
8.16870147237779 -2.08823300735645 1.6644431067692533 52 62 39
9.36825320365954 -2.276519550994313 1.4384599711143289 49 59 35
8.660416082458296 -2.4608296019977796 2.2990136779069195 53 62 40
8.34820915799349 -2.262230345467992 1.9082353221596167 51 62 40
8.665639863414473 -2.2417229662682567 2.298476268758044 53 63 42
8.169280968006884 -1.974939016536057 1.9159304759299784 51 62 39
9.02388726501676 -2.7296988925729884 2.1269412868304833 53 61 39
8.538315490235423 -2.7296988925729884 2.027307661726575 51 61 37
8.898529191023295 -2.032974377252011 2.2753990381778406 53 63 42
8.946468077646758 -2.616552027032051 2.005022460780209 51 62 39
8.760514786452443 -1.8495513517726234 2.1457395054070476 52 63 42
8.259473915614384 -1.8495513517726234 2.043956511474325 52 64 42
8.660416082458296 -2.4608296019977796 2.2990136779069195 53 62 40
11.044201801118769 -1.3803582104921273 2.655298104895184 54 66 45
9.489827706515426 -1.9505683913145495 2.5289372113662076 53 63 42
10.323978877365322 -1.9505683913145495 2.5846656982550815 52 62 41
10.123933639608154 -2.2098469127628793 2.617257728884972 53 62 44
10.119462674376239 -2.490027744232741 2.618022186870479 54 62 42
14.897283008619484 -2.610122532131361 1.211641383995718 15 19 3
14.841323102217235 -2.674176619124684 1.137143903033971 28 32 16
13.111480175236018 -2.8917285214002075 1.241807012037268 45 52 31
15.396931534966994 -2.5505494278917316 1.223797361403112 9 11 0
15.64383809386165 -2.495382383608625 1.2965860421745878 7 10 1
10.66398830931618 2.504943844667307 1.9315185083325734 41 51 26
10.304632237192264 2.791245656829314 2.1643929701526052 45 55 31
9.482678266215126 3.0386910075713534 1.866552777425388 48 58 35
9.39167579280065 -3.009224861726568 2.1027781442489237 50 58 38
9.330976076677048 -3.1330885546842064 2.1066113137515545 49 57 37
9.965562573579472 2.9306820809339715 1.958092410791946 46 56 33
10.065878262592904 2.9053105207086993 2.1804861803445714 46 56 32
9.922618850429489 3.025972899119655 2.190606209287094 47 57 33
13.645664660080799 -2.838809237830726 1.5534899651190228 16 19 6
13.664987156097714 -2.838809237830726 1.6267241758686224 8 12 2
10.566343053461152 0.8493499688371471 1.5484456724017934 26 34 12
10.474215594004638 1.6990602584144023 2.2728177455069334 34 42 19
10.613467922513925 2.0830884291662035 1.8342433322004352 24 34 11
10.621072967798419 1.5731097135168106 1.933043167220842 30 37 16
10.665891376478372 1.4727382345280735 1.9314512021625128 30 37 16
10.51731499328776 1.2795711393894131 1.7393022561937055 29 35 14
11.173497604021657 2.0401855499707047 2.2209993911246344 42 51 25
11.044737633669254 1.4816584398633061 1.4586397080404427 27 33 12
10.551469291260167 1.249069229474343 2.0392278859494612 29 37 15
16.839519665747 -0.5049995214396444 0.8402877241212143 39 45 23
15.809608278971815 -0.6800118736350652 0.9468889203677314 41 50 25
16.41389667244182 -0.6800118736350652 0.8974227268774755 39 47 24
16.624666000571153 -0.5928163458132041 1.052481310212026 40 48 25
15.752019734642127 -0.7904524074435308 0.9442547803116208 42 50 27
16.499562685734297 -0.6990283085179749 1.24786203782398 44 51 29
15.804755465841628 -0.8426310149712063 1.022635792746596 42 50 26
16.67464210245732 -0.6480522001243062 1.1219115775937794 42 50 27
15.968099394655091 -0.7910823932680189 0.7902580064685641 40 46 23
15.831751889544003 -0.849329088543183 0.8677325729157062 41 50 24
10.704008900626766 0.09312148641140164 1.93010848879312 35 41 19
10.80094656451778 0.7815981528910577 2.2475019293263014 28 36 13
10.500040032896765 0.11627981859279665 2.2707394818584583 34 43 17
9.923975968511881 0.21195822591603214 1.9598023104953493 30 38 15
9.381419527536279 0.5537283950997771 1.545622102023354 30 38 14
10.371058171602934 -0.22644016702070127 2.0480497813830816 44 50 28
10.08890686892712 0.4579409111332904 2.062566948657467 29 37 12
9.782409431668107 0.6153143119561976 2.0794270512279693 27 36 10
10.318360679591265 0.8592246597692499 2.050692628489766 27 35 12
10.46976080438017 1.0499105589195628 2.273177659268799 30 39 13
11.182641457208971 -0.13312135322062466 2.3382116899938348 39 47 25
12.154976884147148 0.27010943462238174 2.5035790198917054 34 43 15
12.48450895156813 -0.33313373753583014 2.6103473917714757 51 59 37
12.93973051710061 -0.3938439804094441 2.711978996299372 54 62 42
11.305209899704144 0.9801710831404842 2.4578358369517144 32 41 15
12.036607607947921 0.13276280682708377 2.516963369285004 40 49 19
11.131711921664632 -0.008553084903247438 2.3426346563183937 35 43 20
12.000682578973084 -0.009778904665122266 2.5211278514643176 42 51 25
10.206252852609168 -0.32933943692692214 1.9484917629538323 43 49 26
9.288065590864504 -0.8688516177480754 1.6531297964907241 45 55 32
10.142865425428415 -0.4716103569217293 2.0597194589729235 46 53 31
10.372455870492269 -0.6282364634790136 2.159987256802043 47 56 36
10.683401899365771 -1.112825543103222 2.140657237713261 52 64 43
9.93305125025858 -0.4254973116570808 1.44602517899724 18 24 2
10.876486681473384 -0.7929699548939693 2.241935715877314 52 62 41
9.983430298098586 -0.7158458027481862 1.9573624895010808 47 57 36
9.642524781775755 -1.018066920982944 1.7547567525927334 47 58 34
10.649198514408896 -0.4716103569217293 2.142716647971339 45 52 30
12.221022152591939 -0.7929699548939693 2.370447606865606 53 63 42
12.688554819810767 -0.4742604958786458 2.5835857469212105 53 63 42
12.688554819810767 -0.4742604958786458 2.5835857469212105 53 63 42
12.386515301808776 -0.41430743960567995 2.4787804143239405 52 60 38
12.00381417370025 1.1895357682026566 2.6830598682482023 37 47 23
11.839909585028604 1.5754550799808773 2.7119539775021253 38 48 21
11.216468589542703 1.4307700524521834 2.4676033993466597 35 44 17
11.883998111499128 1.7753217164515926 2.7039272155071927 39 48 23
11.173858767348936 1.5741109176591053 2.4723918085872385 35 44 18
12.445624963360041 1.825334910562512 2.8090645556534235 40 50 26
11.466182330431252 1.4075516956079834 2.5897023243615003 36 45 15
10.87174840277287 2.746130769951873 2.3661785569924634 46 56 32
12.291297430077572 2.174791932464973 2.847577936213077 42 52 28
11.364788998927533 2.6132656049960428 2.6043676348512466 45 53 30
11.24089852823564 2.3653562848687355 2.4648871886319115 43 54 30
12.567399606166472 2.045992683417767 2.7820595181015477 38 50 26
11.602206412233908 1.899467551912112 2.5709454858864955 38 48 21
11.662845679189363 2.4774544630492263 2.5628957026953882 44 54 30
11.528794651902503 2.9139936450054607 2.7752666955764402 47 55 33
10.645720876800816 2.8731666409527397 2.388085109103967 46 56 33
10.510367864176354 3.0096884555132193 2.4019142521510064 48 57 35
10.98033733319788 -3.1280099428779895 2.6664176260053427 49 58 36
11.148761753831792 2.7744437416045447 2.6378442477482684 46 54 31
10.674717348425949 2.988106770317897 2.533942246963921 49 57 35
9.884067979074457 -2.966058874103769 2.474286828433735 52 61 42
10.634192499778448 -3.13026488013992 2.539443842458743 48 58 35
11.148761753831792 2.7744437416045447 2.6378442477482684 46 54 31
9.119844323584825 -1.3304930852813102 1.996224077925981 52 64 43
8.584909270993451 -1.714527073688334 2.159051521121887 52 64 43
9.420468278160191 -1.450287884486195 2.1009801663627354 53 65 44
8.321982558607328 -2.08823300735645 1.7843675144053868 51 61 38
8.664000858388736 -2.516474497237638 1.5435370650285716 50 60 37
8.674440956992685 -2.188628460559354 1.5435698809489833 51 61 38
8.69028474175774 -2.5475326923979273 2.15098493465936 50 61 38
8.57971773509613 -2.351710045253606 2.159455192300684 52 62 39
9.562426949323278 -2.6704367682489902 2.3565196172194276 54 62 42
9.309434977052506 -1.8925814067729931 2.3840971403051445 53 63 42
8.700693301974205 -2.1562263720452317 2.1502010413854213 53 63 42
8.269497520361748 -2.6704367682489902 2.1847156377856423 53 61 39
9.87157941804284 -2.032251131074618 2.6633096845120194 53 62 44
9.752065526431332 -2.108605866489416 2.4916593499518607 52 62 41
11.044201801118769 -1.3803582104921273 2.655298104895184 54 66 45
9.906933805191368 -1.7378050659197701 2.4713627839661374 53 65 44
13.098667184110868 -2.8153148186989316 1.3211522273101328 36 41 23
10.125279054390859 2.6859255507045625 2.0606437151556096 44 55 31
10.14184925517977 2.590430157103325 1.9510124555348693 43 53 29
9.255614320331622 -3.02375120753882 1.762540463979163 47 56 36
9.965562573579472 2.9306820809339715 1.958092410791946 46 56 33
9.437035909336522 -3.134031010308447 1.8680267595133881 48 58 36
14.375025789723642 -2.9261870564480867 1.6239590077162975 20 26 8
10.371041160180617 1.2795711393894131 1.5480247047538096 29 35 14
10.982069186744937 1.6641028646674154 1.549291889241823 26 32 12
9.935009923957361 1.151885197603117 1.7492818167193287 27 35 13
10.469827507880193 1.4482351620298983 2.2731722670562853 34 42 20
10.580724062484547 1.1060258825440614 2.1468879214181107 28 36 14
10.890772126484785 0.2858070875146735 1.269094494789984 33 39 17
16.907432609921038 -0.5562457728410147 1.1285330968402492 40 48 26
10.54299559542975 -0.10666263841869209 1.2588124013315736 28 32 11
11.03465023541172 -0.2044041404645022 1.1767856964828867 24 28 6
9.839772833206341 0.31566569577606396 1.8555135351268282 30 38 16
9.86710210260768 0.513172405921881 2.1946271470569654 29 38 10
9.589451968838668 0.21195822591603214 1.8631619232379886 35 41 18
10.224774150690582 -0.0068385887024038465 1.350315618294852 30 36 16
10.721478345179419 -0.11843904870286738 2.1383832423976004 40 48 26
10.053542479821122 -0.0068385887024038465 1.4475282227296713 32 36 15
11.698389900537668 0.6898722572605195 2.417575059482915 29 38 10
11.898704968248698 -0.13312135322062466 2.3987348396835118 42 50 28
12.036607607947921 0.13276280682708377 2.516963369285004 40 49 19
9.489823889179545 -0.32933943692692214 1.5459097324989373 29 33 11
9.329004808247518 -0.7158458027481862 1.437899920037865 36 44 21
10.410523630632188 -0.8688516177480754 2.04609039397623 51 61 39
9.48173712186535 -0.5660098868799368 1.6514443802061722 46 53 31
10.560602560969302 -1.0582838553520635 2.2659194812153007 53 65 44
9.453868461493524 -0.5660098868799368 1.5458150628959313 33 39 17
10.609496408876911 -1.018066920982944 2.036462354080365 51 62 40
9.992561848846055 -0.8688516177480754 1.9569905443759243 47 57 34
9.750879766538873 -1.112825543103222 1.9670896270840676 49 61 38
12.527052508373348 -0.8838727124547543 2.4645383465936685 53 63 42
11.917823249845743 -0.5278925476249023 2.396989683034991 52 60 38
12.074377205222003 -0.7944774150571219 2.512637331958726 55 65 44
10.35385940071175 2.440228255336283 2.0489089672226934 43 54 30
9.75072214417639 -3.1318777293728397 2.3373782985132654 48 58 35
10.687493147408446 -2.966058874103769 2.5322254260974972 51 59 39
13.136123870575613 1.906515622390644 2.902954017805136 41 51 27
12.298715554912732 2.5729684260554393 2.845592430473266 43 53 29
11.528794651902503 2.9139936450054607 2.7752666955764402 47 55 33
11.594282431536298 1.2490810930588518 2.572011112553751 35 44 12
11.55669375098415 2.1978626571742907 2.307440428934091 42 52 25
8.559489558097317 -1.974939016536057 2.0260931354991403 52 62 40
10.352827066837095 -1.2173129554562117 2.16125504119167 52 65 44
9.17760192817965 -1.714527073688334 2.249821816751452 53 65 44
8.725239170673097 -2.4420641831722825 2.0168132744944987 51 61 38
7.787595521927406 -2.1562263720452317 1.9336085563244785 52 62 39
8.352977860228064 -1.8164652892747275 1.662371289642433 51 63 40
9.980893282451053 -1.298060580047296 2.315399864709807 53 66 47
9.644287143729946 -2.3506015922619596 2.5065074197761503 53 62 46
9.644287143729946 -2.3506015922619596 2.5065074197761503 53 62 46
9.10012768535137 -2.889297310146033 1.9972059950008068 52 60 38
10.206663399680114 2.8274306284210584 1.94847580463925 45 55 31
10.820858322132157 1.7935305895103104 2.1325385905427487 38 48 22
10.840912497564013 1.2117371867772708 2.2445442740824357 32 40 17
10.749748741358147 0.9810509489329947 1.548827067594788 26 34 12
10.646869168407697 2.2202535401961034 1.9321251234112067 38 47 20
16.590165526225945 -0.5720830288650427 0.9058704821253676 40 46 24
15.914523340757828 -0.7899481314203654 1.0987742922680546 43 51 27
12.104399856229861 0.5818487857194894 2.5092359917040596 31 40 12
12.02978136023197 -0.25368731210894485 2.386945411366653 49 55 33
12.017736407427224 0.7808311650894382 2.519144828774592 32 41 12
10.841941830900204 2.2861577883206725 2.131315154719412 41 51 24
12.766576870623378 2.2262582153585257 2.742611473203699 42 52 28
11.030714898032192 2.6885895000608557 2.4889729307413018 44 54 30
11.173214723522308 -2.750994876188644 2.633887799105656 52 61 43
11.220564686553134 1.717316632188188 2.4671465103453896 37 46 18
11.424503900264398 1.5746696985973863 2.595656284230832 37 46 17
10.614062156964922 -2.8820496772290505 2.738616736575751 52 59 39
8.85915145766101 -2.3506015922619596 2.4394930556530423 53 63 40
9.831794487688356 -1.4334392064704475 2.329467036677663 53 66 47
11.177139226625588 -1.1988693020597019 2.6332570445929218 55 67 48
10.505778661826357 1.7717348997813738 1.837009084249887 31 38 16
16.849324569102805 -0.7459833903415162 1.3166561014410614 45 52 29
8.976361850486693 -2.108605866489416 2.424194088110368 52 62 41
12.219710118453712 2.1206905170014956 2.648472396655408 40 50 26
11.69771503441793 -0.9054564830587425 2.558348776195234 54 66 45
10.310820398833364 -2.750994876188644 2.586718592487824 55 63 43
10.189168404546356 0.6393969642597348 1.349532354030433 29 37 14
13.136707559687212 -0.5524482433029826 2.6803383054058263 56 64 44
10.986065269585575 2.2734250837473313 2.3556197215714647 41 52 27
12.219710118453712 2.1206905170014956 2.648472396655408 40 50 26
16.042644752556964 -0.022914791975032964 2.954891767682547 47 55 33
12.537218000871004 -0.6852622748728213 2.603235384893669 55 64 46
12.386515301808776 -0.41430743960567995 2.4787804143239405 52 60 38
10.23152785844724 2.363823604326565 2.1692221481881004 41 52 27
9.37713468443112 3.025972899119655 2.1036911033103163 48 58 35
12.567399606166472 2.045992683417767 2.7820595181015477 38 50 26
9.912434373858298 0.7821445671103886 1.4457643080468254 26 35 13
10.760798071029543 -2.6667252716159515 2.707742899772367 54 62 42
10.60996399203608 1.326520083581413 2.2620457225806216 33 40 18
8.649750936641054 -1.929283345417422 1.6592209895556587 50 62 39
12.249301022825982 -0.5524482433029826 2.6439958474384198 55 65 44
