11.746613311394036 0.8973114286996297 1.4959406003727271 35 39 17
11.54742687137959 0.9676777042361688 1.8445234476686152 35 40 15
12.225390425840567 1.04558105322878 2.095228782437135 38 43 18
12.374888685606079 0.7196391731471571 1.5806163445923325 36 40 14
12.349008585452568 0.7762898388311013 1.9110784819150237 37 43 16
12.088384427284964 0.8403196080207345 2.008292509772406 38 44 17
11.989998460386476 0.912631698697921 2.106623161635545 38 43 17
11.699829003611995 0.8403196080207345 1.9307937132709339 37 42 15
11.641557269168098 0.7762898388311013 1.5812349543898436 37 40 16
12.704674412866543 0.7196391731471571 1.3422431087848241 36 40 16
12.007044222776644 1.0151430289156038 1.6643378242762612 35 40 16
11.986785735616685 1.0151430289156038 1.4974431656819585 35 39 17
13.337059900684439 0.9940275322197312 2.32392251726334 42 47 19
12.530087885890314 0.912631698697921 2.175299699848764 40 45 18
14.41063606879313 1.7588542399618923 1.5792290645100582 2 6 2
14.219054844235012 1.6988531216709981 1.9392647398454652 2 5 1
13.787074658440496 1.7727761003700184 1.799185824831114 1 4 0
14.850794901670874 1.9792582237938798 1.3065693546369357 10 14 7
13.71540876887902 1.7092583954223233 2.0334498757347514 2 5 0
13.941027869715187 2.0427249562263152 2.025394160940791 10 15 1
14.042019145480115 2.0088522257167147 1.868696296658761 8 13 5
13.71540876887902 1.7092583954223233 2.0334498757347514 2 5 0
14.312910220418857 1.9135101078293333 1.7906544806675189 7 13 6
14.378464581948753 2.1112392999214205 2.010578346463644 8 13 2
14.880194003365789 2.041470533599912 1.4442182803658363 9 13 6
14.22403768288541 2.074154711551382 1.7920509544079355 8 12 5
13.713254686730336 1.4429043359936402 2.298505492728033 38 42 18
13.002312659423557 1.5332949282627149 2.462973039083547 41 46 19
13.201672740719172 1.2952528993064962 2.444457509732439 40 45 18
12.674901898429166 1.1856919056465511 2.3740974497105802 41 46 19
14.091824073027245 1.5456284251576788 2.10060164049896 15 21 4
13.713254686730336 1.4429043359936402 2.298505492728033 38 42 18
13.79504163971502 1.5332949282627149 2.5084919953682023 42 47 19
12.289105464457485 1.0850381345297597 2.292775734259714 40 46 19
13.802551312682395 1.5433735249711005 2.1998837617000726 47 53 31
13.853345739253463 1.4120170506192133 2.5027793411805463 41 46 18
13.201672740719172 1.2952528993064962 2.444457509732439 40 45 18
13.860823823606275 1.4542597116723508 2.19682774437856 46 51 29
12.373002710840993 1.131197653416182 2.184096397859255 39 44 18
12.454324821960531 1.3240717866068274 2.281153205338462 39 44 18
12.990043563789408 1.4291135128273607 2.349269495770654 40 45 18
13.666025116235161 1.6464476774636838 2.4048094302467398 39 44 18
13.911729361151645 1.8569516716542982 2.385544631238568 40 46 18
13.441769233997539 1.9542714169022202 2.3166446651357147 37 42 16
14.122929281151317 2.1271505950218983 2.2729533741212 24 28 9
13.825274998210405 2.0037380834912017 2.198688179872863 33 39 15
13.816599017464815 1.6329239625553897 2.1991440704475163 46 52 30
14.564733035173255 1.8658096176489918 2.081689330981842 5 12 3
14.105583694953195 1.6278246948185562 2.100030444615427 13 19 2
13.274942241077504 1.889819468365929 2.4378921256747845 44 49 19
13.108627152900665 1.7755821747457343 2.45297720971565 41 46 19
14.277784020014739 1.9960707460687193 2.46376809576591 42 47 18
13.513403611752409 1.9960707460687193 2.4173456484239364 40 45 17
13.496110890416407 2.180266308028944 2.3129310880264877 37 40 19
13.668552426774752 1.6390231391513845 2.301422601606097 38 43 19
14.19112569581714 2.180266308028944 2.3648902620968397 40 43 19
13.648559451394707 2.0817791212774064 2.1197303007189525 13 17 0
14.285039916638224 1.890553387780975 2.1755181038195146 22 29 11
13.914212043225747 1.8300846180836354 2.28571256466464 39 45 20
13.94750855302106 2.258055356271686 2.2836420006636535 41 44 22
13.91930401006564 2.269641916313747 2.107875991531322 3 6 1
13.886068107308985 2.388108277529095 2.1093018301071567 9 11 0
13.315027431009312 2.258055356271686 2.2267955914928947 31 35 18
18.07477703153023 -0.1061485805303953 1.2975015198464714 44 48 21
17.96186186823663 -0.16287670768170262 1.3531535246067872 44 49 21
17.830889043667955 -0.1061485805303953 1.35152885590721 44 49 22
18.494288229438542 -0.1003900064611225 1.4690500296211937 46 52 25
17.959938719486022 -0.21856759647441745 1.4098298341845967 44 49 20
12.577548356055406 0.6069295144979492 1.5008942975648698 35 41 15
12.005233845410604 0.5384520854782009 1.5809187243118918 36 42 15
12.384841191579639 0.3522651587168981 1.3362316148637514 37 42 14
12.457226511176676 0.42787052542990106 1.500218010017561 36 41 15
11.703642315664123 0.188437947291578 1.753074056277633 39 44 14
11.928426793462277 0.27221944299009476 1.7496016850633045 39 44 14
12.597791929429512 0.188437947291578 1.9894612642218938 43 48 17
12.403820287604452 0.5384520854782009 1.8251892588990588 37 42 15
11.852153915946383 0.3833186254790397 1.925960566846745 40 45 16
11.791705831597206 0.27221944299009476 1.6660512037147186 38 43 14
12.395463235774153 0.29716720996227763 2.0873100033854834 44 51 17
12.235873152143592 0.3833186254790397 2.0026620275309295 42 47 18
12.449532351160592 0.012681025575236898 1.419330213714661 42 46 15
12.47712841356573 -0.06847221031170492 1.4196677930551242 41 45 15
11.131618969285588 -0.08170574656594563 1.9500781100369067 45 50 17
11.759333138367767 -0.07450699456373673 1.839467377672229 42 47 14
12.493827643233272 -0.14873399955215294 1.6606832196920012 40 45 13
11.251702918375239 -0.17704551104363303 1.9458278452373543 47 52 18
11.655207330263972 -0.17704551104363303 2.02574811960366 47 54 17
11.730048515377046 0.013802507306773272 1.8401548120073463 41 46 15
12.068871994977183 -0.2464296951091194 1.8324126415427897 46 50 17
12.680047589218068 -0.22711445835065966 1.659359647102769 42 45 12
11.131618969285588 -0.08170574656594563 1.9500781100369067 45 50 17
11.759333138367767 -0.07450699456373673 1.839467377672229 42 47 14
12.465642349402394 0.101897794531281 1.9941834397463292 43 48 17
11.561276795363865 0.101897794531281 1.755344294112002 40 45 15
11.929452056288536 0.6555331830175963 1.7495861519752876 35 41 14
12.014984274302726 0.6378179760379926 2.105388834326903 41 47 18
12.274352900563747 0.505952878992625 2.0929228281142622 41 46 17
12.941077410743283 -0.30275986902192237 1.6575687244775437 42 45 12
11.746343002628693 -0.3569989018097565 1.929303635792543 48 54 18
11.78349007305194 -0.3917140094592187 2.1170616760276113 49 55 18
12.750099783156989 0.9327765818239978 2.368003778049236 43 48 19
13.05932746323624 0.7750303078559624 2.2419555254537085 41 46 18
13.07344670596824 0.71116276376463 2.14686536707348 40 46 17
12.403737589861644 0.5172041400588597 2.397030628814158 46 51 21
13.032025763852797 0.4200227416093529 2.2436203316461802 46 51 20
12.095071895024937 0.5555466135004521 2.2003637269807292 44 49 20
12.99214584009801 0.685406529540235 2.4639440534129258 47 50 21
13.357652434040213 0.7710667962665604 2.5545734385674366 46 50 21
12.875698941503215 0.40776928918220484 2.475261642708979 48 53 21
12.667734640346794 0.28696269966748356 2.496426685253922 48 55 20
13.208046419884301 0.22766802619872933 2.333119137186238 46 53 18
12.433449085497472 0.4200227416093529 2.18067870649328 45 51 21
12.53929469619609 0.7001838267713193 2.2753390906093394 44 49 20
13.017861595821625 0.4639420584745508 2.3471641605201383 46 51 21
12.74839492625398 0.32696952853164374 2.2614771719794713 46 52 20
13.774578064775898 0.859425000713765 2.510519126894851 44 49 20
12.628686836579295 0.5827206071597055 2.5005463611584107 47 53 22
11.719307441385705 0.01676836552569636 2.2239249752939063 48 54 17
13.14425322846749 0.13829528487372414 2.449690503740678 48 55 19
13.082062831061224 0.12359421723683119 2.3423557612638684 48 54 18
13.12048582584152 -0.10125833994503483 2.4518797436017246 51 58 22
11.748618837622297 -0.09044014214133032 2.2220174014360903 49 55 19
12.352538453847595 0.01676836552569636 2.2882627354932965 48 54 17
13.09424570641979 0.01878673992260191 2.454312787118769 49 56 20
12.48843311331785 -0.1956112768987986 2.278806339987833 50 57 21
12.058432732480771 -0.2965887234897074 2.202578895271928 48 55 18
12.660168416339227 -0.3298841437343446 2.375304405569545 52 59 23
14.436619366488527 -0.4920192931293016 2.7114476380563377 58 68 31
15.131164188736372 -0.24722367931386074 2.620317889656624 55 63 29
14.674471553574843 -0.28447892422205207 2.6773774996811177 55 64 30
15.19773471261167 -0.33446295751539296 2.763000260084002 60 69 35
15.351189467951231 -0.4920192931293016 2.738615168885255 61 71 34
15.042082702221888 -0.11500330642152203 2.630725123573516 53 62 28
15.10904572462823 -0.15773222093503664 2.778041873211201 59 68 35
12.93586939474282 -0.3917140094592187 2.2495577298964857 50 57 20
13.637944606676866 -0.8336060108628306 2.5243605188263416 56 67 28
12.53473050083156 -0.747385998663925 2.3857585729454662 54 63 29
13.671783707278005 -0.6550142246749722 2.5208816907074834 58 65 32
13.061346294863052 -0.4843355700523315 2.457387409939647 55 62 28
12.871465743672207 -0.6550142246749722 2.475680019989553 56 63 29
13.0946337490519 -0.5607357037505825 2.1458147336375037 51 56 28
13.664277235546496 -0.5607357037505825 2.2072677253678035 52 57 28
12.586205955491048 -0.5279637726059817 2.2721749114004304 53 60 26
13.860961334581079 -0.976053403909221 2.389436902863334 56 66 27
13.061346294863052 -0.4843355700523315 2.457387409939647 55 62 28
12.93586939474282 -0.3917140094592187 2.2495577298964857 50 57 20
14.194112561222076 -0.5474249533294211 2.5943878712227453 57 66 32
11.65862878318815 -2.0157456151185165 1.9321241995968377 49 55 31
12.174708091778589 -1.899117783001696 1.9161519170823695 53 58 36
12.166417637502597 -1.9297910354672467 2.0980349736733297 50 56 27
15.376160254260348 -1.2692428797041253 1.910366494647222 63 64 54
12.095933646245022 -2.0952017276123027 1.9184959268824595 49 55 32
12.793293378093422 -1.8731243495715586 1.817281179311832 55 59 36
12.170037460274214 -2.1428218526844978 2.0978618103535216 51 56 30
14.104148578188775 -1.7629916068124893 1.5794123149829968 51 54 44
14.022735627237516 -1.6208841223085544 1.7226709341263362 51 56 39
14.447671352067344 -1.5486958721684019 1.8600867934947392 51 55 36
15.311607193665834 -1.4057401395618159 1.982090627389249 54 58 36
13.439549924078785 -1.7128589930226206 2.043713784461713 51 56 25
13.325924425856003 -1.7019299089240134 1.8072373279179383 50 56 35
11.497536952542822 -2.8816706951535918 1.8457419901346306 49 50 38
12.459317651190537 -2.970844095216083 2.08440168068438 65 66 49
11.735068246188034 -2.346544470065667 1.9296636620046344 53 59 37
11.618060366819149 -2.7640830253869684 2.02731278740376 60 64 48
11.832654763768211 -2.218699945695488 1.9265718327998158 52 56 35
11.763107343243723 -2.40754955578385 1.6662834931037913 53 59 41
12.544260204194003 -2.234214749446271 1.6603208706525934 53 58 40
12.147802737413786 -2.7162808604127826 1.830673311970605 54 57 41
11.363188024609409 -2.3451189521955786 2.139707429958266 51 57 32
10.935223395922263 -2.4920102635326433 2.0582195042176337 48 54 32
10.960578104314376 -2.5797108363890096 2.1633767631207843 51 57 33
13.421139539278496 0.9604232032926605 2.5475002693962927 44 49 20
13.631841200547662 1.1380188506098232 2.5249916395479683 43 48 19
14.263874632623251 1.2590579621649718 2.5864125825333506 43 48 19
14.079562879420353 1.528060407892189 2.607891510392524 43 48 19
13.991354886179856 1.0779631673514494 2.6186590874007374 45 50 21
14.497068942018307 1.5211289353973823 2.7024472828087225 46 51 22
15.407080734309291 -0.6745116767840503 2.948761417559476 59 68 35
14.588453485255881 -0.8894745942161177 2.8879027026077946 61 70 36
15.289412101964672 -0.9545413471729268 2.9932611578537 60 69 37
15.441955838225898 -1.1402976131330766 2.9375182741515706 60 69 35
15.236604217931337 -1.4063421174655446 3.0186073712872017 56 65 33
15.20125799852396 -0.5736976137907275 3.0391221643272672 61 70 40
13.243075065771757 1.6674737213136346 2.567708995558941 43 48 19
14.033209892194392 2.1513404691148867 2.485717163516963 41 46 19
13.496481339149998 1.9308490813167702 2.539286111305769 43 48 20
14.353286822403593 2.0522740051792945 2.7242819463187327 47 52 22
13.700289774377953 1.8393250311565268 2.6567831497403716 45 50 19
13.612859884379398 1.683055626680971 2.669121077845989 46 51 22
14.115270853434806 1.70458971765103 2.7641154649598816 47 52 21
14.739398989872079 2.317221304761064 2.5363938427325396 43 46 21
14.382694355108255 2.222249164206941 2.573233031501679 44 49 21
14.350531706827352 2.4057326374994488 2.5767519999879718 46 50 24
14.574115008341463 2.1924688443754596 2.691324564099694 47 52 23
15.176816046537697 2.2974005271856095 2.766480536014453 50 55 24
14.933975458546168 2.4345632101654933 2.8102205054290956 51 56 25
14.542375721750494 2.4169026700650216 2.6958609719478135 47 52 22
14.465283705298269 2.7796211033075995 2.7071486502510806 49 54 26
14.101646960713078 2.7110124195804417 2.7665596824800023 51 56 27
14.251059818917994 2.2974005271856095 2.740768958873466 49 54 24
14.542375721750494 2.4169026700650216 2.6958609719478135 47 52 22
14.755050006098736 2.6132694008407134 2.847492897534538 53 58 27
14.288756745027655 2.5496576684125802 2.734588310085417 50 55 25
14.02232641021711 2.5110783264684082 2.614840212154436 49 52 23
14.422600067196976 2.7362328241927636 2.9369044210420605 56 63 31
14.377039694746806 3.083728009213784 2.9527769750733577 57 65 32
14.377039694746806 3.083728009213784 2.9527769750733577 57 65 32
14.341793475230924 -2.3138374473885466 2.96610275747076 55 64 30
14.504306869760837 -2.1080113306078796 2.9113398131041834 56 64 28
15.239494799639074 -2.679390047872775 3.017082288565836 56 65 32
13.936721363958549 3.1083579003241137 2.7978707293798912 54 59 31
14.350341820346397 2.9412836855220585 2.7247450761675536 54 57 30
14.882044272366743 3.1083579003241137 2.8205169758114903 55 60 32
13.983716411977309 2.9001132784778143 2.788601362072071 53 58 29
14.597508556411418 3.0993704794907013 2.8855211460465346 58 65 33
14.621051047736605 -2.9169850065289307 2.8794417342626257 57 64 34
13.961378157711858 -2.963701920712777 2.7929701331143417 55 60 34
13.925079883594375 -2.4854879758622666 2.800214076983348 56 63 31
14.712681992979212 -2.678607436073169 2.8571547576010534 55 63 31
14.05730976213617 -2.7672829876118055 2.7746549815317323 55 60 32
14.32857514663663 -2.9944482477554355 2.7281891922738324 53 58 33
18.39444872926774 0.7518062073371189 2.969114159411514 57 64 32
18.53828110606926 0.939788247594624 2.929150341008446 53 59 28
13.75025077774878 -1.00920333300206 2.512944227722149 57 67 27
12.871604088048567 -1.4058108892439265 2.4756663392048344 56 63 26
14.005186889405486 -1.1719170065370346 2.488321778814275 56 66 26
13.803378045875384 -1.2848661770144723 2.507669509514698 56 66 28
13.671913953340027 -1.4058108892439265 2.520868366677466 55 65 28
13.803378045875384 -1.2848661770144723 2.507669509514698 56 66 28
14.274357223251632 -1.0687520781694861 2.464066344624509 56 66 26
14.547974731949964 -1.1949554165780725 2.6950561578315626 57 67 30
14.128855513205272 -0.9357754732342176 2.6020164787843534 56 67 27
14.367308033929428 -1.5184809361267233 2.72208616614848 57 64 28
14.334986644188614 -0.728762919446335 2.727170818843227 60 71 34
14.047906491204259 -1.3074417137146495 2.7764005401308474 57 67 30
14.372463443865852 -0.9719094742178496 2.7212825940505425 56 67 29
14.066976496719015 -0.860492456070135 2.772871156948839 58 69 32
14.334986644188614 -0.728762919446335 2.727170818843227 60 71 34
14.815898649001673 -1.030444954301344 2.834223540563169 57 68 32
14.693496467746158 -1.2432751814338172 2.861655455102292 59 68 34
14.634880244644336 -0.8441212641067756 2.6828098679002546 58 69 31
14.638539002163025 -1.4913561495009318 2.875025817283472 57 66 32
14.30735550230109 -1.120795398220365 2.581532076481141 58 68 28
14.815898649001673 -1.030444954301344 2.834223540563169 57 68 32
14.638539002163025 -1.4913561495009318 2.875025817283472 57 66 32
13.923518897166874 -1.5261139449836492 2.627173677245096 56 63 27
14.109869139698093 -1.2458019260112092 2.6042676875061677 57 67 29
12.708698430901482 -1.536209347020891 2.37134508339296 54 59 26
13.504298185595715 -1.4241833692819912 2.41810819022614 57 62 29
13.841607498593696 -1.2130639565778354 2.3909325296323987 56 63 26
13.823478945964101 -1.5449654687876524 2.112008895831001 52 59 24
15.053653737381836 -1.318866832572729 2.0635750488389517 54 59 26
13.423818141408683 -1.539720488256002 2.317880824837829 54 61 27
13.551521384389387 -1.5425846242655536 2.21343128673049 51 58 24
13.617008561106745 -1.3406890233643496 2.3048195416343766 56 62 26
15.794541605341895 -1.24731639934702 2.1108684738288916 54 59 26
12.163160475900114 -2.3404747658605554 2.5537617685958844 53 60 28
12.05073172502723 -2.264733016495577 2.31033086617094 53 60 30
12.511684810375076 -1.9458009599902766 2.51318629167286 53 59 23
13.09524356880771 -2.134489755574807 2.5854150659563917 53 59 27
12.916739093517617 -1.7834918150675472 2.471231155357221 53 59 24
13.714415341459928 -1.7834918150675472 2.516547121463487 54 61 25
13.085493283792765 -1.901623174030534 2.4551281121321793 53 60 24
12.227838203231741 -2.1100554070888657 2.2971964562402745 51 58 25
12.238271804900716 -2.343199304287058 2.4118221548895655 51 58 26
12.668766097159924 -2.4554295113743874 2.642190878420947 54 61 30
13.16804125419025 -1.81343691054405 2.576584447109218 55 61 27
13.555097704281364 -2.4554295113743874 2.6775281482153312 54 61 31
13.562907952725565 -1.8529354526276087 2.6763789595146137 55 61 29
13.474586689911018 -1.688997050572081 2.6896119146760684 56 63 27
14.004272495420004 -1.7130983053370628 2.7846385281137382 55 63 27
13.777509067684962 -1.9858827552040401 2.831767645130257 54 63 28
12.998642330345712 -2.182087002344825 2.772131261497059 53 62 27
13.163000966652373 -1.9072162626707807 2.74112332359687 55 62 27
13.777509067684962 -1.9858827552040401 2.831767645130257 54 63 28
13.231135948523645 -1.9664560033523915 2.331454103928374 53 58 27
12.873687330594377 -1.741212083090454 2.253459965926219 51 58 24
13.08344999699453 -1.7257595263927012 2.146368805715629 51 58 24
12.817448542824591 -1.7600468993518563 2.362638438764903 51 56 27
12.305768300682015 -1.8664812979224028 2.291584000202619 49 56 20
14.715520908793708 2.6956682949957074 2.427622446709324 35 36 20
14.464938067726385 2.793369401827333 2.44785348783059 43 45 24
15.32757454026318 2.7365707777163295 2.382686298365985 25 26 11
14.147740807173617 2.646328076866647 2.475267878970663 44 46 24
13.914340020022147 2.392402881969866 2.285704580241698 36 40 16
13.719608336715932 2.5511884987307165 2.4005145138324755 42 44 23
14.087722025603567 2.322844656063685 2.3723876929038434 39 43 18
14.91007366378028 2.9227427870741876 2.412691020690207 35 36 21
14.0244330205889 2.5254629965793645 2.2789099129142936 37 39 18
14.27447319186171 2.6527658698485928 2.264005807213483 15 16 4
14.518173599563443 2.8683738723788923 2.558784512074217 48 51 27
14.457303470040722 2.5859728561364665 2.565202948016404 44 48 21
15.06467857801592 2.7010229969770756 2.62805542324491 47 52 23
12.9180347082333 -2.825448649362662 2.3547821238430395 51 57 35
14.117296708690558 3.12364412277803 2.4780153244209564 56 58 38
14.015812951210476 3.1254952951911954 2.3777017806067726 47 48 33
13.36947660528097 -3.0448243482722113 2.4296004308444705 58 60 40
13.288556282715293 -2.7398495721874916 2.5624361375365003 54 59 33
12.674573431607238 -3.054753679490655 2.266300543811191 55 56 41
14.961725436033616 3.0093957596202716 2.51523594718601 50 52 32
14.358033292867487 3.121311927657558 2.5759280838232255 53 56 34
14.731197294075493 3.1182832632606954 2.6697450683221677 53 58 33
12.1909946713509 -2.5797108363890096 2.299884753055074 53 58 33
12.729122766979742 -2.620331923732982 2.4900457433252297 53 58 32
12.53696585059384 -2.6782630132282788 2.385569424191916 53 58 34
12.30753447099751 -2.5151864891992144 2.4055527076173457 52 57 31
15.051545462744116 -1.48303977891402 1.7122175471922758 59 62 56
15.524692873765963 -1.3516553176554702 1.77324443985278 63 65 56
11.832663873678273 0.7762898388311013 1.75106459005312 37 41 16
12.088384427284964 0.8403196080207345 2.008292509772406 38 44 17
11.904286720825194 0.8973114286996297 1.749968201356906 35 40 16
13.09831777585232 0.9471856186850695 1.2701839003562179 35 39 17
11.876159957411467 1.0893525302122222 1.836759958737281 32 37 13
12.674151941900478 0.9940275322197312 2.2663283005302466 41 47 19
15.057146862436776 1.5491830043406165 1.91786080753386 6 10 5
13.874452182613291 1.7888886951917453 2.0277406892947383 6 12 4
13.828534772691073 1.8445305714063063 1.724820690006609 8 12 5
13.716999380778338 2.1745552308330214 1.7260832125712917 7 13 3
13.804002884856217 1.6234982857570701 1.873994729038263 5 8 3
12.373002710840993 1.131197653416182 2.184096397859255 39 44 18
12.451551060208622 1.2952528993064962 2.3928728755050495 40 45 18
13.017223980695169 1.655681074935402 2.4615537343318508 42 47 20
13.820277234712128 2.0930228339347536 2.392588538717182 42 46 19
13.911729361151645 1.8569516716542982 2.385544631238568 40 46 18
13.274942241077504 1.889819468365929 2.4378921256747845 44 49 19
12.289105464457485 1.0850381345297597 2.292775734259714 40 46 19
14.575676694072444 1.9690677861090735 2.161802425327199 14 21 4
13.825274998210405 2.0037380834912017 2.198688179872863 33 39 15
13.654352411348945 1.5406749433129958 2.302354845415543 37 42 18
14.059672106765795 1.8077425343091216 2.1866388273603894 31 37 20
12.971705842510614 1.0850381345297597 2.3506646818909185 42 47 19
13.983104179727505 1.2952528993064962 2.490387917379141 42 47 19
13.802551312682395 1.5433735249711005 2.1998837617000726 47 53 31
14.865614755661909 1.7888886951917453 2.1487716131337606 3 10 0
14.091824073027245 1.5456284251576788 2.10060164049896 15 21 4
14.105583694953195 1.6278246948185562 2.100030444615427 13 19 2
13.017223980695169 1.655681074935402 2.4615537343318508 42 47 20
13.392499335615073 2.2020910548217034 2.13146703830584 17 20 8
14.45409909011194 2.3270502683500482 2.253725564770289 28 30 11
18.622450369526664 -0.1003900064611225 1.4156036747731857 46 51 24
18.620595446965815 -0.15412343808682538 1.4697425621516038 47 52 25
12.046302726764063 0.3522651587168981 1.5808842133354875 38 43 15
11.77107674441014 0.27221944299009476 1.4960964608273852 39 44 15
13.132616060965026 0.6069295144979492 1.270993441231661 35 40 14
13.009672375455224 0.4986066818115804 1.4258987753547503 36 41 15
11.887607344404005 0.27221944299009476 1.4121111381871252 38 43 14
12.238695794947601 0.46388492392806335 1.914271541236414 39 44 15
11.717491031152436 0.46388492392806335 1.752856211459307 37 42 15
11.539559356114873 0.29716720996227763 1.9360266010137364 42 47 17
12.660866011798111 -0.22711445835065966 1.5013550467692134 45 48 15
12.307596615859836 0.012681025575236898 1.5806700375073457 39 44 13
12.360787061215373 0.0936679291453144 1.5806275479777538 39 44 15
11.987958203442068 0.015141579831307057 2.106724219875024 47 53 16
11.987958203442068 0.015141579831307057 2.106724219875024 47 53 16
12.412901226918288 0.013802507306773272 1.9960989956218362 44 49 16
11.854608200925668 -0.26924885794517256 2.0175363009377523 48 54 17
11.873070097709752 -0.16167030209092814 1.8368308536071747 43 49 14
12.38579232398173 -0.06847221031170492 1.6614694062713862 40 45 14
12.042560533435523 0.11170655649508714 2.1040335215060995 45 51 17
12.441780622540213 0.6555331830175963 1.908439707947796 36 42 15
12.556749954734572 0.71116276376463 2.0800299907868407 39 45 17
12.277166696493838 0.5844274175697693 2.001112433239986 39 45 16
12.13340897206837 -0.3569989018097565 2.006557581717919 48 54 18
13.032025763852797 0.4200227416093529 2.2436203316461802 46 51 20
12.99214584009801 0.685406529540235 2.4639440534129258 47 50 21
12.628686836579295 0.5827206071597055 2.5005463611584107 47 53 22
12.68325417612908 0.7733665512608542 2.3734151512902693 45 49 20
12.709594938230222 0.5555466135004521 2.264002902070282 45 50 21
13.675769176916235 0.40776928918220484 2.5204742087531145 49 54 22
13.1565856340546 0.5172041400588597 2.4485599387308215 47 52 21
13.058182235206546 -0.09044014214133032 2.344136159591205 49 56 20
12.473651696438303 -0.21845777386508708 2.3909680571492866 51 58 22
11.86245852586 -0.1956112768987986 2.2147236968526696 48 55 19
15.10904572462823 -0.15773222093503664 2.778041873211201 59 68 35
14.582600511934151 -0.1330404115712522 2.690122274358452 54 63 29
14.43596093249244 -0.371213904088278 2.5674813765609534 55 65 27
14.558995844653815 0.024742963969106958 2.693477698541871 53 60 25
14.273335316136048 -0.33446295751539296 2.7371020225122353 59 68 34
13.860961334581079 -0.976053403909221 2.389436902863334 56 66 27
13.320599514764211 -0.9113078589806012 2.4338627559900874 56 66 28
13.26742607606536 -0.4799264950272286 2.229560145006502 52 57 26
14.090730809891893 -0.739905358534763 2.6065517301796612 57 67 33
14.194112561222076 -0.5474249533294211 2.5943878712227453 57 66 32
14.818578244056795 -1.47673686786319 1.9236901867629836 55 59 38
13.702994615116166 -1.9211802675359289 1.5066436935024494 56 61 44
13.293803373216399 -1.777547327897416 1.7310687162094736 52 57 38
13.18205023825657 -1.7944486276528264 1.9698236233946989 52 57 27
12.740549836877927 -1.8142996735594537 2.0719929300447433 51 56 30
12.792902566906436 -2.123841354370678 1.658576347333622 53 59 38
11.735494285043917 -2.058746628190125 2.119550069217162 51 57 28
11.775847586671215 -2.2867723837614413 1.6661798712987834 58 62 44
11.500738602574216 -2.4145994435484317 2.0323289943115497 53 59 39
11.516334660597902 -2.599086610979848 1.7560728254058353 49 55 34
13.122349999093313 1.0291067147202748 2.451707535941207 43 48 19
13.424421037315833 1.2590579621649718 2.547138496844544 44 49 20
14.136693574007053 1.3902793896094676 2.6010913444251034 44 49 20
13.991354886179856 1.0779631673514494 2.6186590874007374 45 50 21
14.464126685066532 -1.1402976131330766 2.9235065422462236 58 67 34
15.38967139934762 -1.4636089489963853 2.954643610367279 57 66 34
14.878142560988616 -0.40459886616313107 2.821306419815979 61 70 36
14.620092740310511 -0.5087769080997261 2.879686127847119 60 69 35
15.148142803917182 -1.222946254731949 3.0822962320342 58 67 37
14.39857512216267 2.242902537046059 2.453414148912789 41 45 20
13.332930018110979 1.8032389740566463 2.5573665968275856 45 50 20
14.350531706827352 2.4057326374994488 2.5767519999879718 46 50 24
14.088076917815417 2.111258364268117 2.6068696421001976 44 49 20
14.542375721750494 2.4169026700650216 2.6958609719478135 47 52 22
14.101646960713078 2.7110124195804417 2.7665596824800023 51 56 27
14.288756745027655 2.5496576684125802 2.734588310085417 50 55 25
13.612859884379398 1.683055626680971 2.669121077845989 46 51 22
14.597508556411418 3.0993704794907013 2.8855211460465346 58 65 33
15.249330928406735 -1.9307625983936496 3.0120305611851914 55 64 31
14.493965149549503 -2.541370385036702 2.9144037341326454 56 64 31
14.400942610480067 -2.8380092474543273 2.9442798364877314 57 65 33
14.597508556411418 3.0993704794907013 2.8855211460465346 58 65 33
14.05730976213617 -2.7672829876118055 2.7746549815317323 55 60 32
13.69090142235996 -2.678374722858606 2.6580866148680746 55 60 33
13.306118746148284 -2.596869803423502 2.7164341273475405 54 61 32
18.296003107887767 1.0261687294189978 3.0033762034753435 57 63 32
18.546367794893975 0.5778954701901013 2.9271382526288434 57 64 32
13.803378045875384 -1.2848661770144723 2.507669509514698 56 66 28
12.808832010360968 -1.53180417347738 2.4819291313173637 55 61 26
12.871604088048567 -1.4058108892439265 2.4756663392048344 56 63 26
13.509782929008551 -1.0687520781694861 2.417648663774089 55 65 25
14.693496467746158 -1.2432751814338172 2.861655455102292 59 68 34
13.519930292851686 -1.3509285074032735 2.682752324593517 57 66 29
15.004095011273101 -0.860492456070135 2.7968951200682075 61 71 34
14.334986644188614 -0.728762919446335 2.727170818843227 60 71 34
14.693496467746158 -1.2432751814338172 2.861655455102292 59 68 34
14.811762189396656 -1.1719170065370346 2.5293673843715534 57 67 28
13.444480471764722 -1.536209347020891 2.423159999172975 55 60 29
13.483727519622816 -1.438895419938056 2.313773591433787 55 60 27
15.304394962716133 -1.24731639934702 2.0547982303225507 55 57 38
13.423818141408683 -1.539720488256002 2.317880824837829 54 61 27
13.637378187001506 -1.3157311682077446 2.407127870785401 55 62 26
14.113897848395602 -1.1176932813838285 2.3704739116700617 55 62 25
12.849024027381242 -2.0027512220737456 2.617051144348824 55 60 29
13.072322674059418 -2.547783426006152 2.5882420992508592 54 59 32
13.077053368472468 -1.6718534466870127 2.587656751019789 55 62 27
12.680596454441117 -2.2223134482957922 2.6404833662609533 54 61 29
13.627076079918693 -1.6590415931657687 2.5254851596325834 55 62 27
13.935843777120946 -2.182087002344825 2.798046710237556 53 62 28
13.328637594228097 -2.078354677128741 2.712717909645306 53 61 28
13.242080202990566 -2.3363049182029805 2.727244177725459 54 62 29
13.242080202990566 -2.3363049182029805 2.727244177725459 54 62 29
13.474586689911018 -1.688997050572081 2.6896119146760684 56 63 27
12.991869694300235 -1.6347073915604577 2.1509494646096288 51 58 24
12.723953846103695 -1.6491068647458624 2.370110025384374 53 58 27
15.087160732667336 2.826846423081588 2.399641135969277 29 32 15
14.699982550365352 2.752325852181044 2.5402807597982653 46 48 24
14.530718846123312 2.5056893784920606 2.163879982483302 9 13 0
14.887324082753988 2.8299959440072913 2.649590299006233 49 54 27
13.648656932572385 -2.9063696079809866 2.523255530916145 52 55 33
12.735295168825303 -2.9325962877624074 2.369194777170948 56 58 38
14.358033292867487 3.121311927657558 2.5759280838232255 53 56 34
14.457303470040722 2.5859728561364665 2.565202948016404 44 48 21
13.967201100820853 2.485255772745339 2.4918834031835835 44 46 22
13.883580392496166 2.4529217508491934 2.1956430941877296 22 26 4
14.304392282899142 2.6062915714901345 2.356865706051008 29 30 14
14.715520908793708 2.6956682949957074 2.427622446709324 35 36 20
13.028072551264295 -2.78753727421868 2.4605247353314628 53 58 34
12.962274763529521 -2.856228316625966 2.2479156665277777 56 57 45
14.125854849419563 2.4667830133877864 2.369603313531647 41 43 20
14.117296708690558 3.12364412277803 2.4780153244209564 56 58 38
14.36644802673076 2.3980322736422046 2.456138252828411 42 44 20
13.311648032278127 3.1254952951911954 2.325713614648914 49 50 36
12.50281804478775 -2.7252965259886968 2.277821811046178 55 59 37
11.387589900618863 -2.423889475940403 2.2464089713269324 52 58 32
13.061972161888725 0.8403196080207345 2.1474360955335996 39 44 17
12.974467572301123 2.388108277529095 1.9765793640475415 1 3 0
13.39141622063995 2.219128760684466 1.8836481178411906 7 12 0
13.41253807013678 1.1856919056465511 2.4258881943569186 42 47 18
13.755628343106293 1.7360710749127979 2.295764760233121 40 45 21
14.141898120621137 1.9196438293568152 2.2718191830979437 38 44 19
13.895292194906508 1.7755821747457343 2.498725830918155 43 48 18
13.820277234712128 2.0930228339347536 2.392588538717182 42 46 19
13.902747716893554 1.7214902490255841 2.1946490813759048 40 46 26
13.750241663702571 2.0445245885094936 2.2961118651257224 33 37 15
13.753117033885427 1.753740925987121 2.3978557923325674 41 46 19
13.651822472014167 1.537387495068736 2.4059569139003862 39 44 18
13.7107356161955 1.4291135128273607 2.40122198768323 39 44 18
12.67762679292631 1.224291110318002 2.2660995425199952 40 45 19
13.274942241077504 1.889819468365929 2.4378921256747845 44 49 19
13.108627152900665 1.7755821747457343 2.45297720971565 41 46 19
12.502118943466304 0.0936679291453144 1.4199721984795166 41 45 16
11.542552278383582 0.3833186254790397 1.8446420250945128 39 44 15
12.494045745341829 0.17344355655703708 1.5805226870574591 39 44 15
12.235873152143592 0.3833186254790397 2.0026620275309295 42 47 18
12.179301561068424 0.20622999385465576 2.097419186924541 45 52 18
12.01661431408569 -0.08170574656594563 2.105308518177597 47 53 16
12.674732317166656 -0.2965887234897074 2.266290081231708 50 57 20
12.750099783156989 0.9327765818239978 2.368003778049236 43 48 19
12.405536206378525 0.12359421723683119 2.2845409517500386 48 54 17
13.420431283843337 0.7733665512608542 2.425212032369607 45 49 20
13.03181666544802 0.01676836552569636 2.346113024431416 49 55 18
13.269646387453696 0.2539732383980379 2.438362535699198 46 53 19
12.733915274336587 0.36312370027357976 2.369306002037278 47 52 19
14.057224029822082 -0.747385998663925 2.4835003742438895 56 66 29
13.778999131679397 -0.6269478313640672 2.646047754616251 58 69 33
14.120918881428691 -0.6341124453984026 2.1835728477696756 54 59 30
12.9215998241738 -0.4334392174297207 2.354507036222287 52 59 24
12.770441798774527 -1.9481264883853908 1.5019518295204168 51 55 40
14.779546319873802 -0.710405344895748 2.84206919888531 62 71 37
14.964884217402583 2.1459108878774504 2.8042688464160324 50 55 24
14.536970627069971 2.4666555312456158 2.9019425124262677 54 59 28
14.542375721750494 2.4169026700650216 2.6958609719478135 47 52 22
13.961378157711858 -2.963701920712777 2.7929701331143417 55 60 34
13.332930018110979 1.8032389740566463 2.5573665968275856 45 50 20
13.859506685741176 1.9833043975469407 2.635405797542186 45 50 20
14.304551305329289 3.1141914781088587 2.7320344500212856 53 58 32
13.983911276838034 2.3093186221813875 2.619583213602575 45 50 21
14.304551305329289 3.1141914781088587 2.7320344500212856 53 58 32
15.289412101964672 -0.9545413471729268 2.9932611578537 60 69 37
13.936721363958549 3.1083579003241137 2.7978707293798912 54 59 31
18.689031026178572 0.7621982995942135 2.8945260560068835 53 59 28
14.995585932570163 -0.9357754732342176 2.6362847626755466 57 68 28
13.16804125419025 -1.81343691054405 2.576584447109218 55 61 27
12.764413126515047 -2.065733391603055 2.486429118874611 53 59 23
12.892164473447767 -2.058746628190125 2.2522952102838643 51 58 28
13.8375054052272 -1.6293241727318313 2.1113997203815824 50 56 24
12.027675313481309 -2.198700670356702 2.2044516777864667 50 56 30
12.584716158988234 -2.0109235490425355 2.38155392455532 51 58 24
13.085493283792765 -1.901623174030534 2.4551281121321793 53 60 24
12.780604047372993 -1.6411793824156342 2.2593960978466736 52 59 25
12.44494965068241 -1.837925825028056 2.1800331323974733 51 58 26
12.58294315463111 -2.4366863181796106 2.5054344248746423 52 59 30
14.693496467746158 -1.2432751814338172 2.861655455102292 59 68 34
12.331876936884495 -2.1719700745551123 2.4033762204549403 51 58 24
14.731197294075493 3.1182832632606954 2.6697450683221677 53 58 33
14.754526471662592 -3.0161802648815064 2.6666558886067366 53 58 33
14.403653784824046 2.992453293062771 2.570958630238501 52 54 31
12.30753447099751 -2.5151864891992144 2.4055527076173457 52 57 31
14.889391093633312 -1.550184289074852 1.646191142856778 64 67 61
14.330964352163233 1.6197815387252137 1.719379906701348 5 8 5
14.18997804950764 1.7092583954223233 2.0965553661420078 2 8 0
14.849896769205042 1.9393013043054736 2.0709574692135018 7 13 4
13.62807587399132 1.6278246948185562 2.0366486275192655 5 8 1
12.177282729824775 1.0893525302122222 1.916075851226672 32 36 12
11.458127955708513 -0.26924885794517256 1.9387455844289916 46 52 17
12.335510210151 -0.06847221031170492 1.5806476939093352 40 45 14
12.47712841356573 -0.06847221031170492 1.4196677930551242 41 45 15
12.773598886458414 0.6145605936002089 2.366121956467152 45 50 21
14.558995844653815 0.024742963969106958 2.693477698541871 53 60 25
14.833340590126431 -0.4236759401757704 2.656424193798977 57 67 30
13.03181666544802 0.01676836552569636 2.346113024431416 49 55 18
12.135836759270992 0.32696952853164374 2.1979189945991626 46 52 20
12.9215998241738 -0.4334392174297207 2.354507036222287 52 59 24
13.749559475218009 -0.8262828876303401 2.3981370848535777 55 65 28
13.003863196760161 -0.613124474976378 2.245347288877016 53 60 28
12.679966693008065 -0.4799264950272286 2.167157536883393 49 55 19
13.84479522526703 -1.6247765462315817 1.9497233601448931 50 56 34
11.257178022970042 -2.5497819824958268 1.945636388304747 54 59 36
15.493783565770501 -1.3363812033120346 1.9769678180335437 54 57 36
14.55256067637076 1.3617460238374044 2.694398430818738 46 51 22
13.731095885187143 2.0473235429133227 2.5148654901661565 43 48 20
13.518613245106279 -2.8284108958246317 2.6829495780022783 53 58 32
14.647749144109225 2.635470091462434 2.6810343615064034 48 53 24
15.160943772669535 -2.2590031942078577 3.0694608284573057 56 65 32
13.86783092707798 1.957833559332255 2.812030071967124 49 54 23
14.025145998961998 2.1459108878774504 2.780668833132696 49 54 23
12.232848431443218 -2.547783426006152 2.5452674379893887 52 59 30
12.823968307034567 -1.6590415931657687 2.4804087477095735 54 59 26
13.981287237217602 -1.3822364784845071 2.619909577860634 56 65 29
14.739592366523418 -1.0559675385317338 2.6686301429863546 57 67 28
15.2556508034607 -0.728762919446335 2.7535680893996997 60 71 34
13.99041323391836 -1.507706954672134 2.7873043950771654 55 65 28
14.381967797388029 -3.032341387041907 2.573312137835307 49 53 30
15.32757454026318 2.7365707777163295 2.382686298365985 25 26 11
14.147740807173617 2.646328076866647 2.475267878970663 44 46 24
14.0244330205889 2.5254629965793645 2.2789099129142936 37 39 18
14.798586903666491 3.022897805404863 2.421168206194993 39 42 26
15.342883513047308 -1.4166781730097222 1.775677329940947 59 62 55
12.692866497411448 0.8340397938777189 1.3420267037492644 36 40 18
12.240471643118568 0.9676777042361688 2.002488890988226 37 42 17
12.554837660331243 0.7196391731471571 1.7405912808731168 37 41 15
13.064155113256536 1.4120170506192133 2.4571238535929893 41 46 19
12.538319300518443 0.22766802619872933 2.2754052231937028 46 53 19
12.33759422545692 0.01878673992260191 2.4028670295663366 49 56 20
12.433449085497472 0.4200227416093529 2.18067870649328 45 51 21
13.017861595821625 0.4639420584745508 2.3471641605201383 46 51 21
12.553998823474812 0.6378179760379926 2.1739846266874308 42 48 19
12.389045310686075 -0.6746685878733367 2.285694330274577 55 62 28
11.684273963364388 -2.6332694912393126 2.122232428581748 54 59 34
12.29920202355348 -2.054310191909245 1.6621095475508534 57 62 42
14.642382947064643 2.8382914382681643 2.8740661159076177 54 61 31
14.775665671331426 2.970578264158257 2.663880995145004 53 55 29
15.10624806043859 -1.1264832049784503 2.7785289591891384 57 68 31
14.199607633170904 1.8882302846087768 2.7494078468901697 47 52 21
14.02232641021711 2.5110783264684082 2.614840212154436 49 52 23
12.594854125733802 -2.247500127150284 2.504155116836155 52 59 25
13.693789252588397 -2.329124928852004 2.851472647717494 56 63 28
13.612832799153635 -1.53180417347738 2.526964446342375 54 63 27
14.634880244644336 -0.8441212641067756 2.6828098679002546 58 69 31
13.778999131679397 -0.6269478313640672 2.646047754616251 58 69 33
12.527330899366213 0.8484588227846319 2.2761512144345217 41 47 18
14.676138339811102 1.212383986613979 2.6771507306042146 45 50 21
11.940556092250661 -1.9664560033523915 2.209822936592457 50 57 22
14.718547391854946 2.2773728237993365 2.8557948857213424 52 57 26
13.551521384389387 -1.5425846242655536 2.21343128673049 51 58 24
14.280136938740295 2.898502544097303 2.463563457942023 46 48 27
14.642382947064643 2.8382914382681643 2.8740661159076177 54 61 31
13.99041323391836 -1.507706954672134 2.7873043950771654 55 65 28
12.987492938136116 -1.8664812979224028 2.3494632038442713 53 58 28
13.454395797164828 0.6694682601890823 1.3551861825858154 35 41 16
15.03485961860356 -0.583692287590346 2.791240341547176 62 71 36
13.28288002696119 2.3270502683500482 2.136657244274555 13 15 4
14.30735550230109 -1.120795398220365 2.581532076481141 58 68 28
12.057822693103198 0.9940275322197312 2.202615922059676 39 45 19
12.650834176934053 -0.5854651775999385 2.3760712999794014 55 62 26
14.272857200142392 1.8445305714063063 1.8637342831863428 8 13 6
15.794541605341895 -1.24731639934702 2.1108684738288916 54 59 26
