8.814900310300388 0.41707849631279825 1.7664181082795332 50 55 28
8.60172828715563 0.3065970089185569 1.3017323550970215 29 33 12
8.467408394348197 0.3065970089185569 1.7745568336759119 49 55 30
9.538210600508204 0.3065970089185569 2.087665554116634 52 57 28
8.227487001072852 0.18784479340366192 1.7805860981532877 48 53 25
8.834516064306356 0.6728218099869596 1.5383507617769685 43 48 21
8.463235595849964 1.0908448644731594 1.5369268482027825 41 44 17
8.050793496818589 1.2013169327360893 1.535190999328241 40 43 15
8.877850921492259 0.8334895031664873 1.4253627943246328 44 47 19
8.22611169531079 1.2013169327360893 1.7806216963681494 41 46 17
9.130757167425843 1.1505913152153315 2.2468662707967892 45 50 18
8.056137457241844 1.029935766460829 1.914326083022638 44 49 18
9.326704966467725 0.8427118892765509 2.2301246033508155 48 53 22
8.032253031073282 1.1505913152153315 2.051397473708 42 47 16
9.518569407045606 0.9535594606064779 2.353637000059199 47 52 20
7.702123539243952 0.9535594606064779 2.0738783655775226 45 50 19
8.254319344211321 0.8427118892765509 2.037421359723374 45 50 19
8.515753038399504 0.7501043106247961 1.8950844705560146 45 51 22
8.577669567107973 1.6988110117909714 1.5373788674917364 42 45 16
8.294722942272175 1.9619843998606783 1.7788604909051589 45 50 18
8.508084157137594 1.5819051928707768 1.5371054517368128 41 42 15
7.975807765455597 1.8430255727658704 1.7873098067219424 47 52 21
8.64706643895633 1.4646963131939543 1.4214525403891591 39 41 15
8.742795692310489 1.3503299104403241 1.652486845235798 40 43 14
8.67416472752554 1.5819051928707768 1.769634155836978 42 47 18
7.7948618856391105 1.8430255727658704 1.5340214374218586 45 50 20
8.120886096587236 1.9619843998606783 1.5354984425630158 45 50 21
8.680946968330288 1.587960587132501 2.4549044996954708 51 56 25
8.254261128677522 1.2857398485688833 2.1785531665021445 45 50 19
9.192618860576447 2.0149548743381307 2.2414796029568587 47 53 20
9.215508548074084 2.0830716471546227 2.3869120588332193 50 55 25
8.887125627099781 1.2374305112170347 2.42707350466486 52 57 24
8.703365142610503 1.4324307514517256 2.2869124821932485 52 58 23
8.202722209665508 1.3220757140656203 1.9079409032719923 40 45 16
8.031853156993463 1.5853214457933151 2.1979464518729266 49 55 22
7.978877740888684 1.5833856885634685 1.9177919871959328 45 50 21
8.929539664622803 1.9344865824185447 2.421614791324819 48 53 21
7.567877209984592 1.7375412356705482 2.0836668365480318 49 54 23
7.246047375752542 1.587960587132501 2.2790126636338206 51 56 23
6.929350525652005 -0.07188602646557424 1.5294255889151496 42 47 17
8.343643849001182 0.5778123189587382 1.415978524541008 38 41 18
9.496173216875984 0.5778123189587382 2.090183589086715 48 53 26
9.087779537433901 0.21427180054385334 2.2506657223624633 54 59 28
7.856757388505406 0.07267294171154574 2.0630792206769732 49 56 24
10.010987096074984 0.6514271770238088 2.3058192265004323 50 55 24
8.678920904674744 0.5778123189587382 1.888771247686384 50 55 28
9.622819859516932 0.46941878421495603 2.2064895485431224 50 55 26
7.436151911460824 -0.07188602646557424 1.9443155962148275 48 53 22
8.955029303050997 -0.08400559491763637 2.4183752594984 53 58 25
7.540464924323639 -0.34700014200571033 1.8000272356679732 50 55 22
7.533667684589612 -0.6508419769551748 1.3991763203810714 49 49 23
7.773437454784292 -0.46878941876173874 1.6627009334107072 49 53 22
7.373359088175827 -0.8422185235135231 1.531918146166836 49 52 22
7.851552762744056 -0.8422185235135231 1.9236625983532565 52 55 26
8.493793638991908 -0.2135164019336564 2.15906785989091 52 57 26
8.32601491901275 -0.5346654290150215 2.17257100781136 53 56 25
7.903380553437548 -0.6508419769551748 1.921248608361304 51 54 23
8.352261275067384 -0.24830414272286644 2.3241042537507646 51 57 21
7.802458384161715 -1.084576268298956 2.2194233900590636 54 56 30
8.724094960911252 -1.4075369316260489 2.4488933943189135 58 60 34
8.200595805915844 -1.9348168997165403 2.3415925354821154 59 61 39
8.652801405387212 -2.173474232681754 2.4588819984810377 59 64 37
8.511092218367693 -2.0834960890019723 2.3067439137579524 58 60 38
8.883744351873398 -1.2371232855668604 2.427512405429251 57 59 33
8.534607372226791 2.132734110241817 2.0209458930767346 43 48 17
9.316144186599988 2.3237960897063394 1.8663388012350692 44 49 17
9.791959035545727 2.5445428287384373 1.5415241957421204 50 56 25
8.64783672034025 2.4071736983801673 1.8899545668028948 48 53 22
9.670343764644956 2.2529916740545315 1.5411559591366986 41 46 13
9.096892227376845 2.1672984425124038 1.6493003597856015 42 47 15
9.597630800212158 2.2104963710358776 2.3454744855769745 51 56 26
8.409176487248669 2.9580330845046063 1.7759879048461553 58 63 30
8.575646780722021 2.576060726530598 1.7719495560960552 51 56 25
8.644056441136383 2.841725536331336 1.7703360555942371 56 61 28
8.877570001017485 2.8024499094345217 2.1304994439596783 56 61 28
9.446590282775148 2.8024499094345217 2.220325870306626 58 63 31
9.720155873471324 2.6199535980126036 2.33320993383582 55 60 28
9.080725739122224 -3.060179433257533 2.4028312771005687 61 66 34
9.232150638218934 2.932860284259603 2.2380869900764813 58 63 32
9.080725739122224 -3.060179433257533 2.4028312771005687 61 66 34
8.531990473002118 -3.071614560197735 2.1560844873178144 60 65 33
8.532310589474253 3.070848389832504 2.1560596222636526 60 65 33
9.489998625962935 2.505282821533069 2.216856565946795 54 59 27
8.853796375398069 -2.318182270773038 2.132182665237755 56 60 38
8.923430390108598 -2.210972100897257 2.265646712915907 60 62 38
9.376241833315127 -2.4823651459088807 1.8643879298836763 60 62 38
8.789751739605116 -2.6858213339196904 2.439940674617046 64 69 38
7.995642476272641 -2.8031348335813893 1.9170338542525793 61 66 35
8.486889803552597 -2.900686790374174 2.309329726342023 63 69 38
8.146323098176692 -2.9335973123494434 2.0441106201075554 61 66 33
7.9474987080603805 -2.6206276156602386 2.056965673890021 62 67 38
8.878175019029744 -2.418375255128989 2.2699030553756137 62 67 39
10.326723532736825 0.5353499725201857 2.4142393032024048 54 58 26
10.929423577848283 0.46941878421495603 2.354273510040317 52 59 27
11.43170047693901 0.6200839569805496 2.58619472332879 56 61 29
9.787333658977106 -0.6193460435783432 2.4785144646582165 53 59 25
10.779384454359356 2.2943876256201543 2.6931187251903386 53 59 26
10.497126590216418 2.461522057100553 2.752727286023206 56 61 31
9.887785918355428 2.2943876256201543 2.649253499368806 52 57 25
12.723696024882962 1.7565237104907399 3.101378996781089 61 66 35
12.833899793902223 1.0284699196577975 3.0044564222197483 60 65 32
12.942954250957118 0.6677581199704761 2.9529777536900337 61 66 33
13.096775454524083 0.9200489634534639 2.8990407239785085 58 63 32
9.885852134249175 -2.2951621117019827 2.6496183000250153 63 68 39
8.92922356512947 -1.591797006947814 2.613637018293244 60 65 36
8.995551825964766 -1.8095167779521362 2.6011272125847915 60 65 36
9.016831681504469 -2.2951621117019827 2.5972070592134116 62 67 38
9.825267083442656 2.3087411764034194 2.4735868886904018 54 59 28
9.885308790052072 2.5392666121847975 2.4659259956581483 54 59 28
9.407027838278001 -2.4346961974669177 2.532141711974038 63 68 39
10.244863568871107 2.4339253355974093 2.587759893224211 53 60 28
9.946077325340331 -2.5939152322566543 2.6384362219055237 61 68 36
9.365276544073307 2.8547535551420173 2.53855725874843 59 64 33
9.25758835675437 3.0432291560030134 2.5556633673372713 60 65 34
9.743198485379668 -2.791016421341035 2.6776760899394416 62 69 38
14.304077317597468 -0.7619423630261682 1.0363013219693546 53 58 31
15.768644388041032 -0.7164840442267192 1.1607229020559582 52 60 33
15.62433689600592 -0.98892827083957 0.9343180047138943 53 58 31
16.506216553836133 -1.0583470394910672 0.8178683931342074 48 51 23
16.23862939389392 -0.98892827083957 0.8847742299171917 51 55 27
16.31301446318357 -1.0299178170806587 0.9651726329413175 53 59 32
16.508658248320394 -1.0659867486548897 1.0449395454184993 48 55 29
8.07218411077444 -1.2010715907920835 1.6592905199505419 61 60 39
7.614243212857094 -1.0295647566971138 1.664628022950243 50 53 24
8.48358633719754 -1.0905464966828606 1.6549886611208655 55 57 32
8.249958390820796 -1.2855129764742572 2.1789159923823753 58 58 34
8.552620012538803 -1.9622411945433704 1.8936357899048433 53 57 36
8.027431208386878 -1.5853336560342444 2.1983457465291556 60 60 36
8.243687882333044 -1.8432142556759654 1.906199544722863 54 56 27
8.101146275863568 -1.7376788387397293 2.1917610548656183 57 59 35
8.602697794183362 -2.0152810386043414 2.150646957649622 56 58 34
7.973741376933135 -1.5833948602926786 1.9180249429604617 59 60 37
8.415369939361977 -1.4505958763032383 2.0278043365156115 58 58 36
9.312332101863555 -2.324215416493863 1.8664634365106854 53 55 33
9.053034234194643 -2.235762021412349 1.9934520887260665 55 57 36
9.99542136945477 -2.4001040654215817 1.8457114373999541 56 58 34
9.250317467106338 0.41707849631279825 1.2075667994515475 13 18 0
8.365659983659254 0.18784479340366192 1.2939425760964247 35 40 14
8.227487001072852 0.18784479340366192 1.7805860981532877 48 53 25
8.944003135616002 0.41707849631279825 1.3122698443722722 21 25 5
9.538210600508204 0.3065970089185569 2.087665554116634 52 57 28
9.421688678125506 0.6728218099869596 1.214471336655299 21 24 3
8.14791120967578 1.2013169327360893 1.4122283167445793 38 41 14
8.488414198100735 1.0908448644731594 1.654940662616861 41 46 17
8.103358076482731 0.7501043106247961 1.6589491926775435 45 50 22
9.076861689845488 0.8334895031664873 1.3161385626478186 33 35 9
8.323797973567371 0.9244969276105371 1.7781231077083641 44 47 18
9.347282359398527 0.7501043106247961 2.099314811201045 46 51 22
9.153801545494588 1.0849864728498704 2.3941081944071514 49 52 20
7.621697311460857 1.1505913152153315 1.9347922429406175 43 48 17
8.93056484357443 1.029935766460829 2.126785829756092 45 50 17
9.326704966467725 0.8427118892765509 2.2301246033508155 48 53 22
8.72079208229927 1.4646963131939543 1.7685569127977776 40 44 15
8.808112103179111 1.3503299104403241 1.4242030282546734 38 41 12
8.72079208229927 1.4646963131939543 1.7685569127977776 40 44 15
7.567877209984592 1.7375412356705482 2.0836668365480318 49 54 23
9.192618860576447 2.0149548743381307 2.2414796029568587 47 53 20
8.727538088682754 1.4076961389938916 2.4484181471073048 53 58 26
8.703365142610503 1.4324307514517256 2.2869124821932485 52 58 23
8.725044593623386 1.7375412356705482 2.2847522429171496 49 54 23
8.029543625044598 1.4506825518360305 1.915511080155675 43 48 19
8.202722209665508 1.3220757140656203 1.9079409032719923 40 45 16
7.775711198530893 1.8823932684375744 2.0686777579755766 49 54 21
9.60283291919235 0.5353499725201857 2.344944387431749 51 56 25
7.455075769701228 -0.34700014200571033 1.3973488257095141 42 47 16
8.155119928322444 -0.7420052364361281 2.187034463917569 52 57 26
8.228745285295178 -0.34700014200571033 2.0389875087554534 53 58 25
8.420026675845156 0.5778123189587382 1.7757197244966685 48 53 27
8.587051711486517 -0.9971903781053738 2.468353521300766 58 61 33
8.347577671607276 -2.006644297753816 2.505182519319964 59 64 37
8.44423920103118 -1.084576268298956 2.313937722956962 57 59 33
7.428523919964588 -0.6508419769551748 1.5322070026787369 49 52 19
7.182173577395767 -0.2135164019336564 1.390687482026033 42 47 19
7.5957159124651605 -0.8557023994414578 2.240221399001626 52 55 26
9.455621704326713 0.7426099354345523 2.360282223501931 51 56 25
18.496363516244898 2.3395977085504147 1.2240043524585689 42 44 17
8.552058826463862 2.0703547054460953 1.5372787552194744 43 48 18
9.011764465925719 2.4071736983801673 1.9955127485457904 52 57 26
9.650172225808348 2.3996854720816345 1.64479094923075 44 49 17
8.857189083418234 2.317687127177501 2.13194179276282 48 53 22
9.287338421900337 -2.6344614175634997 1.6476873422612275 60 65 35
8.853796375398069 -2.318182270773038 2.132182665237755 56 60 38
9.05869148048577 -2.309345431188062 2.4055057527064263 61 66 38
9.124377955786114 -2.5399950480047586 2.39759376298895 63 68 39
9.209598888487008 2.6829754556539878 2.1080670183892622 55 60 27
9.186694476416447 2.576060726530598 1.9869179121332232 52 57 26
9.221341712807916 -2.9784211287865268 1.5397122674645878 60 65 32
8.848635797327784 2.733191245352374 1.6515075901711358 54 59 26
9.135941352476111 -3.0869688424819914 1.6489641288323624 60 65 32
11.093603461871025 0.5353499725201857 2.4742102410851814 54 59 28
10.284637715110993 2.172907483308827 2.581537294138967 52 57 26
12.755529050418408 0.5068058694423286 3.060304437258863 61 68 34
12.865035546575758 -0.25526651710394854 2.9879103051835108 66 73 39
12.865247847535366 0.25794853339906887 2.987803811832972 64 71 35
13.096775454524083 0.9200489634534639 2.8990407239785085 58 63 32
9.12979710185031 -1.1700183224345184 2.577101603099335 57 62 31
9.577866932887224 -2.4625901745201717 2.7134639719328804 62 69 37
9.640583066039925 3.019420842856673 2.6994243677109226 60 65 34
10.244863568871107 2.4339253355974093 2.587759893224211 53 60 28
9.364401585547416 -2.8557402692337703 2.5386929593699312 63 70 38
9.640583066039925 3.019420842856673 2.6994243677109226 60 65 34
14.289341189292307 -0.6997526680447824 0.9521730684658579 54 56 31
14.83845709836943 -0.7619423630261682 0.9782758100412082 53 58 31
15.821342052880844 -0.6733481770913564 1.296429782189436 50 58 32
16.652264034951383 -1.1293517406363451 0.9792113371811095 47 54 28
15.62433689600592 -0.98892827083957 0.9343180047138943 53 58 31
16.31301446318357 -1.0299178170806587 0.9651726329413175 53 59 32
7.7711435009808225 -1.8826385925254705 2.0689972746167804 57 59 35
8.552620012538803 -1.9622411945433704 1.8936357899048433 53 57 36
10.463085918668606 -2.3285961929270242 1.7352947647615995 55 57 35
7.953569069374513 0.06350675822864944 1.6606138064027698 44 50 20
9.125848519273877 0.5177413015156702 1.6490507561807006 49 54 27
8.102506021010617 2.0149548743381307 2.0468821762752123 46 51 18
8.082186953909893 1.4324307514517256 2.1934401820093745 48 53 22
8.053037264386866 1.7156494492857548 1.9144637959723185 46 51 21
8.294722942272175 1.9619843998606783 1.7788604909051589 45 50 18
8.508084157137594 1.5819051928707768 1.5371054517368128 41 42 15
8.863387931713977 1.2857398485688833 2.2713065562252983 48 53 22
8.176722684371045 0.9244969276105371 1.6581562247971051 44 47 18
8.515753038399504 0.7501043106247961 1.8950844705560146 45 51 22
9.055971440196302 0.9917306082298472 1.4282430402666086 40 43 16
10.248194030968076 0.46941878421495603 2.285087727179108 52 57 28
8.652801405387212 -2.173474232681754 2.4588819984810377 59 64 37
9.020259492081696 -0.6193460435783432 2.4102210377155666 53 58 27
8.976763022222809 0.07267294171154574 2.260704753047946 52 59 27
9.369794223467428 0.6514271770238088 2.226565346667818 49 54 24
8.587492320427481 0.46941878421495603 2.017972057971788 52 57 28
7.982337473079121 -0.2135164019336564 2.0546605448421102 52 58 22
8.003802371026534 -1.7673181964382563 2.3657581844149425 59 61 37
8.67748535375034 -1.5879776396782646 2.4553912594287635 59 61 37
8.724094960911252 -1.4075369316260489 2.4488933943189135 58 60 34
8.322312135570774 2.2104963710358776 2.172876588270222 48 54 23
9.42743959445402 2.317687127177501 2.2218695304287177 53 58 27
8.923430390108598 -2.210972100897257 2.265646712915907 60 62 38
8.289076343588608 3.0795642557208764 1.779004309724321 60 65 32
11.039596685205586 0.7310787631142848 2.646384799715842 56 61 27
13.127495784223827 0.4773088755148702 2.8897566773238688 61 66 33
10.535948464060061 2.1097074091299466 2.74383072651363 54 59 29
12.802261639939955 1.6335723362669725 3.0237079975633767 60 65 32
12.755314923286386 -0.5021829202069447 3.060510759078433 62 69 35
8.974525853687698 -1.3720997464343012 2.6050443521402467 58 63 34
10.303776802493653 -2.690944534767967 2.8014401246728076 61 69 38
9.57673573357985 2.6849571795779483 2.5072003183482954 57 62 31
9.257293320364141 -3.04429118163409 2.5557113905442095 63 70 38
9.744039430188659 2.7898401543560762 2.677503628636818 59 64 33
16.12104356133931 -0.6733481770913564 1.2366836538856236 50 58 30
8.051728845400397 -1.0295647566971138 1.914521950810765 52 54 28
8.437789377048135 -1.7157535185764252 2.0264982212182905 58 58 30
8.024439691882604 -1.4505958763032383 1.915739463061158 54 54 32
8.101146275863568 -1.7376788387397293 2.1917610548656183 57 59 35
7.923124026761801 -1.321901883923825 1.7887726460426547 52 52 30
8.530446041558765 -2.1331131054221664 2.021181640902827 56 58 34
8.749157641997163 1.7671280861986778 2.4454487509615372 49 54 23
9.950880279277515 0.34769951928553894 2.311293300847688 54 59 30
9.020259492081696 -0.6193460435783432 2.4102210377155666 53 58 27
7.270768448988776 -0.2135164019336564 1.8086911543672088 48 53 22
8.375559261663366 -0.07188602646557424 2.1685143105488836 52 57 26
8.955029303050997 -0.08400559491763637 2.4183752594984 53 58 25
8.717301639074499 2.0703547054460953 1.7686371462760933 43 48 18
8.982590738446122 -2.7337597980708623 1.7627202043862054 61 66 35
9.621818497024007 2.1097074091299466 2.7035617611691785 53 58 26
8.077792559098619 -1.4323159018403848 2.1938307854082706 59 59 35
7.617037257189136 -1.1502782155119982 1.935025329383256 51 55 30
8.963047933400434 -2.0706610311501366 1.8783551259054418 53 57 36
8.244925978948642 0.06350675822864944 1.2897791559260745 34 39 12
8.289076343588608 3.0795642557208764 1.779004309724321 60 65 32
7.61562679536563 1.7156494492857548 1.664610925717734 43 48 19
9.818089462845624 0.9039593110139216 1.335742147452931 34 36 10
8.929539664622803 1.9344865824185447 2.421614791324819 48 53 21
9.056955458409986 2.235353995361434 1.9932573721483604 44 50 17
9.947450275368402 2.5929434035990626 2.63818551904323 56 61 31
7.722369753036836 -1.2855129764742572 2.072436152754186 54 59 32
9.32587791555259 0.18784479340366192 2.100655549916522 53 58 27
8.435477055316188 -2.5058628870714625 2.0266325731068036 61 66 36
8.762004283013642 1.0908448644731594 1.3067729491670486 37 39 14
8.588061821105777 -0.4000641079710478 2.298656331083932 52 57 24
8.853796375398069 -2.318182270773038 2.132182665237755 56 60 38
9.554997309831126 2.41777294576287 2.3498511266299786 54 59 28
10.244863568871107 2.4339253355974093 2.587759893224211 53 60 28
8.09907507843539 -2.7527004862649025 2.191944009346984 64 69 38
7.074041835376302 -0.5346654290150215 1.815440195297059 53 56 27
9.406166468903447 2.751933270232785 2.365597397326527 55 61 29
