12.969691344606971 1.1339539950548472 1.8462194040769588 7 5 1
14.694699418273283 0.9559003348604879 2.1085831215798834 2 0 0
11.658271223266603 1.4580541048924587 1.7893006568982106 41 47 24
11.810000381361647 1.3718157519376448 1.7864487719326072 40 48 27
11.700418828728465 1.543601986833952 2.0627967476481395 38 45 16
12.767475997462794 1.543601986833952 2.201307167152243 38 45 13
12.7846635565146 1.6404865993956739 2.2003262521872013 37 45 12
11.76692916015813 1.4472237782162636 2.0597697838311775 39 46 22
18.85297302571782 1.7712269517143167 1.705246771839517 41 51 27
11.61605489991743 2.000134929922631 1.7901077255576079 34 43 11
11.887707476898862 2.0773364918189126 1.6996178601493885 33 42 10
11.347676747718372 2.000134929922631 1.529115875260739 31 40 10
10.956932674016386 1.8287317169170934 1.8035367275943444 34 41 11
11.857579647994642 1.9170744487786373 1.9625336046230748 36 43 11
11.38963727664621 1.736082198186807 1.9795660008218419 35 42 10
11.38963727664621 1.736082198186807 1.9795660008218419 35 42 10
12.00905231440497 1.8287317169170934 2.049072570041032 37 45 12
14.7716097928085 0.5504128855044661 2.186173871102174 10 13 1
14.78262551507695 0.3648701361785799 2.1856471612396806 10 13 10
14.093957385293878 0.5970392848635636 2.220590391574893 12 13 4
14.56905160608383 0.6671050792560181 2.1960374217628527 0 2 0
14.56905160608383 0.6671050792560181 2.1960374217628527 0 2 0
12.527089945858526 -0.8170548136854844 2.319510875305518 3 5 5
12.056830488113933 -0.902700643840047 2.3563932142271566 0 2 0
13.463261733063204 -0.16304527765818624 2.2566903916514285 1 1 1
12.887240413610431 -0.28224410109053555 2.2938464182465195 4 4 3
13.088558079077151 -0.8860315466554077 2.2803527697896393 2 5 4
12.527089945858526 -0.8170548136854844 2.319510875305518 3 5 5
12.574038075590508 -0.6634898862216563 2.3160470622535074 0 0 0
12.154178847155977 -0.572398176158846 2.348412349258991 2 2 1
11.931248592574667 -0.37855607701289223 2.149649549958818 4 4 4
12.094179229633669 1.7534641135857296 2.242574519868167 37 48 15
11.949503212432312 2.234812562656146 2.2522389412198143 40 49 17
12.276332927466019 1.8550377147936938 2.2308307713791775 38 47 15
11.81008320812471 2.0400299736309218 2.057826602200005 37 46 14
11.365429912751923 2.307247443370282 2.2946615106790396 41 52 17
11.056459337373635 2.1736783259531194 1.9926567132424315 38 47 15
11.572154369417897 2.0873706202907827 2.1700668170173554 39 48 16
11.572154369417897 2.0873706202907827 2.1700668170173554 39 48 16
11.016779148403776 2.0400299736309218 1.896697442421865 37 46 14
12.255150362371879 -1.0629499998834482 2.3403325381906552 30 35 27
12.529321357894542 -1.5445741379638884 2.1187608490547754 36 40 35
12.529321357894542 -1.5445741379638884 2.1187608490547754 36 40 35
12.249539362170399 -1.3606473424201404 2.0389212759329336 30 34 34
13.094937719819011 -1.638001764346575 2.183173815683726 9 12 3
13.318882440629901 -1.24440814850537 2.265595188397941 38 41 39
13.108463234674135 -1.3396927815414246 2.279049478174465 44 47 42
13.07815793521606 -1.5445741379638884 2.1840753894108302 0 1 0
13.864132805644552 -1.3606473424201404 2.2332480608979686 0 1 3
14.32048623983447 0.5196108869540885 2.298667696311939 12 13 9
14.32048623983447 0.5196108869540885 2.298667696311939 12 13 9
14.660804780525305 0.601317146258243 2.5953185861917243 41 45 25
16.092638849327386 0.9772710128884738 2.369281980526372 94 82 59
15.683941620070774 0.8437995380610918 2.2236388338866617 87 62 29
15.46927879323691 0.7873451056093426 2.4115781194855272 4 5 0
15.413219611786479 0.4346749064100329 2.415651437694888 8 10 11
15.966095837904243 0.851271638664222 2.377452285526548 113 107 86
15.535616988476097 0.923546954976384 2.4068194235172133 96 92 82
14.069548550667175 0.4798045765292447 2.4161759984790114 13 13 11
16.25686275933896 0.945147476958198 2.5536602713868826 0 4 0
14.222438527467395 0.2438335918980674 2.4041339317095685 1 0 0
13.303690335167095 0.033263728198708514 2.3690368824361654 1 1 1
14.39866545518784 0.484893756876456 2.6260439633577892 47 51 31
13.130664714118442 0.04913157107880587 2.6422154320960236 54 57 42
12.803158033784038 0.042391833521587784 2.53611716228514 56 60 45
13.303690335167095 0.033263728198708514 2.3690368824361654 1 1 1
13.796179416683694 0.3801576391516615 2.438813693293926 4 5 4
12.803158033784038 0.042391833521587784 2.53611716228514 56 60 45
14.379543033912284 0.271922098429565 2.500823338928826 1 0 0
14.202251123260906 0.3522863514031469 2.65100168544604 50 54 34
13.318053409254839 -0.07434059973092887 2.3679309810520275 3 3 4
13.657433358922004 0.24296574647185368 2.7318947664509183 40 47 17
12.818081982722484 -0.09465394929611932 2.534437201057995 6 8 5
13.145216845390614 -0.10961299675653607 2.6401897865098496 55 59 44
13.59808280718799 0.058416594999971726 2.7420644590541188 42 48 20
13.696452345383648 0.17787221739805956 2.571065753667706 12 14 9
14.0946843790606 0.14010585698125744 2.4141670392468595 2 2 1
13.935071684913149 -1.0248370288046966 2.3235927621584636 1 4 2
12.289797094762394 -0.8228204979821675 2.4578421188864756 6 8 4
12.342151099545031 -0.6100771613587798 2.592395242118079 61 65 50
12.545756838866689 -0.4692337604736768 2.4331760828139073 0 1 0
12.677186747924265 -0.7263764009374 2.5506250509955275 53 56 46
13.151305477118473 -0.41933335477546896 2.3809991274969686 7 7 3
12.545756838866689 -0.4692337604736768 2.4331760828139073 0 1 0
12.550185049582764 -0.4048353572272146 2.5658812665134656 55 60 44
12.783641214778212 -0.902700643840047 2.41172385847057 10 13 8
12.79133593091711 -0.3099526467888311 2.6932561257894894 47 53 28
12.910677588474618 -0.22824464997677696 2.5241886107118683 45 49 38
15.96009917523904 1.0409948115639533 2.582169135959634 11 15 1
13.322892178564668 1.5406823135167027 2.367559232827253 38 47 15
13.381340631423134 1.434105879624524 2.3631010511926887 35 44 12
15.422431162104402 1.1398033889182348 2.4149788000139525 10 9 0
15.629717665929139 1.095090462015302 2.5005895155978872 30 31 15
16.81603660118901 1.0409948115639533 2.6137333997320047 50 56 29
15.840396859934101 1.5263781421786615 2.7315297583591716 42 53 18
15.8542534225896 1.6843664659309578 2.7295238387171916 42 53 18
16.116365412982066 1.5058096221869632 2.870357073154333 44 55 20
15.323333678437415 1.0840288524331736 2.8178195977698905 43 52 15
15.483530658911102 1.705521395001392 2.7882841038292585 44 55 20
15.889587589762241 1.3705602800827021 2.7244655400173357 39 50 15
15.634007321956464 1.1650766654834916 2.763045714693689 39 48 15
15.469342027311832 1.5180255656021802 2.7907796799883435 43 54 19
16.16471636674398 1.28194640972325 2.859801154710255 43 54 19
15.323333678437415 1.0840288524331736 2.8178195977698905 43 52 15
16.406140833549934 0.9746591643316572 2.6583027613371684 40 45 16
13.256296806286871 -0.16009442112273567 2.808381741548601 41 50 18
13.241866746747814 0.07202132241708246 2.8115446475406034 43 52 18
14.248473116441003 0.296740611440978 2.822040360564373 41 51 14
15.75000937691063 1.0644475959592847 2.973172879422925 44 55 20
15.878274597780159 1.4862518215006542 2.930904099273572 45 56 21
19.92130380131251 2.8032521597793942 2.9423410759653765 47 59 24
20.9024559904632 2.8032521597793942 2.9518107157948825 51 64 30
13.465351616541376 -0.8442512785848396 2.7660958721310465 47 52 33
13.509039387456962 -0.5612707909867934 2.7579755581072574 44 50 25
13.82188316395953 -0.6381126142677853 2.93471537937829 45 54 24
13.059515841010397 -0.4760027068793 2.855083402375702 45 53 21
13.22623620231196 -0.6870451601376696 2.815011871620482 46 53 25
13.509039387456962 -0.5612707909867934 2.7579755581072574 44 50 25
13.22623620231196 -0.6870451601376696 2.815011871620482 46 53 25
12.709548096882775 -0.9259446850220597 2.546840805986215 63 68 57
12.870265845963594 -0.9605596638975711 2.680670609858488 46 51 35
12.652387990148775 -1.1183260280451068 2.716658813603317 46 54 28
13.056235748905843 -1.189693808226268 2.6527681232546962 47 54 30
13.056235748905843 -1.189693808226268 2.6527681232546962 47 54 30
13.122273125189146 -1.236900747347184 2.839273871362697 47 56 29
13.062665535010273 -1.494974340188072 2.8542661059697556 50 59 32
13.778140293324103 -1.696568226536563 2.712168083152501 48 56 30
12.919151320365083 -1.3494996269736799 2.673108359101218 46 54 32
13.396073300216566 -1.7230018047818383 2.7794412226774057 50 59 32
13.379671182704426 -1.511093438002853 2.782690911908135 49 58 31
13.778140293324103 -1.696568226536563 2.712168083152501 48 56 30
13.762193540095172 -1.5215651099460406 2.7147055237672704 48 55 31
13.670245703630723 -1.653403232877312 2.449760329363482 51 56 40
13.711209274993449 -1.4245255968385138 2.4461617629310353 55 60 50
13.87615108050322 -1.6640850411784698 2.5511915175793707 49 56 36
12.095447098935368 -1.1149722191382814 2.4778061835238034 48 52 41
13.389803617538117 -1.3817242018842575 2.6078145141840805 46 52 36
13.592810139144659 -1.5418697992178674 2.3474507312830197 47 51 39
13.840450891325125 -1.3141983891833138 2.4350457803957446 49 53 45
13.235396133000192 -1.2825567121257213 2.4904295079653016 48 52 44
14.025530569553831 -2.0165755459356203 2.6751381686872024 49 59 31
13.69450781457276 -2.2631380652971194 2.5712870646779247 52 62 32
14.794710091989884 -2.4778628155483293 2.724632241929099 55 67 38
14.070491220667398 -2.3586837477110976 2.5308871506828723 52 62 32
14.070491220667398 -2.3586837477110976 2.5308871506828723 52 62 32
14.253234252792344 -2.149677323802422 2.644346533965302 52 62 33
15.415842074357125 -2.2631380652971194 2.6413879039306396 54 64 35
15.07533803215614 -2.3592127676610555 2.6844196809081287 55 65 37
14.792790063956476 -2.2411862854819016 2.7249253747439868 53 63 35
13.698278917214441 -1.7464070613184177 2.339912640410968 52 59 42
14.305897347868505 -1.8223459742050405 2.6376055957692164 49 58 31
13.603071584983024 -1.956845174830012 2.581854094817605 49 58 29
13.837728695622575 -2.0781533981447247 2.555347810861562 51 59 30
13.150377425282215 -1.7907580768932243 2.49896131507693 50 58 33
13.759171359682897 -1.7661279890112485 2.4419950473482146 51 57 36
23.02991217284184 1.9763456758519293 1.2858955092001034 29 43 10
23.665350322784686 1.9592093920171336 1.337424150286295 28 41 9
23.02991217284184 1.9763456758519293 1.2858955092001034 29 43 10
23.20767676652205 1.9949683431835148 1.1503401096734418 25 39 8
22.465638283331554 1.9949683431835148 1.2317008754937713 26 39 6
22.790739564230847 2.058833396836632 1.1421453273771671 25 35 5
22.18152277593377 2.100476813232176 1.2746753525361154 30 44 14
23.512634671282033 2.1779731679633114 1.2473645264308872 33 45 15
23.331319915268995 2.140184989709071 1.1991466018088952 30 43 12
23.47589650438924 2.2045384777261936 1.155442800400142 33 43 14
23.746261692758345 2.270181358535964 1.1140491351227322 33 40 13
23.52428129977158 2.2138770721624415 1.3359984634757809 39 49 23
22.681691549942933 2.140184989709071 1.281396275756121 33 47 18
23.24072035841551 2.1163144001145056 1.333078829304627 37 50 19
12.393296740440517 2.1484565715274644 1.4516731825401177 31 40 8
12.681706460428375 2.609648630585637 1.3745463860621416 34 42 10
13.537535139601843 2.6477659401654066 1.3870995358976779 35 44 12
14.003085611435239 2.746199721386463 1.3932729046198122 36 44 13
11.351301442947058 2.3194497037764483 1.5291291923628554 33 42 10
10.739788503714726 2.3835208935809398 1.7134764677475958 37 46 14
11.492815875688802 2.196038208602437 1.6166811367265645 33 42 10
11.574807738116412 2.196038208602437 1.443205167257289 32 41 9
12.24983473571392 2.496833561223867 1.450271335978249 33 42 10
11.353693924785645 2.3194497037764483 1.6172437862908957 35 44 12
12.531678415308972 2.609648630585637 1.6929640058672244 37 46 15
12.112490560382776 2.5658627279771298 1.8662775796002868 38 48 16
12.116871816306857 2.594700158819629 2.139670227163066 40 51 17
11.964494094702474 2.6416735547957697 1.9588450686452097 38 50 15
11.67593978902514 2.515253913143589 1.9689685021058352 39 50 17
12.29858829214231 2.682633237215316 2.2294270064648143 40 51 16
11.90009142860508 2.3877131969693437 2.25561121705635 40 51 18
12.807224102687623 2.7594002710830523 2.0170242110111154 40 51 16
11.363149358927265 2.314216845875855 2.0787736650464534 39 48 17
11.881729025792147 2.314216845875855 2.152375706191661 39 50 18
11.55448055828173 2.3835208935809398 1.973394353947621 38 49 16
11.911795775202492 2.443985401755706 1.8714101315521106 38 48 16
12.085067950821319 2.472947996550823 2.3540584518589047 41 52 17
12.761036425816568 2.929450656016512 2.107715867980482 41 52 17
13.134440008301015 2.908372682651373 2.2773567610283 43 54 19
12.93360949182982 3.1098309098892885 2.2906869886014802 42 58 22
12.166449838625374 2.8134710481419023 2.137066927152353 41 52 17
12.166449838625374 2.8134710481419023 2.137066927152353 41 52 17
12.995994937264495 3.00774037682708 2.2864854035542965 42 55 20
12.506292787801218 2.842200893427297 2.0285680612507697 39 50 15
12.618495185193966 3.0200983673348363 2.1144535021946362 42 53 18
13.714948176073447 -3.077203102412978 2.2417613417306432 45 60 24
12.554233979678303 3.1127921502130373 2.117550200645553 42 57 21
12.297314064383649 3.1098309098892885 2.229507200577601 42 56 20
12.87673062546888 2.7162579891953142 1.6117467842381947 37 47 15
13.1117822655432 2.7162579891953142 1.7647497368372769 37 48 16
13.439930825198399 2.81497123587693 1.610029855306789 36 47 13
12.97518884432214 2.7892732275540264 1.8460996680951278 38 49 14
12.008873995737037 -3.0826839919181963 1.7828224679209144 41 52 19
12.437185145140567 2.8664228128345064 1.775415139368581 37 48 13
13.2313427872203 2.8870978116647663 1.6864740704080414 36 47 12
12.209256505301672 2.9470787797112203 1.7792908565061736 39 50 16
13.920536568682673 2.9748688143003754 1.5368227565816028 37 47 15
12.060195458200386 3.030375942571789 1.781906525043391 40 51 17
12.437185145140567 2.8664228128345064 1.775415139368581 37 48 13
14.189596435178242 2.9049374473573106 1.4668119071328147 35 46 12
13.383674878074002 2.8870978116647663 1.760760915681432 37 48 13
14.189596435178242 2.9049374473573106 1.4668119071328147 35 46 12
12.008873995737037 -3.0826839919181963 1.7828224679209144 41 52 19
13.791955253945687 3.04648294692899 1.6090279682257 39 50 15
12.96123637755792 3.1152484272868124 2.0113471546522668 41 54 19
13.023489484665188 3.030375942571789 2.0090947704278506 41 53 18
12.242753197577976 3.1152484272868124 1.863040444469251 42 54 19
12.97597851850398 -3.0826839919181963 2.0108115990022 45 60 24
13.373351793835855 2.8664228128345064 1.9968676768847247 40 51 17
13.16164534849039 2.9470787797112203 2.0041804981466314 41 52 18
12.663867141280397 -2.9851165402312505 2.1122894361281563 46 61 25
13.801527942591223 -2.9851165402312505 2.236791294424597 46 61 26
13.446476668560223 -2.7786487460371 2.2577124881838055 48 61 30
13.371993955233823 -2.8956231820380993 2.168692521137024 47 59 27
13.20701952449486 -2.871477063537014 2.272675305594009 49 62 31
13.371993955233823 -2.8956231820380993 2.168692521137024 47 59 27
13.234075663534977 -2.9158744308182922 2.0016494848321478 45 58 23
12.355150586386948 -2.9982778498740923 1.8603045953476463 42 56 22
18.971028730695082 2.799550543392827 1.4400761637592798 26 35 6
13.67288258407098 3.10619122289494 2.4495275641241556 42 57 22
12.918722725901697 3.10619122289494 2.400111819802765 42 57 20
13.686858231001647 -3.0624899841719 2.4482964768192517 44 60 27
14.344659882444805 -3.070599587741276 2.3948026358488117 44 60 25
13.332152363196684 2.778909616701717 2.366848945935571 41 54 17
13.467049751785636 2.7366549604453465 2.468179546688503 42 55 18
14.131877821882275 -2.806149867839438 2.5247086252590845 51 66 33
14.143391814576027 -2.532119018251392 2.5235616783594446 51 63 33
14.143391814576027 -2.532119018251392 2.5235616783594446 51 63 33
14.427461218827359 -2.969319785988893 2.3886228868224904 46 62 28
14.158997085555725 -2.741145021395774 2.409079654186463 50 63 33
13.843885362963325 -2.639273933632144 2.5546785191845265 52 65 35
14.578546131165256 -2.871477063537014 2.3776287199160233 50 64 31
14.131877821882275 -2.806149867839438 2.5247086252590845 51 66 33
11.658271223266603 1.4580541048924587 1.7893006568982106 41 47 24
11.282050274045273 1.6404865993956739 1.983700469430563 37 44 12
11.76692916015813 1.4472237782162636 2.0597697838311775 39 46 22
12.222655233794743 1.6404865993956739 2.1341463035199224 36 45 11
19.012861783474527 1.7712269517143167 1.7573917036521363 44 54 30
11.80098588115648 2.0773364918189126 1.615482095539913 32 41 9
11.065226217359918 1.9170744487786373 1.7092526826654337 33 40 10
12.322032294702604 1.736082198186807 2.1290603925964295 36 45 11
15.812742759291513 0.9559003348604879 2.217424774863316 22 13 2
15.095525649111654 0.7302161318399073 2.171084158397728 98 90 71
11.812277474357614 1.9917091558411681 2.261697504039586 40 49 17
12.906241919400458 -1.113166522015559 2.2925479126023998 32 35 32
11.214021599012801 2.121756604870706 1.7981059910493558 36 45 13
15.22557341426752 0.6180344424915577 2.1652486824581407 1 3 0
11.447221779774571 1.9509380972687547 2.074689650378441 37 46 14
11.962157320667865 1.9509380972687547 2.147961837908005 38 47 15
12.094179229633669 1.7534641135857296 2.242574519868167 37 48 15
13.108463234674135 -1.3396927815414246 2.279049478174465 44 47 42
12.506358953223653 -0.37855607701289223 2.2166328232249968 30 30 30
12.133860195836583 -0.5154532374555965 2.239976838333937 46 46 43
14.401454349936206 0.31138591296820506 2.293668898950177 4 4 4
15.729342136350299 1.0548070803055611 2.393289456868502 71 65 39
14.418577862946224 0.34248701570380435 2.389280535255311 5 5 6
15.826544946334138 0.9070666254786229 2.298502370081494 97 78 52
14.630903134748081 0.6300502546502489 2.478129071099022 12 13 2
14.98522027649002 0.7017576430258731 2.5606901840330254 20 25 1
14.298450846722075 0.5343955333331557 2.508467648776 10 11 2
14.02954264022435 0.42657483625952797 2.5350694670056257 6 8 3
13.145216845390614 -0.10961299675653607 2.6401897865098496 55 59 44
15.804812133633085 0.8609321118362016 2.4858853429595924 13 14 0
15.832496861004838 0.8739043134293852 2.595176214327437 36 41 16
15.804812133633085 0.8609321118362016 2.4858853429595924 13 14 0
14.739208428332462 0.7873451056093426 2.366317330109064 6 8 3
13.19211831954403 0.20545583363769387 2.6337414471074214 51 55 38
15.116217050081998 0.5343955333331557 2.5476188560480963 8 12 2
15.932636172622956 1.0046684555391225 2.475525554550314 61 59 53
13.397077171180467 0.03727736720812717 2.4747531937499665 0 0 0
14.205078580248772 0.22091838183163645 2.3059308420445377 0 0 0
13.827886200414698 0.307094668839624 2.556420433175645 10 13 5
13.318053409254839 -0.07434059973092887 2.3679309810520275 3 3 4
12.337648221812788 -0.6415495588218365 2.4530963875097775 1 3 0
13.22808768494873 -0.8170548136854844 2.3749186909650715 7 9 9
13.23552401645236 -0.2630400536337079 2.6278796630868246 47 52 32
12.961506277254859 -0.47134135126766513 2.666691764219207 47 53 32
12.751467904635382 -0.7362192215257674 2.4145484385184393 1 3 2
15.889587589762241 1.3705602800827021 2.7244655400173357 39 50 15
16.116365412982066 1.5058096221869632 2.870357073154333 44 55 20
16.16471636674398 1.28194640972325 2.859801154710255 43 54 19
16.412034122771576 1.5180255656021802 2.8117208074361812 41 53 18
16.116365412982066 1.5058096221869632 2.870357073154333 44 55 20
17.077908456448082 1.0912986494696748 2.7121445556246657 37 42 10
16.459516552424457 1.334130472544673 2.8033962243855104 39 52 17
13.936387810796525 -0.20766327404717985 2.898657368480991 44 53 23
13.241866746747814 0.07202132241708246 2.8115446475406034 43 52 18
13.256296806286871 -0.16009442112273567 2.808381741548601 41 50 18
13.922662645312208 0.0938624967048865 2.9026676106123825 43 54 22
15.927348344750508 1.2015733423428347 2.916951832134252 43 54 19
12.778170435543625 2.307247443370282 2.4122025198343584 42 53 18
13.056235748905843 -1.189693808226268 2.6527681232546962 47 54 30
13.267483296523233 -1.0479090309413321 2.623626526082587 48 54 40
13.979514450648631 -0.8678351881603835 2.8865069167251516 46 55 26
13.379671182704426 -1.511093438002853 2.782690911908135 49 58 31
12.858602169208547 -1.5215651099460406 2.682500555533714 48 55 31
13.160720498448901 -0.8311523221056641 2.6380447938291276 52 57 42
13.762193540095172 -1.5215651099460406 2.7147055237672704 48 55 31
12.83830962239761 -0.7116167073170614 2.685708553628066 46 51 34
12.897835547571791 -1.1149722191382814 2.5255923622582763 61 66 53
13.670245703630723 -1.653403232877312 2.449760329363482 51 56 40
14.220390993930765 -1.677927486823408 2.648618848894723 48 56 33
13.654172940539103 -1.5385437274361395 2.4511824845940025 55 60 47
13.30656156483094 -1.2098872229566064 2.3688155175368157 42 46 40
12.40405827201969 -1.001689683392407 2.446615033720891 41 46 34
12.897835547571791 -1.1149722191382814 2.5255923622582763 61 66 53
13.608955374543548 -1.644912274239762 2.3462855968912217 53 60 45
14.548218942612694 -2.4546577505958065 2.6081835495427543 55 65 37
14.546266379124813 -2.2631380652971194 2.608410909089987 55 65 36
14.42041192412067 -1.9221449622280902 2.7877740193340554 50 61 33
14.253234252792344 -2.149677323802422 2.644346533965302 52 62 33
14.5735191003685 -2.09617307574718 2.760345683996806 51 61 34
14.139374609972691 -2.1851000940967524 2.523961422913953 51 59 30
13.603071584983024 -1.956845174830012 2.581854094817605 49 58 29
22.39357343466334 2.058833396836632 1.182772051498909 26 39 8
22.845378308995972 2.100476813232176 1.1908424757332985 26 37 6
22.752843863363214 2.0775967815343455 1.3278800528127144 34 47 16
23.65145754883652 2.2331735847420147 1.064342145086436 27 37 5
23.92443195934877 2.3050207983647186 1.1636959514406553 36 45 17
24.044930273980487 2.301501832654285 1.0254309177715701 29 36 9
12.343461094554517 2.263136131406868 1.3690954874568895 30 39 5
12.29563258958281 2.380312712422748 1.3683000151628157 33 42 8
12.647126490795383 2.496833561223867 1.2926277040921437 32 40 8
12.982755918865985 2.5431735072951343 1.5343677014361343 35 44 12
11.654894135129217 2.443985401755706 1.7893649977687103 37 47 14
10.794512870866061 2.250837928663187 1.7127482190811936 36 45 13
11.713281038656822 2.682633237215316 2.1618598495855412 39 51 16
11.399241744016091 2.4564230820217943 2.077011879781243 39 50 17
11.982729668526236 2.7243139992602265 2.050211731884928 38 50 14
12.790164105657686 2.6817568832696916 1.9325943378877979 39 50 15
10.911775385528543 2.314216845875855 1.998615627076841 39 48 17
12.40849176682647 2.7594002710830523 1.9442613044197632 39 50 15
11.20052229508285 2.3835208935809398 1.8911585469552963 38 47 16
12.097645969573845 2.842200893427297 1.9543500218101908 39 50 15
13.701001182199581 3.1127921502130373 2.2425696799041672 43 58 22
12.554233979678303 3.1127921502130373 2.117550200645553 42 57 21
12.93360949182982 3.1098309098892885 2.2906869886014802 42 58 22
12.979278893038368 2.842200893427297 2.0977364019243456 40 51 17
13.510110954688459 2.81497123587693 1.4615616593850642 35 45 12
13.318164296706948 2.6477659401654066 1.5352855209517207 37 46 14
12.74925844803721 -3.0873058449962647 1.612156455737045 38 50 15
12.829571788018129 -3.0873058449962647 1.690113658648654 39 51 17
14.12279326377569 2.9049374473573106 1.6081319393058886 35 46 12
13.922487552484794 2.9748688143003754 1.6086693496418774 37 48 15
13.034089665085212 3.039055941644604 1.7659206925884676 39 50 16
12.96123637755792 3.1152484272868124 2.0113471546522668 41 54 19
12.992005884875137 2.8664228128345064 1.9267211824229145 39 50 16
12.678244974110877 2.8664228128345064 1.8527219330580393 38 49 14
12.454728648240945 2.9470787797112203 1.857923847961211 39 50 17
13.067455321921814 -2.9982778498740923 2.007518385411902 46 60 26
13.959389085052123 -2.8956231820380993 2.227936186306001 47 60 28
13.608548505132935 -2.809968887998356 2.1569009965012027 46 58 27
13.959389085052123 -2.8956231820380993 2.227936186306001 47 60 28
18.662323038105527 2.850501527563438 1.4379011221261064 28 37 10
13.67288258407098 3.10619122289494 2.4495275641241556 42 57 22
12.981179714917399 2.9926043937613582 2.3948731172369713 42 55 19
12.918722725901697 3.10619122289494 2.400111819802765 42 57 20
13.863007538131813 2.8827479903551407 2.4331415995028687 43 55 19
13.714857488567096 -2.969319785988893 2.338743234079549 47 62 27
14.686983462642445 -2.639273933632144 2.592393923498831 52 65 36
13.432158321718555 -2.741145021395774 2.359272563623734 49 62 31
13.975965107814991 -2.925922841339682 2.5406174647522803 50 65 32
11.917274980157828 1.3530923986575267 2.053069192103967 40 47 25
11.582875990057602 1.8287317169170934 1.9723505919088096 38 45 13
18.57258979549964 1.7182579939912614 1.6531158540014226 37 53 26
12.603370513993177 2.234812562656146 2.313901589695261 40 51 18
13.578790307633136 -0.061196530718334405 2.1583567137795656 2 2 2
14.144097618087486 0.027369380455211312 2.2178993986732345 2 2 2
11.346202260442373 2.234812562656146 2.18373385083834 40 51 18
14.20116640815965 0.11550899606132048 2.2148662425965093 0 0 0
11.50215694415874 2.1736783259531194 2.0720581787400953 39 48 16
11.346202260442373 2.234812562656146 2.18373385083834 40 51 18
12.527089945858526 -0.8170548136854844 2.319510875305518 3 5 5
12.445983868839935 -0.41933335477546896 2.3255833010155236 3 3 1
12.74281222391845 -1.3781611812833565 1.934001046867087 36 40 39
12.803158033784038 0.042391833521587784 2.53611716228514 56 60 45
13.789239133311511 0.41219350349522726 2.7104137491141613 43 48 21
12.961506277254859 -0.47134135126766513 2.666691764219207 47 53 32
12.735466053387853 -0.2014684419698422 2.415961957841451 0 1 0
12.90637306429426 -0.3142375365591171 2.4011572477988348 2 2 0
12.288760905080068 -0.35406976724520756 2.457945600518728 18 21 12
12.550185049582764 -0.4048353572272146 2.5658812665134656 55 60 44
16.116365412982066 1.5058096221869632 2.870357073154333 44 55 20
13.241866746747814 0.07202132241708246 2.8115446475406034 43 52 18
13.922662645312208 0.0938624967048865 2.9026676106123825 43 54 22
21.10336099631371 2.871075086192309 2.90737529330249 50 63 29
13.345852355474248 -0.3762740706896785 2.789507624170072 44 51 22
13.040478082202519 -1.5343537760194843 2.5103046179071216 50 55 39
13.014319151873885 -0.8678351881603835 2.867117182937052 47 54 27
14.025530569553831 -2.0165755459356203 2.6751381686872024 49 59 31
13.31809315686206 -1.9106730972593653 2.482324181759136 49 57 30
12.680431409052707 -1.2423335697951834 2.5502437950187966 47 53 40
15.714253656953927 -2.4778628155483293 2.750406803786455 54 66 37
13.257257373400329 -1.0173920016112745 2.8081724650292026 46 53 27
23.844125190425245 1.9987362427136357 1.3820917343740236 35 48 17
22.955448846914297 2.1779731679633114 1.3300666338492653 34 48 19
23.512634671282033 2.1779731679633114 1.2473645264308872 33 45 15
23.65610316348281 2.2410308533823446 1.204492246604327 37 46 20
23.9187106065082 2.2755283731213245 1.2530499830868285 39 48 22
22.872343176530386 2.037140897515219 1.2379658805423244 30 43 10
11.479644420103217 2.443985401755706 1.7042239259991727 36 45 12
11.916250820941187 2.4564230820217943 2.150472303739005 40 51 18
12.471326174893823 2.6817568832696916 1.857530886328763 39 49 17
11.992943115338422 3.1152484272868124 1.7831084203829493 41 52 18
12.579621733887578 2.7892732275540264 1.6924960848671908 37 48 14
11.32577806015454 2.515253913143589 1.8874913713011956 38 49 16
11.253006295982335 2.250837928663187 1.8896114686712988 37 46 14
13.346577997895656 2.8134710481419023 2.2638669645604543 42 53 18
12.569453484310898 -3.077203102412978 2.1168133952483257 45 60 24
12.835630623739215 -2.7786487460371 2.197437014647567 48 60 29
18.971028730695082 2.799550543392827 1.4400761637592798 26 35 6
13.119781122916532 2.8827479903551407 2.383527559686637 42 54 18
13.61142137563613 -2.760656667716114 2.5808758376829988 52 65 35
13.931792002144933 -2.842231264875999 2.4273986688904823 51 64 33
11.229812772793247 1.8287317169170934 1.8902932665880499 35 42 12
12.595716433845949 1.2089588370262663 1.8546202117193502 58 56 48
13.057136118006346 -0.7432500386716886 2.2824212063193414 0 1 1
12.73206722706193 -1.3606473424201404 2.1090707836735554 0 0 1
14.660804780525305 0.601317146258243 2.5953185861917243 41 45 25
16.25686275933896 0.945147476958198 2.5536602713868826 0 4 0
12.801934027970802 -0.5313485088044083 2.5362553012727593 31 33 25
16.001244166165403 1.223945169432037 2.7089881904934603 38 45 9
13.062665535010273 -1.494974340188072 2.8542661059697556 50 59 32
14.184903788701241 -2.3592127676610555 2.653296139264607 56 66 38
13.331392268766258 -1.5289133775424861 2.6152753191495144 48 54 34
12.652387990148775 -1.1183260280451068 2.716658813603317 46 54 28
14.253234252792344 -2.149677323802422 2.644346533965302 52 62 33
12.67604869826911 -1.1676426373005175 2.4212618640927017 41 44 36
23.379996075454088 2.165978982899454 1.1063362206055096 30 41 9
12.018058287193902 2.539164824077915 2.24762106776366 40 51 17
11.581845191572327 2.196038208602437 1.7030395879810618 34 43 11
12.631585690962249 3.030375942571789 1.9373498288531426 41 52 17
12.242753197577976 3.1152484272868124 1.863040444469251 42 54 19
11.981666923294647 2.3835208935809398 2.0502578434898497 39 50 17
13.791122116032097 2.746199721386463 1.5365038276937741 37 47 15
12.258359430794634 -3.0826839919181963 1.8626574408736842 42 56 21
13.151417770521991 2.8870978116647663 1.5348350872853114 35 46 12
13.890472656361124 -3.0522942719287554 2.549654733608941 47 63 30
13.773614569650316 -2.950018827722912 2.4407499919516935 47 63 30
13.931792002144933 -2.842231264875999 2.4273986688904823 51 64 33
13.56606131348711 -2.6955706609004983 2.4590833064843682 51 64 34
14.694699418273283 0.9559003348604879 2.1085831215798834 2 0 0
13.022615866435558 -1.7464070613184177 2.2847093977979345 36 41 28
12.644536908091219 1.6479448414079598 2.3109143784907413 37 47 15
13.625042626381395 -0.2560327290849895 2.247010404467193 4 4 5
14.144097618087486 0.027369380455211312 2.2178993986732345 2 2 2
15.930992765524 1.8369013598585386 2.718638661264383 42 53 18
15.022681400490233 0.7140221250695655 2.4454432311174674 10 11 0
13.303690335167095 0.033263728198708514 2.3690368824361654 1 1 1
14.680361627429239 0.4346749064100329 2.370416442040575 12 13 12
13.407196451514777 -0.1802537612811691 2.36114765690972 2 3 4
16.12998490489835 1.7362732295489505 2.8673371745490055 44 55 20
13.130664714118442 0.04913157107880587 2.6422154320960236 54 57 42
20.13200248489137 2.871075086192309 2.8958470349075047 47 60 25
13.96376552783792 -1.7907580768932243 2.5418930081452284 49 56 34
13.100186628629393 -1.4058315460099713 2.50409662297126 50 55 43
13.866374033971718 -1.8642240902246812 2.698476717743855 49 58 29
23.776826730699796 2.2138770721624415 1.2950832982836666 40 49 23
13.172134349441443 2.9620312275840313 1.7638498471387605 38 49 16
11.608801028691504 2.594700158819629 2.0670314183759237 38 51 16
12.508364922826479 2.908372682651373 2.2165119648160196 42 53 18
13.192441286659836 -2.842231264875999 2.377727953080693 50 63 32
13.731909848234713 2.9926043937613582 2.4443572829281823 43 56 19
11.873796895978902 2.000134929922631 1.872402384114271 36 44 12
12.591454037636336 -1.4516008444871458 2.115752034529344 0 1 0
12.21249530246767 1.8871195159211247 2.3437217656238336 40 49 17
12.996119777486399 -1.1548821321558178 2.188525186799316 27 29 28
12.639206126053159 -0.9691519332718178 2.311299647325808 1 3 1
14.401454349936206 0.31138591296820506 2.293668898950177 4 4 4
13.322892178564668 1.5406823135167027 2.367559232827253 38 47 15
12.692410535189259 2.609648630585637 1.7712439518286516 38 47 15
12.107659754190124 -2.9982778498740923 1.7810664912358276 40 52 19
12.362910786717743 3.00774037682708 2.2254066883092527 42 54 19
13.873704840793282 -2.871477063537014 2.3277446962781005 49 63 30
12.636928635805 2.778909616701717 2.311464387691094 41 53 17
11.35006999360668 2.000134929922631 1.6172586270455134 32 40 10
12.971930746125935 -1.4394359894699211 2.288099487184927 45 50 41
14.776016044220702 -1.8642240902246812 2.727497851081693 50 59 30
14.8326166844776 0.4798045765292447 2.460919868613912 7 10 7
12.730939594737299 2.8134710481419023 2.2034034981943997 41 52 17
13.627727097867748 -3.070599587741276 2.3449360551368805 43 59 23
