20.94726625620376 0.7223941781706127 1.6257773961903446 23 13 0
20.300982210338475 0.6853710647571207 1.6275295759182649 37 30 3
15.136466201666256 0.12386007226798545 1.7805110537054303 80 71 48
15.048406034207458 0.05637062211846237 1.7817567396855138 73 64 46
15.136466201666256 0.12386007226798545 1.7805110537054303 80 71 48
21.344592880152263 1.3953932153771085 1.4369261644641498 38 30 8
21.083431021958773 1.4422938736179036 1.4829901731062909 37 31 7
20.898151305063973 1.4897695330344067 1.5780277919922054 35 31 4
21.458930588956164 1.3492589348172113 1.6712086944460507 37 28 5
21.582121024010707 1.3492589348172113 1.7173262973332752 38 30 6
21.408515569701056 1.4422938736179036 1.765932932309266 36 31 5
14.79562860342151 1.0559969802785634 1.164389751273638 32 26 0
13.43259230213754 1.1223510436310675 1.3570863641196491 26 24 2
15.755668921525887 0.9753452018681107 1.3889802610905022 43 35 10
15.482762991904378 0.8944706664500118 1.1125735026903911 31 26 0
13.67350001206311 0.8467466075476071 1.2854556092618916 32 27 0
14.513282478534304 0.9532189441945649 1.1560020413351926 31 26 0
14.952692675933765 0.9371255110339175 1.3790983700549793 38 31 4
12.53393509199745 1.3470789858358552 1.8249303213968777 30 29 4
12.261071487438857 1.5124122324002278 1.8307153005795092 50 50 26
12.027002981271771 1.5968775848858083 1.7506217051638089 61 62 31
12.245450036030793 1.5968775848858083 1.8310545673910787 59 63 28
12.09272869379212 1.045930801185295 1.9211971439826463 37 37 7
12.217245011311503 0.9222668175571921 2.006035414405833 40 38 7
13.93151936168063 0.998209572136543 2.2874493073978894 46 50 14
12.632354729437996 0.6485148430602095 2.27215675453267 46 46 13
12.515711870999873 0.41497143958519095 2.2800547651740035 52 50 17
12.247403098955063 0.507140641407496 2.194307101056247 49 46 12
12.63818124571887 0.3762719815759747 2.1722417157816754 52 47 17
13.134295884546756 0.8635850739481612 2.240301932675284 46 46 13
12.538240806006852 0.8635850739481612 2.1777221311846326 43 43 10
12.56390239849898 0.7955771084928548 2.2767675018369946 45 45 13
12.538240806006852 0.8635850739481612 2.1777221311846326 43 43 10
12.32224490686612 0.6251269291295763 2.407816106016246 52 52 16
13.082047447482925 0.6251269291295763 2.4590291816718395 53 53 16
12.747384219854734 0.716629788270835 2.3715520630168143 50 50 16
12.552388700009816 0.4619128075198742 2.387706477021924 52 50 15
12.703352707516379 1.211533135452101 2.1687252573382 51 54 15
12.899696059067292 1.0823753795339064 2.254779046601401 47 50 14
12.449592064658352 1.3035250873748478 2.1826748856352696 43 45 11
12.15910606380772 1.6021813732974233 2.199539823391894 39 44 6
12.555322373140905 1.5124122324002278 1.907763712023793 25 26 4
12.821925548208881 1.3470789858358552 1.9004886248031545 27 27 0
12.473272495078913 1.5070347820603278 2.0864967210725225 33 36 4
12.741592585183815 1.327195426563249 2.074599142365707 32 32 2
12.547061933718354 1.2422684137944207 1.9938470740489165 51 52 17
13.471278351459121 1.4926445342271313 2.4242240201480247 48 54 15
13.559430956262535 1.3815157992090987 2.416803617182147 47 53 15
13.720094580315772 1.274908374669202 2.4036773887206992 46 52 14
12.997643994947843 1.274908374669202 2.351895105591673 45 50 13
14.45817830261929 1.6101915181952053 2.5688771498138534 49 55 16
14.634667000023928 1.1382349101246276 2.6874286328822827 57 61 24
13.942052751532602 1.6159529512915034 2.629140407718398 53 58 19
13.888310057829328 1.23967964576269 2.5029645843412447 48 54 16
13.650954738014327 1.0309416343661404 2.409264782449701 48 53 17
13.959129929689833 0.9581302389768587 2.7996833971619606 60 63 28
14.484151710280788 1.288382025583483 2.7092015949288273 57 62 24
13.973333881480912 1.0062652790325821 2.6251751687011073 55 60 21
13.025995409997732 0.7998532636474428 2.5984077413817745 54 57 22
13.428873419803145 0.8931145408229062 2.5505930034091144 54 58 20
14.111433869831105 1.2338911346341017 2.7705451089846953 59 62 26
12.68930539933012 0.6845297883862443 2.644098543693246 54 57 24
13.103071409234644 0.9688623554719643 2.4570577897276724 48 54 16
13.587122535465312 1.075240186235232 2.533453506483408 52 58 20
14.040886360797769 1.3280028674316704 2.616764304092712 52 58 20
13.955775233274478 1.4698940933655837 2.627395310917546 52 58 19
12.564762634178061 2.442314007049405 1.8242930792808663 41 48 9
12.760577875404557 2.556506910262596 1.8203196000411666 43 50 12
12.094047018114349 1.6809732109422897 1.7496140389101575 36 42 7
12.225425670943576 1.7031526567007196 2.195600636389809 39 44 7
12.666256133167906 1.7808367560720937 2.077880848702385 36 42 5
12.52265434587145 1.6910536822502402 2.0842627509381018 38 42 7
12.057907450799274 1.8954959286202364 2.1061344359967054 42 47 11
12.540798945494448 2.112144795572236 2.177580500345689 45 50 12
12.236109118923371 1.8265468073031024 2.2998352734509737 47 51 15
12.747063881067437 1.7635362106831924 1.902498897807857 28 33 1
12.236109118923371 1.8265468073031024 2.2998352734509737 47 51 15
12.765449913727313 2.0247991737036704 2.2633830052254273 49 55 15
12.30143208526207 2.0660007450543074 2.0028556029289253 41 46 9
12.965523905837918 1.8435270620353645 1.8967012774551726 36 42 6
13.139322083290546 1.9293381299945203 2.3412605347598285 50 56 16
13.650159637052331 1.8265468073031024 2.409329568762346 48 54 15
13.336499016005185 2.231575652318893 2.435886117580518 47 55 13
12.970930322805174 2.133642112824938 2.4696368126295494 49 57 16
13.687726126781074 1.7364104954798958 2.522974281694785 50 56 17
13.81922642866111 1.8575443728870922 2.509729024913043 50 56 15
12.790655670037939 2.073895738727305 2.368069716672519 50 56 15
13.571700579866976 2.1912053448499726 2.2150439207372443 45 51 11
13.172648334295696 2.3258346158812273 1.9725650917681488 42 48 9
12.47343436599354 2.1912053448499726 2.0864893647154537 42 48 10
12.764889498666081 2.1414075422125247 1.9861771388009029 40 46 8
12.96776099057259 2.385901627594967 2.0650100766188486 43 50 10
13.580285661319857 2.5086520234538963 2.1253703170299865 43 51 7
13.593847082098732 2.492059447407927 1.8811209630042833 40 50 10
13.630113633915775 2.442314007049405 2.0390058070620336 42 50 8
13.459202958964125 2.3218264099850763 2.221337405100406 44 52 7
13.834133377413881 2.6269612215847618 2.1140439035275804 47 53 13
14.423651231931355 2.709749563418283 2.4545320871764638 49 52 17
13.665774508647829 2.5298147772006065 2.3045176892925916 45 52 7
13.59541163772376 2.2490595154568833 2.309193999210938 44 51 9
13.270090731317376 2.615103106589806 2.3317400075735275 46 52 9
13.918063104549994 2.6630397501389744 2.2882918747330225 52 58 22
14.306347131370147 2.785944922223624 2.2648453550725405 53 56 22
13.297416804211796 2.3956828086956885 2.4393423951898088 46 54 12
13.978467508664954 2.615103106589806 2.383570432370236 48 54 16
14.720726876218047 2.615103106589806 2.4302893678064468 47 53 14
13.55707583736927 2.39010116960679 2.3117707011246402 43 52 9
14.423651231931355 2.709749563418283 2.4545320871764638 49 52 17
14.968366119949879 1.428584627698397 2.8096221458881256 58 63 26
15.320250298369047 1.4527326502889863 2.7483919407219726 58 64 24
14.676304010105882 1.3921504411206147 2.873265366950521 57 60 25
12.835233307143842 0.4613024740585279 2.6235499250616083 57 58 23
12.752612269792676 0.20741592466244677 2.37112940659768 55 52 22
12.294946551602175 0.2668238569883479 2.5421208801194695 56 55 21
12.52074116565686 -0.03002877102256518 2.669485587425598 55 57 24
12.933955489620342 0.31468274289795517 2.35678896914595 54 52 19
12.647965638783706 0.09509865162420875 2.379691975636952 54 54 25
11.955338659397329 -0.022223405122481357 2.4425248386373357 55 55 23
12.574214664684266 -0.20290967565064083 2.66122395180736 56 56 25
12.737047080633989 -0.022223405122481357 2.4930686186231537 55 55 24
12.159339657198794 -0.025543236881824416 2.558641359848149 55 57 24
12.011329549931885 -0.15108205859407242 2.4369981589720404 56 55 21
12.762854431438928 0.10737349490903234 2.4904052312297384 56 56 26
12.350440117319724 -0.31372467689707917 2.5355769561744204 56 55 22
13.71857221033403 0.8103236816628714 2.8529685849012054 45 48 14
13.153119310005827 0.37174341386568466 2.748739674695009 56 59 24
12.424185551321065 0.5426412181108989 2.6849399836350014 56 56 25
13.051684285157787 0.17490906980601617 2.7679402733386276 56 58 25
13.598117478941042 -0.6787666319451113 2.884479900435829 60 63 32
12.291052115038317 -0.4334071226072423 2.707507912570906 55 58 23
13.633337325545384 -1.0807809705895493 2.8748315751494475 59 63 32
12.069496767383326 -2.6021862183103406 1.6663160740195349 55 59 41
11.955556401460495 -2.6766526362187886 1.8375172646557496 48 52 32
14.060531876426845 2.8465456910525178 2.3774251950189447 55 58 26
14.549385990954912 3.0527648987552825 2.444064949926519 57 60 31
13.834057384736976 -3.0284869437033617 2.293603254671068 60 63 32
14.549385990954912 3.0527648987552825 2.444064949926519 57 60 31
14.582785889844317 2.9659911129599656 2.3407516059742677 52 56 25
12.711392128248425 -2.6021862183103406 1.9034656218966068 52 56 37
13.173994390542338 -2.50276671193912 2.2379192228240083 57 61 42
12.416047531173088 -2.843174822026083 2.089111322825834 50 55 30
12.199029518783975 -2.934028724933922 2.099287008043465 55 60 32
13.057085071887538 -2.7203395710667664 2.244990751154715 56 62 41
13.221285764476253 -2.7571184291422575 2.142278784683068 53 57 35
15.093178062775246 -2.525838742881768 2.506596280178483 58 64 41
14.133295695807641 -2.8132728067780426 2.3720683582246638 59 64 39
15.61295471113203 -2.6230013758165125 2.572371874493399 58 64 42
13.943031669222739 -2.9124672819590387 2.386258829684154 60 65 36
15.376034590090947 -2.7322352517465447 2.5969259610349646 61 66 39
12.386975578082113 -2.4211862622452007 1.5829967775787925 55 59 43
14.520447116385299 0.596892330318861 2.9155690932521505 16 20 0
14.285577677833793 1.2093810530277376 3.0042848017045696 53 59 23
14.405804894281863 -0.06343438723555754 2.9532766470535528 61 64 29
14.299870709665255 -0.6055361988514791 2.9972311619768996 61 64 33
14.275940323522272 0.4557347059340263 3.009259971664301 57 62 24
14.529922296020583 1.0319408014547382 2.9127504992776143 57 61 27
14.520447116385299 0.596892330318861 2.9155690932521505 16 20 0
14.202839414807986 -1.8284710812917033 3.056228851424919 59 62 32
14.333366316890437 -1.2624698064862794 2.9819576917689927 59 61 35
14.320005675243632 -1.7119933899770678 2.9878608294714093 57 62 35
14.756232335233237 -1.6446462961735795 2.8542238736083627 57 62 36
14.333366316890437 -1.2624698064862794 2.9819576917689927 59 61 35
14.320005675243632 -1.7119933899770678 2.9878608294714093 57 62 35
18.540641934474948 2.6365893190626277 2.936249503257799 65 70 37
18.0468141952724 2.8097865062001843 2.8252143529209928 64 71 39
18.868774756487632 2.5605876920916475 2.8649072598769894 61 67 33
16.096855473676598 -2.924491062757061 2.7971013596473036 64 71 41
17.041449527955027 -2.924491062757061 2.8169200969827957 66 71 42
14.810927226079516 -1.8748083064317207 2.841982148930355 58 63 37
14.560963230502194 -1.9621845149419517 2.90377109219009 59 64 36
14.560963230502194 -1.9621845149419517 2.90377109219009 59 64 36
14.376360287077196 -2.1132494951848484 2.964345455199032 60 64 35
16.200329355806897 -2.7533928437940944 2.7797199800064614 63 68 41
16.364369414456682 -2.603141519217387 2.7541028195023483 60 65 38
16.200329355806897 -2.7533928437940944 2.7797199800064614 63 68 41
15.900738934772129 -2.6748556576995237 2.833311562346005 63 68 40
15.119454700018265 -2.2414040463149503 2.7817566538984098 60 65 37
15.679038731873373 -2.4756320969667933 2.6964527092916413 59 65 42
15.974171986421455 -2.3693268196842348 2.6591734886034777 58 64 39
15.969998603528639 -2.982726111298401 2.6596727368023974 61 67 40
15.92792956728903 -3.1182055891605227 2.66474697257115 62 69 38
16.03169080627951 2.896369859811175 2.6523666299696327 54 61 27
16.074289113142555 -2.8528517670157547 2.6474119830514495 61 67 40
16.5549945273763 -2.8101590768071607 2.726799038829632 61 67 40
13.525422277913522 2.7677147407551272 1.358575640232056 37 42 15
13.106923184916104 2.66565936662387 1.8135914240247797 43 49 15
12.978274012552069 2.7380085580112645 1.8963692818199502 45 51 15
14.752782105030573 2.7380085580112645 2.1561740921156356 47 53 17
13.54232934195264 2.8399954966598613 1.8823411540317707 42 47 16
12.899912731349914 3.0684126842516086 2.0678461828703614 50 53 20
12.427687544319081 -3.126476305521836 1.99817606349601 51 54 21
12.706695027317338 -3.1277042546977927 1.82140037556117 48 51 19
14.571015273365925 3.0684126842516086 2.2498232058449332 53 56 24
13.467767449421267 2.994073250227202 1.9632729139369702 48 51 18
13.6396057485363 2.9156733784413977 1.95806333012994 48 51 18
14.819941157247891 2.8964562087183356 2.23634033466074 50 53 19
13.654560924713726 2.932137678771212 1.6551996871466235 44 47 17
13.294231798118233 2.9156733784413977 1.8883567868261932 47 50 17
12.108100370840338 -2.788241332017247 1.6660106084217234 45 49 27
12.481559710044664 -3.038414472731705 1.99621114045416 51 53 27
12.711377037346951 -2.8894536941215585 1.5826854003802553 45 48 28
13.025834659067797 -2.8894536941215585 1.3503043130065657 47 49 29
13.941095915294577 -3.126476305521836 2.195285682214892 56 59 27
13.042402366391102 -3.046744711619778 1.894709865535686 47 50 21
15.736212000094081 0.05278506748252462 1.516825949099658 45 41 20
14.307894943170535 -0.012485830000030061 1.8651570603643488 69 63 44
20.914838801576753 1.4897695330344067 1.5301978642532825 36 32 7
20.86310904377472 1.585610435936519 1.6259994028868128 37 36 6
21.13384644567965 1.4897695330344067 1.72045754208089 34 30 3
14.97241471577017 1.0900315778039746 1.310812884351935 44 37 5
14.17479923516061 0.8944706664500118 1.3684362292169538 30 25 0
12.215035769776145 1.1619795681259397 1.8317176826300485 35 35 3
12.707585922513736 0.998209572136543 2.1684983831754168 44 47 13
12.527259278899013 0.7260777479689842 2.1783309368232886 43 43 11
12.63818124571887 0.3762719815759747 2.1722417157816754 52 47 17
12.138975315021488 0.5907668024670668 2.102178092228865 46 43 10
12.515711870999873 0.41497143958519095 2.2800547651740035 52 50 17
13.418620788160068 0.7036101200240036 2.5517326525198407 55 56 20
13.015960313662932 0.7973440608076764 2.465299350452569 54 55 19
13.320253256641513 0.9422035235808228 2.3281600420796407 46 51 14
12.746838059471106 0.5197517234967709 2.492055793929109 54 53 18
12.449592064658352 1.3035250873748478 2.1826748856352696 43 45 11
12.174838303077589 1.500568055773557 2.198600471741218 41 46 10
12.272306838620223 1.4003821193103665 2.1928483741716747 42 46 11
12.170723778607321 1.2422684137944207 1.9188559770135092 60 60 26
12.540067482208102 1.5968775848858083 1.9081899155749216 55 57 28
12.734720042038015 1.4926445342271313 2.3725780905159475 46 51 15
14.196102184472904 1.1953753165420968 2.598177511404401 52 57 20
13.340379973005128 1.1302054362935445 2.4355447691856 49 53 16
14.401660436604883 1.4527326502889863 2.7217844502129505 56 62 22
14.265882142292357 1.062336029348149 2.743645259410099 56 59 23
14.484151710280788 1.288382025583483 2.7092015949288273 57 62 24
12.68930539933012 0.6845297883862443 2.644098543693246 54 57 24
13.428873419803145 0.8931145408229062 2.5505930034091144 54 58 20
13.642562127111031 1.4827108987287796 2.5276403424388594 48 54 15
13.892182198233252 0.9688623554719643 2.502589244226779 51 57 19
12.311304526725309 1.6809732109422897 1.8296303799544122 32 38 4
12.551099626760111 2.556506910262596 1.7430358886579174 39 49 11
12.369733410905877 1.9839221664853637 2.0912480138667418 41 45 10
12.062944333485362 1.6910536822502402 2.011991359711035 33 39 3
12.742297425789749 1.9494679526813445 1.9869592432472911 36 42 6
12.372477738941647 1.801488855429857 2.1870552560336165 41 45 9
12.439813950475608 1.8673178284218581 1.997732129591784 37 43 6
12.673904720891121 2.0219571684689024 2.499671144044276 51 58 17
13.999928838796228 1.7601220932551151 2.621839415446245 52 58 18
13.23955987856242 1.970635967774687 2.4445228968396946 50 57 16
14.128523633281674 1.8967896005276692 2.606148201451125 51 59 17
12.764889498666081 2.1414075422125247 1.9861771388009029 40 46 8
13.509477536936638 2.2622537412493116 2.128620181674296 43 50 9
13.209002679992544 2.442314007049405 1.9713960108876576 42 49 10
13.459202958964125 2.3218264099850763 2.221337405100406 44 52 7
13.39540366920972 2.556506910262596 1.9655101813788114 42 50 9
12.914284903054593 2.6269612215847618 1.9810807518079796 46 52 15
13.799944428503137 2.4683407548442498 2.3973358724807357 45 52 13
14.605808883696799 2.7035032555596272 2.2479021510194603 50 56 20
15.307751035652407 1.6236864007630425 2.750365123330452 56 62 23
12.18225986391742 0.18653411186892022 2.198158403899013 53 49 20
12.690611347039445 0.08533626353715956 2.2682858357059144 54 50 25
12.159339657198794 -0.025543236881824416 2.558641359848149 55 57 24
12.186370493421771 0.12326828195773422 2.555286017227617 55 55 25
12.546993434332695 0.14464812625007453 2.66540428461822 55 57 24
12.482940182928365 0.39999468886404455 2.5204253844728273 55 55 20
12.546993434332695 0.14464812625007453 2.66540428461822 55 57 24
12.284314273589741 0.35245953724965845 2.4112468222326466 54 53 19
12.70640742026429 -0.36440849778112544 2.6416257090550137 56 57 23
12.424185551321065 0.5426412181108989 2.6849399836350014 56 56 25
13.02644916220922 -0.03642440135459753 2.772912824688733 56 57 25
13.793140109027691 -0.8670167599204754 2.8352863961998938 59 64 33
13.793140109027691 -0.8670167599204754 2.8352863961998938 59 64 33
14.491361544217611 3.0613428522654536 2.3468868720390628 54 57 27
14.741632515188266 2.8737512915481194 2.3303562015410044 52 55 23
13.703638803176144 -2.7203395710667664 2.3020291675600952 58 62 41
14.572867353618786 -3.016456665317815 2.4421445110532884 61 64 33
12.581397042912787 -2.4295549973051425 2.081631756888181 62 66 50
13.89390052304255 2.9475745329599405 2.3900218078587083 53 58 26
14.368735401021992 0.8244722712318273 2.967332839389453 32 37 13
14.285577677833793 1.2093810530277376 3.0042848017045696 53 59 23
14.505325836919225 -1.6678072838140778 2.92014808157186 57 62 35
14.21631017099665 -1.0374146537016167 3.045791901025188 58 61 30
18.540641934474948 2.6365893190626277 2.936249503257799 65 70 37
14.684645816800533 -2.2000947520977148 2.8712070706933477 61 66 39
14.376360287077196 -2.1132494951848484 2.964345455199032 60 64 35
16.067837868486375 -2.507136300766807 2.802170501619628 59 64 37
16.364369414456682 -2.603141519217387 2.7541028195023483 60 65 38
15.948574394106 3.0286414230933523 2.662247322838268 61 67 37
16.511580259714318 2.9249099329328896 2.6002979577868515 59 62 29
16.03169080627951 2.896369859811175 2.6523666299696327 54 61 27
16.045230697014794 -2.5574150705450136 2.6507839581573034 59 65 42
16.074289113142555 -2.8528517670157547 2.6474119830514495 61 67 40
16.715554399948743 -2.675834043221512 2.7054990410073687 60 65 40
16.5549945273763 -2.8101590768071607 2.726799038829632 61 67 40
14.224708572238091 2.7380085580112645 2.097545043847507 47 53 17
12.756920717512692 -2.712718220273038 1.3455770363182484 47 51 32
13.50437259755756 2.9812420002541993 2.1288560548429865 50 53 20
13.016160313028996 3.074339425873972 1.8953868291314504 49 52 19
13.360855083341738 -3.0538335279055246 1.5821074411125309 43 45 21
13.431076819906258 -3.038414472731705 2.1322663342602333 57 60 30
12.682337435828531 -2.9670107430242987 1.7412359841434808 49 51 27
12.634583465337977 -2.9670107430242987 1.4239343377105051 45 47 25
12.762497876943913 -2.8894536941215585 1.6611148108719849 47 49 27
13.675750954060145 2.8964562087183356 2.121052165476914 49 52 17
22.048203899280725 -0.05939544339481189 1.1077256721704116 50 50 24
15.693072646282436 -0.010894543181710663 1.5804263894310675 62 57 40
20.872281772906238 1.5376138157171697 1.6259751181671358 33 32 2
12.083560027988847 0.9730866176602726 1.7497709076709433 31 27 0
13.29876056681164 1.0173090124217625 1.277179422305664 29 25 0
15.445259138524374 1.0307214602666182 1.318947669606603 43 35 9
14.38836321115473 1.6236864007630425 2.723859805875766 55 60 21
12.457917133346674 1.5992847916942956 2.087195567281478 39 42 7
12.570574011601728 1.1747853881884356 2.276315114318601 46 50 12
13.025995409997732 0.7998532636474428 2.5984077413817745 54 57 22
12.581258445448467 0.7942655011593517 2.0816379309861155 40 40 7
14.45817830261929 1.6101915181952053 2.5688771498138534 49 55 16
12.649859577428204 1.4287708195221724 1.9051467711701076 14 14 0
13.743043051965707 1.1382349101246276 2.655500785749885 56 60 21
12.508227355357622 1.1254720962026243 2.084913294052019 48 50 15
12.649859577428204 1.4287708195221724 1.9051467711701076 14 14 0
12.758176277088172 0.8760109530377966 2.3706801723646738 49 51 17
12.995722786984768 2.1912053448499726 2.1534808068484153 43 49 11
12.489343453706173 1.970635967774687 2.3930985135500595 50 57 16
14.180360615984624 2.5577074866419833 2.4757199110942576 49 52 17
13.55707583736927 2.39010116960679 2.3117707011246402 43 52 9
12.853175525919413 2.3094989281255 2.4812392184990184 49 56 15
12.151315386676217 2.0247991737036704 2.200006133331501 47 51 14
14.295336356722387 2.7513443375641753 2.36043700708222 54 57 23
14.687640660397465 2.659000409687757 2.5450851244611337 52 55 22
13.007833695415588 2.2622537412493116 2.0633509183292262 42 49 11
12.995722786984768 2.1912053448499726 2.1534808068484153 43 49 11
14.955572769563322 1.6346117261398314 2.812112589205942 57 63 26
12.149648252243908 -0.2751006529924939 2.423710698361908 55 54 20
13.051684285157787 0.17490906980601617 2.7679402733386276 56 58 25
12.621923383384953 -0.01966716935729119 2.3818570040796274 54 54 23
12.214395441253483 -0.1732398876575958 2.551840637974605 56 55 24
13.633337325545384 -1.0807809705895493 2.8748315751494475 59 63 32
12.652475218114486 0.310944050413155 2.6494855507366295 55 56 21
12.093233325645677 0.2334667497072206 2.4290687987645305 56 55 22
12.165606704806613 -2.485188307808527 1.8328026994023512 64 68 52
14.526752830897262 -3.1232291421188427 2.4459260881951357 60 65 36
12.630907355186958 -2.6766526362187886 1.9908603545826786 49 55 35
12.298965938104798 -2.5561802092716923 2.0029480662834667 52 56 37
15.475435287681117 -2.4549724868716893 2.586414091275123 57 63 40
12.255525509709056 -2.7571184291422575 2.004583533246777 47 51 29
13.518976590081156 -2.843174822026083 2.2179767058106603 55 60 35
12.826813314198054 -2.63453349424936 2.162184053513485 53 57 36
12.740926998228767 -2.3645457853573504 1.9870067833773097 44 47 35
14.51851593897792 -1.356110845157337 2.9161482665498726 56 61 33
14.428627777994992 0.29880952144207534 2.945149772278727 56 59 22
14.44769235875531 1.3310965770020813 2.9386260178167625 55 60 27
14.252872946074968 -0.10073167009835636 3.0220316024429548 63 67 32
18.74493467332579 2.7401362309383543 2.8892151607057155 66 72 39
13.849291428702262 2.861446855617884 1.5817085049882347 40 45 18
14.456365204805005 2.815113171049874 2.1698282014466734 50 53 18
12.240465759855313 -2.951925921008957 1.9167894626304918 51 53 29
13.310542192633333 -3.1287477020593686 1.5821501981437252 43 45 18
12.160126283923633 -2.868210613412133 1.8329235627891491 46 51 28
13.941095915294577 -3.126476305521836 2.195285682214892 56 59 27
13.304671497694276 -2.814871271905818 1.3549992627324572 48 52 32
21.557072304310992 1.3953932153771085 1.7645710332995512 37 30 6
16.197963908074904 0.9371255110339175 1.1342377324004578 38 32 4
12.734720042038015 1.4926445342271313 2.3725780905159475 46 51 15
13.471278351459121 1.4926445342271313 2.4242240201480247 48 54 15
12.123770791208562 0.7942655011593517 2.0096233887629613 41 41 6
13.729615028370015 1.3580229874200265 2.5187009473139073 49 55 17
13.092031887855606 0.5922197282137478 2.590110412178195 55 56 20
13.553759784271032 1.0823753795339064 2.311994557408895 48 51 15
13.136737953720518 2.112144795572236 2.2401548137627083 47 53 13
13.49478536145039 2.4536244982370934 2.2193322111934353 43 51 6
12.372477738941647 1.801488855429857 2.1870552560336165 41 45 9
14.295823358101808 2.5821304407123273 2.265458104765096 47 53 11
13.918063104549994 2.6630397501389744 2.2882918747330225 52 58 22
13.978467508664954 2.615103106589806 2.383570432370236 48 54 16
14.354638232801804 2.5298147772006065 2.3562793094137024 45 51 9
12.486624810608657 2.1666474552460246 2.282055718287631 48 55 14
12.621923383384953 -0.01966716935729119 2.3818570040796274 54 54 23
12.371965902629489 0.28402043032344376 2.187084558189153 54 49 18
13.78547165054606 -3.125010178239629 2.296716231481353 59 63 33
11.945699670702806 -2.485188307808527 1.7518591148513831 59 63 45
14.190970014645984 2.8134093883729254 2.4747687862331262 52 55 22
13.077855056231808 -0.24459828131064967 2.7628689944957774 57 58 24
13.83082160994933 -0.5316310229488128 2.8267859032876737 59 62 28
14.416248381924087 -0.9089239084890886 2.949512535679109 60 62 35
15.900738934772129 -2.6748556576995237 2.833311562346005 63 68 40
16.200329355806897 -2.7533928437940944 2.7797199800064614 63 68 41
15.974171986421455 -2.3693268196842348 2.6591734886034777 58 64 39
16.587178826702022 -2.4756320969667933 2.7224144819077423 58 64 41
15.167854352386257 -0.24239626297714348 3.0946184746792564 57 62 29
14.368735401021992 0.8244722712318273 2.967332839389453 32 37 13
15.189532269264124 0.8756702056935587 3.070462665534269 57 63 27
13.430636737991385 2.815113171049874 2.0465312746249205 48 51 16
13.798312972596271 3.0050149893811433 1.8011996011439524 44 47 20
13.506780153408087 3.0793792409180982 1.7307398518999006 43 46 18
12.59988642738636 0.7036101200240036 2.5075714983880717 54 54 18
12.552388700009816 0.4619128075198742 2.387706477021924 52 50 15
13.240905439378505 1.1747853881884356 2.333841036225494 48 52 15
13.801249253556833 1.1548386211673531 2.8334339602264786 60 63 28
14.000978796986653 2.7035032555596272 2.1922065887262816 49 55 19
13.47089718548927 2.385901627594967 2.130408079058009 43 51 7
13.408220662189347 2.5577074866419833 2.429631437442008 47 53 14
13.319940425804305 -2.934028724933922 2.229318742999154 57 62 33
14.376360287077196 -2.1132494951848484 2.964345455199032 60 64 35
13.77495117668754 2.932137678771212 1.7276000314607372 45 47 20
13.87118567083382 -2.814871271905818 1.2136898589123697 43 44 27
14.661942947661354 2.9812420002541993 2.2448282227894163 52 55 23
11.833735380750817 1.9293381299945203 2.2196829838730507 46 51 14
13.139322083290546 1.9293381299945203 2.3412605347598285 50 56 16
14.821709779911503 1.6159529512915034 2.662227375535086 52 58 19
12.568426877364232 1.4158558498305103 2.082210221223516 30 32 1
13.045195770679 2.316599509417233 2.34828760278977 44 53 10
14.491361544217611 3.0613428522654536 2.3468868720390628 54 57 27
16.200329355806897 -2.7533928437940944 2.7797199800064614 63 68 41
16.453751204672834 -2.9580679434712933 2.741002263356111 62 68 39
14.45230534372637 -0.41037032277112856 2.9370808648212883 60 63 32
13.39583058876574 2.7677147407551272 1.7320761248938716 41 46 15
13.645498321662929 2.6993073854652554 1.5085468197057783 42 47 15
13.430636737991385 2.815113171049874 2.0465312746249205 48 51 16
12.203208639802117 0.5606450424431232 2.3022459527156522 50 48 13
14.932539565025902 -2.076315599576134 2.81665368368286 60 65 36
18.673898655702242 2.9514995838921876 2.9044150829982063 72 77 47
15.320028363076105 0.8407802360616133 1.2487527374959493 32 26 1
12.926390782767506 -3.038414472731705 2.0667353207614294 52 55 22
14.810927226079516 -1.8748083064317207 2.841982148930355 58 63 37
