12.577742273249852 0.4620159464814411 2.1700793090314625 46 49 14
15.707205099066012 0.46250706065511193 1.901110759224634 81 81 81
15.008936659191363 0.40048957220333115 1.8471016331410361 3 2 2
14.253469990833239 0.04731157628084094 1.9363008151348868 1 1 1
13.974068313143235 0.21066517106633503 2.0220877139235602 66 67 53
14.159475167439915 0.1952372419887919 1.8641550488920196 93 94 96
13.02054279344733 0.3388887557456981 2.1470285000584175 46 49 15
14.332499932682387 0.12194355151394964 1.9341914410530083 1 1 3
13.596671231580546 0.2286943954606915 2.1197334807681445 44 47 17
13.82083346544762 0.13174991766813607 2.027468170612481 65 66 55
13.339402208371144 0.31086847179068305 2.045278882328608 42 44 17
13.666875176575065 0.04731157628084094 1.7991991218082137 86 87 89
14.244376407509975 -0.027850591531854586 1.9365451417318469 0 0 0
14.378799830239815 0.2664695986563455 1.859550594204673 88 88 90
13.020788770914326 0.06761442544918178 2.3440377648488964 49 52 19
13.102935141284773 -0.035958540843380064 2.2366885699041767 48 50 22
13.359055054119144 0.25002804439032017 2.221714745929469 47 50 18
13.198681918973172 0.1569548342791614 2.2310023606417984 47 50 17
13.10725324991951 0.17351613002618235 2.3376196025264884 49 52 17
13.112820324303707 0.06106521665437079 2.23609648572595 47 50 21
12.604375052121089 0.2756401648495621 2.268156315216568 47 50 14
12.771993356142826 0.6741484122359058 2.1597265962618746 47 50 17
14.133707701535924 0.8807902425002001 2.3662958559632163 50 52 25
14.133736068969815 1.0578688273443508 2.4734353060286107 50 53 24
13.521770655880768 0.8158220812792908 2.53306459368709 51 54 24
14.015461641684674 0.9188388653468683 2.6118528309420936 49 55 24
13.958247668110252 1.108795217322951 2.379208182964811 51 53 27
12.545491915859213 0.5653626822913601 2.381715087269458 48 51 19
12.766528532462733 0.6339605366602038 2.4827463959273985 49 52 20
12.886179868073762 0.5961528415567404 2.2499724860279975 48 51 15
14.29778862092873 1.0202739759314432 2.3546545506199856 50 53 24
13.353380812854342 0.6741484122359058 2.2220384351049027 47 50 17
14.446186783033486 0.9957139698253845 2.5629565772082215 51 54 25
13.991715369218717 0.7182590833374469 2.6147583711279525 50 55 23
13.071980570491522 -0.044615956504962646 2.4531287312848873 51 54 23
13.795883160185857 0.1454782746160494 2.821348834310476 56 61 30
12.762346097412902 -0.05875773261250281 2.6246084271483734 52 57 22
12.762346097412902 -0.05875773261250281 2.6246084271483734 52 57 22
12.438854578675164 0.5228809511648719 2.517559248981721 48 53 20
12.146412495499881 0.41237184218960854 2.300178761830887 47 51 17
12.461243700002584 -0.050720359244429566 2.515068192864063 50 54 23
13.78648775536187 -0.08599236992557631 2.823410036852389 55 62 28
12.316156510517308 -0.044615956504962646 2.4015189717466727 51 54 22
12.772494879658684 0.09964816445928591 2.6232126181573494 51 56 25
12.834496536856662 0.41237184218960854 2.3583038381895265 48 52 18
12.973788371708624 0.4615682705625096 2.462379830233574 49 54 23
12.471637506422764 0.08606482742144296 2.5139176981117783 51 55 25
12.730280325787211 0.3458757168254502 2.486432766715336 49 54 20
13.025164894634583 0.39557659672728285 2.590156331849312 50 56 19
13.462904734555519 0.46078205503551334 2.6868090093632704 52 58 23
12.561882407997935 0.21971464141390185 2.5040828352141626 50 54 23
12.860628794567715 0.2532287746695189 2.6113221569758482 51 56 23
14.629697481111174 1.0409844281899479 2.6793659493759336 50 55 24
13.34355400599645 1.4216112025924226 2.4287506186228063 50 52 26
13.477555972630858 1.3106460965113647 2.417324660346257 50 52 26
13.683515501502217 1.2058478717038454 2.400470121785229 51 53 27
13.298957498316792 1.6520761884055952 2.4326384356956345 48 50 24
13.982279842764692 1.2372572956300083 2.6159196688078517 51 54 25
14.180910798881628 1.1092924619306106 2.5922551946817505 51 54 25
13.467968270287958 1.5318831703958644 2.538822112834609 50 53 24
14.138729169771754 1.336632069198771 2.3659335173596405 50 53 25
13.659221511432882 1.278357573327994 2.5187678051579137 51 54 25
13.308666958337747 1.4369086508309026 2.3231381356686973 47 51 23
13.263953152776262 1.6436671059857284 2.3262980752055356 46 50 24
14.241961937849283 1.3106460965113647 2.463865060944294 51 53 27
13.477555972630858 1.3106460965113647 2.417324660346257 50 52 26
13.28368744086107 1.5363886584765674 2.433979718701736 49 51 25
13.389107104567602 1.7656327983114366 2.424823934102272 47 50 21
13.072530789595605 1.976135475047766 2.340182021224615 46 48 22
13.072530789595605 1.976135475047766 2.340182021224615 46 48 22
12.866830434352735 1.8444480437870534 2.2511871175922007 44 49 22
13.389107104567602 1.7656327983114366 2.424823934102272 47 50 21
13.733314416997882 1.9112735908874952 2.5112944283139864 48 51 20
13.571956615041756 1.7904016374467746 2.5277773121756453 48 51 22
14.054669764142982 1.9579335699967675 2.607107964241759 50 53 24
13.444355538697687 2.0801813745606292 2.5413788851967687 50 53 25
13.611561065445727 2.0184265731555264 2.664959964871518 51 56 26
13.84487317218559 2.152613703798124 2.6332886449378816 51 56 25
12.731285472983787 2.0184265731555264 2.6289157544621133 50 54 23
13.499140604626072 2.123196003128541 2.4155190437171523 47 52 23
12.88853833828711 2.362670047021132 2.4706145516811198 49 54 27
13.300280704770875 2.26675443069272 2.5573934273806427 49 54 25
13.24043009298337 2.631765557448822 2.7224811476225583 54 59 30
12.584878694059254 2.4843075824308523 2.6499793669176923 52 59 27
12.753192658737516 2.727024308711673 2.81878784218344 55 60 31
12.991947273817953 3.008516244127515 2.7677241223207094 54 60 33
13.386433897091935 3.031643631113916 2.698635177438854 53 59 32
12.991947273817953 3.008516244127515 2.7677241223207094 54 60 33
18.170141386109012 1.3904946145150268 3.050303989304652 56 65 35
13.792679038437965 -0.11098562243637149 2.0284713097658753 64 65 58
13.077562660345189 -0.1463506617325647 2.3398094462337116 49 51 24
13.077562660345189 -0.1463506617325647 2.3398094462337116 49 51 24
12.908103355808546 -0.30872591338315897 2.7846463710375695 55 62 30
12.830367507183627 -0.21428878642239346 2.615358999791029 52 57 24
12.975329777259477 -0.3600281165089623 2.5964326874449295 52 57 28
13.138399008043214 -0.16369257921168273 2.4470071347482953 51 54 25
13.709663309606663 -0.6233349478813988 2.840887741846287 58 65 33
15.282360854819316 -1.4461350202029009 2.9846271667723436 64 70 42
15.520486050398379 -1.2034356468218288 2.906755182470243 61 67 40
13.749277240380334 0.12194355151394964 1.7978061740367626 94 94 96
14.253469990833239 0.04731157628084094 1.9363008151348868 1 1 1
12.777925774367148 0.25002804439032017 2.1594164919982077 47 50 15
13.439133939318154 0.14325967555762742 2.1269191933990967 45 47 23
13.729426156912858 -0.030114094591133105 2.0307418392688215 59 60 50
13.73886058371945 0.05115251528775747 2.0304016916083554 56 58 46
13.596671231580546 0.2286943954606915 2.1197334807681445 44 47 17
13.958247668110252 1.108795217322951 2.379208182964811 51 53 27
14.697647462543548 0.9404112227217618 2.327886520408443 50 53 23
12.766528532462733 0.6339605366602038 2.4827463959273985 49 52 20
12.48176606300537 0.5089484096287964 2.276414583469027 48 51 16
13.967728133486673 0.8966643978757645 2.4886409193281596 49 52 24
12.860628794567715 0.2532287746695189 2.6113221569758482 51 56 23
13.208798630815997 -0.06981712612079542 2.7278892798649563 53 60 25
12.326672654545298 0.07573418694796694 2.4005852636250125 51 54 22
13.284259836159638 -0.050720359244429566 2.5592199500522774 51 55 23
13.992343701619612 1.5428588511943775 2.278329888024326 46 49 23
13.982279842764692 1.2372572956300083 2.6159196688078517 51 54 25
14.629697481111174 1.0409844281899479 2.6793659493759336 50 55 24
13.298957498316792 1.6520761884055952 2.4326384356956345 48 50 24
14.358593791095526 1.4024044879730153 2.572363384460073 51 54 25
13.248642750240384 1.539959387418553 2.3273871430460957 46 50 24
13.659221511432882 1.278357573327994 2.5187678051579137 51 54 25
13.483029624124892 1.662673041580675 2.537200887604129 49 52 23
13.508262772995238 -0.11188194356765341 2.893442210694754 56 63 31
12.90884655129743 2.3640577331809003 2.604985264771339 52 57 26
12.652241865133334 1.7656327983114366 2.3728768164970915 48 50 24
12.938893307867248 1.9112735908874952 2.465727183455325 47 50 19
13.897043702297577 1.822233268653368 2.626590670520609 49 52 23
13.184114628897845 2.0226496301026358 2.4428552034731004 48 51 20
12.484200933849941 2.4597072500179498 2.5125320279420644 50 55 26
12.96023338997826 2.1877971377269856 2.4636763158603303 48 53 26
12.98042943473575 2.152613703798124 2.595785225670935 49 54 23
12.580413156101788 2.863267568910694 2.6506426809271817 53 58 29
13.0786024294044 2.8080395767376336 2.751183501016359 54 59 30
18.181307887683378 1.9780552101531539 3.043824146865688 56 65 37
12.530899688773236 -0.18564330234820456 2.5074285524500133 51 55 26
12.975329777259477 -0.3600281165089623 2.5964326874449295 52 57 28
12.679286236588407 -0.31409405943822755 2.491684936156549 51 55 28
15.295635711289021 -1.8590886152017352 2.979235322104891 78 84 58
15.469046698363698 -1.4828919397144973 2.9210834896213553 59 65 38
13.333929734956238 0.4225231952711092 2.1318308072883716 46 49 16
12.979165929791225 0.544470775625133 2.1491014130579718 46 49 12
13.345112437046726 -0.03277792543431414 2.131304325862171 47 49 29
14.694857923840384 0.2664695986563455 1.9248306083126308 2 2 4
13.010833665680753 -0.039822391775111744 2.3447847962899053 49 52 19
12.850269179876717 0.37220406496454456 2.2522305835659826 47 50 14
13.268731487911062 0.2756401648495621 2.32595892298698 49 52 16
14.015461641684674 0.9188388653468683 2.6118528309420936 49 55 24
13.136937775961385 0.7182590833374469 2.5764753058305647 49 54 22
13.717420016460897 0.9639213588675528 2.397773289903755 49 52 23
14.376769828283713 0.8111171716247382 2.4522984233800154 50 52 26
13.571043276547867 0.6339605366602038 2.5278728328134914 48 53 20
14.29778862092873 1.0202739759314432 2.3546545506199856 50 53 24
12.762346097412902 -0.05875773261250281 2.6246084271483734 52 57 22
13.025164894634583 0.39557659672728285 2.590156331849312 50 56 19
13.218604646868123 0.11829890929220908 2.7262028490189714 54 59 28
12.58829431709589 0.3069148295358865 2.378143483449415 51 54 19
13.167952426889373 0.1939356951858642 2.4443174237464564 51 54 20
12.211888464530452 0.4615682705625096 2.410917019147603 48 53 21
12.991731611287728 2.5748112838962727 2.5943545409752846 51 58 27
12.654075545426563 -3.0418891605161074 2.8430890573166776 54 62 34
13.354339060941562 1.7458333470396419 2.319941840527222 44 48 21
12.919097125249637 2.52410189630166 2.7823713996958204 54 59 30
13.683515501502217 1.2058478717038454 2.400470121785229 51 53 27
13.477555972630858 1.3106460965113647 2.417324660346257 50 52 26
13.862482237422148 1.1628939731711394 2.4986323635217245 52 55 26
13.46927487332363 2.2454450977922233 2.685842747507899 52 57 26
12.694463632262671 1.7458333470396419 2.2622255174407364 45 49 22
12.825176128590938 1.8743374428513682 2.359033905714201 46 48 22
18.286967641792025 1.4583116012657404 2.9963732922033577 56 63 33
12.830367507183627 -0.21428878642239346 2.615358999791029 52 57 24
13.57254639349345 -0.3939274431619011 2.8753912085730744 58 65 33
14.351155700417218 -1.0701237094558724 2.9521789880778253 62 69 39
12.211888464530452 0.4615682705625096 2.410917019147603 48 53 21
14.538328044604286 0.8226328100580954 2.692144398531661 51 56 26
14.480321193298773 0.1952372419887919 1.9303121927489673 0 0 2
14.697647462543548 0.9404112227217618 2.327886520408443 50 53 23
12.762346097412902 -0.05875773261250281 2.6246084271483734 52 57 22
13.303783535181278 0.2984497943800676 2.71191712117402 53 58 25
13.159111598903262 2.3662023601960427 2.7365755672710543 53 58 28
13.203968241985624 1.9579335699967675 2.5685192534967385 48 51 22
13.611561065445727 2.0184265731555264 2.664959964871518 51 56 26
12.90884655129743 2.3640577331809003 2.604985264771339 52 57 26
12.66431109259874 2.9731839408511895 2.8404735001859702 52 61 33
13.28368744086107 1.5363886584765674 2.433979718701736 49 51 25
18.457311100826832 1.4891392900564027 2.9429851740251496 55 62 32
13.274532523923003 -0.2531644610063564 2.716751474196792 54 61 28
13.263260084654078 0.5228809511648719 2.5616285274394337 49 54 23
12.772494879658684 0.09964816445928591 2.6232126181573494 51 56 25
15.31199348495709 0.40048957220333115 1.90997418178519 0 0 0
13.354818362605167 0.05567150143694114 2.1308482264577195 46 48 26
14.115218678954072 1.4216112025924226 2.4750992192599535 50 52 26
13.552642088284072 1.8743374428513682 2.411083877513251 47 50 21
12.748566300528694 2.7095551854442212 2.626512703804468 54 58 29
12.4903021435617 3.031643631113916 2.6643127455483477 53 59 34
12.98197005176444 -3.062990431947583 2.7696880107606097 53 62 34
12.722675833668232 -2.787134040188464 2.8260370995738717 57 63 36
14.305352554134059 -0.10269989992108637 1.934913207986446 1 1 1
13.389107104567602 1.7656327983114366 2.424823934102272 47 50 21
13.82083346544762 0.13174991766813607 2.027468170612481 65 66 55
13.218604646868123 0.11829890929220908 2.7262028490189714 54 59 28
