9.080631902040027 45 50 23
9.064053001557706 48 50 24
9.763347293307493 49 51 25
9.260970033872399 48 53 26
9.05074446832593 48 51 24
8.63185961957967 47 49 23
8.843538972992107 48 53 28
8.63185961957967 47 49 23
8.6231427582686 47 50 26
8.843538972992107 48 53 28
9.295059881418844 44 49 22
9.004545251250876 43 48 21
9.535797067847804 47 52 25
9.750989764020343 43 49 22
9.71586868969352 44 49 20
10.15738682453758 46 51 24
9.487181538718554 43 48 19
9.295059881418844 44 49 22
8.985625692562705 50 54 32
9.723164858851776 49 54 29
16.758604682699236 52 56 38
16.84892987008193 50 53 34
16.84892987008193 50 53 34
19.56416442484771 53 56 32
18.939824409666517 53 58 31
7.445435583016351 45 47 24
7.271936945073541 42 44 19
7.222034960936272 45 46 22
7.441425084179528 44 48 26
8.120106649462201 46 48 22
7.277579258859619 49 53 33
8.39173757690081 50 54 35
8.3037109830893 49 51 27
7.58657926408084 46 50 29
8.244916249484971 50 54 34
8.218030686391575 50 54 33
8.294649276975365 49 51 27
8.312244748798355 51 53 29
7.980378300877939 51 53 31
7.798805241556925 48 50 26
8.008061776963963 50 53 31
8.218030686391575 50 54 33
8.086670000020133 50 52 28
8.771716097849719 51 55 34
8.541343400167317 52 56 39
8.397138291170036 52 56 38
8.972200828265501 50 54 32
9.60988960602973 52 56 34
9.483166675649134 52 56 40
9.519146347273207 54 60 39
9.816978445361384 51 56 37
9.483166675649134 52 56 40
8.797565724570038 52 57 39
14.29092498621078 54 63 37
14.29092498621078 54 63 37
10.466351128100692 30 36 11
11.564860844270125 39 43 19
9.453362326647248 47 52 25
9.823053082422176 50 55 30
10.549260511141014 49 55 29
9.925164939724901 40 46 21
10.505164901994377 42 47 20
9.949426900719926 43 48 20
10.671283570689592 41 46 20
9.998349802408885 41 49 21
9.321577706692276 44 49 22
10.112329351204282 43 48 22
10.321816752326832 46 51 24
10.546259908198614 45 50 23
9.993383514128881 46 51 25
9.658328105250265 42 48 21
10.187100094492187 43 48 23
10.514343110395698 49 54 29
9.66302269033491 45 50 23
11.286139220425703 53 57 36
11.616123402593635 51 55 34
10.665688884225217 48 53 28
10.883042605712244 50 55 30
10.93232839733491 48 53 28
11.18589796754872 50 55 30
10.622245864435294 47 52 27
11.194387155022717 47 52 27
11.146776481190466 50 54 33
10.105460861478987 50 55 31
10.259397194265397 47 52 27
11.173344046391097 49 55 30
10.025558840765354 48 54 29
10.144127410300657 47 52 27
9.90357300419432 51 55 32
10.940123518952726 40 46 21
11.421564093076684 50 55 31
11.834721605745269 52 56 34
9.924913885691387 50 56 32
9.846142962446638 51 55 33
9.99158458073758 49 55 36
9.966846145280973 51 57 33
12.307219191518913 54 60 38
9.351992493614823 53 59 36
8.100010682911345 50 57 34
8.619389192160922 49 56 32
9.576055815665594 53 59 36
9.692366077106916 52 61 35
9.087054869831462 52 57 36
9.765706532124167 52 58 36
10.006591977351205 53 59 36
9.851735642604412 54 61 38
9.520805959341514 49 55 35
9.520805959341514 49 55 35
9.365329154202447 50 56 31
9.315365414956634 52 59 36
9.851735642604412 54 61 38
10.614386667396163 53 62 36
9.550845429212952 52 57 35
14.260324314079043 55 65 39
14.546406117210834 52 62 35
14.384513684659838 53 63 37
9.0856231300782 44 49 22
8.6231427582686 47 50 26
8.96144331442749 46 48 22
8.843538972992107 48 53 28
9.71586868969352 44 49 20
9.523146041685212 46 51 23
10.190986413785089 46 51 24
9.381185818029476 49 51 25
9.396746963087557 49 54 29
9.276732835658274 50 54 32
9.675492571731562 48 53 27
9.276732835658274 50 54 32
16.74421196530204 51 54 36
16.74421196530204 51 54 36
7.441425084179528 44 48 26
8.218030686391575 50 54 33
7.443505589944263 49 53 33
7.489865502103227 46 50 26
7.42385138130025 47 51 29
8.07736480707512 49 51 27
8.017447404649507 49 52 30
9.371056008799945 49 54 30
9.179286808821985 50 54 32
8.682489211039865 51 57 35
8.899841135773297 50 54 37
9.483166675649134 52 56 40
11.017898913769573 36 41 16
10.10082682302392 34 40 15
10.10082682302392 34 40 15
9.865418303619787 47 52 27
11.403429856110405 41 47 22
10.753916571950214 45 50 25
9.492148387658037 49 55 30
10.505164901994377 42 47 20
11.085790090508047 51 55 33
10.85851256084092 46 51 24
10.852116353485895 50 54 32
10.1820819401256 41 46 19
10.63172646446241 49 54 29
11.101130934539421 48 53 27
9.943024687836994 48 53 28
11.283874057744896 50 56 31
10.883042605712244 50 55 30
9.82202876681652 50 55 32
10.14373730363491 49 55 28
9.21832777832309 49 54 32
9.341213154081771 51 58 36
9.9970958967521 53 60 36
9.637182353843983 52 58 33
10.182792711365666 52 58 34
9.502306890547436 51 57 35
9.743018447741175 51 57 34
9.928469096478937 53 59 36
9.618907102574296 51 57 32
9.372898198721542 53 59 38
8.947220510193679 50 55 34
14.260324314079043 55 65 39
14.384513684659838 53 63 37
14.384513684659838 53 63 37
10.539128160925967 48 53 28
11.073870452279772 46 51 26
8.953045460135453 42 47 19
9.295059881418844 44 49 22
10.15738682453758 46 51 24
8.818476748536977 44 49 22
9.487181538718554 43 48 19
8.847081445138798 51 56 38
7.271936945073541 42 44 19
8.244916249484971 50 54 34
8.682489211039865 51 57 35
8.707940887395333 52 56 37
8.120106649462201 46 48 22
8.523543697628238 48 53 28
10.964862193359167 30 34 15
12.530962797388861 53 57 35
10.546259908198614 45 50 23
10.800097998091761 49 55 30
10.622245864435294 47 52 27
10.423564445715888 39 46 20
9.450814743702768 52 58 35
10.120480371053668 53 61 35
8.843538972992107 48 53 28
9.059049889120951 47 50 21
9.680621943682105 45 50 23
9.093423136259522 50 52 27
9.708126942748132 46 51 24
17.008628589910963 52 56 41
9.552316641290721 52 56 36
7.898021752134392 48 50 26
7.512552917256407 41 43 19
8.218030686391575 50 54 33
7.989796448456829 50 52 30
9.67344343677912 44 49 22
9.887643721367192 43 49 22
10.454415897752387 45 50 25
10.508145618727797 48 53 26
9.686341006700198 45 51 25
9.67344343677912 44 49 22
8.490722562615199 51 59 35
8.45538387065262 44 46 20
9.295059881418844 44 49 22
9.260970033872399 48 53 26
7.94386282247067 51 55 37
8.218733000942386 51 55 38
9.969228530254385 47 52 27
9.868593964465516 50 56 35
14.384513684659838 53 63 37
9.09469437064638 50 55 38
14.16591516846163 57 66 40
11.873729307006561 54 60 38
9.950734354724029 52 58 36
9.874173928502067 53 61 38
10.590963090388309 40 46 20
11.528742338261353 36 41 12
8.985625692562705 50 54 32
9.851739073856585 52 57 37
9.483166675649134 52 56 40
9.998349802408885 41 49 21
