10.244419492603509 11 11 11
11.232553939738487 9 12 9
10.486676947265313 8 9 8
10.194403763073332 11 11 11
10.960188990039935 10 10 10
11.277275875683454 10 10 9
10.241334336959978 9 9 7
11.277275875683454 10 10 9
10.531817740420042 10 10 9
10.72433366132712 11 11 11
11.185663124296887 11 11 11
10.663612293095621 11 11 9
9.622520814553688 30 35 21
9.07706076952722 28 34 15
9.724400290172683 28 33 18
10.711437335546107 11 11 11
10.180836183655094 17 17 12
10.711437335546107 11 11 11
9.987070289152292 10 10 7
10.122836235041191 31 35 18
10.122836235041191 31 35 18
9.218817701901633 34 40 17
9.502677762170116 33 39 14
10.177731754147462 28 33 17
10.177731754147462 28 33 17
8.263125857181834 32 38 15
7.613911430271361 32 38 15
7.187770558692503 31 37 14
8.325874609600799 29 33 14
7.512296468638194 31 36 14
7.206047596031743 30 34 15
7.9380467591961885 28 32 17
7.276632779805909 32 36 14
7.9380467591961885 28 32 17
7.7108275099748464 32 38 15
7.512782995382394 31 35 13
8.362680913395407 29 33 11
8.198766435690613 30 34 15
8.094897944422591 31 35 16
8.011169202047771 30 36 11
7.691330790439826 30 36 12
10.457794196903887 35 36 22
10.11181665638866 7 7 3
11.670441886755746 12 10 8
11.53681801661529 12 9 12
10.862750076261266 11 9 7
10.42282202591036 11 11 6
10.758078958041068 31 32 21
9.926101547587598 11 11 5
10.457794196903887 35 36 22
9.76392853759845 9 9 4
10.979920350826236 31 35 18
10.804146412387635 34 37 25
11.442440924607716 22 23 16
10.804146412387635 34 37 25
11.442440924607716 22 23 16
10.289705179924727 18 18 15
10.616045437582295 31 33 26
10.48301541439787 35 37 24
10.152399919992378 32 31 20
10.899200351166112 14 14 12
11.115393278843117 32 36 17
10.963021823741789 34 38 21
12.588966710464131 38 42 23
12.732292779956197 40 44 25
12.48644884751849 47 51 29
12.457798514562473 40 44 25
12.002215405666554 42 46 25
11.697167489282469 36 39 29
11.131450564380053 36 40 27
11.547229695981574 41 45 24
11.896990723060501 39 43 24
11.934711742683346 39 43 25
11.503461102214521 33 37 24
11.203696210441178 37 41 27
12.224273981233617 45 49 28
12.673833903517778 46 50 29
13.07768385608149 45 49 29
12.203199907763258 40 44 25
12.64249277610721 43 47 28
11.349465226963426 41 45 28
11.362322962886088 35 39 24
12.101221324122726 43 47 28
11.926427919648603 45 49 32
11.947032255346057 41 45 24
12.534670422538523 37 41 24
12.55572042199765 40 44 23
12.702523101356373 43 47 26
10.546947269422107 41 45 26
10.584495213471644 40 44 25
10.80917885310039 38 42 23
10.80917885310039 38 42 23
10.326236621465286 43 47 29
11.513139516861505 40 46 24
11.06547127256389 38 44 22
11.876206394401512 37 41 25
12.298136156965098 31 34 26
12.556543782133545 36 40 20
11.95625906211369 35 39 19
10.965618079757649 39 45 23
14.93769714387418 41 45 23
15.40916602628828 45 50 24
11.500539794774081 9 10 9
10.141793883647365 7 11 7
11.095200766165595 10 10 10
11.00385403457463 10 10 8
10.531817740420042 10 10 9
9.991682567141337 12 12 10
10.180836183655094 17 17 12
9.88323687975904 26 31 18
10.235420637000683 15 19 11
10.180836183655094 17 17 12
10.52744210885905 12 12 11
10.520061219132321 31 35 14
8.938743503758493 34 40 17
7.631167906676212 32 36 15
7.876220477301033 31 35 15
7.597844914411321 30 34 15
7.613911430271361 32 38 15
7.276632779805909 32 36 14
9.098721075407578 33 39 16
7.711301510872069 30 36 13
7.624585672159289 30 34 12
7.989161721262537 28 32 11
7.927734081334816 28 34 12
7.374191928385619 30 36 11
10.462198957525338 36 37 24
11.048887152224818 11 9 8
9.703436944215772 34 35 23
10.108029878225782 33 37 20
10.282056378891937 9 9 5
10.846387200602713 32 36 19
10.676411369957183 27 25 17
11.670441886755746 12 10 8
10.766020232995407 13 11 8
11.048887152224818 11 9 8
9.866604277869008 36 37 26
13.25968541329877 47 51 29
11.074178621381407 32 36 19
12.782668674508615 37 41 23
10.654718293804972 34 38 16
12.732292779956197 40 44 25
11.074178621381407 32 36 19
11.077725408293235 36 40 27
11.25272645448639 39 43 27
11.731604145496696 38 42 24
12.944263893838121 43 47 26
11.769381409537862 46 50 29
12.394867848472371 45 49 28
10.403432776580672 41 45 26
10.326236621465286 43 47 29
11.52581466576634 37 41 24
12.200818956050783 39 43 21
9.987070289152292 10 10 7
7.694963350400962 28 32 17
11.13159924495528 12 12 12
7.9380467591961885 28 32 17
9.924754871757354 32 38 16
10.236834541954257 20 24 15
10.180836183655094 17 17 12
7.826684245308226 31 37 14
8.889313609845143 29 33 16
8.538862301465976 28 32 15
11.090808013235623 12 9 11
10.804043990369985 12 11 12
11.49378380995986 12 10 6
10.539772465484958 34 37 23
12.354733188063248 44 48 26
11.96855739384288 44 48 27
10.316554083106526 42 46 27
11.946472842475487 46 50 31
11.947032255346057 41 45 24
12.838455531207233 47 51 30
11.876206394401512 37 41 25
11.038343654980581 39 43 24
10.956500593632938 40 44 24
8.217059244500074 30 34 15
10.48228247254662 10 15 6
8.15347309705845 34 39 16
10.543404179747114 10 8 4
10.812671955830524 13 11 6
11.139635845994327 10 10 6
10.277377077608538 44 48 27
11.705137143616936 39 43 26
11.668132764331542 38 42 22
12.457798514562473 40 44 25
8.423579685332053 29 35 10
10.65335985017562 32 38 13
7.664822894191162 31 35 13
9.17066028368806 34 40 15
10.892694729612858 34 35 23
11.820528606756202 41 45 28
11.081883765118326 34 36 28
12.162432781149116 39 43 28
12.298136156965098 31 34 26
13.156921990624834 46 50 28
12.173882987632679 37 41 24
10.631943476671683 39 43 24
8.295342774012187 29 33 16
11.277275875683454 10 10 9
11.513139516861505 40 46 24
9.769828595507288 22 24 15
12.203199907763258 40 44 25
11.499455194404423 38 42 23
