10.219693303170096 30 35 2
10.705239017242535 26 31 1
18.843705938634685 36 38 15
19.552610059954002 43 45 19
19.563356101120178 40 42 17
20.25698484191816 41 44 17
20.452559837429504 46 49 21
18.023538397558614 53 57 34
20.27733876006595 62 67 42
10.902591723157004 36 41 11
10.78912831373056 38 43 14
11.240342501455235 30 35 7
10.444382134241106 19 24 0
10.89162014418718 25 30 1
9.987151111498887 19 24 0
10.450057849837355 28 33 2
10.423196109897365 19 24 0
10.203114175898133 21 26 0
10.328789468009655 20 25 0
10.470383378837555 10 13 0
10.669040467305718 31 34 3
10.470383378837555 10 13 0
10.525599485758265 28 31 0
10.269764989059244 30 33 2
11.116232536588695 41 46 17
10.685935138191446 40 45 16
11.06392631071166 39 45 16
10.374476953742592 38 43 15
11.05034407004955 38 43 14
10.767085650542334 45 49 19
10.9621736130524 28 34 4
10.9621736130524 28 34 4
10.064262514271405 44 49 18
15.046293220459749 39 47 13
9.862477613764876 50 55 30
10.206287008676535 45 51 24
9.986432657852552 46 51 22
11.371333156722493 24 29 3
11.784252392554201 39 44 14
10.786322541652872 39 43 10
10.58033684156517 32 37 4
10.662395829020335 29 34 6
10.601208832093466 40 44 14
10.5662580928928 29 34 6
11.48086028857906 52 55 27
11.545083206025017 39 43 12
11.685423724367338 36 40 10
11.039481110359903 45 49 19
13.884926599304043 44 49 20
12.044549734786111 41 46 15
11.908442254542367 42 47 18
12.576619120108157 42 47 18
12.287032079734532 46 51 22
11.37851505347699 48 53 25
10.432548586438868 44 47 14
10.567902031944282 35 38 5
10.40678795289216 41 44 9
9.71911758864423 39 42 7
9.75710332618895 40 43 10
10.744283906201616 44 47 14
10.432548586438868 44 47 14
9.590574274569233 43 46 15
10.31787783194169 42 45 12
10.42500371942357 43 46 11
11.328584321595939 45 48 17
11.452324963023825 43 46 18
10.746062890153343 44 47 16
11.312668613948228 45 47 19
10.651701842808826 44 47 16
10.289669292430982 44 49 24
10.441184753428061 51 56 31
10.98171194634958 46 51 26
10.945235878520009 47 50 21
11.311744157947263 40 44 15
10.824850781485532 48 54 32
10.8975709522263 45 51 28
11.74966472121404 45 51 26
11.731020915294772 52 58 35
10.520318578054209 49 54 31
11.419063585448217 42 47 22
10.505204142620796 58 64 39
11.043463577453837 54 60 36
10.578149819440519 49 53 30
11.309204108443174 49 54 31
11.310011896260914 46 51 27
10.614986902848774 46 50 28
10.784216422995952 58 64 39
15.590357188488758 50 50 27
9.536412049461221 59 63 41
9.84694217857214 60 60 39
9.945923563905739 58 63 41
8.9746627921355 57 62 39
9.172824112231407 60 65 40
9.29736863506618 61 66 41
9.886665410427142 55 60 33
9.211062879453737 56 60 38
10.06810239738366 53 56 32
9.733863668352926 53 59 33
8.897516504602999 56 61 36
9.176381634832714 57 62 38
9.04580084097374 57 62 37
8.87831987924611 56 61 37
15.316706841350468 34 28 7
9.889361259579296 55 59 36
9.821414308914285 58 63 40
11.564751865490233 47 49 16
10.894188647945064 42 45 10
10.66872754632045 45 48 13
11.667174155034019 47 50 17
11.564751865490233 47 49 16
10.925263150597614 47 50 17
11.410690525037062 44 47 15
10.779666716144368 45 48 15
10.838082839789362 45 48 14
11.548334020837203 46 49 18
12.730428370941437 52 54 28
11.81962160752918 49 52 23
11.938349092545476 48 51 19
12.168824029119852 52 56 34
10.704191970693616 53 58 33
12.412137719210612 51 56 33
11.649069112944211 51 55 28
10.85260673503872 48 51 19
11.267659411706518 46 49 17
11.213422401895864 49 51 19
10.24691287970112 49 53 28
11.70047017696278 49 52 20
12.119483770811426 49 52 21
12.086476823239458 50 54 25
12.428289868370406 52 55 32
12.428289868370406 52 55 32
12.086476823239458 50 54 25
12.086476823239458 50 54 25
12.683202093470959 53 57 36
13.024656039294388 54 58 37
12.540422556213722 54 58 37
12.366155658927566 55 64 38
11.82035408323639 55 61 37
19.79774738421683 58 63 38
19.828035521783516 56 61 35
11.235627870212419 52 58 33
10.521432894316401 59 65 41
10.631048067764397 49 54 31
12.349922246283118 55 60 36
11.618989262925657 58 65 40
11.296305211395781 60 64 42
9.527974580559 60 66 41
10.657614751479514 63 66 44
9.964155300303949 61 64 42
10.8455348839991 59 64 41
10.56233842257007 59 65 43
15.855037111561542 36 31 9
15.459713281799889 24 18 0
10.813913941803781 32 37 4
20.51164414878183 45 48 20
18.17106583844663 55 60 38
10.256021797717864 33 38 9
10.016338054542963 30 35 4
10.682193599751916 16 19 0
10.812488746936788 41 46 16
10.926545700333625 34 40 11
9.919150676076177 47 52 24
10.971346072550467 45 50 20
10.223925179009255 48 54 27
9.69578688390206 51 56 31
10.466599759872253 50 55 29
11.391594895925921 31 36 6
11.492950496121432 37 42 12
11.553605449390695 41 44 10
11.218969022763378 42 45 10
11.849362343168945 39 44 16
11.258151725046012 43 46 13
10.658561598852584 34 38 7
11.431132751658824 46 51 21
11.520018522174182 40 46 16
9.693296623182192 44 47 13
10.25582516557754 35 38 5
10.484358275208239 41 44 9
9.445643483054047 42 45 12
10.655622993959273 39 42 9
9.816240724919243 43 46 13
10.984404559593576 47 50 21
10.594226999177293 48 53 28
10.60074986392357 41 46 18
11.327772920969482 53 59 35
10.366185235122613 49 54 31
11.887661265896876 53 58 35
11.740447493443614 47 52 30
10.748770072716738 46 51 28
11.189086913978432 46 51 27
11.118235641831236 47 52 28
9.733863668352926 53 59 33
10.06810239738366 53 56 32
9.546076103175324 55 60 35
8.711134215913729 57 61 39
8.823950367585322 56 60 38
9.050026233039151 56 62 39
10.235259663033702 59 64 41
10.200929013367295 56 61 37
9.596865502071303 57 61 38
10.593534525794704 46 49 16
11.460465061190677 46 49 15
10.965615941991501 44 47 13
11.618285226456273 45 48 17
10.611429724723164 47 49 14
10.311304220830415 38 41 9
10.611429724723164 47 49 14
10.980923529680215 46 49 16
11.77306606410404 45 48 15
12.4291652290205 54 56 32
11.442032942315334 49 52 21
11.98672998390791 51 54 26
11.581032294958591 49 51 19
10.478503347345944 52 57 32
12.119483770811426 49 52 21
11.476930194489496 51 54 30
10.83326244151247 51 56 31
12.47648108306517 50 53 24
12.683202093470959 53 57 36
13.009345963474106 54 58 37
12.839075360234178 53 57 36
12.978569781035374 51 56 29
19.73652602933563 58 63 37
11.600886591522226 55 62 37
11.821162639271872 50 55 32
11.30570616349428 49 53 31
10.540482742322139 60 66 41
10.377972470325107 27 32 1
18.015215382216837 57 62 39
10.32209474414417 20 25 0
10.160934198883238 23 27 1
10.007218075744182 19 24 0
10.761311318378203 17 22 0
10.45029120729256 17 20 0
10.583361998413979 34 37 6
10.839111792838121 26 31 3
9.73801865927345 46 52 26
10.456070520102555 36 42 13
10.982218256715196 35 38 7
11.094348677980278 39 43 9
11.635749015304024 40 45 15
10.628257158714785 40 43 10
9.693296623182192 44 47 13
10.42500371942357 43 46 11
10.952504539052947 43 46 15
17.306536640140425 52 55 24
11.916185413324131 44 50 26
10.403772857670221 50 54 31
15.34472103220683 50 46 22
8.763871769211526 56 61 36
9.11848038099819 56 62 37
8.956846286452002 57 61 39
10.398025916292005 54 58 35
11.106773567989185 54 60 35
11.267659411706518 46 49 17
11.089601620854213 49 52 21
10.650928616983729 44 47 12
11.938349092545476 48 51 19
12.524415020143906 53 57 36
11.355141273628577 49 52 22
10.072804768043348 43 46 11
11.213422401895864 49 51 19
10.161952339857798 58 62 40
15.855037111561542 36 31 9
10.67661573843679 42 47 18
11.480842422231078 37 42 13
11.037169189180574 45 48 17
10.844248993086127 50 56 34
10.838082839789362 45 48 14
18.139053538749327 40 43 16
18.015215382216837 57 62 39
11.462539473574347 40 43 14
11.022566993680044 46 49 18
11.535051538731194 45 50 28
10.929636424189761 43 48 19
9.602119162666927 58 63 39
8.614135833679155 57 61 39
10.706914963601152 47 50 19
12.429861785160956 56 63 38
10.983649663453479 59 65 40
10.254841132914365 61 67 42
12.218146879234558 49 52 21
10.26280982858315 58 62 40
11.462925022552097 47 51 29
12.037593036359688 48 51 18
10.9293092829955 52 54 25
10.159810868388933 58 64 41
10.21081204577662 58 59 38
12.363431153894831 44 51 27
11.853371664527677 48 51 19
11.254318078876018 56 62 37
12.47648108306517 50 53 24
10.7267335825287 43 46 11
11.656371096953443 41 46 18
9.963063364774989 60 64 42
9.988256525979416 56 61 36
10.469186581678045 61 65 43
10.82713525565981 35 39 8
10.473247744609083 11 14 0
10.538508888999864 43 46 13
9.120431551944064 55 61 38
10.61867264279806 47 52 28
