20.232384273747556 31 35 23
19.00693414657712 63 66 58
10.323585773258909 34 41 11
10.97550287062507 35 42 13
10.868290438079494 36 41 16
11.202403307908245 37 41 19
10.58570818868091 38 43 14
11.003612692805486 37 42 18
11.215512159610533 41 45 16
11.327345337440022 44 48 19
10.506244512514394 42 45 24
11.61162313308853 44 49 21
11.760895143066055 45 50 22
12.056153249529022 45 50 23
11.760895143066055 45 50 22
14.651987609199924 61 65 43
15.398362074686545 50 55 30
15.202613484388646 68 72 51
10.937762032830578 44 51 19
9.572176875903644 35 40 9
9.673268273767974 31 36 3
9.022356016820275 26 31 0
9.659840392849263 39 44 13
10.333126666612264 35 40 11
9.851953201147682 34 39 6
10.089880243005263 35 42 12
10.55009233476544 51 54 21
10.55009233476544 51 54 21
11.347486001974525 48 51 20
10.163392450333992 38 44 14
10.429928517531843 47 50 19
10.794160644871358 42 47 17
10.429928517531843 47 50 19
10.702419189869008 50 52 21
10.865869501723118 49 52 23
9.763733237401482 33 38 5
10.446395030190931 52 57 26
11.073212357221179 51 56 23
10.446395030190931 52 57 26
10.587492267617641 52 55 22
11.205176607702112 51 55 25
11.374475973182937 53 57 25
10.168415509819225 54 57 28
10.81007235282278 51 56 25
10.766508875749123 52 57 23
10.832004466416327 50 53 20
10.326374108269178 49 55 19
16.758606447419574 57 60 31
19.660306869034535 34 33 12
14.646212134818857 37 40 19
14.791583313635496 29 29 10
14.09624238788026 26 25 5
14.488392085151661 28 29 14
13.455836871251869 48 53 24
13.128641489857587 48 53 24
13.240509070404332 52 55 26
12.871010404497344 52 57 30
13.565006412825266 51 54 25
17.00354065814021 59 59 33
21.433807508088083 57 51 30
21.437942612085045 64 53 32
21.686025499744833 66 56 35
21.075785782883386 53 47 25
13.800266700536353 46 50 33
13.800266700536353 46 50 33
14.524751302421153 48 52 37
13.828879392442447 49 53 34
13.90773477488583 51 56 29
14.072258151963608 52 56 37
9.483580127144535 55 59 38
9.628133972082589 56 60 42
9.483580127144535 55 59 38
9.50211136628014 55 59 40
10.271780680338434 54 58 39
9.166275992116748 55 59 41
11.359670580160973 61 66 39
11.359670580160973 61 66 39
11.416820798858303 65 70 45
10.688852672059237 54 59 30
11.390365851293184 59 64 37
10.603118441709904 66 72 44
10.546060631110246 53 58 27
11.390365851293184 59 64 37
11.390365851293184 59 64 37
11.013581999939923 56 60 42
11.181658357143018 56 62 44
10.56127931808208 60 65 44
10.676952140284785 63 69 41
10.850244336069004 63 69 44
10.850244336069004 63 69 44
11.111178933797401 61 66 43
10.34239480952054 65 71 44
9.72390287018627 61 65 43
10.04110511260345 60 64 42
10.030884320372044 58 63 40
10.301721863155691 57 61 40
9.776833006590184 59 63 41
9.660070330241748 61 67 42
10.030884320372044 58 63 40
10.030884320372044 58 63 40
17.40049204969399 49 51 29
16.573919272030338 49 51 27
11.197355576440184 60 63 42
11.343828867216963 57 61 40
11.390021961983022 57 61 40
11.484453989422532 52 56 37
11.359124870660665 52 55 36
11.6347814689975 51 55 38
11.6347814689975 51 55 38
11.370191395265948 53 57 39
10.941418097241296 58 62 43
9.857769538367727 57 61 41
11.6347814689975 51 55 38
11.362948793935908 54 58 39
11.227932061063553 55 59 41
11.03697983282296 56 60 39
10.221413881407965 55 59 41
11.270151349565284 56 60 42
13.1422370242032 61 61 33
13.191666894816825 61 61 34
11.519368895640872 54 56 31
10.44477365651767 59 63 42
12.687182125915418 58 59 31
13.423261460015274 56 58 32
12.580392353166753 60 61 35
21.244132100045405 94 90 76
21.26056131010446 26 18 11
20.992788135055658 44 44 26
20.306486486769682 15 8 2
20.9495226907884 33 28 8
20.68200828207356 29 23 7
20.665119115147345 76 71 56
21.759625455603157 43 42 25
21.675658884459132 47 46 30
20.824496124312137 69 60 43
21.645611717204098 8 2 0
20.344807036912623 31 26 10
19.0230117679221 45 49 39
10.106320169194444 37 42 13
10.820700552021377 35 42 12
10.527485823099068 35 40 12
11.097383189580533 38 42 21
11.61162313308853 44 49 21
11.39287563238282 47 50 21
14.89631158468202 55 60 37
10.003263767348724 34 41 11
9.965069705865167 30 35 2
9.952035548659774 36 41 11
9.876950378556623 34 40 11
10.151498102957927 45 48 17
10.429928517531843 47 50 19
10.875305589368146 49 52 21
10.091751977686789 50 53 20
10.587492267617641 52 55 22
10.85474493773709 51 56 23
10.81007235282278 51 56 25
11.029424668497006 53 57 25
15.070599223929301 22 25 7
14.074186165285662 18 20 6
11.956480168716674 40 44 13
13.777957752682793 54 57 28
14.151992927977492 49 54 25
12.83705733617354 52 52 22
13.841263861981453 50 55 26
13.841263861981453 50 55 26
20.759802225411633 48 42 21
21.061358444041286 35 29 11
21.38921447769188 37 28 13
21.23410146209443 59 51 29
13.807046835720582 45 47 25
13.847347849657035 41 42 32
13.781735151542078 46 50 28
9.50211136628014 55 59 40
9.74527930014862 55 59 42
9.628133972082589 56 60 42
9.50211136628014 55 59 40
9.808557329266375 55 59 39
9.255743469567228 56 60 40
11.937466480903979 57 62 35
11.390365851293184 59 64 37
11.252257640437225 66 71 45
10.814337241898789 53 58 27
11.416820798858303 65 70 45
10.717039440625639 60 66 41
11.609160643054276 58 63 36
10.553734505144888 55 59 43
10.56127931808208 60 65 44
10.729017063624768 55 59 43
11.181658357143018 56 62 44
11.435032958515334 54 58 41
9.501830464456964 61 66 42
10.017441559357925 59 64 40
17.30023592216928 48 52 30
16.573919272030338 49 51 27
16.867647165224316 49 51 30
11.343828867216963 57 61 40
11.351875208787815 56 59 38
10.365574037413703 57 61 42
11.267093426948076 53 56 36
11.227932061063553 55 59 41
14.662585142683902 54 48 21
12.888071965949418 57 58 32
12.392794664975241 57 58 31
12.708227101864118 58 57 30
11.519368895640872 54 56 31
10.44477365651767 59 63 42
13.3223732753365 59 61 35
11.473112325910273 59 63 44
21.366514518781496 32 31 14
20.63559522076949 20 14 4
21.274639038465157 22 21 3
21.309287238505895 40 39 23
21.711748804518887 11 5 0
20.843037512811367 16 13 1
11.327345337440022 44 48 19
10.703660825838421 37 42 15
11.215512159610533 41 45 16
10.21356061992437 34 41 11
11.19270189827683 44 47 16
11.760895143066055 45 50 22
15.202613484388646 68 72 51
9.775686725393788 40 45 14
9.199036146359939 25 30 0
9.521036630032649 34 37 8
10.937762032830578 44 51 19
9.2267764273726 26 31 0
9.777524818923897 36 41 10
10.409826961597282 50 54 20
13.247201953195177 47 53 17
17.199381193797596 54 56 32
13.597141859981551 52 57 28
13.800266700536353 46 50 33
13.781735151542078 46 50 28
9.660070330241748 61 67 42
11.194267307122388 64 69 42
11.63919796948104 56 61 34
10.030884320372044 58 63 40
10.017441559357925 59 64 40
10.10344646848871 59 64 41
11.56051376958275 65 71 44
12.317608226970451 53 55 34
10.897925348633567 57 61 43
11.197355576440184 60 63 42
9.857769538367727 57 61 41
11.868466911325518 53 55 33
10.925328443091304 58 62 42
21.323925195827385 59 51 36
20.563910932228147 36 30 17
20.64633308608758 38 33 17
20.403412128240628 40 43 33
9.763733237401482 33 38 5
10.910313626039452 50 53 21
9.104491796666691 27 30 0
16.957275978058036 52 55 26
11.459247376885054 53 56 25
21.783963656087934 23 25 8
13.625487240173156 31 30 12
13.500404939027153 54 54 26
13.954453340494474 51 55 34
13.800266700536353 46 50 33
10.425719425654187 66 72 43
13.947744861237897 51 55 38
9.255743469567228 56 60 40
11.998958578595404 54 58 43
14.721813760046377 46 44 25
11.469909562056706 54 56 32
10.221413881407965 55 59 41
12.802907613913217 56 58 33
21.75168659067386 48 47 31
11.235853290861149 41 46 17
12.330821128889202 44 49 22
9.225802562644752 33 38 7
10.274918643259948 51 54 21
10.850244336069004 63 69 44
11.27825025565999 52 56 39
21.071471312892417 70 66 50
21.21746163476545 47 39 27
11.073212357221179 51 56 23
13.455836871251869 48 53 24
9.992795829610731 57 61 40
10.595603421205713 61 67 41
10.897925348633567 57 61 43
10.869986928943122 63 68 44
