11.698714023575127 33 40 10
11.237080276276505 38 45 15
11.575215264596666 37 43 14
11.698714023575127 33 40 10
11.757982466890205 27 36 6
12.17120684906818 34 43 15
9.295598033742243 36 41 10
11.133481237540328 32 39 9
11.3067470537626 35 42 12
17.247972282275075 34 42 22
17.53981213825895 36 44 22
9.353782922159231 29 35 9
9.618558431460132 37 44 14
9.618558431460132 37 44 14
8.804607139195571 37 43 19
8.76887022929704 38 44 14
8.872550574303508 37 42 10
8.68044788423358 33 40 8
9.087302911733 36 42 13
10.386945870759655 38 45 13
9.353603739761724 38 45 15
13.12881528343345 38 47 15
12.480225664338764 36 44 10
13.12881528343345 38 47 15
12.498908402837959 42 49 19
12.36128089726708 43 50 20
12.217125277577267 31 40 8
12.125774160449748 35 44 10
11.393633431124558 25 34 2
11.680095927539934 34 41 11
12.815168199976089 36 43 13
13.276284869976523 35 43 13
12.836644576265053 41 47 20
13.253300790183241 36 43 13
11.622962149136079 29 38 6
12.685524169751027 36 45 13
13.031671842856895 40 46 21
12.697035595217232 36 45 13
12.431657357830385 36 45 13
12.685524169751027 36 45 13
12.697035595217232 36 45 13
12.442149739988066 38 45 15
13.283895336403969 41 46 18
11.398559987264365 40 49 17
10.276206710109815 42 49 15
9.961124713106791 39 49 12
11.11897604566154 42 49 15
9.625250718368855 38 48 11
10.20284769992881 38 47 15
9.950973328790472 38 47 13
11.173671678800165 39 49 12
12.332057078141945 42 49 19
10.19430320075242 37 46 12
10.370506205100689 41 48 16
10.723807567581318 39 46 16
10.93520017672841 38 47 13
9.923263976756266 43 48 21
10.529899843128465 39 49 12
12.869295935675058 37 44 14
12.954571132992019 40 47 17
10.663879704624875 46 51 29
10.84479189505237 41 46 17
10.02195930864234 48 53 26
9.636216770564854 46 51 24
10.904155728441419 43 48 21
9.906955867087706 43 48 21
10.241936346009412 43 48 22
10.392079318266239 43 48 20
10.382349310120969 43 48 21
10.770547575144038 43 48 21
10.845657023417344 42 47 22
10.346483562592427 42 47 22
9.9133630749769 45 50 21
9.23099512535726 43 48 21
9.728884121786763 45 50 22
9.57907204315152 46 51 24
10.589826368644122 44 49 22
10.103564450620983 47 52 25
9.924194544736633 45 50 23
10.782656470380008 46 50 29
11.058792181486954 44 48 27
10.149176499116013 47 52 24
10.048610832106078 47 52 25
11.39552797391589 48 55 24
10.73408838773343 45 50 25
11.082104076471461 47 53 26
11.082104076471461 47 53 26
11.304831165226677 45 50 23
20.214057002389634 10 16 7
19.653571829367493 4 9 1
20.27773790772689 0 4 0
19.719062853257356 4 7 3
9.657251379926283 45 49 27
9.566966172160747 39 45 20
9.51055259917239 39 48 19
9.540920547841882 40 47 21
9.330810066812544 38 45 15
10.217866253309419 38 45 15
10.68132856351955 38 45 15
10.399672484844745 39 46 16
10.53103382177277 39 47 16
9.567167560602442 40 46 19
10.695163725109287 39 46 16
10.13258772675891 39 46 16
9.64278719712958 39 46 16
10.379452598195009 46 56 25
10.18891130385122 51 54 31
9.860799125787954 49 55 29
9.25264106655218 40 47 17
9.076478830898688 41 46 17
9.389287348354262 40 46 19
8.985392093201726 42 47 20
8.867597007758105 36 45 16
8.470047912776701 37 46 16
8.985392093201726 42 47 20
9.37685328855628 40 47 17
9.325803471199078 41 48 20
8.660358788094054 41 47 21
8.667892767136019 49 53 30
8.647944520696985 40 46 19
9.147650489624128 44 48 25
8.828592908853958 45 49 26
8.652619357895219 45 51 27
9.189218116319964 42 48 21
8.214473803374073 46 52 28
9.568143513127369 47 54 27
9.786853623963738 42 49 18
9.816366843975363 45 52 23
9.062434479798581 42 49 17
9.094298920711196 47 50 24
9.140523209424911 42 47 20
9.859206342210587 43 48 20
9.47962980165693 44 53 25
9.946839305734537 45 52 25
10.289176094439592 48 53 25
9.758390371039795 48 53 26
9.306794535171944 48 53 26
9.725493332721854 49 54 27
9.835531635865133 52 54 31
11.394158760049399 47 52 25
11.84927879694866 46 51 23
10.755203013143165 47 52 25
9.677884663626683 50 53 28
10.441907382520629 48 53 25
10.047058061941838 47 52 25
9.913183629700217 48 53 26
10.775419285706805 48 53 26
10.988658828609026 46 51 24
10.098930772244389 47 52 25
10.988658828609026 46 51 24
10.84634444865341 47 52 25
9.913183629700217 48 53 26
20.061530874085232 9 15 2
11.617735809282575 33 41 13
11.643948791023707 36 43 13
8.978322681029024 37 44 13
9.53051295513907 38 45 15
12.047675305422619 45 52 22
11.598987731928519 29 38 6
12.632938363858683 35 44 10
13.633903371739452 38 45 15
11.819602668192609 34 41 11
12.368563925992245 35 42 12
13.456286018892097 41 47 22
12.821974308916543 41 47 20
13.046106308732439 40 46 19
12.916589879196994 36 45 13
13.283895336403969 41 46 18
12.470007121888269 41 47 20
10.819106901467812 39 48 14
10.529899843128465 39 49 12
9.986074423370951 37 46 12
10.512010840342475 43 48 20
10.895730640931156 41 46 18
10.290692331299985 47 52 24
10.99007856235142 45 51 22
10.357300754277041 44 49 22
10.26772325833894 43 48 20
10.929654379939173 44 48 20
11.658493286633476 49 53 30
9.558913112783468 46 51 24
10.88030853732008 44 48 21
11.10188531154789 43 47 23
11.484305018562887 49 55 27
9.924194544736633 45 50 23
11.262514582313958 48 53 28
10.53103382177277 39 47 16
10.695163725109287 39 46 16
9.567167560602442 40 46 19
10.422961675328954 39 46 16
10.493902221621266 38 45 15
10.399672484844745 39 46 16
8.483811110555777 37 46 16
9.575595975199247 39 46 16
8.67846906010379 39 48 18
7.964150975218394 41 46 18
8.25148026044315 41 46 17
8.431042990776533 39 48 18
8.967901659803772 42 47 19
8.279722873620965 45 51 27
9.220644432354481 44 49 24
9.797628303267144 44 49 26
9.115972538446673 40 46 19
9.609304616502248 43 49 24
7.626795497049787 48 52 30
9.57915346229116 38 46 17
8.493338895789439 47 53 29
9.786853623963738 42 49 18
10.002352079727947 44 54 24
10.130429471915033 44 54 24
9.786853623963738 42 49 18
9.973389241788936 45 51 24
9.190927009293352 50 54 30
10.353943956003015 44 54 25
9.232288646558588 42 49 19
10.059571495770237 48 53 26
10.755203013143165 47 52 25
10.14456365473357 47 52 25
10.755203013143165 47 52 25
10.293551320486799 47 52 25
9.967318630093034 49 53 27
8.721016799945152 48 53 28
20.093366750479767 27 34 15
19.99716146990038 10 17 3
13.016014847879324 37 44 14
12.798166326433416 37 44 14
11.133481237540328 32 39 9
8.980060251455406 35 43 11
9.295598033742243 36 41 10
17.33691953167496 34 42 20
16.560639116867193 40 48 26
17.00881521451938 37 47 26
10.291736902835215 38 45 13
12.409245422171189 37 46 14
11.988537626562161 43 50 20
12.92069444360954 44 51 21
13.313373609318658 36 45 13
9.967209418401138 36 46 8
10.19430320075242 37 46 12
13.260924447218574 39 46 16
13.72927817707924 38 46 14
12.962499783371682 36 43 13
11.034017142899472 44 48 26
10.276206710109815 42 49 15
10.345868139759848 47 52 24
10.962464434292112 44 49 23
10.614768170438586 43 47 25
10.756653559960595 47 52 25
10.24147829194616 44 49 21
10.290692331299985 47 52 24
10.107731890083716 44 49 22
11.03485404158982 48 53 26
10.82140228943871 43 48 21
10.048610832106078 47 52 25
10.73408838773343 45 50 25
10.99007856235142 45 51 22
8.937128304370702 45 51 26
9.540920547841882 40 47 21
9.795556844947004 44 49 26
8.967901659803772 42 47 19
8.729741707201097 39 45 20
8.977932862450979 45 50 27
8.580794943453988 47 51 28
9.535257876151737 42 49 19
8.638044181561513 40 47 17
9.115972538446673 40 46 19
9.20799381943857 46 53 27
10.218790127575916 51 53 29
10.72390907412263 48 53 26
10.293551320486799 47 52 25
20.093366750479767 27 34 15
11.596701729653745 32 41 12
8.66234174933282 32 38 11
10.291736902835215 38 45 13
8.76887022929704 38 44 14
12.713935547419085 40 46 19
12.18079723267023 41 47 20
11.964375224771416 35 42 12
12.262610467500828 35 43 12
9.4641016686116 41 48 19
13.169967813972441 40 46 21
10.321055825411598 43 48 21
9.598699912317613 45 50 23
9.3476214831149 38 45 15
9.973389241788936 45 51 24
9.372550667844083 41 47 20
11.077879711229851 47 52 25
19.196255493375894 1 5 0
11.943550223209243 29 37 7
9.909725294414166 38 45 14
10.301127053043333 47 52 25
10.5105124679614 46 51 24
10.76925453073448 43 48 20
9.913183629700217 48 53 26
8.41719351075318 39 48 20
9.343305401076591 39 46 16
9.073074302289793 50 53 28
10.786812464848197 39 46 16
19.196255493375894 1 5 0
9.215771015415218 48 53 26
11.741964609589758 30 37 7
8.672202487656337 39 45 22
9.171109490745947 39 48 20
9.022023514296265 51 54 31
17.36882879760478 41 49 28
8.584601931053369 30 37 4
10.217866253309419 38 45 15
10.502932466543989 47 58 26
11.643948791023707 36 43 13
12.178372853039178 34 43 9
8.880744113353181 39 45 20
