19.412617978443762 36 42 20
12.127001124038351 31 35 8
19.773576530147764 36 42 19
18.93955952352573 46 52 30
19.37015137204234 38 44 21
10.74709586384791 35 43 20
11.103676603923295 40 46 23
11.656420521988538 36 44 22
11.261208965902231 37 45 23
11.600707909361326 36 44 22
11.244191032782476 37 45 23
11.270459740220899 36 44 21
11.415733797836092 35 43 20
19.866477970490873 40 46 24
11.827217124021518 35 40 15
11.4931066418515 31 40 14
11.697254074654833 35 39 18
9.639406676279863 28 34 11
10.836458978556657 28 34 11
11.427159164221251 29 35 13
11.343446474649207 34 40 18
11.43946679879806 32 38 16
11.135156547918669 29 37 15
11.199264921152295 30 36 15
14.447435948630915 20 26 4
14.539039845520673 17 21 0
14.704848052908716 20 24 3
10.236069041564441 29 39 12
10.410622043080762 30 40 16
10.115842558385944 30 39 11
10.634158920044497 31 39 16
9.880586321325746 28 38 10
10.016411557102844 31 37 14
10.767275076186055 34 42 19
10.331132974554441 33 41 18
10.94484447352473 33 41 18
9.551030206030488 31 40 14
9.613744433093595 31 40 14
10.518115193430452 32 38 15
9.95632294764091 32 38 13
10.384250153506697 32 38 13
10.133189422886522 30 36 11
9.193361375667983 31 40 12
11.333913286574541 32 42 14
10.987906020835588 32 40 17
11.163387697471872 30 40 13
11.098689899278051 31 39 16
10.994483650418855 33 41 19
11.615656314865529 30 40 15
11.847522062811494 31 41 13
11.156909646826659 31 40 14
11.156909646826659 31 40 14
11.615656314865529 30 40 15
10.717258430189352 31 40 14
11.841418285500794 32 41 15
11.052390856578581 31 40 14
11.415471885602381 33 42 15
11.415471885602381 33 42 15
9.742776885482217 29 39 11
11.535513150340908 30 40 14
11.201343736961284 33 42 18
9.781053969492676 32 41 13
10.4891393428138 29 39 14
11.620103498767445 35 43 21
11.624139395277968 37 43 20
11.977650927518422 34 42 18
11.754505789456475 31 39 17
12.147734580508207 37 45 22
15.600138801004888 46 57 31
16.34398749495422 39 51 27
11.897722299070399 42 42 20
11.599066300293002 37 39 18
11.485985625295537 39 41 19
12.015602545944894 43 41 23
12.25944353921154 37 41 22
11.795882015373458 38 41 22
11.995744986924349 39 41 22
12.346600662033584 39 41 20
12.5376877125903 38 42 21
12.053523324622704 40 42 21
11.736835424197958 33 42 17
11.515302097826332 34 41 14
11.826159251710004 41 43 22
12.063408635730696 43 41 23
11.957640979566767 38 42 21
12.174572903152102 32 36 17
11.845422606768876 39 43 24
11.791485657476999 40 42 23
13.013625300402605 40 44 23
12.170025009423295 41 45 23
12.170025009423295 41 45 23
11.794192527515246 42 44 23
12.40652594453487 42 43 22
11.627415393580907 42 44 24
11.545154831948686 44 46 27
13.15215564172412 40 43 22
12.557208393469406 40 42 23
12.92930086051474 42 45 24
13.002807749979286 40 44 23
11.588100307633521 43 45 24
11.418313364878452 43 45 24
11.334535343689556 43 45 24
11.4360436133691 34 40 20
11.423732290741182 36 40 21
11.204381232249723 36 40 21
13.233141731421167 39 43 26
13.153791420160752 40 44 27
13.59697160063527 40 46 24
13.519756852462113 42 49 27
13.516286989810125 43 49 27
9.553356167814608 32 40 18
11.665645841111013 38 48 25
11.810030467197517 37 47 24
11.887314221405305 37 43 21
12.181191348332446 41 53 29
12.006750674897585 40 54 29
11.823281773283378 38 52 28
12.031354559790344 38 54 30
12.167547326002271 40 54 29
12.674408810857383 42 50 32
11.921501861117967 40 52 29
11.921501861117967 40 52 29
12.141578233975856 42 52 31
12.438393682420307 41 51 28
12.4831825683585 39 51 28
12.535733121838126 38 48 25
13.403844112121327 37 48 25
13.629264409381578 38 48 25
14.32226702051304 39 53 28
13.864899035925975 37 49 26
14.628637048646146 36 48 25
13.614908592505271 40 52 29
14.258743975820682 36 47 24
13.800075741598501 38 50 27
14.258743975820682 36 47 24
14.470853158220782 37 49 26
13.825569611655729 39 51 28
14.283419211830388 36 47 24
13.880254009541432 41 51 30
14.409196786161397 40 50 28
14.30410763225444 36 47 24
13.208854176340179 41 51 29
12.668257739923499 38 40 20
12.28328303346209 39 49 26
12.309396959729535 39 43 24
12.425415196537532 39 43 22
12.435004872606372 43 45 24
11.97611966178582 39 41 20
12.06921064232501 41 43 22
12.1061039504568 39 41 21
12.781888025467369 41 45 26
12.286196946273332 40 47 25
12.611282518499138 42 48 26
12.734785332594138 41 47 27
12.380745136573983 41 45 26
12.075199275598886 39 43 24
13.37534503273801 40 50 27
13.386928379679418 40 44 27
13.556162585294429 40 50 27
22.007657601838307 28 42 18
18.814910580374875 36 42 20
19.091843273056455 41 47 24
19.220072829155907 40 46 23
10.758181671738734 33 41 16
11.270459740220899 36 44 21
11.212829587968551 35 43 21
11.181868728850842 35 37 16
9.595274068061492 26 32 9
9.521499095765263 25 31 9
10.405658067774313 28 34 11
11.323733446421716 10 16 0
11.323733446421716 10 16 0
11.427159164221251 29 35 13
21.949602464413132 39 49 26
9.791684600885514 27 35 13
14.131238662719053 25 29 8
10.410622043080762 30 40 16
9.842302615874996 30 40 13
9.613744433093595 31 40 14
9.634631279748689 33 39 14
10.115842558385944 30 39 11
9.193361375667983 31 40 12
10.770828734594625 31 40 14
10.955810974539132 32 40 18
11.388701643158509 34 44 18
11.032749774953844 30 38 15
11.303643140800707 30 40 14
11.472914025562917 30 38 14
11.163387697471872 30 40 13
11.01478594875766 32 40 17
9.781053969492676 32 41 13
9.330516786332437 30 40 13
12.061245544291399 36 44 21
15.19121126955925 38 47 26
11.977650927518422 34 42 18
11.201831413964149 33 38 15
11.777390172542539 43 43 21
11.476908573403922 38 40 19
11.306949948305858 33 41 18
11.78975150306394 35 43 19
12.275054023633725 42 41 23
12.642312868048752 43 42 22
12.790217796356428 38 42 21
12.741457395013425 38 42 21
11.465210815056956 34 41 12
12.041975170930668 42 44 23
12.95122632397586 40 42 21
12.642312868048752 43 42 22
11.947668158298342 39 41 21
11.840196678306924 43 45 26
11.911675391815427 40 42 23
12.174572903152102 32 36 17
12.183666257090788 45 47 25
12.248089539646688 40 44 23
12.269292352167602 44 46 25
12.173878596765054 42 46 24
12.932928210598442 42 44 23
12.709795066027063 41 46 24
13.22250377226352 42 44 25
13.153791420160752 40 44 27
11.504808125302983 36 46 25
12.181191348332446 41 53 29
12.118842617264923 39 51 28
11.328933698521316 37 43 21
11.272306534730165 35 47 26
12.118842617264923 39 51 28
11.96184380760642 40 54 29
11.272306534730165 35 47 26
13.80076566548821 39 49 26
12.315082898513541 38 46 23
13.118997886838857 37 47 24
13.800075741598501 38 50 27
14.153771110033071 38 50 27
13.846942112285028 38 51 28
13.880254009541432 41 51 30
14.51555395132771 37 49 26
14.125549216350427 39 50 27
13.614908592505271 40 52 29
13.965440245409011 37 51 26
12.815863247933526 40 44 27
12.380745136573983 41 45 26
12.06921064232501 41 43 22
11.97611966178582 39 41 20
12.563540214966107 39 49 26
12.250752879250687 40 46 26
12.611282518499138 42 48 26
12.399986164814745 40 42 23
12.880766128439298 42 48 26
11.406600841654535 38 46 23
19.37184497476256 54 60 38
19.595220395267727 49 55 33
11.457425175171373 30 35 10
10.858079940204446 29 37 15
10.465762021677333 29 39 11
10.767275076186055 34 42 19
9.694186054910253 32 38 11
10.289967536801592 31 40 14
10.05869659104791 33 39 16
11.201343736961284 33 42 18
10.172493492343358 30 36 13
11.730674053868153 32 42 15
10.076229677294714 33 39 15
11.841418285500794 32 41 15
10.103109660435797 29 39 13
10.335757837793064 31 39 15
11.104344510914924 32 41 13
11.02646613164029 35 43 21
11.713856241205926 38 44 22
11.4360436133691 34 40 20
11.593439873123808 38 42 23
11.430630523943957 41 45 25
12.92930086051474 42 45 24
12.016146106381253 39 43 23
11.75441487952055 39 41 22
13.519756852462113 42 49 27
13.1502249929919 43 45 26
11.817627739405005 35 45 22
11.977386073608496 39 55 31
12.383251726328677 42 52 31
13.374870431024304 39 51 28
12.884653437174652 37 46 24
12.162053339268198 40 50 31
13.169975505598504 37 40 19
12.983780863982473 43 45 26
12.309396959729535 39 43 24
12.712791387849661 38 42 23
12.992537988630382 40 50 27
19.091843273056455 41 47 24
11.347580767812026 33 39 17
10.849355044838386 31 40 14
9.996322454252345 34 40 15
11.053252287288329 34 42 19
10.335757837793064 31 39 15
11.098689899278051 31 39 16
10.67459171417617 31 40 14
16.407916948656393 40 52 28
12.086132342299582 32 40 17
11.344129855043727 34 39 20
11.627415393580907 42 44 24
10.880889073140127 31 40 12
11.588100307633521 43 45 24
11.338672886018607 41 45 24
12.477064480550156 42 52 31
12.090537798171614 35 45 22
13.503639476639979 37 49 26
13.578192869264026 38 48 25
14.418849140699018 38 49 26
13.511759323293367 40 50 29
11.323733446421716 10 16 0
11.535513150340908 30 40 14
10.54656000567837 35 45 21
11.620103498767445 35 43 21
9.95887279241721 30 39 11
11.922092985995329 40 42 21
12.259573053233137 41 45 23
11.488764474481425 39 41 22
13.880254009541432 41 51 30
19.164201197583075 37 43 23
9.63916939732286 25 33 11
14.495167323617594 38 49 26
11.035482345270507 34 40 18
11.70183720461371 34 40 17
9.772810325600009 28 32 11
11.535513150340908 30 40 14
