16.488393307851894 29 33 12
14.510344011046406 39 41 22
15.139665900973085 40 42 23
14.510344011046406 39 41 22
14.925870975177935 40 43 24
16.501362764930754 34 40 18
16.501362764930754 34 40 18
12.999591674828867 18 14 12
12.55943256007499 19 17 16
11.961602984420397 17 14 14
14.055838545768479 14 15 14
11.785521694774479 50 50 44
11.974915305772152 64 65 63
11.884412954313543 13 11 10
12.430110830458853 57 55 50
12.480292173611105 63 63 60
12.192154611126956 17 14 14
12.229387633572532 44 45 39
12.178172457761002 37 38 30
11.268724907885026 22 23 15
11.186754952234763 25 26 18
11.19709906226152 37 38 21
12.005424298690206 16 14 11
11.35393963840746 15 14 8
11.186754952234763 25 26 18
11.346921168353976 4 2 0
11.59832224729468 5 3 1
10.59264419328635 26 29 9
9.796382867516542 23 25 6
10.039486816702919 26 27 11
9.858101333586562 22 26 5
10.097717297700507 31 35 14
10.272905272074174 45 49 27
10.897127939881587 47 50 31
10.10743354175328 37 41 20
10.418784917708432 43 47 26
9.87790606676185 26 30 9
9.915620914129375 42 47 27
10.70120816961333 46 50 31
11.376746757427766 54 53 42
12.333211810572573 41 42 27
12.383785812329561 40 41 31
12.183959258594987 51 52 42
12.0120580211445 17 14 12
10.8652093487379 49 50 37
11.729863259834012 46 47 32
11.21700642520778 48 49 32
11.388313221615352 49 51 31
11.458516003847008 50 55 33
10.9566213555644 49 53 32
12.070147280415737 50 56 34
10.893813914380937 46 50 30
11.275560460511812 47 51 30
11.944453061503825 51 57 34
11.27235769312122 48 52 32
11.661070210530132 47 49 29
11.234415850575502 45 46 31
12.186015752696049 46 48 28
13.604445663071072 52 54 30
12.890758471436072 50 52 30
11.552581399188243 48 49 32
13.217037316998992 49 51 30
11.741081864350475 48 50 30
13.193272731471673 53 58 33
12.107755498087988 52 58 35
11.982455790405428 53 59 35
16.236560929243353 59 68 42
16.32925005141054 59 65 40
12.607224911650404 36 35 18
11.877695319683436 38 37 20
11.821127119754982 38 39 25
12.208924888365909 35 36 24
11.442041810597846 36 36 23
11.383308880534083 34 33 22
11.928505273238418 41 42 22
11.924708625751062 44 44 28
11.448623095145356 47 49 23
11.687152868409449 44 46 26
11.605175759728338 44 46 24
12.42651101438126 40 42 18
12.861708618144906 35 37 16
11.81359702683117 40 41 20
11.54523888010494 40 42 21
12.169472983542672 40 42 18
11.373043136222737 39 41 17
11.296665175707854 39 41 18
11.981063434641557 37 39 17
11.018841737929117 41 43 19
11.614344540508654 45 47 23
11.213927511195257 45 47 22
12.232863999261784 45 47 23
11.548216479865296 42 44 23
11.914909354157874 43 45 19
11.757278546988084 43 45 21
12.174498147522016 43 45 21
11.790476307278054 48 50 25
11.820672620725032 51 55 33
11.844288421478202 45 47 22
11.820672620725032 51 55 33
11.72990942301206 46 52 27
11.514003588657067 46 54 29
11.382169485961299 50 56 29
11.457254111640507 46 49 24
11.475683349650241 54 60 35
11.342003425619014 50 57 32
11.841106352617434 48 50 24
11.921461211167948 50 52 28
13.035392842674904 53 55 31
13.631980938889447 53 55 30
13.245377984706051 50 52 26
11.720549257205915 50 52 27
12.102905996811856 47 49 23
11.61810692540229 48 50 27
12.201278618578211 50 52 26
12.554726697422197 49 51 27
12.216748439897914 45 47 27
12.232735131778893 48 50 28
12.460419988454774 51 53 31
12.515368001650346 50 56 33
12.860186574677883 50 55 32
13.18098145932677 56 65 39
12.870622853972247 50 54 33
12.870622853972247 50 54 33
16.35219770429293 59 65 40
12.464053455168516 49 51 27
12.27571701608999 48 50 26
12.796229714013721 49 52 30
13.004455575757786 50 56 33
11.763830221510988 53 57 35
12.9412117276606 50 55 30
12.058449233338198 48 53 26
13.004455575757786 50 56 33
12.810049507687255 55 61 38
13.184416349453283 55 63 38
12.929401927450247 57 63 38
13.236556465579437 53 57 35
11.263567809186434 49 54 29
11.951191025467809 52 54 31
10.859256378293995 47 51 30
11.212811017440702 46 48 25
11.569332883087148 50 53 29
10.666188468595555 29 32 10
10.666188468595555 29 32 10
10.859256378293995 47 51 30
11.237471924545671 43 48 23
11.569332883087148 50 53 29
11.771254521653791 55 57 35
12.093129553181575 41 43 21
12.310318297310411 55 59 37
12.310318297310411 55 59 37
12.374008136237322 51 54 32
12.374008136237322 51 54 32
12.380444364699843 57 60 39
12.499530386285592 59 62 41
12.237517365566942 59 62 42
12.321152049129553 53 59 36
11.270638185298182 50 55 31
11.657597525628312 59 63 42
11.957854834333075 55 59 38
11.04743325557393 50 54 32
12.480937262595738 56 62 40
12.271755098951042 55 59 37
12.096587919531832 57 63 41
11.57621650935409 54 58 36
11.942904423696502 53 59 37
11.754493352892876 55 61 38
10.91165789276864 49 53 31
11.265792315766994 58 63 41
12.44594311361003 51 57 35
12.119450632643215 58 62 41
12.987869935458887 56 60 39
12.408537214616539 55 58 37
12.882938839004476 53 61 39
11.801428726659942 58 66 44
11.939880666763854 53 60 37
12.75472786002913 61 69 47
11.674425742746141 56 64 42
11.980912064784633 54 62 40
11.253867894565282 61 65 45
11.781717527597062 64 68 49
11.708005885451001 59 65 45
11.394181161125495 64 68 49
12.29783424532612 61 67 48
12.01062960705954 61 67 47
12.082495174603123 65 71 51
12.74419667416255 63 70 48
12.266544674415536 64 70 50
14.344047403913455 62 70 48
12.173113426645646 60 64 43
11.871590163780604 59 63 42
11.508022334630573 60 63 42
12.583481863528121 60 64 44
11.418450362227782 65 67 48
12.02249283578162 65 68 49
11.833860698183162 64 68 48
12.583481863528121 60 64 44
11.752126393167847 63 67 47
11.973408547368642 62 66 46
11.453581997486548 60 64 43
12.189909899835877 60 64 43
12.355813170451588 60 63 42
12.566469535407034 59 63 42
12.272430473358103 60 65 43
13.43996201289382 57 55 38
18.922350947902796 17 15 0
19.372800594565724 31 30 10
11.991886942450618 52 58 35
11.273372615007535 52 58 33
11.342886356275185 53 59 36
11.06637938599136 51 57 34
10.790713640319744 55 63 41
11.431220928185251 52 60 37
10.790713640319744 55 63 41
11.139138418616591 59 64 42
10.677623407947786 55 61 38
11.23423160784189 54 62 40
11.20649599158343 52 58 35
11.337340330725244 48 57 31
11.20649599158343 52 58 35
11.380544334179708 49 57 34
11.035402149138276 53 61 39
11.059473122976925 59 63 42
11.622267505271514 62 68 48
11.698100739664593 58 66 46
11.154268317102348 60 66 44
11.622267505271514 62 68 48
12.00244164874926 62 66 47
11.328156930644026 62 69 49
11.717877069368793 61 68 46
12.259360365583055 56 66 43
12.297076106466285 63 69 48
12.021790949021593 60 68 46
12.236686734499132 61 68 48
11.317932602580273 59 67 47
11.980825683632485 61 67 45
11.591478004006559 61 65 44
11.352567277378757 61 67 45
11.591478004006559 61 65 44
11.91059559194886 60 64 42
11.605363656979115 58 60 38
11.486274552348982 59 62 40
10.872965718387693 60 64 43
12.304510362070609 54 62 39
11.372432113807376 53 61 38
11.942111198050053 57 65 42
11.871652082164314 57 65 43
11.415503306937369 56 62 39
11.424021355657919 59 65 43
12.65149696772994 55 63 40
11.257877463504258 60 64 43
12.690227700558433 56 64 42
11.626162918551637 58 66 44
12.27617945906655 58 64 41
12.304510362070609 54 62 39
11.54535488056728 57 63 40
12.276126686336532 44 50 26
12.558733329896105 43 45 21
11.901588008396445 46 55 29
11.942750968229504 47 56 30
14.281437116476726 38 39 23
16.63988011696221 37 43 23
15.722840506735357 29 33 12
11.838435669428964 54 54 50
11.785521694774479 50 50 44
12.609826732350715 44 44 43
12.485938953191805 13 10 11
12.192154611126956 17 14 14
12.361551657190326 52 54 49
12.178172457761002 37 38 30
10.330072820325581 45 49 28
10.564727814692235 24 28 7
10.392513659314632 23 27 5
11.282854766109045 50 51 40
11.951557621314969 46 47 33
10.246259987262762 22 26 4
9.630724272244041 29 34 17
10.57018925590685 44 48 27
11.268724907885026 22 23 15
9.610410170616085 26 27 11
10.177340071279046 25 26 10
11.282854766109045 50 51 40
11.20421138330844 45 47 30
10.146288394514999 31 33 15
12.164328476320453 17 14 11
11.706387163516068 50 48 43
11.96657117698693 46 47 38
10.411552678743083 29 30 14
12.333211810572573 41 42 27
12.76407523041496 50 52 29
11.428165463632888 50 52 31
12.253158113999584 47 49 28
12.202042709541123 47 49 28
11.809187707974608 50 56 34
10.995759303018074 48 52 33
12.02279611785986 50 54 33
11.41082279421473 49 54 30
11.594758207471136 51 57 35
11.67308530429262 34 34 20
11.877695319683436 38 37 20
11.808564473946646 34 33 18
11.497017538435712 46 51 26
11.706062876444106 52 58 32
11.561121837400243 50 55 31
11.642697255353676 46 48 23
12.144641272808704 37 39 18
11.585356057822786 40 40 20
11.928505273238418 41 42 22
11.64213363326864 43 43 26
11.754353906715615 41 43 19
12.1357878652866 37 39 15
11.54718298312835 47 52 25
11.757278546988084 43 45 21
13.245377984706051 50 52 26
12.709468918973393 51 53 30
12.460419988454774 51 53 31
12.369055435845366 49 53 31
13.325253108462057 55 57 31
13.294990359664627 55 61 38
16.35219770429293 59 65 40
12.533319377548423 50 52 28
13.108549009651016 50 52 28
13.298395802057868 55 61 38
13.485763876794286 49 55 32
13.485763876794286 49 55 32
11.763830221510988 53 57 35
11.417123482542205 55 61 36
12.43885036735101 50 55 30
11.295172838253256 53 56 34
11.363975817276756 34 37 13
12.384854107712973 49 51 29
12.707804584541147 59 61 42
12.904473648647441 54 58 37
12.904473648647441 54 58 37
12.321152049129553 53 59 36
11.57621650935409 54 58 36
12.130524207582436 55 59 38
12.018179891184449 54 58 36
12.44594311361003 51 57 35
11.754493352892876 55 61 38
12.397711962005575 57 61 40
11.862620213313559 57 61 40
12.082495174603123 65 71 51
12.308747338343709 59 65 43
11.394181161125495 64 68 49
12.317392407918176 64 70 50
12.948536069801248 63 69 48
12.29783424532612 61 67 48
11.708005885451001 59 65 45
12.566469535407034 59 63 42
11.453581997486548 60 64 43
12.223587101252104 59 62 41
11.453581997486548 60 64 43
11.418450362227782 65 67 48
11.73162589566629 61 65 44
11.973408547368642 62 66 46
11.613028772881954 62 66 45
12.241075967713167 60 64 43
11.122559845919467 52 59 37
11.084555024574087 56 64 42
11.162618368547534 50 59 33
10.674402961046997 52 59 36
11.129874909794056 51 59 36
11.140351275846786 48 57 31
11.010288654303896 56 62 39
12.297076106466285 63 69 48
10.769858052197586 60 64 43
11.154268317102348 60 66 44
11.622267505271514 62 68 48
12.227222137080778 60 68 48
11.605363656979115 58 60 38
11.709497206804388 61 65 43
11.424021355657919 59 65 43
12.927971276910988 55 63 40
12.052312079153944 56 64 42
12.889954917263863 55 63 40
12.344329824573048 55 63 40
12.889954917263863 55 63 40
10.851649709409918 59 65 43
11.659957958432594 57 65 42
11.321932725518396 58 66 44
13.51423410156263 40 46 24
12.276126686336532 44 50 26
12.045503425739142 45 51 28
11.942750968229504 47 56 30
12.430110830458853 57 55 50
13.115309100992697 16 12 10
11.21700642520778 48 49 32
10.939008539689144 47 46 36
11.691039486027378 36 34 27
12.073570989284772 3 1 0
10.693761311046666 44 46 27
11.714323423630994 49 53 32
11.812244920385236 51 56 34
12.362414175646629 53 59 34
12.186015752696049 46 48 28
12.237198102758834 45 46 30
12.042046463956373 38 37 20
11.561121837400243 50 55 31
11.93130048562638 47 49 23
13.062080494203848 37 39 17
11.605175759728338 44 46 24
11.688646850340534 46 48 22
11.606455306160408 53 59 34
11.798301094291402 46 48 24
11.36189992704411 44 46 22
11.995678465624742 42 44 18
12.026351920865691 39 41 19
13.045609630600383 55 61 38
12.232735131778893 48 50 28
12.759920090108846 50 55 28
12.972299823899483 51 53 30
13.631980938889447 53 55 30
12.201278618578211 50 52 26
10.50498743382349 37 41 20
10.551600094408911 45 47 25
12.707804584541147 59 61 42
10.922420596525823 44 49 24
10.362273403413527 22 27 3
11.040219935517598 49 53 30
10.551600094408911 45 47 25
11.237471924545671 43 48 23
10.904354756566732 49 52 30
11.55908299989995 62 66 45
11.804487948548328 58 63 40
11.781717527597062 64 68 49
12.547299628971514 58 62 41
12.547299628971514 58 62 41
11.871590163780604 59 63 42
11.57621650935409 54 58 36
12.373115142458385 61 65 45
10.915937576953592 54 60 36
11.39512455659662 57 64 42
11.585905733517155 53 57 36
11.19915195159541 57 63 41
11.86550553254247 63 68 46
11.268156283617381 59 63 42
11.164642526237106 61 65 44
11.86550553254247 63 68 46
11.759112334091354 56 64 42
12.220632793964008 59 63 41
12.380364297579025 58 66 44
13.51423410156263 40 46 24
13.012721333023844 41 43 19
12.773214734920709 37 39 18
11.984217216682564 50 52 32
13.502308429426783 53 56 33
11.49002628978756 44 46 24
11.984217216682564 50 52 32
11.243290021186803 47 49 23
12.862472187643913 47 49 25
12.025084865168578 50 52 30
12.851906630693684 53 55 29
11.262082707604323 47 51 30
11.234415850575502 45 46 31
12.655854697583347 17 13 12
11.884412954313543 13 11 10
13.48240576069548 53 59 36
11.499527005221694 40 39 30
9.691680543239672 40 41 24
12.173113426645646 60 64 43
12.104699809232883 56 63 41
12.360917902215437 53 61 39
11.935377011709683 60 64 43
12.373115142458385 61 65 45
11.886559489827668 64 68 49
19.37691224598405 17 15 0
10.600506487910705 52 60 38
11.141777091267269 52 60 37
11.372432113807376 53 61 38
11.919549334896606 47 53 28
15.245410070226932 42 46 29
13.264241890140273 49 51 30
12.28664975380957 47 49 25
11.888629218222052 45 47 24
11.933082026684623 39 39 27
12.69168515040218 55 64 38
11.680469582940066 42 44 20
11.820760172208576 47 49 24
9.68363563494065 21 27 7
11.142640746614342 34 36 13
11.57621650935409 54 58 36
12.067082068217244 54 60 37
11.90174199459931 51 57 35
11.474071442889013 55 61 38
11.646061407454571 61 65 44
12.408386006528644 60 68 46
11.80884047187826 41 42 27
12.201278618578211 50 52 26
16.348592498052664 28 32 10
12.65149696772994 55 63 40
11.556765569088942 65 69 50
10.754893731279793 63 67 48
11.94801233137656 60 69 49
12.041035658093334 61 69 49
13.48240576069548 53 59 36
12.177945717509662 46 48 24
12.203303677493826 17 15 14
11.76313839140825 47 49 29
10.671842681442095 49 53 32
16.63988011696221 37 43 23
12.609792573780133 57 61 40
12.021790949021593 60 68 46
11.849181731317746 49 51 29
12.7695272151704 53 59 38
11.431220928185251 52 60 37
