23.022429195697796 69 72 43
22.997983849991062 68 70 44
22.96296804113051 64 68 40
23.07936938808148 64 66 42
14.04046264937251 40 40 14
14.238818466252496 46 46 19
11.030163502459219 64 66 37
11.32028629898482 46 48 20
11.863320653092527 43 46 15
13.27387213375684 61 63 33
13.231428362684724 58 61 32
12.358276247011636 45 48 17
13.372386724288248 56 59 30
13.43781739704101 59 61 29
11.842407559168533 39 42 11
13.264452932947863 56 59 30
14.001815297935389 61 64 35
13.952779523210648 63 66 35
13.539441894869977 55 59 29
13.970533867535845 62 65 36
14.753311206097635 62 65 36
13.358198670892303 58 61 32
10.783698682734551 58 61 28
10.966557665864501 51 56 23
10.783170784114066 57 60 30
10.984353742130798 61 63 35
12.118839349809019 49 55 19
12.200609905485864 47 51 19
11.418489050066103 46 51 18
11.521708295158815 46 49 18
10.226058989408738 50 53 22
9.699892136249106 56 59 27
11.506227761830512 52 55 20
11.13194895010568 53 56 24
11.469133901688796 43 46 13
11.539081088255504 49 52 17
11.275593431864069 51 54 19
12.588258099209293 51 56 25
12.097839768059142 56 61 30
12.619196775857187 54 59 28
12.429280438287158 52 58 21
12.428822433881178 53 58 25
12.459243241351567 54 59 28
13.330631343883342 58 63 30
12.617843393618628 58 63 30
12.901661011345347 52 57 25
13.297343035823127 60 65 38
13.948404097916612 59 64 35
13.772543765958615 59 64 37
13.386082386740558 61 65 36
13.635722628382505 62 66 39
14.209910150227655 62 66 38
13.188795120056358 61 66 39
14.544493511451378 64 68 40
14.08647194008572 62 67 40
13.07022252805948 59 65 34
14.333030962988122 65 70 42
15.294448391033141 66 71 42
15.031019150630337 64 69 42
10.008655139235577 62 64 38
10.298867062811892 34 36 12
12.971393643161841 4 4 0
10.67234944847494 26 28 3
14.394895728474484 8 6 0
13.982789166897458 49 50 26
13.859172161660474 15 13 10
14.029340075004296 47 47 23
15.171742583950367 10 8 1
14.172734311303397 47 49 25
14.209469834565832 14 13 1
14.498772459476985 46 48 23
11.965023087398352 44 47 14
10.160495194753812 37 40 10
9.88002619305774 62 65 33
13.399240186044151 51 54 21
14.361898301390447 48 50 24
14.314891471701424 49 51 26
14.301240427076902 52 55 24
13.771363863449666 52 55 20
13.295692820082595 49 53 22
14.54972431279034 54 57 22
13.704465608607917 53 56 25
13.96240479446952 53 56 25
14.554166507847741 51 54 25
14.158946209561826 50 53 24
14.991614249955934 51 53 26
14.417818237373863 53 56 25
13.892388838224294 53 56 21
14.154379979543812 53 58 27
13.999791690555009 47 53 18
14.936271373367838 53 58 27
13.973540087107342 48 53 20
13.421007880889109 51 56 25
15.529795630487751 54 59 28
13.752059928803453 48 53 19
13.84168133446085 51 58 26
14.277727308585874 52 59 28
14.016674258121764 51 58 26
15.11677919028619 2 0 0
14.22715337166087 15 12 16
15.043874439594765 13 12 18
14.26444453763377 38 37 20
14.692345560214724 6 3 1
15.186107070445125 11 10 0
15.35400981747634 41 43 18
15.882021061002648 12 13 3
16.155009220539263 14 14 6
15.210357569157551 44 47 20
15.736959127121454 41 43 16
15.210357569157551 44 47 20
15.368898552877683 37 36 19
15.010930272142176 41 40 19
15.120720789518122 46 48 26
14.89770746776392 30 29 16
14.407224329262679 48 48 26
15.197560259277923 43 45 24
14.977110629466397 43 45 23
13.925222353452895 45 50 14
14.381417438965792 42 44 20
14.679140389712803 42 44 19
14.679140389712803 42 44 19
14.069475912778627 44 46 22
14.44886734365274 39 42 12
14.44886734365274 39 42 12
15.184702754445087 42 44 20
15.261403532934606 38 37 21
14.995736158252289 36 35 18
14.943545180237166 43 46 16
14.901425699365094 47 48 27
15.056708900048735 46 45 25
15.045005073925005 39 41 20
14.596170306632233 45 48 13
15.20307396092948 38 39 24
14.19581549258699 45 51 15
13.879703253529643 46 52 16
13.82299306831652 45 47 21
13.902147572959688 48 50 25
13.933582534075017 47 49 22
14.144237412904271 55 58 32
13.864597795093417 52 54 31
14.208967324226741 43 46 15
13.539760233462916 49 54 27
14.036371943184314 46 49 18
13.958943989439296 46 49 20
14.104413035859816 52 56 29
13.855580182972204 49 52 25
14.144237412904271 55 58 32
13.902147572959688 48 50 25
14.361598877301578 48 54 17
14.314591064351726 46 51 15
14.190859988703242 50 56 20
14.143284704978784 49 54 20
14.08919771049605 53 58 27
14.314591064351726 46 51 15
20.976375094273163 61 66 39
23.011814050851438 61 61 36
22.90018779408796 66 68 40
23.731261989267683 61 52 33
23.300704405453583 44 40 18
23.495697706107656 47 43 22
23.953008586600873 41 29 11
23.88834172456881 46 32 15
23.763740664082647 37 22 5
15.074610805615096 45 48 19
14.191002826486987 39 42 14
14.103197730350434 40 41 14
14.768849177721966 43 45 17
15.03205478728142 57 59 30
15.916583359730064 60 60 34
15.60679438687839 61 64 35
15.027703930460868 62 61 42
14.88486651005283 65 66 39
15.437543877439692 63 65 37
15.461678139886777 63 65 39
15.461678139886777 63 65 39
14.575124909091645 64 66 37
15.79375654726716 64 64 39
14.947053262642223 64 66 39
15.17580248143963 68 66 43
14.804728840785996 66 66 40
15.067685497891565 66 68 42
14.493274686651464 64 66 39
15.30229169666558 67 69 44
14.774620683110443 64 67 36
15.143475355248858 66 64 41
14.873027458984762 69 68 50
14.952799094771736 66 65 47
15.259994121281423 66 65 47
15.259994121281423 66 65 47
15.514869824625503 67 66 48
14.702381627311967 63 65 44
15.602242334425453 69 68 45
14.49729341258154 68 70 44
14.31944591749316 66 69 41
15.063772642470976 71 73 48
15.693203507174323 73 75 51
15.109203203287331 70 74 49
14.825392450710654 70 72 47
15.109203203287331 70 74 49
15.04730826770746 70 72 46
14.5450285709766 72 74 48
14.664995602109325 71 72 48
14.485137592170206 71 74 48
14.149150717869754 71 73 49
15.155011094627204 74 76 50
13.536185620233915 73 75 50
13.536185620233915 73 75 50
14.571031919007734 73 76 50
14.26189032244103 63 65 44
13.919089078797802 66 65 47
13.788411647336321 66 65 47
13.313777292095143 65 64 46
13.191428309236452 65 64 44
13.486929809633356 64 66 45
13.803546123965589 63 62 44
13.191428309236452 65 64 44
13.57338575684593 69 68 50
12.981122484529779 66 65 47
14.420959082180746 69 68 50
14.411894598433422 71 71 47
12.981122484529779 66 65 47
13.769393269047093 68 73 48
14.60559656239562 70 71 48
12.981122484529779 66 65 47
13.185936866673373 70 72 48
13.443681081637859 70 72 48
14.890063310217128 60 62 43
15.396270213673336 71 76 50
15.68147845279062 68 73 46
15.171733800708246 70 75 48
15.844044665798094 73 77 51
15.339703107492717 72 76 51
11.815566052285279 58 57 42
11.245942873268032 58 57 41
11.774016562553179 56 55 40
12.449255027787357 59 58 46
11.810152872318316 55 56 42
12.381010712129308 65 65 41
13.247681351830744 68 70 46
12.95319213068734 63 67 40
13.711193285789673 68 69 45
13.711193285789673 68 69 45
13.374297604503019 67 71 48
13.374297604503019 67 71 48
11.95568968813802 64 63 45
11.919517018157999 64 63 45
11.967090539193997 61 60 42
12.097422287428623 60 61 40
12.63707367127637 63 62 44
12.15943526154628 61 60 42
12.634430965156758 57 57 42
11.892614348396636 65 64 46
12.690745489008826 64 63 45
12.033023981245153 64 66 44
12.080150502387347 62 62 40
12.570811295643638 55 59 35
12.329392179261797 57 59 38
11.784631580280042 58 61 40
11.784631580280042 58 61 40
12.28414879933539 56 60 36
11.784148520885756 58 60 39
11.49652758081807 57 59 38
12.17432385535992 58 60 38
12.710710692485975 61 63 39
12.211606437755691 60 65 39
13.07413253421612 63 68 43
11.87905495693982 61 66 40
12.798303461597563 65 70 44
12.552830415038557 61 66 39
12.175258994225342 59 63 39
12.307883490977767 59 60 39
11.610313139719334 58 57 41
11.895183106960681 58 58 39
12.2818315458654 58 60 38
11.52435492003692 56 57 41
11.865411332174697 58 59 41
11.496032415397533 56 57 41
12.307883490977767 59 60 39
11.952186881138287 57 59 39
12.41784104482522 58 60 39
13.017621372206712 58 57 43
12.919867503607485 56 57 45
14.399970725208542 50 52 33
13.87826434889756 53 54 42
14.237926358160252 48 50 31
12.739456484675625 53 54 39
12.327145309061915 53 54 38
12.433789501885409 52 53 40
13.681120267669229 56 58 35
13.522857757374283 50 53 31
13.711041785095922 53 55 33
13.062231494598281 52 53 37
14.158991554226112 53 55 32
13.663823106988378 55 57 33
12.953851804164605 55 57 39
13.114163401147884 54 56 36
15.010592145104116 74 79 52
15.010592145104116 74 79 52
23.1196155043919 66 68 41
11.32028629898482 46 48 20
11.25365016390785 57 62 32
11.71020994737597 49 52 19
12.38370770743887 50 48 23
13.428513193324154 56 55 27
13.27387213375684 61 63 33
14.630087030392463 62 65 36
14.010738790314901 62 66 36
13.943818939242906 59 62 33
10.047464228737466 60 62 30
10.819272501183583 47 50 17
11.662016858742222 51 54 19
10.967013142501674 52 55 20
11.347798565361078 54 57 23
12.458786338424982 56 61 29
12.067451356466954 53 58 27
13.479404545672084 60 65 35
14.544493511451378 64 68 40
13.117682793800775 57 62 30
15.257626508717127 64 69 42
15.068394792182893 67 72 45
14.664426446559192 12 10 1
14.467437849879348 49 49 25
11.062703907741694 19 21 0
12.50238107840757 47 50 21
10.300451086020797 54 57 26
13.490418183483609 45 47 21
13.89704115243146 47 49 23
13.771363863449666 52 55 20
13.799700824532035 48 51 23
14.314891471701424 49 51 26
13.421007880889109 51 56 25
14.546894094354764 50 53 24
14.48985274292942 54 59 28
14.952096589383304 55 60 27
14.23229101554258 54 57 22
13.95482399383246 53 56 25
13.578836749606516 46 52 16
14.501612069612024 53 56 25
14.611052071374566 52 57 26
14.54972431279034 54 57 22
15.067928940338618 53 58 27
12.902818369804622 61 66 38
14.699541393008214 52 59 27
14.378056620832671 50 56 22
14.469991121654543 13 12 16
14.919098936861756 9 6 11
14.976447944070266 14 13 1
14.92785543946104 4 2 1
14.633057540867464 24 23 9
15.099522750342045 47 49 24
14.463310732834309 46 49 18
15.32155076122015 32 31 17
15.544061015754279 38 37 22
14.236730568258823 48 53 20
13.645516563076503 46 51 22
15.057981862386491 41 40 21
14.552749995555812 45 50 15
14.587553504991462 47 49 23
14.135398196713941 51 56 26
13.634893363969427 50 52 30
13.823967849833876 51 53 28
13.855580182972204 49 52 25
13.925222353452895 45 50 14
14.636260038029071 44 43 23
14.381417438965792 42 44 20
14.752788977274976 40 40 18
14.754666470216154 43 46 17
14.050176403358522 58 63 35
14.324017340821918 48 48 25
21.85446572218392 62 67 40
23.193409106996217 69 72 43
14.52562980141757 40 43 14
15.074610805615096 45 48 19
23.187099990671253 61 60 36
23.20090980724367 42 39 16
14.86060854142123 54 55 27
15.896446645108064 61 63 35
13.55359440527444 63 65 35
13.391066661390155 63 66 35
13.55359440527444 63 65 35
15.097632463236877 63 64 37
15.183523508814812 67 68 43
14.859365433163994 69 70 44
15.481097217225937 68 68 43
15.067685497891565 66 68 42
15.229107852490163 70 70 46
14.121819512970106 64 67 38
15.634891452821094 66 65 45
15.049523766839 66 65 47
15.514869824625503 67 66 48
14.998186252415252 66 66 42
14.149150717869754 71 73 49
14.10516150532176 71 75 49
15.529058291188164 67 72 44
14.939163335261915 73 75 49
14.859701588705674 73 75 51
15.363665940475457 71 73 47
14.49729341258154 68 70 44
13.289697358368988 68 67 49
13.523217472577175 66 65 47
13.919089078797802 66 65 47
13.313777292095143 65 64 46
14.373749363210697 67 66 48
14.01362375297613 63 65 46
14.47841619914831 66 65 47
14.294870262539042 68 67 49
13.185936866673373 70 72 48
13.967835583118799 69 68 50
13.415492759141241 70 72 48
15.339703107492717 72 76 51
16.183243844937167 73 76 51
15.396270213673336 71 76 50
15.68147845279062 68 73 46
15.171733800708246 70 75 48
15.396270213673336 71 76 50
12.258042101535818 57 56 42
11.595682213141592 56 55 38
14.36035658981722 70 74 50
13.84644652125834 72 74 50
12.831555492121447 65 67 43
13.355324450290817 71 73 49
12.15943526154628 61 60 42
12.097422287428623 60 61 40
12.070916124880753 59 60 39
11.92886859733903 66 65 47
12.509695271516554 59 58 40
11.940295057778005 63 62 44
12.186916184129778 68 70 46
12.792416151199621 67 66 48
12.28414879933539 56 60 36
11.302263996908998 60 62 39
12.570811295643638 55 59 35
12.419674580966477 58 63 37
12.70327916734783 57 60 37
12.265283584231092 63 67 40
11.708508719248453 61 64 39
11.708994899194241 59 63 40
12.508850337402231 63 68 41
12.0746207327775 54 55 43
12.594457751510836 58 60 39
12.279112384902255 58 57 37
12.421045302401248 52 53 41
13.957109183717925 51 53 33
13.525743844685664 52 53 37
13.672550844351134 54 55 39
13.272109920397547 52 54 34
12.673220052450581 51 52 36
13.31693177145314 54 56 33
13.492518922423685 57 60 35
14.485732012093065 53 56 31
13.974649416528957 38 38 11
11.647022012958663 36 38 10
13.372386724288248 56 59 30
10.765570917813857 52 55 22
11.114389202031191 48 51 15
10.857538029675041 48 53 20
10.801204440308306 47 50 14
11.661528720238529 50 55 22
13.772543765958615 59 64 37
12.901661011345347 52 57 25
13.493043272669706 58 63 35
13.667770362854144 61 66 39
14.170270342201462 63 65 38
12.882379509992017 61 66 39
13.117682793800775 57 62 30
13.635722628382505 62 66 39
13.667770362854144 61 66 39
13.085327777547624 8 10 7
12.812179089395805 2 4 0
10.309136613861272 47 49 23
14.410626743038776 14 14 15
14.879532682399342 50 52 26
13.448338088842975 50 57 23
14.154379979543812 53 58 27
14.546598478180446 49 55 20
14.554166507847741 51 54 25
13.712807982067666 51 53 23
13.515768849399905 51 54 23
11.844751897320766 49 52 19
14.630870529399525 41 44 13
14.630870529399525 41 44 13
13.548988043119712 53 58 32
14.104413035859816 52 56 29
14.041277974335364 52 57 26
15.466971027578753 41 40 20
13.645516563076503 46 51 22
14.754666470216154 43 46 17
14.381417438965792 42 44 20
14.050176403358522 58 63 35
15.544061015754279 38 37 22
14.406925847200247 46 49 17
14.361598877301578 48 54 17
23.883763640397415 37 33 11
23.75157385192204 41 31 13
23.676699203854845 59 47 28
23.72105437376807 61 54 34
15.267208521347275 59 62 33
14.54141088232835 63 62 44
14.825392450710654 70 72 47
14.414602684161252 63 65 44
14.88486651005283 65 66 39
15.17580248143963 68 66 43
14.493274686651464 64 66 39
14.158383416568823 70 72 48
14.406864699711928 63 62 44
15.79375654726716 64 64 39
15.561816134337064 73 77 51
12.54195781047682 58 57 39
12.361030945774099 57 56 41
13.215045638466496 65 65 41
13.215045638466496 65 65 41
13.74265081027585 70 72 48
12.626277793516577 66 65 45
12.63707367127637 63 62 44
12.63707367127637 63 62 44
12.209275416151344 60 61 39
11.555005469033853 57 59 38
12.211606437755691 60 65 39
12.266211788604018 62 67 41
11.708994899194241 59 63 40
11.668220780188859 58 57 40
12.00430594647421 55 56 42
12.163351772849763 54 56 37
11.640737359324044 56 58 40
12.701934744032272 58 60 39
14.082229421455292 69 67 61
12.440070589979156 55 56 42
14.070834434129765 51 53 33
13.344157970935674 51 53 32
13.939083064710474 55 56 36
12.433789501885409 52 53 40
14.464726969939429 49 51 21
11.98382230843133 54 59 28
14.170270342201462 63 65 38
13.91240710721397 61 64 35
13.746060940106068 57 59 28
13.39589308294708 59 58 29
12.159439818672592 49 52 21
12.887396439910454 55 60 27
10.350938493496459 62 65 37
10.022271087451355 57 59 33
12.902818369804622 61 66 38
14.285836260847097 53 56 25
14.943354291613076 54 59 28
15.118047094615871 22 22 9
14.64358314963445 45 47 18
14.596170306632233 45 48 13
15.116871293410467 39 38 20
14.373661589426902 43 45 20
14.781118456814546 46 45 29
14.90613603990628 69 74 47
20.832592900908992 62 67 40
23.633194886363505 41 33 13
23.290123449293954 55 40 23
13.523217472577175 66 65 47
14.740980333646359 69 71 45
14.952799094771736 66 65 47
15.529058291188164 67 72 44
15.063772642470976 71 73 48
14.985537557566834 70 70 47
15.396270213673336 71 76 50
12.110099975496096 57 59 38
12.080150502387347 62 62 40
12.183947083037108 61 66 41
12.928661243034806 57 59 38
12.129205740318838 40 43 12
11.418489050066103 46 51 18
13.117682793800775 57 62 30
13.705079586147653 56 55 27
14.444887085505835 51 51 27
14.854546358831733 44 49 14
9.965417589005241 63 65 39
14.01008465566943 56 61 31
14.333085054078806 46 48 25
14.394895728474484 8 6 0
14.863962713273434 39 42 12
15.330481254285926 62 64 43
15.183523508814812 67 68 43
13.242853579620077 70 68 48
15.25399081973504 66 66 41
15.509287258000134 73 75 50
13.323223777774146 51 53 32
12.592031644899807 64 63 44
12.11261721729151 62 61 43
11.415060713009796 58 57 41
12.588258099209293 51 56 25
13.983033701667027 38 36 11
15.5338687353988 25 26 14
12.114913841560911 51 54 19
14.236730568258823 48 53 20
16.18645740059884 12 11 19
14.89454785155237 67 66 48
13.416713697508921 66 70 46
12.068856453952572 66 68 44
12.17432385535992 58 60 38
12.507029874473355 62 63 40
14.215411955828992 48 50 28
14.132485004196356 45 48 20
12.568999806990323 57 59 38
