18.201812037808658 50 55 32
18.63531115826716 51 54 31
20.69055446923489 49 55 28
20.657976067774744 56 62 37
9.847049164805101 8 6 0
10.050364872428307 8 5 0
10.112540957332321 8 5 0
15.963876268737089 54 54 35
12.186748963523764 49 49 25
10.082209706898665 45 46 21
10.181614306899178 38 36 16
11.061923997877546 38 38 15
11.124518282135528 46 46 22
10.404912690605974 50 52 24
10.629874892668214 46 46 20
11.337269180612008 50 51 25
11.911812517586213 51 51 24
10.945335254089734 46 47 23
12.048746247035858 49 51 27
11.625745946170007 47 49 23
11.364138836019032 50 51 27
11.13000270141707 49 50 25
10.913926356019944 34 32 13
11.940596834912249 53 55 29
12.163563619601472 54 57 27
12.936035884413776 55 60 31
12.56542880046412 50 52 26
12.465511865576474 59 64 35
12.647790212075183 53 58 29
12.700219194485932 53 57 28
12.325629413292159 52 54 26
12.514923475146318 53 58 31
11.769978587876208 49 51 25
11.857866261186961 54 56 28
12.936035884413776 55 60 31
12.528570910216631 42 45 15
12.791571687856225 38 40 12
13.274740660258084 42 45 18
12.918990100260627 44 46 21
12.918990100260627 44 46 21
11.558273369824418 52 54 31
12.607687858017266 48 50 24
13.30630480489914 48 50 25
12.260738779789623 46 48 23
12.716798526127576 45 47 22
13.75227385764664 50 52 26
12.475842843906348 43 45 17
12.60835497988946 46 48 22
12.262571333157746 45 47 22
12.5327189184156 47 49 21
12.665300087039933 47 50 21
12.951857361071236 46 49 22
13.12470609922755 46 48 23
14.016026430082292 48 50 25
11.702511842289503 48 50 24
12.045180870457141 47 49 22
12.153091694185402 46 48 21
11.987290472585672 44 45 18
11.988096592077724 46 48 24
12.61237744762875 48 51 24
11.35630246130462 51 53 29
10.665711971673646 45 48 19
12.563719551861071 51 56 25
13.535403902781027 50 55 24
13.107856784521887 49 54 20
13.207819352021374 49 51 25
13.461945661200954 51 56 25
13.439756053606327 53 58 27
13.87789260969288 53 58 27
13.260287949753533 50 53 25
12.588121756489437 49 51 23
12.102690885781353 49 52 23
12.643827585215579 51 54 24
13.714064364389598 61 67 31
13.85800930495939 59 64 31
14.071719241161023 56 61 30
13.714064364389598 61 67 31
13.640426828734077 60 65 34
13.06526441509871 58 63 30
14.142099033788762 52 59 27
13.439662865091258 53 56 25
14.142099033788762 52 59 27
12.5886699113317 48 50 26
13.310634767872576 50 52 25
13.68173308091506 49 51 24
13.99711925286469 49 52 22
13.486500770455645 50 53 23
13.336749261262783 50 53 23
14.537018746200031 51 54 21
15.30040532067265 53 58 27
13.462570451397255 51 56 25
15.68665877370284 52 57 26
13.65700482281747 50 52 25
13.284582657465947 50 52 25
12.770431689059597 15 14 0
12.853198128649959 44 46 19
12.269799908483723 50 51 28
12.302809560874241 55 58 29
13.689579245031261 51 54 23
11.996766937321208 48 52 24
12.163616092374955 52 53 29
13.31816205081283 51 53 21
12.889496378593327 62 67 40
12.59581077513663 54 59 32
13.29465560162756 59 60 32
12.754826089654369 53 58 28
13.666711640338606 59 61 31
12.81355058372805 64 68 42
12.886427578328442 56 61 32
12.941499316295113 62 67 40
12.574099466740781 61 66 38
12.989100356514589 57 60 31
13.169451123174415 59 64 35
13.118351848680668 58 63 34
13.068887834619826 62 64 35
13.015502425623078 58 63 34
13.397779787784415 62 64 38
14.075128912876117 52 55 22
13.397779787784415 62 64 38
13.421105620916205 56 59 28
13.98326295026466 62 64 38
13.02172366024018 65 68 43
14.005613716723314 56 59 29
13.470432122763459 55 58 28
13.523125762786528 63 65 39
14.100005196965226 59 62 32
13.718651387156457 63 65 39
13.072557231461946 64 68 43
16.10977616700874 49 49 23
15.986449374337298 55 57 33
15.175327496735688 65 67 45
16.008026745535116 61 63 39
15.063527185163036 63 63 36
15.986449374337298 55 57 33
15.478481378092512 62 64 40
15.58502579672034 58 61 30
13.452493345752833 72 77 55
14.36409350422062 71 75 54
13.249962479793425 65 70 45
12.865860492856818 64 69 43
14.152004117085538 69 75 51
14.010568964310954 70 76 53
13.939614947243724 72 78 55
13.452493345752833 72 77 55
13.865355424067799 68 74 51
14.079462307276476 67 73 48
12.635810827674174 68 72 50
12.741823729760435 67 69 44
13.024210952121178 68 72 50
13.327162066683437 67 72 48
12.973836272008041 69 71 49
12.893216830168662 67 72 49
13.301868825012333 65 70 46
12.684974369053938 65 70 46
12.609130848672997 69 71 49
12.609130848672997 69 71 49
12.893216830168662 67 72 49
13.17673288632762 69 73 51
13.125661960363425 69 73 51
12.740355028222176 69 72 50
13.17673288632762 69 73 51
13.024711579583448 69 73 51
12.948646588136052 61 67 41
14.083643494421828 67 73 48
13.452240499498842 67 73 48
13.601246779271248 62 68 41
13.601246779271248 62 68 41
14.153963994492777 65 71 46
13.22897299181134 68 74 51
13.255134399874152 61 66 40
13.255134399874152 61 66 40
13.867872027953338 68 74 49
13.45436894613219 74 79 55
12.715315998113644 68 74 48
13.255674455843408 65 70 43
12.820769184122222 60 65 39
11.619629684575136 63 66 37
11.328469816931888 63 66 36
11.387603613273217 62 65 36
12.014848181039206 65 67 41
12.74248382906541 66 68 42
11.64841393292431 64 66 41
11.677289140316605 64 67 37
11.41675345677784 63 66 37
11.762720200688744 61 65 36
11.930622558765062 65 70 43
11.818046375179906 66 69 44
12.343127458051127 66 68 44
12.179325649311966 72 75 50
12.179325649311966 72 75 50
12.371061075478284 64 67 42
12.690940639169392 61 66 38
12.899086781362096 63 68 40
11.874034091752137 67 71 47
12.53178586580336 61 66 39
11.958658276989073 66 69 44
13.77198230613492 69 69 47
13.62660334838439 65 70 45
13.278806943160664 67 68 46
13.77198230613492 69 69 47
13.153356389165076 68 70 48
13.153356389165076 68 70 48
14.610417717004847 62 69 39
15.195509759834959 69 75 48
14.405286096893601 63 69 42
16.257145081136567 78 84 57
20.822735430613022 55 60 30
21.609605625463303 59 64 33
14.680823711697121 65 71 44
15.327029528966525 67 76 50
16.257068042423516 69 78 52
14.684090308558526 72 78 55
15.327029528966525 67 76 50
15.327029528966525 67 76 50
15.393693379101677 74 80 55
14.614189903033129 67 73 50
13.74238347292523 28 29 4
14.008123738427805 27 28 5
12.949482232400618 39 40 18
14.432335726167087 34 33 14
12.928364877419805 40 41 14
13.481612438019184 39 39 16
14.847093975480854 40 41 17
13.708716148027657 49 52 19
14.413391094022309 36 36 11
13.708716148027657 49 52 19
14.349356959591427 45 48 18
13.543166084990688 52 57 27
13.465423977801168 49 52 19
13.974719661893877 49 52 22
12.705990747637953 55 58 25
13.132108045404735 42 43 19
13.975069431208091 46 49 18
13.564399076059546 48 51 20
13.39009090736037 45 48 18
13.857881654949722 51 55 21
13.586912004567361 44 47 17
13.80768407401631 48 52 20
14.602173278139805 47 50 23
14.11915462324405 48 53 22
13.755560088382742 41 44 15
14.581227963363325 49 52 23
14.946226877344845 52 57 26
14.092387545971807 50 53 23
14.858049002816841 53 58 27
14.355488656140677 51 56 25
14.696970891796616 50 53 22
14.766479440350837 48 53 22
14.944622317110541 50 55 24
12.201234197727757 57 61 31
12.735642168104064 57 61 29
13.49340666610444 53 56 24
13.54591847849011 55 58 23
12.552629355439102 60 64 33
15.816674328649567 54 59 28
15.367184668795222 54 59 28
13.299016118756338 57 62 29
12.945688554700972 62 69 39
12.526343702046216 62 67 36
14.00397065302778 52 57 26
15.367184668795222 54 59 28
12.526343702046216 62 67 36
12.525100680134798 62 67 36
13.66753638145447 52 57 24
12.63049219710142 54 59 28
13.092164647754824 53 56 24
12.991099505632707 53 56 23
12.706968723990807 56 59 25
13.296372424036175 53 56 23
13.142964919338814 52 55 24
13.296372424036175 53 56 23
11.926348498884973 59 62 39
11.586721099492651 60 64 42
12.09100209668346 58 60 38
13.018983981662075 56 58 35
12.389845085203689 58 60 39
12.654915048594829 54 59 32
11.871051300685785 58 62 38
12.423758451139241 61 65 41
12.421928885539545 59 63 36
12.741093231417835 61 64 41
12.633275237614003 57 64 34
12.44718421717782 55 58 34
13.50293192276481 61 66 41
13.177751369026321 62 67 40
12.607157730276581 61 68 38
13.177751369026321 62 67 40
12.582792442764285 60 66 41
13.305406589763107 61 64 40
13.078538214933804 61 65 40
13.000104038992607 61 66 41
13.724442065348255 61 66 39
11.502525748944322 60 65 41
11.503770392626576 62 64 38
11.415884368970257 61 65 40
11.705588567557363 61 65 39
12.035167746000967 57 59 35
20.625845673100653 54 59 32
16.697882018734692 40 43 21
20.51375768125658 49 57 29
20.546063362393838 54 60 32
10.472802261812564 15 14 0
11.882904763555937 50 52 28
10.936429753764692 50 51 27
10.606046184078346 47 48 25
10.696336725705262 42 42 20
10.791527980991532 38 38 17
12.105647990902295 50 52 27
10.596737362994231 22 21 2
13.36844985617319 57 62 33
10.506330696705035 41 43 17
12.5429943427504 56 60 29
12.514923475146318 53 58 31
11.064625464526285 33 33 9
11.39362458329183 45 47 21
13.36844985617319 57 62 33
11.799769705973926 52 54 28
13.766639089112457 38 40 14
13.380617526376525 46 48 24
12.892798991828197 57 61 37
13.306936902780793 48 50 25
13.5317483749146 49 51 26
13.175047279769244 51 55 29
13.38250320038432 49 51 26
12.714695310527757 44 46 17
13.128025078170722 44 47 19
13.251365703121404 49 51 26
12.795850379237319 46 48 21
11.845809831881573 45 48 21
12.29103575897163 46 48 21
11.295626518190893 52 54 29
10.90779184405376 46 48 22
11.295626518190893 52 54 29
13.806256750469172 52 57 26
13.58713437803353 53 58 27
12.722010604890686 50 53 23
13.439756053606327 53 58 27
13.535403902781027 50 55 24
12.722010604890686 50 53 23
13.161363004339337 52 57 26
13.06526441509871 58 63 30
14.143111387620253 56 61 30
13.494161091536148 61 66 37
13.85749272328038 57 62 31
15.319351128812208 50 55 24
13.20845616297899 50 52 26
13.462570451397255 51 56 25
14.35047628312812 50 53 23
14.35047628312812 50 53 23
13.434915651270474 50 52 25
13.284582657465947 50 52 25
13.37653299484127 64 70 43
12.673210673810585 46 48 20
12.695415024332648 42 41 22
11.886834906844602 52 55 28
12.624985646939102 56 59 29
12.055205663814242 54 56 27
13.013158760171619 51 54 24
12.706347431869915 61 66 39
13.445360930282842 60 65 36
12.706347431869915 61 66 39
13.169451123174415 59 64 35
12.729056376543555 55 60 31
13.420964746249174 62 64 37
14.005613716723314 56 59 29
13.473992166761551 63 65 39
13.696584485846778 66 69 44
14.075128912876117 52 55 22
13.521352326160047 61 64 35
15.691047084811792 51 51 23
15.216288118459433 53 56 25
15.500563094243207 61 64 34
13.249962479793425 65 70 45
13.817956899270948 68 72 49
13.599733638708404 70 74 53
14.010568964310954 70 76 53
13.450085255336857 67 73 48
12.819409104423604 69 71 48
12.635810827674174 68 72 50
12.792454537697626 68 71 49
13.426324132986812 67 71 49
12.095549963708708 69 73 49
12.530243530461181 68 70 46
13.69644644461523 67 72 48
12.895728908109025 69 73 51
12.99832821602618 69 73 51
12.893216830168662 67 72 49
12.740355028222176 69 72 50
13.401845670799247 69 73 51
14.153963994492777 65 71 46
13.749158911202114 64 70 43
12.713626900698626 62 67 41
12.556370445243223 72 77 52
13.453929956381103 65 71 46
11.87582085725033 62 64 37
11.387217613580495 65 67 43
11.387493631168285 63 66 35
11.903068608539993 66 68 42
11.41675345677784 63 66 37
12.398354386778909 61 65 38
13.026648772898467 72 76 52
12.584499100854313 65 69 43
12.53178586580336 61 66 39
13.079632887838578 61 66 38
12.343127458051127 66 68 44
13.278806943160664 67 68 46
15.327029528966525 67 76 50
16.257585414497914 72 81 55
15.262196970145522 73 79 54
12.531156087688824 42 44 21
13.527405601224098 35 36 15
14.349356959591427 45 48 18
13.530950655294072 38 38 12
13.729245874572237 43 43 17
13.542016397544435 53 56 23
14.179403589069725 35 35 12
13.518277001594216 52 55 26
13.590904075798322 50 53 23
13.736139708931027 49 52 23
14.393897799096274 42 42 16
13.56118689616165 42 44 16
14.114058320380884 49 51 24
13.158672026591967 45 46 22
14.582872508101946 49 52 21
14.095790509291604 48 51 20
14.095790509291604 48 51 20
14.540317650015252 52 57 26
12.736864642771001 56 60 29
15.562722329748157 56 62 26
15.518582538743699 54 59 27
13.66753638145447 52 57 24
13.138770346361351 48 51 19
12.629259425903017 57 60 28
13.368110837986459 51 54 23
13.39304430178746 51 54 21
12.760110085769746 56 58 35
11.41343169944958 60 64 40
12.531214612549597 60 65 40
11.759837638528635 62 65 42
12.231350270929678 57 59 35
11.759837638528635 62 65 42
13.430362144248866 62 65 41
12.035167746000967 57 59 35
12.176747420519243 58 64 38
13.699268349717892 62 67 42
12.314426500822648 59 64 38
12.28418721129245 56 61 34
13.5513399272287 61 67 40
20.51375768125658 49 57 29
20.786496595216402 56 65 39
17.81395803728065 50 53 31
10.631221701898742 34 34 12
11.131401512290845 51 53 27
10.664194485748952 18 16 2
12.937239423351512 58 63 34
14.996920500959739 33 31 13
12.17959513284183 45 47 22
11.788473626630735 49 51 27
12.61237744762875 48 51 24
10.694328748825432 43 44 16
12.877605820075553 49 54 22
13.009162090838116 51 56 25
12.931967887856995 51 56 25
12.347400718494065 51 52 23
13.494161091536148 61 66 37
13.713020336507784 59 64 33
14.002097672024481 60 67 37
13.68173308091506 49 51 24
13.70775419991211 49 52 23
14.537018746200031 51 54 21
13.336749261262783 50 53 23
13.421105620916205 56 59 28
13.248152476777527 63 68 41
13.567538996435632 51 54 21
12.432985533994112 47 49 26
13.274721016128254 64 68 43
13.981547878123413 59 62 33
13.013158760171619 51 54 24
12.989100356514589 57 60 31
15.565145115271973 64 66 42
15.393434084899079 64 66 42
15.58502579672034 58 61 30
13.024711579583448 69 73 51
13.401845670799247 69 73 51
13.327162066683437 67 72 48
13.45446203278976 67 72 47
13.024711579583448 69 73 51
10.96904330707854 62 64 37
12.819409104423604 69 71 48
13.601246779271248 62 68 41
12.549869590054481 64 69 43
13.796795537629423 68 70 47
13.62660334838439 65 70 45
13.07839549210087 65 67 43
14.404205220666514 62 68 41
14.611483338786956 62 69 39
16.257145081136567 78 84 57
14.684090308558526 72 78 55
14.475614219356489 63 72 44
13.20164851216709 32 33 8
13.387999915583954 44 47 19
14.113204773260291 43 45 20
14.993651384439131 53 58 27
12.552629355439102 60 64 33
13.764474851283653 53 57 22
12.551388936717395 59 64 31
12.991099505632707 53 56 23
13.476189161963521 62 67 38
14.626368083227145 44 47 18
12.526343702046216 62 67 36
13.41584478126119 50 53 19
13.688742337021084 50 55 24
12.81270626915761 56 60 26
14.624728429549 45 46 20
11.97993310449574 57 59 36
12.897976785215798 61 66 41
12.316853258019577 60 65 40
13.000104038992607 61 66 41
12.607157730276581 61 68 38
13.127965868000773 61 66 40
12.26230367316134 59 64 39
13.023900784695629 62 68 41
12.7660317064604 60 65 40
15.985590671589314 56 61 27
10.34085285456713 44 42 21
11.335895773134789 46 46 22
12.64902117726682 55 60 31
11.598192904004144 50 52 28
11.123874760576696 47 48 22
9.713553506767607 11 10 1
13.334857117219945 50 53 24
13.016197681339124 55 58 28
13.118351848680668 58 63 34
13.523125762786528 63 65 39
12.302809560874241 55 58 29
13.27291438938902 63 65 39
13.072557231461946 64 68 43
13.863625765568665 65 71 46
11.958658276989073 66 69 44
13.743652032924969 67 72 47
12.820769184122222 60 65 39
11.873325710953297 67 71 48
11.446322503747423 61 64 35
11.328934828393345 61 66 37
11.619629684575136 63 66 37
13.821181333189873 62 68 43
13.203921236035878 65 67 41
13.553639400098705 66 68 42
21.74837643277683 59 64 33
16.194997499703902 74 80 53
20.966714883047707 56 61 32
14.61640620548053 72 78 55
14.680823711697121 65 71 44
13.447404590948441 55 61 25
14.213799382592843 50 55 24
13.764474851283653 53 57 22
14.766479440350837 48 53 22
15.255506568968034 52 57 26
13.956017026505158 52 57 26
12.205648354397756 58 62 37
10.251803313761654 25 24 6
11.275164484997266 50 51 24
12.84539838410308 44 46 19
12.970778234839786 54 57 34
13.26092224108437 51 54 26
15.319351128812208 50 55 24
12.766101933842204 69 73 51
13.301868825012333 65 70 46
12.97850262955655 18 18 1
13.421105620916205 56 59 28
12.949752241089097 66 72 46
14.475614219356489 63 72 44
12.707216074866317 53 58 27
14.212112130876596 51 54 23
13.680622813944156 38 40 12
13.12007389210537 57 59 37
12.951857361071236 46 49 22
12.720667944067618 50 52 26
11.387217613580495 65 67 43
14.352077999641088 54 59 28
11.801089128055073 52 54 27
13.077752347941793 67 69 45
13.127965868000773 61 66 40
14.535178915748066 47 50 20
14.355488656140677 51 56 25
10.405600675583587 48 48 26
12.55899122864774 46 48 22
11.590514774884223 48 50 25
12.557091122010512 66 70 46
13.452240499498842 67 73 48
13.325476106986422 29 30 6
