13.301920042290766 0.3898575834077607 1.7454636686818525 154 6 175
13.117598365176855 0.3898575834077607 1.5182942342320298 154 6 175
12.64101878066772 0.493433013983729 1.5163129254634446 154 6 175
13.536816416833798 0.5605828053303066 1.8179422990639362 154 6 175
12.712233038022617 0.8511281084558975 0.8182954809841168 154 6 175
12.587980490068727 0.7756067649042471 0.913761217754738 154 6 175
12.72308531252896 0.6987122850699733 0.8190937903378921 154 6 175
15.10686951587495 0.8262372033825863 1.724417314079617 154 6 175
12.651848950506427 0.5337509891270051 1.1911745958764912 154 6 175
12.580654386611219 0.6038572963836522 1.3554436365146927 154 6 175
11.964131800222965 0.7768233912168572 1.257404640720308 154 6 175
11.685893067482931 0.7101509671193815 1.1579693585921198 154 6 175
12.05469791522658 0.5337509891270051 1.3458894925801628 154 6 175
11.863194716386785 0.4573230921958178 1.254646068396232 154 6 175
12.790217663535074 0.5804348675470715 1.020511856905822 154 6 175
11.591316528305835 0.4573230921958178 1.3367340374977215 154 6 175
12.121751804263974 0.7101509671193815 1.0823314216428692 154 6 175
11.832499088140795 0.9727705789077041 1.1633897757003933 154 6 175
12.035963554124363 0.9005723231696623 1.2593381239020176 154 6 175
12.354454456292782 0.49984393563549195 0.9987254412131233 154 6 175
12.294004829052506 0.6038572963836522 1.5961459481108924 154 6 175
12.309318614622727 0.6038572963836522 1.5148432431310752 154 6 175
12.231928045853293 0.7189266958367502 1.4323232391385703 154 6 175
16.50213169672229 0.7791518240276777 1.8985049877134224 154 6 175
12.70386515810582 0.3436903741062134 1.192807671612079 154 6 175
12.837750465205119 0.2617896226115592 1.1117445284467504 154 6 175
13.010394347998123 0.08780091323821643 1.0308614730979757 154 6 175
12.771619470611332 0.31726508437069195 1.5168706081412318 154 6 175
12.591025016003968 0.24104571441753725 1.4362968493230879 154 6 175
12.571881003419968 0.4114948318350772 0.9127730348321045 154 6 175
13.339203990465036 0.10692928436390582 0.7578593590285772 154 6 175
12.748125981794308 0.21371469132407617 0.8209283750344291 154 6 175
13.632630305088682 0.31578614293867313 0.7803375086929607 154 6 175
13.335427407346325 -0.0021191440430681843 0.8612013678434376 154 6 175
13.050985519149437 0.2863332358168392 0.9408470291925574 154 6 175
13.303279299903702 -0.0023515927586054914 0.7550016163234772 154 6 175
13.371265725599635 0.0964285215012641 0.8635009627193865 154 6 175
10.367861974288601 0.5656517130763994 0.36404799626523965 154 6 175
10.112339387748568 0.7517086289789096 0.29058810795596385 154 6 175
9.425484647564382 0.9529891349284276 0.39810532078421235 154 6 175
10.532829620007467 1.2971864411060092 0.40315607839865564 154 6 175
9.699119283025667 0.762758489574161 0.4605883880285213 154 6 175
9.585740547276957 0.7683506282259827 0.6400518483553985 154 6 175
9.787588252959145 1.0818811043699867 0.47848354953442507 154 6 175
10.526702712948818 -0.005207803018379432 0.401789269879698 154 6 175
10.895959433503702 -0.01012851541420339 0.19550643832572387 154 6 175
10.197223976951504 1.2121385539875382 0.31723922796885257 154 6 175
10.354541557258974 0.9529891349284276 0.36065671392712434 154 6 175
10.083047853311081 -0.004189986878646447 0.5322204882907572 154 6 175
9.614296645479207 -0.005207803018379432 0.44247593426847354 154 6 175
10.939792271544754 0.4330618414990194 0.2148001623646015 154 6 175
9.815749891030066 0.4480340632926505 0.48398573982648024 154 6 175
10.870596573452875 1.5119442811654624 0.18335163259949186 154 6 175
10.077863418567288 -0.633161856175878 0.5313462875010238 154 6 175
10.134630286506223 -0.19704281898776366 0.5408007907289243 154 6 175
10.22845017653816 -0.31671148702644764 0.32640953909782566 154 6 175
11.541140020052376 0.2863332358168392 1.1524692012377273 154 6 175
11.986468284887781 0.4114948318350772 0.9788290492550729 154 6 175
12.29695095805189 0.42106473155941787 1.4330601253228519 154 6 175
13.103229252766633 0.3898575834077607 1.5945801105186441 154 6 175
12.890032231409922 0.5502010754609209 0.8311332792342697 154 6 175
13.542011850226505 0.49984393563549195 0.8742302800908314 154 6 175
13.2875126258072 0.916738872894676 0.8581003110858442 154 6 175
13.309332993409042 0.9727705789077041 0.9549265750402305 154 6 175
11.69460045121573 0.7768233912168572 1.338839289334644 154 6 175
12.296865367282564 0.5804348675470715 1.0898839962998794 154 6 175
12.110360677836166 0.8424396658515331 1.0818314981980799 154 6 175
11.539293031439373 1.8759839506183382 0.5742507586497597 154 6 175
13.123546931314472 0.17613853217506423 1.036021099168382 154 6 175
12.427029692864783 0.2617896226115592 1.1839462082636827 154 6 175
13.303279299903702 -0.0023515927586054914 0.7550016163234772 154 6 175
13.449590553887889 0.21371469132407617 0.7664924869697869 154 6 175
12.941091106073364 0.31578614293867313 0.8347275365434585 154 6 175
13.632630305088682 0.31578614293867313 0.7803375086929607 154 6 175
11.074121992850825 0.7517086289789096 0.2647126750009648 154 6 175
10.791010189952647 0.7196190219941586 0.13802434722736737 154 6 175
10.939792271544754 0.4330618414990194 0.2148001623646015 154 6 175
10.06509159875104 0.6263590501657242 0.5291832715562491 154 6 175
10.895959433503702 -0.01012851541420339 0.19550643832572387 154 6 175
10.685207243146719 1.0818811043699867 0.4353794562078402 154 6 175
10.224257378895913 0.3042380694209121 0.3251959559275758 154 6 175
10.177343267371674 -0.006878757617642463 0.3112346655989474 154 6 175
9.712372370250652 -0.7698995257337502 0.46333092735123166 154 6 175
11.838709217243515 0.37469252805964504 1.1636161397751337 154 6 175
12.488052410264663 0.2863332358168392 1.0055987051011168 154 6 175
13.190865731335586 0.5605828053303066 1.6703944897207166 154 6 175
12.626107309605077 0.493433013983729 1.5954790438071103 154 6 175
13.340406211961307 0.5804348675470715 0.95657401114438 154 6 175
13.168689220508734 0.8424396658515331 0.947347911678345 154 6 175
11.871772058451798 0.5337509891270051 1.42809404044488 154 6 175
12.66387001504654 0.7189266958367502 1.2752603883403726 154 6 175
12.058875602227715 0.6533352047184893 1.2599497472131351 154 6 175
10.711009100116945 0.4480340632926505 0.44052976778382524 154 6 175
10.604229575310578 0.762758489574161 0.41866120197254647 154 6 175
9.824482380832526 -0.4564607109126538 0.4856738635373205 154 6 175
12.859669515701261 0.19313829040099814 0.9299575518886584 154 6 175
13.339203990465036 0.10692928436390582 0.7578593590285772 154 6 175
14.273678313029404 0.8777927995600862 1.5926295040562406 154 6 175
12.791323571674374 0.9005723231696623 1.109949754054004 154 6 175
12.097789626858129 0.6348610879654494 0.9850036347727414 154 6 175
11.867439818324005 0.5804348675470715 1.1646600235621385 154 6 175
13.769309274176553 0.29450276250023855 1.666197385713357 154 6 175
10.474127447153686 1.5415034109838197 0.3898066817212855 154 6 175
10.354541557258974 0.9529891349284276 0.36065671392712434 154 6 175
10.051369948139026 0.9062951357985471 0.5268442818412072 154 6 175
9.603615886517613 -0.7737080698793309 0.642547336807779 154 6 175
10.927169070150505 1.0570118979257321 0.20943915767503882 154 6 175
13.911197998733162 0.45836977021535763 1.8111579856019226 154 6 175
10.13657845681797 1.5316775971530971 0.29848011181608247 154 6 175
13.308270131567763 0.6348610879654494 0.8594475014260613 154 6 175
12.109279496166257 0.3436903741062134 1.3469205661278134 154 6 175
13.207155711343875 0.4114948318350772 0.8528300254124246 154 6 175
