8.97729513645384 -1.7213850872051193 1.4339784274279614 68 238 102
7.442120643866791 -0.39674969213425426 1.811704198655268 68 238 102
6.672805525499034 0.03108070624862804 1.5371570125385237 68 238 102
7.127387269276682 -0.2627309246271518 1.8225676854837516 68 238 102
7.920375266689272 -1.0759227817379582 1.7968957930516956 68 238 102
7.672572915757413 -0.517303185078142 1.5415416964240325 68 238 102
10.43333351978919 3.025299309471519 1.645201098437651 68 238 102
9.522596375804499 -2.1710480165597126 1.4418582198546426 68 238 102
8.479046356570318 -1.9750850019846662 1.5443248967717087 68 238 102
12.157176438249383 -2.818675948478333 1.3867874034143364 68 238 102
10.637768890653577 -2.96982409532543 1.7384934581924667 68 238 102
11.402019331906944 3.123309767677469 1.4632020610625736 68 238 102
10.732962773700487 -2.8776532125282066 1.643120278616355 68 238 102
7.73171592486772 0.3714851487297916 2.236560467964126 68 238 102
9.763236300897217 0.5419743834157636 2.6879087125529524 68 238 102
12.089235952648815 1.7319491568268126 2.3831380201919137 68 238 102
10.848138667152135 1.8408545683600694 3.0258633924603666 68 238 102
9.25065805762245 0.4252317255336607 2.8197152772240965 68 238 102
11.079936064365056 2.114488563378406 2.9066612737675865 68 238 102
10.374407228264126 1.9650130667730004 2.8001656266520505 68 238 102
10.027235645441012 1.7210612341601104 2.9170774967242656 68 238 102
11.868595364733098 -1.8422989450976368 2.709058466236753 68 238 102
7.34554395448212 -1.6199547714615656 1.9582781860887954 68 238 102
10.238840042547928 -0.8024166469155135 2.600384131401837 68 238 102
7.807168043945109 -1.1968163976644515 1.9342624814888887 68 238 102
12.375815607902515 -1.658682214031208 2.8288678231653663 68 238 102
8.379194914735354 -1.7403613767800288 1.9084200138018539 68 238 102
11.985748713277726 -2.210583024436591 2.9540458781114123 68 238 102
11.978456881170812 -1.7647412031138443 2.5254198894024222 68 238 102
7.452245454741538 -0.1390166360276217 2.266366764094959 68 238 102
9.173886029958956 0.07758573853238317 2.845836221901971 68 238 102
9.353491804651005 2.9532595839450084 2.3809451286802923 68 238 102
10.26905282920436 2.806285815959889 2.429789203772794 68 238 102
10.918744380665343 2.6705617794528522 2.6799050298049263 68 238 102
11.893798706697881 2.264947222543991 2.535543792410558 68 238 102
11.097981422150996 2.4737605331802537 2.4828067407239334 68 238 102
10.761249427549384 2.8699384541105784 2.7102496897445945 68 238 102
10.307958056088083 2.9093892213584764 1.9458017339664133 68 238 102
8.898409274093572 -2.1387325662376484 2.0089823907417177 68 238 102
10.947569354855725 -2.523504079170565 2.5007632986125348 68 238 102
9.686580950271221 -2.7263306072815396 2.3454665278050935 68 238 102
11.051992164692107 -2.569196388550832 2.656234334989361 68 238 102
11.620210722232027 -2.4443350628142446 2.7579654057143648 68 238 102
9.071875285111345 -2.2364947791911844 1.8817363228086545 68 238 102
9.377256491010984 -2.400812154391296 1.9851855838448906 68 238 102
9.368888050470822 -3.0339203390495415 2.235039118106505 68 238 102
9.538419524018655 -2.664332429167606 2.0951656822075506 68 238 102
12.161540280049996 -2.213150093398017 2.50446953458177 68 238 102
11.58745200092259 -2.02709321984215 2.4300175092965057 68 238 102
10.42488628216799 -2.8173653266240435 2.5713885841319253 68 238 102
11.790686814711774 -2.315005709612133 2.410252632694762 68 238 102
9.97832437876226 -2.562774124479835 2.0698499006310653 68 238 102
10.842555990945806 -2.749390993937725 2.694234580668544 68 238 102
9.33758817418256 3.1133428188061747 2.237666213690006 68 238 102
10.35891543477872 -2.9081616237517225 2.804399478071561 68 238 102
10.27167139334648 3.1027600285158514 2.5950897704152878 68 238 102
7.424437122066036 -0.7021138129019084 1.5405636697468938 68 238 102
7.916410518336118 -1.4855637736625287 1.415503534022156 68 238 102
8.171719129872786 -1.8618250001030492 1.6658488896384973 68 238 102
11.0354882217898 -2.7898449133050156 1.6411342765028925 68 238 102
11.688709003456458 -2.984719958272366 1.3793229453116607 68 238 102
9.378052993861369 -2.473084481620095 1.6535918223322048 68 238 102
10.595703749328582 2.931167820156621 1.6440588476760452 68 238 102
9.433406813417633 0.6915723543985144 2.7659324028422416 68 238 102
10.043757944560681 1.277828915575124 2.909984090302452 68 238 102
9.872314016508325 1.066793340649647 3.001484153798523 68 238 102
7.361399226417744 -0.589900121661404 1.9573993308463415 68 238 102
10.819120755315442 -0.9581475541413162 2.6987706078104874 68 238 102
7.359064861789187 -0.45796252715141283 2.1095315233428966 68 238 102
9.957733813983365 -1.1968163976644515 2.3191500918221566 68 238 102
12.443037932959962 -1.9090501685233507 2.8125694647388193 68 238 102
12.30646441198222 -1.7971691313498894 2.637478523545819 68 238 102
7.412857203946059 0.036561845325736995 2.270810438242732 68 238 102
11.915946927439784 -1.7550927183030793 2.9879470706343056 68 238 102
11.163936064788711 2.504530700054722 2.6375528776172668 68 238 102
9.413025152362712 2.9784505406900545 2.2313732790873657 68 238 102
10.561751644970354 2.556825554448358 2.7533181093737276 68 238 102
10.504104551538438 2.7492535410651477 2.559733499969645 68 238 102
10.227220582961676 -2.9518400774340257 1.948911125366873 68 238 102
12.68013518870911 -2.093065926900976 2.5864013026678263 68 238 102
10.722663383002091 -2.960685065258522 2.718136067509995 68 238 102
10.10002626040814 -3.0568657226157 1.9539186084703866 68 238 102
11.421199010500397 -2.6482509238703313 2.803748201288856 68 238 102
10.853636467400237 -2.667233276132146 1.8293965165223207 68 238 102
10.487664477266382 3.1215410561628447 1.7409168736919087 68 238 102
9.73772491113933 1.650062052893898 2.6933115484768844 68 238 102
12.020035144646611 1.611492810434123 2.3892336914915258 68 238 102
7.638128122161307 -0.36684016408625775 2.4282066364238104 68 238 102
11.255549388088125 -1.0329725518008666 2.848505500085626 68 238 102
10.340296070290806 2.919020244935133 2.5842756315345747 68 238 102
10.130666502419198 -2.850873368576642 1.8483225888346866 68 238 102
10.020746523976058 -2.6020743443859344 2.3133270193490154 68 238 102
10.642545014598493 -2.6592771793872205 2.5402464341088984 68 238 102
11.197601415170325 -2.1387325662376484 2.338377032620124 68 238 102
10.486952251738852 3.1193935395728896 2.0435980401438054 68 238 102
10.440348236021594 -2.493850122277096 2.2770388746727237 68 238 102
9.36531160967628 -1.8302788073756877 1.3309868158947522 68 238 102
9.290525272883045 -2.321275607298315 1.5466375095662985 68 238 102
10.88675867121524 -2.6054603019848077 2.998552161977006 68 238 102
10.28991511796164 -0.5920297659297318 2.8240802723809204 68 238 102
11.79810047810608 -1.640411916599888 2.7221872683186468 68 238 102
10.496708709833724 -2.4227184233049757 2.560805452618305 68 238 102
10.031174746371034 3.1088858855483386 2.4577343947209456 68 238 102
11.156043409498595 1.8216187299458957 2.6388370594487296 68 238 102
10.977409122027112 -2.2364947791911844 2.2360120328961406 68 238 102
9.160599309021237 2.6642794212655647 2.8506342918237673 68 238 102
7.524643108259338 -1.3303090174089385 1.9485834060837863 68 238 102
11.656405713726514 1.782515956579581 2.5655850666176603 68 238 102
10.188007046300756 -2.865778019353303 2.439060556163807 68 238 102
9.586777011007303 0.3181392429907822 2.727254841704705 68 238 102
9.515071696411084 -1.0631929092550123 2.5273063046594766 68 238 102
11.427666220046882 -3.0717626799040456 1.4634444657373678 68 238 102
11.002893263126731 -2.291940677867831 2.6647638136384897 68 238 102
10.00799922689733 2.0773193053703687 2.640079173534483 68 238 102
9.939786019884977 2.4061034114156366 2.9595684951745733 68 238 102
9.505870485856406 -2.9018555829078427 2.22380608170549 68 238 102
