9.430349107227038 -0.31204737895150236 1.7644852622377631 181 113 108
8.884647552818752 -0.09520837102799938 1.6626742563876198 181 113 108
9.247754001093359 0.2403964531366512 1.7683596472416874 181 113 108
8.114378464692722 1.5977342893325888 2.0602821853762934 181 113 108
7.63261637797281 0.4982092537950396 2.0942206553879426 181 113 108
7.385818926184606 1.3235354733395408 1.5457667025507382 181 113 108
7.780374215938416 1.1971087686052693 1.4179151089833837 181 113 108
9.269984263626794 1.833362973129028 1.9949614499419492 181 113 108
7.002420085258845 0.9350442764625634 1.984524803615231 181 113 108
7.098413817290123 0.8206874622826498 1.6858864568051064 181 113 108
8.110409655922407 1.0820359395635222 1.5480032762927898 181 113 108
8.01738167341911 0.8206874622826498 2.066738442013156 181 113 108
8.180972949501161 0.5484476695982952 1.7945335143503656 181 113 108
7.900958999755699 1.1971087686052693 1.8026053872488852 181 113 108
8.418494197987258 0.43448951807480884 2.041134029289211 181 113 108
7.859374387252273 1.4404927599032866 2.2302231022781185 181 113 108
8.023962708490323 1.2853949309859463 2.214418547740281 181 113 108
8.91815850727232 0.5813789744755286 2.4405787134708468 181 113 108
8.845181362114594 0.8295370323743393 2.4504113479016065 181 113 108
8.804399632597686 0.4982092537950396 2.2922579949008988 181 113 108
8.661078893869812 1.2853949309859463 2.3069092149490134 181 113 108
8.463038552461702 0.977076941523356 2.506951743955602 181 113 108
10.189114807972242 1.9128508501772574 2.444964758389858 181 113 108
10.446553339380452 1.972723064253204 2.5751845115995016 181 113 108
10.2832236414836 1.798030909059533 2.6006750310596494 181 113 108
8.73651553585975 1.2338669155814705 2.465585236520567 181 113 108
9.48026025006507 1.8680367437775018 2.231149906032101 181 113 108
11.330027390334525 1.9318654789627248 2.8389655461907823 181 113 108
11.268705890827789 1.631783388744463 2.8569116471189577 181 113 108
11.478471539254876 2.1776090420927146 2.7999694975156313 181 113 108
11.615327726686637 1.3791139913802903 2.768242428139075 181 113 108
11.588857856151701 1.6171436282341811 2.77411737920307 181 113 108
11.648494092450004 1.8501234905655985 2.7610399978598092 181 113 108
8.339524731769949 0.02334591270276722 2.1863242329635444 181 113 108
8.341664729941463 -0.10731529315626123 1.915036155172614 181 113 108
8.500910334231111 -0.23158663596316928 1.9083282022034205 181 113 108
8.301008509602427 0.2697937922953942 1.7912443311119723 181 113 108
8.766382859399155 0.14737146924855807 2.0210599254382666 181 113 108
8.500910334231111 -0.23158663596316928 1.9083282022034205 181 113 108
8.612982100528644 0.307125331131676 2.1640453458659215 181 113 108
8.036718827886023 -1.0629697295775085 1.798619749270657 181 113 108
8.555878757132083 -0.9582705671805166 1.7845738753571068 181 113 108
8.963480974654647 -0.6949209865190198 2.137906668898556 181 113 108
8.697458644268481 -0.5137338353044327 2.024894101320825 181 113 108
8.77197711776115 -0.34900916790265085 1.897503309309015 181 113 108
8.547939681318589 -0.6181875822334052 1.784775511064727 181 113 108
8.468393066243564 -0.6949209865190198 2.0381406779125686 181 113 108
8.808745136707405 -0.3953866611206168 2.149134927172701 181 113 108
8.704336684072844 -0.7883125322650816 1.9001376510006165 181 113 108
8.473350792360188 -0.9931678792140262 2.175198753029157 181 113 108
8.071633373825268 -0.8821957258087213 1.9270562157163653 181 113 108
8.468393066243564 -0.6949209865190198 2.0381406779125686 181 113 108
8.404590669957692 -1.4533594212462666 2.1808599849621437 181 113 108
7.520182963435859 -1.1228033099132548 2.102870776571301 181 113 108
7.520182963435859 -1.1228033099132548 2.102870776571301 181 113 108
8.073627552850372 -1.1228033099132548 2.2098117098641383 181 113 108
8.038721668225149 -1.3125392856370277 2.065302713436076 181 113 108
10.107343041858082 0.23657571831370033 2.6303834039275458 181 113 108
8.954215923820263 0.02334591270276722 2.2776336680000684 181 113 108
9.737781633377157 0.027364285340932635 2.5023706028256303 181 113 108
10.52884550556386 0.041725848210373076 2.771284020965711 181 113 108
9.027506674963384 0.1686384359193266 2.270720373918109 181 113 108
10.041936536828189 0.03305296247611807 2.642117718486504 181 113 108
9.737781633377157 0.027364285340932635 2.5023706028256303 181 113 108
8.421875272759971 -0.3070106104738677 2.3329517990976005 181 113 108
8.993118876376075 -0.14383158395573356 2.4307599866503877 181 113 108
9.141022545017575 -0.3070106104738677 2.412166835835245 181 113 108
9.248138910462107 0.23657571831370033 2.577458082158821 181 113 108
8.497032360440567 0.3559418203660763 2.3245422538265683 181 113 108
9.425813878032779 0.4221183413946265 2.548332725719414 181 113 108
8.470293835818028 -0.9043902631195903 2.3275093635708215 181 113 108
8.46628510088429 -0.6741531600912357 2.327956537934992 181 113 108
8.062002069310537 -0.5337838091156916 2.3764796381043993 181 113 108
8.062002069310537 -0.5337838091156916 2.3764796381043993 181 113 108
8.062002069310537 -0.5337838091156916 2.3764796381043993 181 113 108
8.810572479933477 -0.5337838091156916 2.4551730371282154 181 113 108
8.470293835818028 -0.9043902631195903 2.3275093635708215 181 113 108
11.175610143269921 0.8738796914949994 2.8869218035556496 181 113 108
11.899263270832899 0.9624817154829454 3.0226245928733624 181 113 108
11.058031031160619 1.2130409351732443 2.931618173929268 181 113 108
11.899263270832899 0.9624817154829454 3.0226245928733624 181 113 108
11.233458056470937 0.39154478572137524 2.8678384956593614 181 113 108
11.233458056470937 0.39154478572137524 2.8678384956593614 181 113 108
11.026167426546971 0.5702544870143168 2.9456397327297275 181 113 108
10.966242481457966 0.08773087386691597 2.975404461574414 181 113 108
10.877792442300732 -0.8059922506398743 3.03422582136484 181 113 108
10.87878414813681 1.7357235914973452 3.0333833307692113 181 113 108
10.942291019412085 2.370627765781277 2.9890060106853418 181 113 108
11.092863774049444 2.0755838310564942 2.917360356266485 181 113 108
11.030223864358549 1.6599060990543073 2.9437956204426063 181 113 108
10.87878414813681 1.7357235914973452 3.0333833307692113 181 113 108
10.881904189864672 3.0091280750211293 3.030775319402115 181 113 108
10.91320048570914 -2.5274837641786205 3.007446461205356 181 113 108
10.81804282602175 2.4523810173335385 3.118486182635622 181 113 108
11.035399896930338 -2.1457228750867428 2.9414688165057843 181 113 108
11.067236920434832 -2.7753597710740334 2.9277501546807647 181 113 108
11.187753979102498 -2.443194376858867 2.882785007151823 181 113 108
10.91320048570914 -2.5274837641786205 3.007446461205356 181 113 108
10.849523336512465 -1.7962456979088084 3.061976086077309 181 113 108
8.311430074996503 -0.9396859618025994 2.5321615987064368 181 113 108
8.55264661652742 -1.2135276327577253 2.492855621896707 181 113 108
8.398425588105878 -1.405594645651376 2.5174767337043322 181 113 108
8.55264661652742 -1.2135276327577253 2.492855621896707 181 113 108
8.509633489053206 -1.0042768140632756 2.7347862613697953 181 113 108
8.776563900881836 -0.7914083907244024 2.669145326388931 181 113 108
9.149326748463524 -0.9396859618025994 2.594764575447176 181 113 108
8.893591409655818 -1.131049336725365 2.6440123539177285 181 113 108
9.149326748463524 -0.9396859618025994 2.594764575447176 181 113 108
8.437983179201774 -1.270756255500421 2.3311311433331237 181 113 108
8.281627155592417 -1.4334876597673292 2.349244587369207 181 113 108
9.057539997794155 -1.7434334417056114 2.267931185949543 181 113 108
9.6583410924693 -1.598985409639924 2.3540993852972774 181 113 108
9.902278984253492 -1.8809973819775254 2.329858076698437 181 113 108
8.980715038341174 -1.598985409639924 2.2751163693604024 181 113 108
9.239752325582133 -1.9299420648858867 2.4002916180391614 181 113 108
9.82942240851112 -1.772251896609169 2.4899320846286166 181 113 108
11.684607446752313 -2.08955114104874 2.7533874576110176 181 113 108
11.684607446752313 -2.08955114104874 2.7533874576110176 181 113 108
11.684607446752313 -2.08955114104874 2.7533874576110176 181 113 108
9.202613020281158 1.9438119684694384 1.8816885684875275 181 113 108
8.947501122797053 1.9438119684694384 1.77508151046854 181 113 108
9.467662166787317 2.2839668199911474 1.551271262142891 181 113 108
8.853622264584445 2.5193974306258275 1.5499169176241672 181 113 108
8.9306392349793 2.5193974306258275 1.437732089034872 181 113 108
8.845950412062136 2.1983477996049365 1.549898806844413 181 113 108
9.199500669173501 1.9903193125675431 2.1216500104301863 181 113 108
9.131609426343399 2.100624240308043 2.001815041347524 181 113 108
9.38895038250605 2.4470257562831277 2.109301614037415 181 113 108
8.345164436217088 2.7277762770169565 1.9148858092569692 181 113 108
8.262049328670173 2.4470257562831277 1.7923011383489489 181 113 108
8.91751530565363 2.4470257562831277 2.0128837502245704 181 113 108
8.456748865429097 2.6699039197613907 2.1765551830440213 181 113 108
8.91751530565363 2.4470257562831277 2.0128837502245704 181 113 108
8.73338877676336 2.7277762770169565 2.0228869070934246 181 113 108
8.37879378374087 2.5502047725383914 2.0435443665841113 181 113 108
8.772665696560798 2.6173551883378745 1.8974767126471397 181 113 108
8.871229160480823 2.168506847147681 2.1445438540647146 181 113 108
9.214249268643103 2.7277762770169565 2.1206670716571603 181 113 108
8.370686755527979 2.168506847147681 2.0440397483384034 181 113 108
9.02836966510841 2.1983477996049365 1.7732261647013765 181 113 108
8.772060362702572 2.358942828850394 1.6638568806509326 181 113 108
8.920726039145654 2.358942828850394 1.7757033759137888 181 113 108
9.18991411600712 2.6718608431289868 1.550681074966626 181 113 108
9.754081471727888 2.579631051845711 1.449023887341783 181 113 108
9.18991411600712 2.6718608431289868 1.550681074966626 181 113 108
8.818556433003568 2.7735861280455114 1.663364806365589 181 113 108
10.259934950271566 2.4959159658380066 2.604465846191441 181 113 108
9.900593080061613 2.5950771628642593 2.4805659248643193 181 113 108
9.451402905196616 2.168506847147681 2.2335234562605173 181 113 108
9.900593080061613 2.5950771628642593 2.4805659248643193 181 113 108
10.259934950271566 2.4959159658380066 2.604465846191441 181 113 108
9.05224992278745 2.0490676326943658 2.268420658676558 181 113 108
10.794016260440046 2.361538894147814 2.712429904483252 181 113 108
9.524144435826361 2.4663080887372053 2.3682305169989406 181 113 108
9.348631511189248 2.3594738108326974 2.242132503453397 181 113 108
10.25662570869009 2.225540198401606 2.6050078688931526 181 113 108
11.127833616061853 2.225540198401606 2.65096323954515 181 113 108
9.017956477092168 2.3602590958921383 2.427566935691185 181 113 108
8.423430748215607 2.8499982740692458 2.0408361094943785 181 113 108
9.038321386345713 -2.2200822013832244 1.887534646501413 181 113 108
9.038321386345713 -2.2200822013832244 1.887534646501413 181 113 108
9.263715322560406 -2.3065068999259 1.6589046767039557 181 113 108
8.954345156210726 -2.007471823211405 2.1385566104175657 181 113 108
9.301618340122658 -2.459541908711036 1.6585447191394118 181 113 108
9.684044808988324 -2.459541908711036 1.865755023488569 181 113 108
9.397955285138785 -2.2200822013832244 1.9888208373198026 181 113 108
9.357675212803025 -2.1206485149657266 2.1112994333389272 181 113 108
8.954345156210726 -2.007471823211405 2.1385566104175657 181 113 108
10.020530620734984 -2.459541908711036 1.9613860969571524 181 113 108
8.653552989634964 -2.193390017281228 2.1608874815165393 181 113 108
8.954345156210726 -2.007471823211405 2.1385566104175657 181 113 108
8.01260714752273 -2.284570186100958 2.215482149289917 181 113 108
9.26750386042565 3.0161843862480273 1.5508495070678883 181 113 108
9.444814543394509 2.910923280985782 1.5512240237111332 181 113 108
9.307015087136499 -3.0503571733466273 1.443143261938766 181 113 108
9.307015087136499 -3.0503571733466273 1.443143261938766 181 113 108
9.270297934171182 3.1243041762130512 1.4426348816084584 181 113 108
9.270297934171182 3.1243041762130512 1.4426348816084584 181 113 108
8.39306652852973 3.1221944972284787 1.7887871109010796 181 113 108
9.111645286424713 3.0010674379662885 2.002822842942261 181 113 108
8.92802686617508 2.883935392156811 1.8915865758965333 181 113 108
9.573525467883785 3.0010674379662885 2.0978230075374946 181 113 108
8.664834312584993 2.883935392156811 1.7818448318580218 181 113 108
9.788967060443575 -2.9439383160370904 1.8625001452000334 181 113 108
9.410805278681618 -2.9439383160370904 1.6575240609786985 181 113 108
9.679809296462569 -2.920551025936039 2.091445238038725 181 113 108
9.540262154259455 -3.039294598808361 2.099853179300288 181 113 108
9.61559483457334 3.1243041762130512 1.86791852981044 181 113 108
10.063576993219959 -2.522233917867095 1.5524275732167274 181 113 108
10.025267186181983 -2.841855007972645 1.8554301068574426 181 113 108
9.687832367034726 -2.607902789699621 1.759274680164808 181 113 108
10.764301846479086 -2.6568858049578283 1.8354002012950141 181 113 108
9.996372746203377 -2.7458119902081974 1.6524320533971113 181 113 108
10.025267186181983 -2.841855007972645 1.8554301068574426 181 113 108
10.353168027141507 -2.7458119902081974 1.8461761049647836 181 113 108
10.250020492840928 -2.7031926608068106 2.0598268695423454 181 113 108
10.224294695266446 -2.522233917867095 1.7492759157387883 181 113 108
10.544804079475922 2.5470379743609968 2.767405051055727 181 113 108
10.544804079475922 2.5470379743609968 2.767405051055727 181 113 108
10.386288996480886 2.7934041713056743 2.808423879643821 181 113 108
10.386288996480886 2.7934041713056743 2.808423879643821 181 113 108
10.735957681090849 2.871918461112764 2.7244045366090908 181 113 108
10.735957681090849 2.871918461112764 2.7244045366090908 181 113 108
10.88938388001294 2.6660913570986873 2.6936748062625107 181 113 108
10.544804079475922 2.5470379743609968 2.767405051055727 181 113 108
10.322650103646247 3.0918522403067197 2.8267229715200557 181 113 108
10.322650103646247 3.0918522403067197 2.8267229715200557 181 113 108
10.355636687630353 -2.8840294315024786 2.8170854767344777 181 113 108
10.355636687630353 -2.8840294315024786 2.8170854767344777 181 113 108
9.057951498250022 -2.7278494041104557 2.6115687262634766 181 113 108
10.484336757758388 -2.618549645314029 2.7823780046776054 181 113 108
10.484336757758388 -2.618549645314029 2.7823780046776054 181 113 108
9.976333083335444 2.98184176099958 2.322839449426428 181 113 108
8.765216339339148 2.8061506071995983 2.2961971766011295 181 113 108
9.32185130384837 2.98184176099958 2.2444168540256615 181 113 108
11.164523077226686 2.922011761039995 2.644846455409523 181 113 108
10.038513019192305 2.956591130829226 2.4630961030819414 181 113 108
9.910061949026414 3.1194984712760574 2.3291132945920925 181 113 108
9.910061949026414 3.1194984712760574 2.3291132945920925 181 113 108
10.622600335705705 3.1194984712760574 2.3975109382168576 181 113 108
10.6546583209422 -3.0251928949712648 2.394248393175485 181 113 108
9.972655096832604 3.115932261648263 2.4713297981527873 181 113 108
11.105344730615757 3.1109936534117315 2.6547676274162955 181 113 108
9.352138440897878 -2.284570186100958 2.3872573901813645 181 113 108
9.526741901083186 -2.071048431102066 2.3679512635079325 181 113 108
9.02685269303192 -2.640975594827598 2.4264303837982233 181 113 108
9.02685269303192 -2.640975594827598 2.4264303837982233 181 113 108
8.69113718261263 -2.504732474772985 2.303780290389194 181 113 108
10.082009325059614 -3.039294598808361 2.185584292586209 181 113 108
10.214157727119595 -2.920551025936039 2.1764784731962523 181 113 108
10.048124500955444 3.1221944972284787 2.1879673457109914 181 113 108
10.440839243967165 -2.8077978913999253 2.161520249596265 181 113 108
10.440839243967165 -2.8077978913999253 2.161520249596265 181 113 108
8.754464318494414 -1.1187875152768847 1.6640444712828373 181 113 108
9.875824632314757 -1.4889652928976331 1.5520783187440732 181 113 108
9.844678785008098 -1.5903947791131439 1.5520190931814655 181 113 108
9.946547071739817 -1.6914239204215185 1.652841912583014 181 113 108
8.801165646568718 -1.721773076789949 2.019150455007061 181 113 108
8.99145733182864 -1.8434974342940686 2.00899482399988 181 113 108
9.278514255899763 -1.721773076789949 2.116427300807295 181 113 108
10.077901999371182 -1.6914239204215185 1.7518970368397475 181 113 108
8.722082808973308 -1.5953919017981963 2.023516507367153 181 113 108
8.75722218028263 -1.46822421385921 2.021565637457993 181 113 108
10.008912053623812 -1.5903947791131439 1.7531593118482665 181 113 108
10.115314471734903 -1.7900455615068234 1.6514700328309972 181 113 108
9.459207948273933 -1.8434974342940686 2.1048703232573462 181 113 108
9.35480158654557 -1.7049130657074119 1.8764656705542915 181 113 108
9.534049555954132 -1.8139250998150362 1.8705384091434363 181 113 108
14.890064432741108 -1.6510018937785231 1.5583820273460687 181 113 108
15.00332653190403 -1.7174935372714872 1.5584757492971795 181 113 108
10.347708201106633 -1.8845274211910625 1.5529320036813192 181 113 108
9.479035778621537 -2.1557488974203585 1.4454721641814925 181 113 108
9.439954417769966 -2.1557488974203585 1.6572555886284155 181 113 108
9.0750901514208 -2.0618451355514673 1.7721696550632127 181 113 108
10.378120016353792 -1.8845274211910625 1.649422853887093 181 113 108
9.573587576689789 -1.9173643711856534 1.761551368329094 181 113 108
10.024895392039179 -2.239289127551549 1.6521992698062762 181 113 108
9.816993405659504 -2.1557488974203585 1.8616430224255087 181 113 108
9.675633383587986 -2.0618451355514673 1.9761082772171883 181 113 108
9.28612368870072 -1.9574960434915643 1.9941767400358725 181 113 108
9.17874600587084 -0.20607426252299707 1.7698648338859497 181 113 108
9.430349107227038 -0.31204737895150236 1.7644852622377631 181 113 108
9.066590324296458 0.1308404831716125 1.7723610379545707 181 113 108
8.884647552818752 -0.09520837102799938 1.6626742563876198 181 113 108
8.461343047886087 0.3844867193896023 1.6672847033655949 181 113 108
8.015031784275804 0.43448951807480884 1.9296855232649774 181 113 108
7.289681453973368 1.4404927599032866 2.121590071456221 181 113 108
7.9019776882858865 1.3235354733395408 1.9350580461486482 181 113 108
7.694987187102735 1.5977342893325888 1.9453344586797932 181 113 108
7.4294501505379165 1.4585295134198797 1.8176135630621586 181 113 108
7.974385556251858 0.7132333677034864 2.219090716693032 181 113 108
9.269984263626794 1.833362973129028 1.9949614499419492 181 113 108
8.285884977499597 1.715974564155512 1.6693344658115048 181 113 108
10.189114807972242 1.9128508501772574 2.444964758389858 181 113 108
8.17944014601488 0.5813789744755286 2.3616413813351045 181 113 108
11.295926001980682 1.320649432716503 2.8487895267920544 181 113 108
11.268705890827789 1.631783388744463 2.8569116471189577 181 113 108
8.35043588052441 -0.7889166572396183 2.1854004946234147 181 113 108
9.363839201081323 -0.5550556213171204 1.7658786617425004 181 113 108
8.612982100528644 0.307125331131676 2.1640453458659215 181 113 108
9.14209454190444 -0.34900916790265085 2.0012876956608143 181 113 108
8.814623239484185 -0.6181875822334052 1.8958643716767931 181 113 108
8.538845638584787 -0.26414096216132094 2.1699111787684426 181 113 108
7.8744418386921975 -1.4533594212462666 2.0765860909573934 181 113 108
7.912328847365048 -1.1814145406076286 1.9345592959355598 181 113 108
8.071633373825268 -0.8821957258087213 1.9270562157163653 181 113 108
8.036718827886023 -1.0629697295775085 1.798619749270657 181 113 108
8.304437417722683 -0.3953866611206168 2.0481289859353646 181 113 108
9.151468671166878 -0.7091672384667492 1.770466188281014 181 113 108
8.06100360347395 -0.45500046650151255 2.210975812793307 181 113 108
7.9392427271443315 -0.5843755157002055 2.0720711896572976 181 113 108
9.144926932371472 -0.4572227090326168 1.8837160598338225 181 113 108
9.028398254222942 0.19698584904824534 2.4262333076889977 181 113 108
10.591245518641534 0.2955039588498219 2.7563929065502135 181 113 108
10.041936536828189 0.03305296247611807 2.642117718486504 181 113 108
8.992223799165826 -0.12293212559108503 2.2740293762395005 181 113 108
8.954215923820263 0.02334591270276722 2.2776336680000684 181 113 108
8.307344680216104 -0.6410968275536151 2.532866438992582 181 113 108
8.700234576136594 -0.7898367355117466 2.4708013499194115 181 113 108
8.470293835818028 -0.9043902631195903 2.3275093635708215 181 113 108
10.058395346701888 3.0692364481471825 2.921225156347326 181 113 108
11.058031031160619 1.2130409351732443 2.931618173929268 181 113 108
11.026167426546971 0.5702544870143168 2.9456397327297275 181 113 108
11.058031031160619 1.2130409351732443 2.931618173929268 181 113 108
11.233458056470937 0.39154478572137524 2.8678384956593614 181 113 108
11.899263270832899 0.9624817154829454 3.0226245928733624 181 113 108
10.846393980207754 0.19444621250606367 3.0656781387918035 181 113 108
11.174644779606183 0.056562680416485774 2.8872538671692367 181 113 108
10.877792442300732 -0.8059922506398743 3.03422582136484 181 113 108
11.205123470728362 -0.2911041963993537 2.8769931214861364 181 113 108
10.877792442300732 -0.8059922506398743 3.03422582136484 181 113 108
11.030223864358549 1.6599060990543073 2.9437956204426063 181 113 108
11.030223864358549 1.6599060990543073 2.9437956204426063 181 113 108
11.092863774049444 2.0755838310564942 2.917360356266485 181 113 108
10.81804282602175 2.4523810173335385 3.118486182635622 181 113 108
11.067236920434832 -2.7753597710740334 2.9277501546807647 181 113 108
11.187753979102498 -2.443194376858867 2.882785007151823 181 113 108
11.067236920434832 -2.7753597710740334 2.9277501546807647 181 113 108
9.242554788768883 -1.8809973819775254 2.2512835762341363 181 113 108
8.818275111122597 -1.0453214897427607 2.454107638812226 181 113 108
9.82942240851112 -1.772251896609169 2.4899320846286166 181 113 108
10.00016665344604 -1.9299420648858867 2.4678667215431425 181 113 108
8.776563900881836 -0.7914083907244024 2.669145326388931 181 113 108
8.398425588105878 -1.405594645651376 2.5174767337043322 181 113 108
8.980715038341174 -1.598985409639924 2.2751163693604024 181 113 108
8.070419188422031 -1.0453214897427607 2.3753940968308243 181 113 108
8.818275111122597 -1.0453214897427607 2.454107638812226 181 113 108
11.684607446752313 -2.08955114104874 2.7533874576110176 181 113 108
9.035886637244454 2.5193974306258275 1.7730554273190071 181 113 108
8.966451227808154 2.7735861280455114 1.7746436768213272 181 113 108
8.537667665584847 2.4470257562831277 1.9068175993723684 181 113 108
8.871229160480823 2.168506847147681 2.1445438540647146 181 113 108
9.281259013110425 2.1983477996049365 1.8789670782580459 181 113 108
8.76165515604254 2.3594738108326974 2.1526474507650457 181 113 108
10.159232235397852 2.7167373030395887 1.4539028891039454 181 113 108
8.966451227808154 2.7735861280455114 1.7746436768213272 181 113 108
8.73338877676336 2.7277762770169565 2.0228869070934246 181 113 108
8.533690579833054 2.271298054649825 1.9069803780137264 181 113 108
8.33638773927307 2.100624240308043 1.6687355888943658 181 113 108
8.761049061424657 2.100624240308043 1.8979260022064468 181 113 108
9.76018046045858 1.9903193125675431 2.2090627476157825 181 113 108
9.458583688250696 2.5502047725383914 2.232931064068639 181 113 108
9.524144435826361 2.4663080887372053 2.3682305169989406 181 113 108
9.724892735819719 2.0490676326943658 2.3473074848830486 181 113 108
9.131891002326416 2.5950771628642593 2.413286207623361 181 113 108
10.610568276012181 2.3602590958921383 2.5513220498545843 181 113 108
10.70122726065915 2.125000152948087 2.538793358435935 181 113 108
9.124453121534849 2.125000152948087 2.4142006629142436 181 113 108
9.900593080061613 2.5950771628642593 2.4805659248643193 181 113 108
9.73535934057515 2.6699039197613907 2.3462518609485135 181 113 108
10.25662570869009 2.225540198401606 2.6050078688931526 181 113 108
9.524144435826361 2.4663080887372053 2.3682305169989406 181 113 108
9.05224992278745 2.0490676326943658 2.268420658676558 181 113 108
8.92101427129101 2.8499982740692458 2.1409414377639315 181 113 108
9.928338215965466 -2.3812599541728 1.552177334668333 181 113 108
8.884580762743642 -2.1206485149657266 2.014639094322453 181 113 108
8.884580762743642 -2.1206485149657266 2.014639094322453 181 113 108
9.40461225335921 -2.3065068999259 1.765022073005186 181 113 108
9.985356866593287 -2.3065068999259 1.9628369146115587 181 113 108
9.684044808988324 -2.459541908711036 1.865755023488569 181 113 108
9.444814543394509 2.910923280985782 1.5512240237111332 181 113 108
9.450007189207547 -2.9439383160370904 1.4450851549980006 181 113 108
9.26720831477171 -3.0503571733466273 1.658871380786803 181 113 108
9.26720831477171 -3.0503571733466273 1.658871380786803 181 113 108
9.679809296462569 -2.920551025936039 2.091445238038725 181 113 108
8.92802686617508 2.883935392156811 1.8915865758965333 181 113 108
9.230332816615336 3.1243041762130512 1.6592241618266457 181 113 108
10.063576993219959 -2.522233917867095 1.5524275732167274 181 113 108
10.665131323502159 -2.607902789699621 2.039226107764218 181 113 108
10.42159172703122 -2.6568858049578283 1.6490942048212995 181 113 108
10.252546809888416 -2.607902789699621 1.952085948739196 181 113 108
10.665131323502159 -2.607902789699621 2.039226107764218 181 113 108
9.944417221608772 -3.0251928949712648 2.3258458417895405 181 113 108
11.312138148822234 2.747582647276004 2.6212839859697232 181 113 108
9.45829411331725 2.8061506071995983 2.375388643101091 181 113 108
11.105344730615757 3.1109936534117315 2.6547676274162955 181 113 108
10.88938388001294 2.6660913570986873 2.6936748062625107 181 113 108
11.164523077226686 2.922011761039995 2.644846455409523 181 113 108
9.976333083335444 2.98184176099958 2.322839449426428 181 113 108
10.77423592367343 3.115932261648263 2.5290171062842473 181 113 108
10.484336757758388 -2.618549645314029 2.7823780046776054 181 113 108
8.650559713632758 -2.284570186100958 2.3080114558927933 181 113 108
9.38968453067437 -2.504732474772985 2.383011846152508 181 113 108
10.048124500955444 3.1221944972284787 2.1879673457109914 181 113 108
9.875824632314757 -1.4889652928976331 1.5520783187440732 181 113 108
10.039548410432731 -1.4889652928976331 1.7525965959690106 181 113 108
10.008912053623812 -1.5903947791131439 1.7531593118482665 181 113 108
10.244505694306746 -1.7900455615068234 1.7489200243638314 181 113 108
9.946547071739817 -1.6914239204215185 1.652841912583014 181 113 108
8.75722218028263 -1.46822421385921 2.021565637457993 181 113 108
8.99145733182864 -1.8434974342940686 2.00899482399988 181 113 108
9.534049555954132 -1.8139250998150362 1.8705384091434363 181 113 108
9.203534026947553 -1.5953919017981963 2.121380830366454 181 113 108
8.99145733182864 -1.8434974342940686 2.00899482399988 181 113 108
8.801165646568718 -1.721773076789949 2.019150455007061 181 113 108
9.326712781843803 -2.0618451355514673 1.8774161670485972 181 113 108
9.578259208654172 -2.1557488974203585 1.7614571865419628 181 113 108
8.993618079088863 0.018045624315864667 1.7740192860549862 181 113 108
8.246786133483294 1.594433957892032 1.4266238496168444 181 113 108
7.281331525214951 0.8206874622826498 1.8227422167900627 181 113 108
8.70972078419374 1.735909161275853 2.1565749715385407 181 113 108
11.478471539254876 2.1776090420927146 2.7999694975156313 181 113 108
11.792930205576402 2.056022339187409 2.7315103718603777 181 113 108
8.91815850727232 0.5813789744755286 2.4405787134708468 181 113 108
8.26502301496925 1.0724757761545227 2.3512277609166503 181 113 108
8.77197711776115 -0.34900916790265085 1.897503309309015 181 113 108
8.465334319393884 -0.5843755157002055 2.1758529011343364 181 113 108
8.35043588052441 -0.7889166572396183 2.1854004946234147 181 113 108
8.690890315810872 0.020356457886391476 2.025263041106158 181 113 108
8.472400803788949 -0.8821957258087213 2.037901985139604 181 113 108
7.782624883283168 -1.270756255500421 2.237890583266714 181 113 108
7.947789855789928 -0.9931678792140262 2.0714820044383617 181 113 108
8.434166648288524 -0.7883125322650816 1.787707806995771 181 113 108
9.671823591109932 0.2955039588498219 2.717533757391915 181 113 108
9.140141951751746 -0.26414096216132094 2.2603871106291247 181 113 108
9.213700960796322 -0.17320721300679467 2.583393249179431 181 113 108
8.695406209822158 -0.45500046650151255 2.3033383713944255 181 113 108
8.307344680216104 -0.6410968275536151 2.532866438992582 181 113 108
10.849523336512465 -1.7962456979088084 3.061976086077309 181 113 108
10.87878414813681 1.7357235914973452 3.0333833307692113 181 113 108
11.187753979102498 -2.443194376858867 2.882785007151823 181 113 108
10.849523336512465 -1.7962456979088084 3.061976086077309 181 113 108
9.72981710363739 -1.7434334417056114 2.346810411806199 181 113 108
8.398425588105878 -1.405594645651376 2.5174767337043322 181 113 108
9.242554788768883 -1.8809973819775254 2.2512835762341363 181 113 108
7.899225522015969 -0.7914083907244024 2.6115043621531724 181 113 108
9.792451463072705 2.8106046024105527 1.4495033896058043 181 113 108
8.889147161710122 2.5193974306258275 1.6626276173704182 181 113 108
9.288571331465707 2.5193974306258275 1.8787165010837827 181 113 108
9.22414394500545 2.6718608431289868 1.6592836471183072 181 113 108
8.913707700554532 2.271298054649825 2.0130859502378886 181 113 108
10.794016260440046 2.361538894147814 2.712429904483252 181 113 108
9.520579445540102 2.2532587763510508 2.368614167435659 181 113 108
9.9239309767027 -2.607902789699621 1.8584190190424945 181 113 108
9.34110902111792 3.0161843862480273 1.4436117137031086 181 113 108
9.918710302240463 -2.8077978913999253 2.077687644822767 181 113 108
9.650998397397101 -3.0503571733466273 1.8667955154514075 181 113 108
9.8200106947531 -2.7031926608068106 1.9698084261403115 181 113 108
8.653552989634964 -2.193390017281228 2.1608874815165393 181 113 108
9.039036777749805 3.1221944972284787 2.0065297375431648 181 113 108
10.706306525499324 -2.943629760307786 2.7306980846826083 181 113 108
10.214157727119595 -2.920551025936039 2.1764784731962523 181 113 108
9.02685269303192 -2.640975594827598 2.4264303837982233 181 113 108
8.83903281989949 -2.071048431102066 2.2888165153546787 181 113 108
10.038513019192305 2.956591130829226 2.4630961030819414 181 113 108
10.67440365425917 3.103702141566495 2.737612680546719 181 113 108
9.529459965556718 -2.007471823211405 2.227146236756443 181 113 108
11.164523077226686 2.922011761039995 2.644846455409523 181 113 108
9.278514255899763 -1.721773076789949 2.116427300807295 181 113 108
10.08411011460584 -1.7900455615068234 1.552464979605497 181 113 108
8.754464318494414 -1.1187875152768847 1.6640444712828373 181 113 108
15.264034106313987 -1.7174935372714872 1.7562888234068827 181 113 108
15.00332653190403 -1.7174935372714872 1.5584757492971795 181 113 108
9.439954417769966 -2.1557488974203585 1.6572555886284155 181 113 108
10.061704999856676 -2.239289127551549 1.452764585805663 181 113 108
11.058031031160619 1.2130409351732443 2.931618173929268 181 113 108
8.893591409655818 -1.131049336725365 2.6440123539177285 181 113 108
9.028398254222942 0.19698584904824534 2.4262333076889977 181 113 108
8.57537476353574 0.2697937922953942 1.905282237506745 181 113 108
9.841852749033727 0.5158644767835109 2.6807553022921753 181 113 108
10.849523336512465 -1.7962456979088084 3.061976086077309 181 113 108
11.035399896930338 -2.1457228750867428 2.9414688165057843 181 113 108
8.300678551953537 0.020356457886391476 1.9168069513316977 181 113 108
8.538845638584787 -0.26414096216132094 2.1699111787684426 181 113 108
7.815053590284181 0.9080544196574366 1.5471416956695754 181 113 108
7.769902216318295 0.7263609037763745 1.5470042113028954 181 113 108
11.295926001980682 1.320649432716503 2.8487895267920544 181 113 108
11.036377440498669 3.0692364481471825 2.941032610659497 181 113 108
8.473350792360188 -0.9931678792140262 2.175198753029157 181 113 108
10.877792442300732 -0.8059922506398743 3.03422582136484 181 113 108
8.836233200628449 2.4663080887372053 2.2890933258966815 181 113 108
9.05224992278745 2.0490676326943658 2.268420658676558 181 113 108
9.918710302240463 -2.8077978913999253 2.077687644822767 181 113 108
9.788967060443575 -2.9439383160370904 1.8625001452000334 181 113 108
9.573525467883785 3.0010674379662885 2.0978230075374946 181 113 108
9.039036777749805 3.1221944972284787 2.0065297375431648 181 113 108
10.391307139447463 -2.6568858049578283 1.553006965171278 181 113 108
9.976333083335444 2.98184176099958 2.322839449426428 181 113 108
10.544804079475922 2.5470379743609968 2.767405051055727 181 113 108
10.484336757758388 -2.618549645314029 2.7823780046776054 181 113 108
11.307940628814316 -2.8840294315024786 2.845285482073673 181 113 108
9.057951498250022 -2.7278494041104557 2.6115687262634766 181 113 108
8.75722218028263 -1.46822421385921 2.021565637457993 181 113 108
17.613369622528047 -1.9661110553423922 1.1506216344047142 181 113 108
9.812435434036894 -1.9173643711856534 1.8617820693891591 181 113 108
9.951852455714098 -2.013634834426497 1.754216752363503 181 113 108
9.985356866593287 -2.3065068999259 1.9628369146115587 181 113 108
11.588857856151701 1.6171436282341811 2.77411737920307 181 113 108
10.2832236414836 1.798030909059533 2.6006750310596494 181 113 108
10.386288996480886 2.7934041713056743 2.808423879643821 181 113 108
9.656363810314405 -2.841855007972645 1.6553132642319162 181 113 108
8.297816549135314 -2.640975594827598 2.3473222980514317 181 113 108
8.655912270016243 0.9350442764625634 2.307450121584571 181 113 108
10.386288996480886 2.7934041713056743 2.808423879643821 181 113 108
9.471247075230245 2.433478795731639 1.5512786534040026 181 113 108
10.942291019412085 2.370627765781277 2.9890060106853418 181 113 108
10.622600335705705 3.1194984712760574 2.3975109382168576 181 113 108
8.884580762743642 -2.1206485149657266 2.014639094322453 181 113 108
8.471213591241705 3.0010674379662885 1.7867441326723494 181 113 108
10.259934950271566 2.4959159658380066 2.604465846191441 181 113 108
9.063493334886394 2.6699039197613907 2.267381266521719 181 113 108
9.500891377287168 2.2839668199911474 1.656699682388134 181 113 108
9.326712781843803 -2.0618451355514673 1.8774161670485972 181 113 108
8.814623239484185 -0.6181875822334052 1.8958643716767931 181 113 108
9.063493334886394 2.6699039197613907 2.267381266521719 181 113 108
8.380320924385325 -0.12293212559108503 2.1828857921733826 181 113 108
8.511700394513221 2.883935392156811 1.6667120916943525 181 113 108
8.404590669957692 -1.4533594212462666 2.1808599849621437 181 113 108
8.097822344890684 0.6215042665610726 2.0613716720029576 181 113 108
8.55870060919216 -1.3125392856370277 2.168327946308569 181 113 108
10.355636687630353 -2.8840294315024786 2.8170854767344777 181 113 108
9.7916123338163 -2.841855007972645 1.7572534159994657 181 113 108
9.28612368870072 -1.9574960434915643 1.9941767400358725 181 113 108
10.378120016353792 -1.8845274211910625 1.649422853887093 181 113 108
9.230332816615336 3.1243041762130512 1.6592241618266457 181 113 108
11.899263270832899 0.9624817154829454 3.0226245928733624 181 113 108
9.914811576209715 -1.6914239204215185 1.5521519300941988 181 113 108
9.142755245669015 2.6173551883378745 2.0012545105498467 181 113 108
7.330591328010465 1.1431487078367208 1.964951596772866 181 113 108
9.057539997794155 -1.7434334417056114 2.267931185949543 181 113 108
8.882330019157758 -0.23158663596316928 2.0147595832177285 181 113 108
9.209411191580841 2.0455030908610454 1.6594255762089662 181 113 108
