8.161091203940122 1.2173199961231096 1.6391418602006484 53 118 170
8.041774463164193 1.1693047519272808 2.029022082544332 53 118 170
7.6521537181179955 1.1693047519272808 1.9115512689598455 53 118 170
7.742161339728957 1.7242593747326815 1.5135898805204981 53 118 170
7.742161339728957 1.7242593747326815 1.5135898805204981 53 118 170
7.533882527484945 1.5981356440703542 2.0625572192455275 53 118 170
7.441160677493735 1.888291593430027 1.9216236756900855 53 118 170
7.841272359698503 1.888291593430027 2.0416741163094096 53 118 170
7.70256943623734 1.4640566493398348 1.643217288046648 53 118 170
7.211642606768907 1.7469310199517718 1.9332961337689034 53 118 170
7.161118823671051 1.4481285728467972 1.93597328267828 53 118 170
8.789715596227424 0.9755416605244579 2.2552564307374854 53 118 170
9.67319755375751 0.646788660601124 2.4674877189949562 53 118 170
9.45377068969077 0.9755416605244579 2.3373009833745964 53 118 170
9.268010418749498 0.8636723678568575 2.2138300148036216 53 118 170
9.21595540649664 0.7612913805798263 2.5322559857403872 53 118 170
8.913813489372972 0.646788660601124 2.39740440925889 53 118 170
9.366610060103643 0.7663881140061183 2.346300413348101 53 118 170
8.893619463331515 0.8820790068411691 2.3998736451647606 53 118 170
8.789826420282235 0.10932621935321024 2.412853652170539 53 118 170
9.155090097214007 0.4257586679522928 2.3692110733412592 53 118 170
8.985477818674905 0.13177566027515303 2.5700390042567527 53 118 170
8.230570515197272 0.5266320247146745 2.734317744901969 53 118 170
9.3879861573734 0.7524619210209376 2.717762116987493 53 118 170
9.343095729966224 0.501009703692531 2.513022291550513 53 118 170
9.111318495399331 0.3278093232704617 2.5489101776696597 53 118 170
7.725122158541687 -0.4556656609488162 2.373713409835855 53 118 170
8.25042456179024 -0.2753502272537573 2.4894548140715447 53 118 170
8.25042456179024 -0.2753502272537573 2.4894548140715447 53 118 170
8.970033363103592 -0.07485140088704507 2.572721659716394 53 118 170
8.073887837728508 -0.1275104756735658 2.7819493394430346 53 118 170
8.582540435999322 1.1073399811566422 2.647813801365821 53 118 170
8.427519414162024 1.349544480660517 2.683156088975914 53 118 170
8.47049288749519 1.8847742128055165 2.672980607530092 53 118 170
8.427519414162024 1.349544480660517 2.683156088975914 53 118 170
8.582540435999322 1.1073399811566422 2.647813801365821 53 118 170
8.123131572465903 1.2588285856500618 2.3242169943752633 53 118 170
8.47049288749519 1.8847742128055165 2.672980607530092 53 118 170
7.959167650207324 1.426651706194717 2.343720147963886 53 118 170
8.004655892987254 1.77735087863615 2.338192335414262 53 118 170
8.235449801897763 1.1971858362575671 2.4918398524262684 53 118 170
8.905077010940726 1.3961508928652504 2.5842340165903144 53 118 170
8.034226765570331 1.6099130334734288 2.525557239111459 53 118 170
9.13179314222175 2.0103996218406404 2.5455890334912112 53 118 170
8.837417413152165 1.2588285856500618 2.4068410700045044 53 118 170
8.650208830734313 1.6029810999838554 2.431123046633626 53 118 170
8.728642274479363 1.77735087863615 2.42074114325282 53 118 170
8.093885518594963 1.4481285728467972 2.1688797358285132 53 118 170
8.04647564970967 1.2700264666119097 2.7911219137578054 53 118 170
7.62831201459119 0.6626229899278953 3.0050772539592803 53 118 170
8.620082608806543 0.6626229899278953 3.0208656666425693 53 118 170
7.776146686287719 1.1075734699446866 2.903806411042696 53 118 170
8.208695830694195 0.9673821551765653 2.740539866578372 53 118 170
7.776146686287719 1.1075734699446866 2.903806411042696 53 118 170
7.0174443294651105 -1.2371473184297017 2.7774633526832107 53 118 170
7.0174443294651105 -1.2371473184297017 2.7774633526832107 53 118 170
7.8913519033197055 -0.6426205316011337 2.849605236854729 53 118 170
7.722468387927653 -1.0294848263054854 2.93442367357341 53 118 170
7.781436111460064 -0.19615358681760472 2.9010178746378874 53 118 170
7.722468387927653 -1.0294848263054854 2.93442367357341 53 118 170
7.8913519033197055 -0.6426205316011337 2.849605236854729 53 118 170
8.662100811216513 2.6460505242967 2.985909545680647 53 118 170
9.216816141900983 2.2616440209733373 2.7610106325666424 53 118 170
8.583059321894693 1.8477466825081428 3.064158555480562 53 118 170
8.854099254254617 2.8567961066205436 2.8819563168736946 53 118 170
8.981780820021125 2.497358413496008 2.8329417151280674 53 118 170
7.6811197844491605 -1.7033688687450974 2.961824588787273 53 118 170
8.646078727895704 -2.8448015864059784 2.998197602249298 53 118 170
8.838425227917302 -2.9774462256663954 2.888718575451094 53 118 170
6.654925909871466 -1.7544413273178936 1.8069997088840597 53 118 170
6.486026954996593 -1.4193067096009688 2.1513202512233005 53 118 170
7.616477254687457 -1.729945155205014 1.7767184155961746 53 118 170
7.684820182930634 -2.146474449124006 2.5930488755639773 53 118 170
7.13508177477062 -1.7877106075272173 2.263633638053636 53 118 170
7.3669854807226445 -1.9572385382909963 2.237777152117372 53 118 170
7.0667037491003795 -1.612397459926659 2.475774884814254 53 118 170
7.294664872118566 -1.1757645384446773 2.4369394339667583 53 118 170
7.53414111961005 -0.7218171830560931 2.400336408802605 53 118 170
6.909006619284242 -0.9970714971472677 2.2911134403786924 53 118 170
9.420866686926558 2.171979828789407 2.5017531355750746 53 118 170
9.828026049458156 2.289270871896628 2.6274362381854512 53 118 170
7.722406245056824 -2.1063653562357283 2.202034857564943 53 118 170
9.374131177502411 1.7067266589869876 1.194744453990754 53 118 170
7.864592347277163 1.337086512156347 1.514481384455154 53 118 170
7.34292446278875 1.3034347925945868 1.9265241157294741 53 118 170
9.491732601733636 0.5588612860078939 2.333456959839114 53 118 170
8.913813489372972 0.646788660601124 2.39740440925889 53 118 170
9.21595540649664 0.7612913805798263 2.5322559857403872 53 118 170
8.512317563335118 1.0248056366728249 2.4501633956158244 53 118 170
9.366610060103643 0.7663881140061183 2.346300413348101 53 118 170
9.268010418749498 0.8636723678568575 2.2138300148036216 53 118 170
8.970033363103592 -0.07485140088704507 2.572721659716394 53 118 170
8.091043066930709 0.22283475287815221 2.7763518832166763 53 118 170
7.709253439231716 -0.3424683321396726 2.587884414478374 53 118 170
8.918428201953459 0.27452021386514924 2.39684263869941 53 118 170
9.111318495399331 0.3278093232704617 2.5489101776696597 53 118 170
9.343095729966224 0.501009703692531 2.513022291550513 53 118 170
7.517869288309903 -0.6973766840037133 2.6305475588545284 53 118 170
8.985477818674905 0.13177566027515303 2.5700390042567527 53 118 170
8.427519414162024 1.349544480660517 2.683156088975914 53 118 170
8.093885518594963 1.4481285728467972 2.1688797358285132 53 118 170
8.389646394014006 1.620647462187793 2.692389980700316 53 118 170
8.389646394014006 1.620647462187793 2.692389980700316 53 118 170
7.919055046192139 1.6029810999838554 2.3486726339817103 53 118 170
8.686945934838059 1.426651706194717 2.426221521203946 53 118 170
8.686945934838059 1.426651706194717 2.426221521203946 53 118 170
8.04647564970967 1.2700264666119097 2.7911219137578054 53 118 170
8.620082608806543 0.6626229899278953 3.0208656666425693 53 118 170
7.610113737471281 -0.41575680397979964 3.0237561999591573 53 118 170
8.792570929960414 2.195505841933546 2.909758564244829 53 118 170
8.583059321894693 1.8477466825081428 3.064158555480562 53 118 170
9.032531021429826 1.9918038104434612 2.815780714591828 53 118 170
7.6811197844491605 -1.7033688687450974 2.961824588787273 53 118 170
6.574777516328662 -1.086800706896531 1.9703011541267137 53 118 170
7.194845515859646 -1.9011653524368424 1.9341817021212488 53 118 170
6.957206253703513 -1.7544413273178936 1.9472033960018869 53 118 170
6.858544722902729 -1.5993268268842107 1.95289561683535 53 118 170
6.2121479803474795 -1.2437933757628394 1.9950794696325422 53 118 170
7.038913892934724 -1.6046446029755284 2.2750291096356907 53 118 170
7.462799615657896 -1.9088145941181367 2.643866115788865 53 118 170
7.294664872118566 -1.1757645384446773 2.4369394339667583 53 118 170
7.1116256043913735 -1.3852918844460562 2.4677736353495514 53 118 170
9.828026049458156 2.289270871896628 2.6274362381854512 53 118 170
8.161091203940122 1.2173199961231096 1.6391418602006484 53 118 170
7.956390221130942 1.8489832123608096 1.5151318011845087 53 118 170
7.116509393463219 1.5981356440703542 1.9383709654032675 53 118 170
7.841272359698503 1.888291593430027 2.0416741163094096 53 118 170
7.623809354807958 1.7469310199517718 2.0562495355131727 53 118 170
8.624338111711547 0.40537276132527034 2.638883652771938 53 118 170
8.905077010940726 1.3961508928652504 2.5842340165903144 53 118 170
7.94388910711555 0.7334357533444491 2.828352277023777 53 118 170
7.202877326223712 -0.9145580666410575 2.7149926514139526 53 118 170
8.854099254254617 2.8567961066205436 2.8819563168736946 53 118 170
7.778656915714004 1.1072721369241558 2.196758749015136 53 118 170
8.84855452574312 0.9117439270620953 2.59456857194776 53 118 170
8.17987479864534 -0.4499634157675329 2.7489322569783443 53 118 170
8.714712870649874 1.6811332136821155 2.951261831930715 53 118 170
7.0799975671403566 -0.873021508742178 2.473388016629309 53 118 170
7.441160677493735 1.888291593430027 1.9216236756900855 53 118 170
7.34292446278875 1.3034347925945868 1.9265241157294741 53 118 170
8.118613358272524 1.8202089388657712 2.5110235874112625 53 118 170
9.67319755375751 0.646788660601124 2.4674877189949562 53 118 170
8.255174113706316 1.3034347925945868 2.1556274932748223 53 118 170
7.947029350367272 -0.5538408232121129 2.541230307645928 53 118 170
7.722468387927653 -1.0294848263054854 2.93442367357341 53 118 170
8.868851163472497 0.6046781615868301 2.5908223468334235 53 118 170
8.84855452574312 0.9117439270620953 2.59456857194776 53 118 170
7.7992346452355115 0.33775028890902414 2.8918854619233927 53 118 170
8.956759096491195 1.6394888348129233 2.8418274343610763 53 118 170
7.722468387927653 -1.0294848263054854 2.93442367357341 53 118 170
7.919740402838286 -1.647526019838381 2.8379071842657364 53 118 170
8.919208434403956 1.939950412097093 2.3967477486149673 53 118 170
8.427519414162024 1.349544480660517 2.683156088975914 53 118 170
8.918428201953459 0.27452021386514924 2.39684263869941 53 118 170
8.087038967983558 -0.6091115738967435 2.3284115980092164 53 118 170
7.653625224028107 1.5945580184789723 1.5129273885351568 53 118 170
7.571190072568331 1.939950412097093 2.21671436644179 53 118 170
7.959167650207324 1.426651706194717 2.343720147963886 53 118 170
7.373688990240847 -0.8516699415559851 2.237061562748125 53 118 170
8.474938446720774 -0.09434975158986096 2.6719454512455956 53 118 170
8.774037577078436 -0.06202329855542714 2.414871839752695 53 118 170
9.095980617490932 1.1072721369241558 2.3759039440945284 53 118 170
9.551283311069446 2.1108818541744774 2.6813306478019925 53 118 170
7.3669854807226445 -1.9572385382909963 2.237777152117372 53 118 170
8.662100811216513 2.6460505242967 2.985909545680647 53 118 170
