15.395681265316039 1.0901850293270123 1.7013529542548242 19 113 189
15.49762487948534 0.945108984361064 1.6356454407122454 19 113 189
13.935613085909717 1.4866598908727455 1.1260346138607926 19 113 189
14.020327744396 1.3486578849624953 1.71424471525996 19 113 189
14.016556036579766 1.419965307973987 1.786811990394704 19 113 189
14.271788358541862 1.2795721866057137 1.7117002226565747 19 113 189
14.6555904602724 1.854250611613773 1.8475424109384724 19 113 189
13.864888652460184 1.5665721247280346 1.7892130644509825 19 113 189
14.000229696817751 1.7133594519575661 1.7870678965711237 19 113 189
9.953888075264441 -0.06574415501837028 2.351353031456041 19 113 189
10.968166090969564 0.34490046020464216 2.3887903979571585 19 113 189
9.182615964912738 0.9122255750003276 2.0220280620073385 19 113 189
8.36896026231678 1.3042876646532828 1.9379728911759901 19 113 189
8.789743778783748 1.0768885294998314 1.800847617714475 19 113 189
8.792714598008914 0.9122255750003276 1.9195012269874914 19 113 189
8.777704815569306 1.3042876646532828 2.044505571456294 19 113 189
9.064350761085946 1.185376722166285 2.0283602107272283 19 113 189
7.868706184912187 1.431410704064559 1.8283526464677002 19 113 189
8.484455388762985 1.265839121018147 2.201632467891362 19 113 189
8.298893320990365 1.410423046471702 2.218063352440718 19 113 189
9.014339541736321 0.8305111807605822 2.1593386086188975 19 113 189
9.161466619247227 1.2149723715638265 2.4411229100724734 19 113 189
9.278494051011304 0.8409921035908577 2.4262926683655275 19 113 189
8.719989538369912 1.0661895687846399 2.330308379621451 19 113 189
8.886849777278865 0.9776820767910787 2.478617937212439 19 113 189
8.719989538369912 1.0661895687846399 2.330308379621451 19 113 189
10.311118156442282 0.6427060669042183 2.3175994489939753 19 113 189
9.427107299178358 1.1449643559363425 2.585024513165281 19 113 189
9.118803125411333 0.9382929755423087 2.2895577104741105 19 113 189
9.605567309156823 0.8305111807605822 2.2460376768516888 19 113 189
8.780679708008943 1.1332472032038263 2.1772073142904262 19 113 189
9.912034760518303 0.5283219207882284 2.3555435245934775 19 113 189
10.106566487191563 0.6101071004401775 2.4848584583659505 19 113 189
10.353082367506008 0.39641319274932946 2.454561441789732 19 113 189
10.642229045212021 0.5283219207882284 2.422079329105509 19 113 189
9.64511966070369 0.7167788346674324 2.5496909585156153 19 113 189
10.106566487191563 0.6101071004401775 2.4848584583659505 19 113 189
10.052107511541184 0.08815571306793327 2.4919187003852192 19 113 189
9.483169962246375 0.10546907526860641 2.5755940645887248 19 113 189
9.890640302788915 0.13119643818103263 2.7150129560170595 19 113 189
10.154584677177755 0.24824958830453156 2.47874849056516 19 113 189
9.84133435023944 0.6923621069585917 2.7261738175101935 19 113 189
9.268979468019232 0.8578057543309486 2.6130803059882446 19 113 189
9.268979468019232 0.8578057543309486 2.6130803059882446 19 113 189
9.413987253642382 1.1757446098283935 2.8454911896443655 19 113 189
9.889804520053092 1.0438027227408464 2.7151989386296345 19 113 189
9.57796997815675 0.8891466416245634 2.79373621164447 19 113 189
9.632296571992175 0.4654186661674085 2.778501265474497 19 113 189
9.363054221784761 0.6411574638906813 2.8638775691521032 19 113 189
9.195239609132036 0.9677951161514282 2.9374506007790764 19 113 189
9.08194400593618 0.4687606034684055 3.0107404299046046 19 113 189
9.524201421033768 0.1733587761135528 2.8096556902188414 19 113 189
9.524201421033768 0.1733587761135528 2.8096556902188414 19 113 189
8.34158763721357 1.8231283651262409 1.9392353100757882 19 113 189
7.797575529210637 1.5632087223700153 1.8307562444658294 19 113 189
8.533428153316054 1.5632087223700153 2.059236512873685 19 113 189
9.515169780985207 1.9028134059321153 1.8920309218653748 19 113 189
8.818081185008696 1.68081119230646 1.8000950770605364 19 113 189
8.285102568569503 1.7140727361771557 2.219322166966857 19 113 189
8.16671040732365 1.5604673890988923 2.39678284729965 19 113 189
10.082174973972213 1.5581901857223839 2.674966816655317 19 113 189
10.12600115124726 1.7757598312795335 2.666446670631801 19 113 189
10.12600115124726 1.7757598312795335 2.666446670631801 19 113 189
9.867653745542313 2.052864759465878 2.1026619507504583 19 113 189
10.502723148479127 2.146371025926516 2.600857184254259 19 113 189
10.825564218222926 2.2864181514850865 2.553072191973024 19 113 189
10.500236151069549 2.1897279159327048 2.437651703772878 19 113 189
10.502723148479127 2.146371025926516 2.600857184254259 19 113 189
10.825564218222926 2.2864181514850865 2.553072191973024 19 113 189
9.020385470490124 1.4644000852350225 3.0818693713101135 19 113 189
9.673651206416377 1.554625010591864 2.767411072007576 19 113 189
6.325007820582456 -1.3796992461088644 2.0657467514130152 19 113 189
7.014842355863248 -1.1390212658887746 2.365117121609061 19 113 189
8.39321182717787 -0.6187111419722596 2.835983605189399 19 113 189
9.375223217703688 -0.23724819498356053 2.4144966769837133 19 113 189
9.375223217703688 -0.23724819498356053 2.4144966769837133 19 113 189
8.692546098043383 -0.4467734822733238 2.740983889902757 19 113 189
8.39321182717787 -0.6187111419722596 2.835983605189399 19 113 189
7.704977240489207 -0.8752655860957737 2.7118238979115588 19 113 189
7.221252886822182 -1.129056568154766 1.7103246140850994 19 113 189
5.8964745562019045 -1.741646095530517 1.9176233514630634 19 113 189
7.425494494981136 -1.5476017652081633 2.8031643683741714 19 113 189
7.541456130115193 -1.778914415329112 2.491739893488341 19 113 189
10.652407273931162 1.8314146376835267 2.7909696057846705 19 113 189
11.319484178067004 2.4106273147652644 2.654746224559517 19 113 189
10.731931345561685 2.4304366558712784 2.7712397748308106 19 113 189
10.306210688424219 2.472810611801092 2.8989492393212553 19 113 189
10.54057047144313 2.66071176548212 2.821237011302807 19 113 189
10.441882077531249 2.961639342318855 2.851068454107134 19 113 189
11.443148370286384 2.667648259229279 2.6347086062787164 19 113 189
16.409012993006765 0.9810770348984574 1.6932485848568655 19 113 189
14.96371106151387 1.1500170786079265 1.7051443571559528 19 113 189
14.587607612002106 1.213229948519283 1.7086299906541325 19 113 189
14.016556036579766 1.419965307973987 1.786811990394704 19 113 189
14.418761549798864 1.7848819481380918 1.8522108066586227 19 113 189
9.130392341373426 0.7404155942050604 2.0248015811775337 19 113 189
8.598473640044366 1.431410704064559 2.055220970993932 19 113 189
9.293758582371202 0.9797129432915382 1.7881652236990895 19 113 189
9.07204198193831 0.6427060669042183 2.15509932089487 19 113 189
10.167658345040563 0.7404155942050604 2.2025112260070463 19 113 189
9.757294950209454 0.7310538031100465 2.371509744902518 19 113 189
9.436462446611651 1.0661895687846399 2.4072320945781547 19 113 189
8.23465310549383 1.3820829511734245 2.3878764123243132 19 113 189
8.484455388762985 1.265839121018147 2.201632467891362 19 113 189
9.84133435023944 0.6923621069585917 2.7261738175101935 19 113 189
9.591727533413493 0.2947568996945993 2.5580222614333845 19 113 189
9.80163055912806 0.4647186285195457 2.5263436143633906 19 113 189
9.632296571992175 0.4654186661674085 2.778501265474497 19 113 189
10.048588999515907 -0.07655870591921393 2.4923797517761255 19 113 189
10.048588999515907 -0.07655870591921393 2.4923797517761255 19 113 189
9.08194400593618 0.4687606034684055 3.0107404299046046 19 113 189
9.524201421033768 0.1733587761135528 2.8096556902188414 19 113 189
10.052107511541184 0.08815571306793327 2.4919187003852192 19 113 189
9.731078077691691 1.280230439919639 2.7526591948391763 19 113 189
9.268979468019232 0.8578057543309486 2.6130803059882446 19 113 189
8.813925039226312 1.280230439919639 2.7096228831159044 19 113 189
9.268979468019232 0.8578057543309486 2.6130803059882446 19 113 189
10.500236151069549 2.1897279159327048 2.437651703772878 19 113 189
10.167069986921435 2.059434888081059 2.4771770497726764 19 113 189
10.825564218222926 2.2864181514850865 2.553072191973024 19 113 189
10.26749952151594 1.9755198692546712 2.6403192660455526 19 113 189
8.285102568569503 1.7140727361771557 2.219322166966857 19 113 189
10.825564218222926 2.2864181514850865 2.553072191973024 19 113 189
9.354614001711159 1.5482485606822 2.8670602252480273 19 113 189
7.01234560516694 -1.2746367348336114 2.598757227368825 19 113 189
6.706661426980753 -1.5579905128922826 2.4130853701396986 19 113 189
7.500154757451737 -1.1655950059929279 2.7759321570682385 19 113 189
5.91583620238069 -1.3796992461088644 1.9164406751624719 19 113 189
5.820890402908065 -1.560333719410402 1.922320607305693 19 113 189
8.692546098043383 -0.4467734822733238 2.740983889902757 19 113 189
10.443652703681147 2.3991574116846075 2.444057146883267 19 113 189
10.306210688424219 2.472810611801092 2.8989492393212553 19 113 189
10.54057047144313 2.66071176548212 2.821237011302807 19 113 189
11.011134135421292 2.2649815254161485 2.7106262201756377 19 113 189
19.067604641615247 0.7650116793612319 1.2509252652286804 19 113 189
13.52705482563547 1.6458680869731752 1.1925282819749286 19 113 189
14.146709525943468 1.6403403182044565 1.8577746618639306 19 113 189
10.552856768877984 0.46441521880299996 2.2965979519905 19 113 189
8.37527568536922 1.185376722166285 1.812453403680502 19 113 189
9.293758582371202 0.9797129432915382 1.7881652236990895 19 113 189
9.769073080379789 0.8233536691491674 1.9931362551893073 19 113 189
8.83103966511678 1.4475655115321584 1.7997525989771486 19 113 189
9.448640516536233 1.0768885294998314 2.008429333346147 19 113 189
8.064173231969045 1.3042876646532828 1.8219732645404636 19 113 189
8.886849777278865 0.9776820767910787 2.478617937212439 19 113 189
9.260453506145966 1.3417891411054454 2.6146591717736145 19 113 189
8.989889750428002 1.3820829511734245 2.4640748860072472 19 113 189
9.118803125411333 0.9382929755423087 2.2895577104741105 19 113 189
9.64511966070369 0.7167788346674324 2.5496909585156153 19 113 189
8.988861300956385 1.0438027227408464 2.6691712865946546 19 113 189
9.994773141074436 0.36177547292458745 2.692637737903982 19 113 189
10.154584677177755 0.24824958830453156 2.47874849056516 19 113 189
8.166788671200267 1.6952693463423376 1.947511894790586 19 113 189
7.722325984746158 1.7140727361771557 2.1159340591111593 19 113 189
8.231480879067128 1.562047770207485 2.2242684623026063 19 113 189
9.673651206416377 1.554625010591864 2.767411072007576 19 113 189
7.014842355863248 -1.1390212658887746 2.365117121609061 19 113 189
7.704977240489207 -0.8752655860957737 2.7118238979115588 19 113 189
7.730407988697701 -1.9812394720925808 2.4602254453158805 19 113 189
6.173448863004271 -1.210752854670786 1.901453881562603 19 113 189
10.915154892968634 2.299704911340663 2.3939889070944522 19 113 189
10.787002727308952 2.0732864264304487 2.7583058509881493 19 113 189
10.968166090969564 0.34490046020464216 2.3887903979571585 19 113 189
9.957440050398606 0.07571566778601407 2.3509998149681928 19 113 189
9.354614001711159 1.5482485606822 2.8670602252480273 19 113 189
9.134444623436059 1.5335738173455458 2.9725878490758038 19 113 189
9.176856162399561 1.015220338057895 2.147564522759633 19 113 189
9.611070193502998 0.7404155942050604 2.118444903018573 19 113 189
9.25181386635566 0.2545940656686967 2.9097615489433375 19 113 189
9.436462446611651 1.0661895687846399 2.4072320945781547 19 113 189
8.777704815569306 1.3042876646532828 2.044505571456294 19 113 189
9.016464356600029 -1.4483559120761613 3.089648450888297 19 113 189
9.659738696211324 0.6427060669042183 2.2415547400525 19 113 189
9.325106365447114 0.5585332001638315 2.602861795051396 19 113 189
11.319484178067004 2.4106273147652644 2.654746224559517 19 113 189
10.501842852403582 2.224641977989555 2.832544689822899 19 113 189
11.241503099740939 0.46441521880299996 2.3631834055405676 19 113 189
8.767719696485234 1.5640976550414138 1.8014359508400695 19 113 189
9.524201421033768 0.1733587761135528 2.8096556902188414 19 113 189
9.020385470490124 1.4644000852350225 3.0818693713101135 19 113 189
10.082174973972213 1.5581901857223839 2.674966816655317 19 113 189
14.24833455252539 1.7133594519575661 1.8556703599551416 19 113 189
13.905016729074797 1.49284979378526 1.7885725691345455 19 113 189
10.26749952151594 1.9755198692546712 2.6403192660455526 19 113 189
8.42163076004582 1.2149723715638265 2.364509732400047 19 113 189
9.912034760518303 0.5283219207882284 2.3555435245934775 19 113 189
9.25181386635566 0.2545940656686967 2.9097615489433375 19 113 189
