7.2784160469649 1.089652616814773 1.786117453449708 5 238 134
8.355244043648918 1.0154314628932748 2.2981102661866433 5 238 134
8.50377430489443 0.9179452916408597 2.450967115859855 5 238 134
6.721134106558563 1.2222228355059763 1.5045559040353296 5 238 134
6.325438221842972 1.5247215223132924 1.500405495021303 5 238 134
6.513614132304961 1.3320657719499638 2.1481369916311817 5 238 134
6.3584535233306205 1.6828699447549567 1.5007715888342437 5 238 134
7.435698466661298 1.835624310426543 2.069302936979879 5 238 134
6.713356291955178 1.835624310426543 1.8045645616201342 5 238 134
6.530726620578339 1.6828699447549567 1.8112288959958247 5 238 134
6.884337489019534 1.2222228355059763 1.798654632867485 5 238 134
7.787658701364482 1.3320657719499638 2.3650244093448354 5 238 134
7.062506493902124 1.734181198478893 2.4760214600107435 5 238 134
7.196783037355039 1.882618288957605 2.256138064309769 5 238 134
7.84668496618754 1.503361315329431 2.559655093766146 5 238 134
8.169023193661918 1.0816274439340816 2.502161876944484 5 238 134
8.169023193661918 1.0816274439340816 2.502161876944484 5 238 134
6.996867946928399 1.516049185698168 2.2797263504449976 5 238 134
7.883118269396056 1.3688279722284549 2.1868656508598017 5 238 134
9.451048948549936 0.610653439059482 2.702652699940967 5 238 134
9.50655414520383 0.41057370827766687 2.48935390806636 5 238 134
9.17115129320283 0.09184439080172623 2.7729820571341586 5 238 134
9.258302821540855 0.377051388026861 2.7493336204638537 5 238 134
9.19259816103589 -0.2087066424958504 2.766988484814647 5 238 134
8.213704200194885 -0.8434796417825905 2.494882516039973 5 238 134
9.151015721650271 0.7881103084614007 2.778721232067266 5 238 134
8.864457894191705 1.445272637388018 2.8766326740641124 5 238 134
8.346003645352786 1.198304878406805 2.7027344574609966 5 238 134
8.250729625811623 1.483038080162517 2.728019057847435 5 238 134
8.861646492205583 0.13154841928107278 2.8778044220198704 5 238 134
8.749496908700442 0.7902016191798075 2.9304096344941626 5 238 134
9.023089203698746 2.209297104259624 2.8181155253747323 5 238 134
8.658663792142653 1.3513626023026406 2.98678359356325 5 238 134
8.820996751239022 2.4902599083196026 2.895443927999742 5 238 134
8.953203407043427 1.0600121122388664 2.8422710001065923 5 238 134
8.003100758812582 1.0600121122388664 2.8054179283153395 5 238 134
7.930141661768328 1.869589549279609 2.832824635705064 5 238 134
8.657224789897922 0.23065198677132984 2.9878523709319773 5 238 134
8.75200968351261 -2.754462149758584 2.929074538835548 5 238 134
7.095118077711551 -1.1884981084158193 2.095625198989915 5 238 134
8.202142026509907 -2.135717713271166 2.7417309508733534 5 238 134
8.816758524409762 -0.9205682394967649 2.897364558175817 5 238 134
8.09529688373305 -1.720694509454231 2.5145113318230754 5 238 134
8.342666467204934 -0.8666824004099701 2.703587437437339 5 238 134
8.166780676360228 -1.3026349777273087 2.5025312104347184 5 238 134
7.626749937789997 -1.1170491451819322 2.3867399521569816 5 238 134
8.202142026509907 -2.135717713271166 2.7417309508733534 5 238 134
8.202142026509907 -2.135717713271166 2.7417309508733534 5 238 134
8.027303956063507 -1.4634511486733115 2.796893368834717 5 238 134
8.583063481677424 -2.0038972464849225 2.6471539757295197 5 238 134
8.887717277668266 -2.3598520459413455 2.8671532795966908 5 238 134
8.816758524409762 -0.9205682394967649 2.897364558175817 5 238 134
7.407407950076759 -1.3480102412404071 2.2331067694832036 5 238 134
8.816758524409762 -0.9205682394967649 2.897364558175817 5 238 134
8.243336347971107 -1.9198323392097854 2.4901364163603574 5 238 134
9.586203397331909 2.7378244501322917 3.061034397024223 5 238 134
9.586203397331909 2.7378244501322917 3.061034397024223 5 238 134
9.667037574276577 -0.4951262635471904 2.9892759478036472 5 238 134
6.8831450457294805 1.9767682367696413 1.651532424954222 5 238 134
7.727119398398914 1.9767682367696413 2.0488847818528537 5 238 134
8.405651198512954 -2.014723349835509 2.292785142877879 5 238 134
8.507135631679164 -2.0940136748971154 2.4504891271265823 5 238 134
9.132922912067452 -2.5820492512037996 2.7839752369540225 5 238 134
9.132922912067452 -2.5820492512037996 2.7839752369540225 5 238 134
6.325438221842972 1.5247215223132924 1.500405495021303 5 238 134
7.873323787867305 1.734181198478893 2.5545325657967215 5 238 134
6.334145419118468 1.5247215223132924 1.6585473602282115 5 238 134
6.713356291955178 1.835624310426543 1.8045645616201342 5 238 134
8.169023193661918 1.0816274439340816 2.502161876944484 5 238 134
8.529821659397424 1.3320657719499638 2.44728011908717 5 238 134
8.444289705432817 1.089652616814773 2.1405579785915316 5 238 134
7.242381284294688 1.5247215223132924 2.0838918399882527 5 238 134
6.996867946928399 1.516049185698168 2.2797263504449976 5 238 134
10.142911126266668 0.2414929601741968 2.5744836481716655 5 238 134
8.953203407043427 1.0600121122388664 2.8422710001065923 5 238 134
8.682811824251738 2.0693215662963778 2.969877357053544 5 238 134
8.749496908700442 0.7902016191798075 2.9304096344941626 5 238 134
8.864457894191705 1.445272637388018 2.8766326740641124 5 238 134
8.67994158795367 -0.4951262635471904 2.971794706980713 5 238 134
7.903694342882329 1.445272637388018 2.8434939202975613 5 238 134
8.223798346609852 0.7881103084614007 2.735545265851231 5 238 134
8.951811752117834 0.5172195930280268 2.842775184365477 5 238 134
8.509564689247846 -1.2349179404306514 2.6634215443585596 5 238 134
8.09529688373305 -1.720694509454231 2.5145113318230754 5 238 134
8.069390876997744 -1.5090008156955834 2.5189552308780527 5 238 134
7.866619299184541 -1.0160884919200062 2.5558148221211243 5 238 134
9.017564436573137 -0.6375961055820536 2.8199480129100025 5 238 134
7.9885822929387835 -1.694678759494701 2.3397473741283075 5 238 134
9.646645559727517 0.23065198677132984 3.00372750527817 5 238 134
9.564336519854068 0.8063802262512325 3.0976759528114663 5 238 134
6.4801226541161885 2.0431316859684174 1.976102740922887 5 238 134
8.836726839758496 -2.2032469087956352 2.59628461154962 5 238 134
8.900685529868829 -1.909259233118135 1.9816807875949607 5 238 134
11.891229008865434 -2.2278948188414573 1.9639085503435096 5 238 134
7.271234364061276 1.6828699447549567 2.0816574913246844 5 238 134
7.2784160469649 1.089652616814773 1.786117453449708 5 238 134
7.062506493902124 1.734181198478893 2.4760214600107435 5 238 134
8.014291331049447 1.1630609721181275 2.3366479409773286 5 238 134
8.169023193661918 1.0816274439340816 2.502161876944484 5 238 134
7.946804543248183 1.279404458072935 2.540776117440384 5 238 134
6.7829496942377006 1.1630609721181275 2.122483901116634 5 238 134
10.319147310116259 0.41057370827766687 2.548207380669543 5 238 134
7.057741036229522 -1.047000225974379 1.9412411398004974 5 238 134
8.346003645352786 1.198304878406805 2.7027344574609966 5 238 134
8.729480430863793 2.9661137961335577 2.941386755603312 5 238 134
8.726625544146822 -1.4011796376151804 2.9430053721634017 5 238 134
8.750586031675788 -1.966756949088027 2.929829845945548 5 238 134
8.726625544146822 -1.4011796376151804 2.9430053721634017 5 238 134
8.750586031675788 -1.966756949088027 2.929829845945548 5 238 134
8.342666467204934 -0.8666824004099701 2.703587437437339 5 238 134
7.497496155168393 2.0431316859684174 2.2237705563083447 5 238 134
8.46722483066581 -2.358498981372612 2.673161199466541 5 238 134
7.026729223241609 1.7037747566659385 2.2760872080294563 5 238 134
7.299894180662071 -1.5198272215475892 2.2446441205777132 5 238 134
9.321893898653052 -0.47611666170555916 2.73315954374461 5 238 134
8.053345349172384 -1.8280038051214633 2.78799702351095 5 238 134
8.8838405805307 -0.29535198133656815 2.868707513056619 5 238 134
8.202142026509907 -2.135717713271166 2.7417309508733534 5 238 134
8.213704200194885 -0.8434796417825905 2.494882516039973 5 238 134
9.584903649618955 -1.1757186724082713 3.0627318998406463 5 238 134
7.436988017542541 1.3958797518657786 1.6455082277475768 5 238 134
9.659058371567477 0.29485137295144387 2.658815303139452 5 238 134
7.323818854353828 -0.9596742357788668 2.2420382553439304 5 238 134
8.55786272022626 0.9644595099192615 2.6526442712656193 5 238 134
8.888046819628103 1.869589549279609 2.8670216185154738 5 238 134
9.84396077388991 0.49262949684942686 2.6241204412980523 5 238 134
6.619128732146201 1.3688279722284549 1.807955753253088 5 238 134
6.449217486513257 1.3688279722284549 1.501758671714727 5 238 134
