6.873397897351591 1.7419701639900156 1.4090818679869181 226 223 31
6.777354423481861 1.594059542895168 1.4067695480562583 226 223 31
7.332669584496181 1.882732404109549 1.279387606464038 226 223 31
5.724997580784134 0.4129830659677976 2.318633337268588 226 223 31
6.349001668408165 0.8835814187280495 1.8736089381386019 226 223 31
7.020813116324627 1.1957052416521876 2.3419626142604324 226 223 31
6.632499042613295 1.1068422174327164 1.860282278268389 226 223 31
6.09464953799418 0.6095817398070559 2.2637441952547186 226 223 31
6.632499042613295 1.1068422174327164 1.860282278268389 226 223 31
6.269059676226922 1.2570451123387332 1.8775953670806405 226 223 31
6.264378641058569 0.7564881490482112 2.4672741376838125 226 223 31
6.753635720820252 0.9133678307199568 2.381169806840079 226 223 31
7.020813116324627 1.1957052416521876 2.3419626142604324 226 223 31
6.360404965155026 -0.3296732384726799 2.4486028725375704 226 223 31
5.274011191721339 0.3553929012792365 2.7593105270332274 226 223 31
4.860022686700721 0.1762212615151037 2.208470894832659 226 223 31
6.080471176800931 1.9332350080142375 1.5532491786859384 226 223 31
6.50255299138231 2.0775498343845613 1.554388272812431 226 223 31
6.46138208248966 2.002045535167327 2.2174896858140163 226 223 31
5.50823982543536 1.6039851714262343 2.1238281548603024 226 223 31
5.606122763256521 2.4782261008155912 2.6318110900158476 226 223 31
5.756441563848334 1.5981499928226965 1.7266105471459603 226 223 31
5.483542381627208 1.8746951796936508 2.3602933593821924 226 223 31
6.093219762019269 1.6039851714262343 2.2639390421419403 226 223 31
6.367524787498429 1.9332350080142375 1.872700235736084 226 223 31
5.99359996761134 1.5981499928226965 1.892189503383495 226 223 31
5.699710734227072 1.9772603694122293 2.6031710109647586 226 223 31
6.233446730730262 1.8746951796936508 2.4735066613718644 226 223 31
5.826833588901348 -2.3204479418445323 2.5676907228952572 226 223 31
5.831069089674215 -3.0419651451518535 2.5665681366541917 226 223 31
6.2914890114948525 -2.147279346493306 2.4619011850303014 226 223 31
6.022604777663262 -1.9061633238016882 2.519208262091273 226 223 31
6.313755123710054 -0.6195115728979635 2.7745931114020292 226 223 31
6.183256379381616 -0.16937153170503408 2.834141116454738 226 223 31
7.0089366083734825 -1.0631066032167331 2.569607485359251 226 223 31
6.595024493600191 -0.8981315010983503 2.676097668384749 226 223 31
6.131321405928471 1.6628628017706981 2.8620478972089853 226 223 31
6.1872478945787 1.1061148143631936 2.832115828169992 226 223 31
6.131321405928471 1.6628628017706981 2.8620478972089853 226 223 31
6.4973251057995345 2.4782261008155912 2.7069876488712246 226 223 31
7.575586022344017 1.3924463576922401 2.4621683894567896 226 223 31
6.1872478945787 1.1061148143631936 2.832115828169992 226 223 31
6.530788022892571 1.2660336802291239 2.6960777206224424 226 223 31
5.934976536752963 1.794199257800291 3.023029224479501 226 223 31
6.312374976145226 2.8340764600652233 2.7751622967406515 226 223 31
6.719906510755382 2.9279579394299455 2.6403641773388618 226 223 31
6.4364233152171435 -2.0336910502259196 2.72784081864563 226 223 31
6.814415459452564 -1.3213907956480144 2.6156078883544223 226 223 31
6.813136732175246 -2.7466349928068965 2.615931275436004 226 223 31
7.019419933554425 -1.688487869219095 2.9517514634080864 226 223 31
6.952003036588921 -0.35746915863109124 3.0115585384030203 226 223 31
6.688692754679271 -2.3204479418445323 2.64894888766848 226 223 31
5.903794610317986 -2.028904054413217 3.08198823063425 226 223 31
6.692382820961759 -3.0419651451518535 2.6479226805385707 226 223 31
6.040334023034753 -1.688487869219095 2.9205058984920806 226 223 31
6.387911532340957 -1.2210737622132042 2.745491699421345 226 223 31
7.228716510226545 -2.891775030068722 2.3143753831973486 226 223 31
6.415307297549732 -2.570097212360003 1.8703815248853743 226 223 31
6.052414653831702 -2.4681743143292696 2.0692208733559063 226 223 31
7.2902635519087 -3.090395377265448 2.1341711413378333 226 223 31
6.468143240719111 -3.0804875285747033 2.2167007183958027 226 223 31
6.147153806978903 -2.6332459042828193 2.2566730738873755 226 223 31
6.553111986788697 -2.835024944893901 2.413906648137462 226 223 31
6.349168804397418 -2.7194757409817525 2.04395377718748 226 223 31
5.73684731634314 -1.9560559391815944 1.5521980274017317 226 223 31
5.6446902457864985 -1.6000486546029702 1.912841433664663 226 223 31
5.705388882192792 -1.413241943167872 1.909056132673437 226 223 31
6.686998732102681 -1.0794375543222452 2.0182563286271815 226 223 31
5.671409056253138 -2.202170985956878 1.9111645807114865 226 223 31
5.624983209154671 -2.034040048523655 2.111066677318723 226 223 31
7.117467943140408 -0.9880226409698446 2.3288470245561284 226 223 31
6.05717139128721 -2.3373217262463477 1.7188160699589885 226 223 31
7.103307508588324 1.7419701639900156 1.2696881943967762 226 223 31
5.905360621296747 0.5346864304734819 2.54743759436293 226 223 31
5.480628241178852 -0.08186238324404012 2.360829597701221 226 223 31
6.230883325160021 -0.08186238324404012 2.474028162501209 226 223 31
6.434189614215028 1.4233207928139668 2.0372006109318215 226 223 31
5.625990725937991 1.8126360142641578 2.11095926756901 226 223 31
6.101991989963505 1.7713389791961738 1.8862812050669067 226 223 31
5.98312360959486 2.2473223778442035 2.528464784008799 226 223 31
5.8692150371092024 1.7713389791961738 1.7235929141512532 226 223 31
6.1494927753786355 1.3924463576922401 2.2563618233959577 226 223 31
5.756441563848334 1.5981499928226965 1.7266105471459603 226 223 31
6.050799525510866 1.4233207928139668 1.8890438243762722 226 223 31
6.061326431609756 2.6512339930131392 2.510359322735209 226 223 31
6.199870381071711 1.8126360142641578 2.2497337551171803 226 223 31
6.266023886531003 -2.508562632190446 2.466945713152459 226 223 31
5.969272236844755 -2.7466349928068965 2.531770588756878 226 223 31
5.912757616722017 -1.6176738841300295 2.5455883760987725 226 223 31
5.912757616722017 -1.6176738841300295 2.5455883760987725 226 223 31
6.022604777663262 -1.9061633238016882 2.519208262091273 226 223 31
5.912757616722017 -1.6176738841300295 2.5455883760987725 226 223 31
5.9927356706249 0.6812087240373729 2.9591809128481517 226 223 31
6.313755123710054 -0.6195115728979635 2.7745931114020292 226 223 31
6.097095163764715 -1.0000838098145837 2.8823202356520774 226 223 31
6.1479021449319875 -2.2915770764059054 2.852801565443048 226 223 31
6.4115338615254505 -2.593667671985096 2.736772563724501 226 223 31
7.001453269925148 1.3454976966420193 2.571269886441324 226 223 31
6.1872478945787 1.1061148143631936 2.832115828169992 226 223 31
6.237320567088468 2.1720290445076555 2.8079219487209004 226 223 31
6.33375713292219 -1.6378681299101043 2.7664639005331395 226 223 31
7.0089366083734825 -1.0631066032167331 2.569607485359251 226 223 31
7.33581125073225 -0.861704820011136 2.503715665184631 226 223 31
5.960312358675789 -2.7194757409817525 1.8940494884735424 226 223 31
6.194315670697196 -2.570097212360003 1.7155155221090554 226 223 31
6.427474807603854 -3.065833782102693 2.436129775184611 226 223 31
7.187340400035502 -1.2866419529652062 1.9851042391764093 226 223 31
6.846257439815749 -1.2866419529652062 1.8509952238004426 226 223 31
6.326690897852604 -1.236793977024695 2.045773497612499 226 223 31
5.9363622382079235 -1.236793977024695 1.8954013600683401 226 223 31
5.80500113908546 -1.9560559391815944 1.72529662501915 226 223 31
5.322534211204645 -1.8324268418225462 2.1455123061521504 226 223 31
5.512437986132394 -1.7848581387959286 1.7335677571634478 226 223 31
6.09464953799418 0.6095817398070559 2.2637441952547186 226 223 31
5.862637837999425 2.9279579394299455 2.558311887230282 226 223 31
6.753635720820252 0.9133678307199568 2.381169806840079 226 223 31
5.583514733573753 1.6286673135707868 2.6391011646275992 226 223 31
5.701239196575935 0.23617837201693329 2.6027223276162257 226 223 31
6.826630390476991 1.3924463576922401 2.3699946776578678 226 223 31
6.77598318784899 1.6039851714262343 2.377709059599256 226 223 31
6.367524787498429 1.9332350080142375 1.872700235736084 226 223 31
6.008933229936791 -2.3314907500168 2.275647429950646 226 223 31
6.902275848918942 -2.028904054413217 3.0906186993941462 226 223 31
6.4364233152171435 -2.0336910502259196 2.72784081864563 226 223 31
6.1872478945787 1.1061148143631936 2.832115828169992 226 223 31
6.044419919697532 2.6067543830022113 2.9175182060308122 226 223 31
6.456127948962187 2.9783202401284226 2.430934506281413 226 223 31
7.115019190150531 -3.0804875285747033 2.3291729140463344 226 223 31
6.593005482439085 -2.891775030068722 2.2025010412494908 226 223 31
6.8245235013446335 -2.6332459042828193 2.3703120933769863 226 223 31
6.5892597638632155 -2.4681743143292696 2.20291706187782 226 223 31
6.28298864849987 -2.3373217262463477 1.8768931166251859 226 223 31
6.493606380023347 2.1001244766038627 2.424254482098214 226 223 31
6.050799525510866 1.4233207928139668 1.8890438243762722 226 223 31
6.893932056836727 2.6512339930131392 2.596067160068082 226 223 31
6.061326431609756 2.6512339930131392 2.510359322735209 226 223 31
6.927637827683399 -2.9310617509773333 2.00165096780418 226 223 31
6.283066301454724 -2.9962924877847072 2.787516677059279 226 223 31
6.722657959972215 1.0251008476556487 2.1884606548828596 226 223 31
7.33581125073225 -0.861704820011136 2.503715665184631 226 223 31
6.968548138174352 -0.8430500603717686 2.1636108496181152 226 223 31
6.237320567088468 2.1720290445076555 2.8079219487209004 226 223 31
6.013805490257215 -2.8751176301177432 2.9410750342530276 226 223 31
7.202989960630909 0.8835814187280495 2.141843199266182 226 223 31
6.477828175691694 1.6286673135707868 2.713517360603606 226 223 31
6.061326431609756 2.6512339930131392 2.510359322735209 226 223 31
7.068323035186853 -1.0000838098145837 2.918599506319386 226 223 31
5.668771708720093 -0.11043852021302762 2.6123797942943394 226 223 31
