12.438449938854 0.023461031257079237 1.945367888254446 172 243 48
11.669208230177643 0.13205701052162766 2.1668532158815754 172 243 48
11.63972162482992 -0.16204580437872976 1.9724928973489755 172 243 48
11.012697499808269 -0.16204580437872976 1.8045522506621559 172 243 48
11.600274627314453 0.5762913724304409 2.3996087536265556 172 243 48
11.427310752950062 0.0316662659047343 2.292649719944058 172 243 48
12.31955680250047 0.2590194149563019 2.3379538672220024 172 243 48
11.554098360303398 -0.1989509663191517 2.2830298577298977 172 243 48
11.554098360303398 -0.1989509663191517 2.2830298577298977 172 243 48
11.55219980381526 -0.22439805670484103 2.4041595816820474 172 243 48
12.623726450014399 0.32931037949941333 2.211989045290781 172 243 48
11.44728395655611 -0.08476702146903425 2.2911147190487036 172 243 48
12.542511744961487 0.36456125002406864 2.3209533757629055 172 243 48
11.494631447199573 0.1472507643684421 2.2875053799103178 172 243 48
8.959244672689994 -0.2759058900962235 2.838514627648996 172 243 48
9.972768616120176 0.4590168999868426 2.849690707582894 172 243 48
8.786844255881928 0.6798721668835076 2.9093313849052302 172 243 48
9.895099433972874 0.10515967549191055 2.8770626749802486 172 243 48
9.832653529458184 -0.8324971384055687 2.901624125787248 172 243 48
11.709871535950798 -0.5890689847320639 2.064665467444102 172 243 48
11.846248564002407 -1.4374870812271414 1.6173175592888704 172 243 48
12.358266957247555 -1.2750970146238148 1.696623299525461 172 243 48
12.59638139142619 -1.199033043105597 1.5351359364687325 172 243 48
13.458602778486952 -1.2750970146238148 1.9959302237009595 172 243 48
12.523121369180357 -1.2750970146238148 1.775927401349787 172 243 48
11.236156020885856 -0.3714056125092895 1.9878004784561107 172 243 48
12.591880319958497 -0.9766131310199629 1.9405821130804457 172 243 48
13.3029493089841 -1.091713755728392 2.001234031996746 172 243 48
10.325311529699512 -0.5890689847320639 1.6241763174966184 172 243 48
11.387956828570124 -0.7955670191037214 1.8878960031859933 172 243 48
12.73978745253897 -0.9253543877023135 2.110880529774531 172 243 48
12.063751560510235 -0.7264230824210899 2.1448301464508104 172 243 48
11.743517328501206 -0.34581483289420767 2.3863980631948247 172 243 48
12.13173645513285 -0.6476135265241029 2.242613259571435 172 243 48
11.776174330696888 -0.6236217804449153 2.3834567233643886 172 243 48
10.3727929365935 -1.1715978192560808 2.7408329048791273 172 243 48
10.056736765368042 -1.0478651225226292 2.823079337392512 172 243 48
9.896964464034303 -1.249675705751736 2.613942325836497 172 243 48
14.399222271718244 -1.2750970146238148 2.1228026414280654 172 243 48
14.46126567719279 -1.1678799914819584 2.2034625231373077 172 243 48
14.592417932650388 -1.3354265496658275 2.284332462937522 172 243 48
14.59959102732433 -1.4374870812271414 2.1965332307930705 172 243 48
14.801497774686789 -1.2493233758944562 2.272167750597627 172 243 48
14.592417932650388 -1.3354265496658275 2.284332462937522 172 243 48
8.581816294744351 -3.0553675068870514 1.4011267885585534 172 243 48
12.213417086476294 2.374080477695521 2.613715075516475 172 243 48
9.644640382715552 1.8948870359317154 3.0020586608135877 172 243 48
10.722649835726768 2.4137883090012875 2.96237148956541 172 243 48
9.57191946802561 0.44268270643580404 3.075314327798053 172 243 48
9.588161762662597 -2.101161391058392 3.053406499302016 172 243 48
9.715437454099732 -1.813079152615228 2.957292098100749 172 243 48
9.588161762662597 -2.101161391058392 3.053406499302016 172 243 48
10.584642300409122 -2.101161391058392 3.0617273203125794 172 243 48
10.293332753086338 -2.674482704892054 2.7594634990111366 172 243 48
10.66803749116203 -2.769374679884237 2.6798604145088487 172 243 48
10.530587164909711 3.080329774936011 2.70682465437659 172 243 48
9.858225831436595 3.0301720761333506 2.891242685800412 172 243 48
10.552257814103099 -2.9785151580016556 2.7024233810961604 172 243 48
10.173289548038097 -2.932160508413954 2.7899887682231754 172 243 48
12.983258556224282 2.370737428986174 2.519489217744248 172 243 48
12.18454743095311 2.370737428986174 2.4716443381449706 172 243 48
13.197418141110154 2.5243411717349753 2.3799376240338614 172 243 48
13.420436796178889 2.284140783058126 2.4754024665271013 172 243 48
10.700472367671136 3.0993657595452233 2.49661726808952 172 243 48
11.641119937832272 -2.8788808958275345 2.532985959152655 172 243 48
12.12940708610806 -2.9392948500863643 2.3531812653537694 172 243 48
12.10033699652383 -3.0644756115763654 2.244678481708357 172 243 48
12.30767080372434 2.5991078107520456 2.6007252446246274 172 243 48
12.92862426004608 2.9051410088449003 2.2934709847594235 172 243 48
10.72179965438789 -3.02873658899187 2.4939778229027727 172 243 48
12.027702911320585 -3.0553675068870514 2.361621793899154 172 243 48
11.01335666774236 -1.7932871784688156 1.6208385923292312 172 243 48
11.989029761094576 -1.6072013104801686 1.3650700879215156 172 243 48
11.916307562411696 -1.6918849266613267 1.7013162440200318 172 243 48
8.621201931917676 -2.413612862308616 1.518680619230503 172 243 48
9.911185689087155 -2.574665718609538 2.0478551854262554 172 243 48
10.408333603617393 -2.574665718609538 2.1333089545210844 172 243 48
11.017067754934486 -2.8284761081728065 2.207581864559787 172 243 48
9.454340584033341 -2.1830191294118784 1.5232768051384744 172 243 48
10.26884404655766 -1.4183483430579744 2.765441953467743 172 243 48
9.94948637443079 -1.363851403368361 2.857581959217233 172 243 48
11.280940305989793 -1.9363680462247483 2.779862129816948 172 243 48
11.280940305989793 -1.9363680462247483 2.779862129816948 172 243 48
10.991029762936972 -2.0527284351952337 2.857640909010943 172 243 48
9.874861003760705 -1.8639268102599698 2.617796001714341 172 243 48
9.78796354454983 -1.4502365514204787 2.6333768795475505 172 243 48
10.507596209566616 -2.4692208038905368 2.711560295013613 172 243 48
10.810479038453266 -2.3141156735619246 2.6540478356446915 172 243 48
10.06812815724316 -2.045036340089022 2.5854621370489888 172 243 48
12.996282923781898 -2.0401962503722935 2.288889513304819 172 243 48
15.840285530495187 -1.6918849266613267 2.2997376661339457 172 243 48
15.131375162222087 -1.6072013104801686 2.2538939531184887 172 243 48
15.781645064458157 -1.6072013104801686 2.3030608052201154 172 243 48
11.65011031926258 -2.7895371751886056 2.394954312508415 172 243 48
12.660322113957143 -2.6763458993637026 2.425530653322456 172 243 48
12.637177748772265 -2.3332974425058794 2.3139950263070332 172 243 48
13.196785229426279 -2.264525474734615 2.2756908725640845 172 243 48
14.030662893202468 -2.1270762296578454 2.31953657124288 172 243 48
15.977162388375758 -1.6824538819552661 2.2115311840560614 172 243 48
15.0216112889052 -1.3713506513872424 2.0974801344522875 172 243 48
15.33993437394128 -1.6043434178327405 2.1620804977679366 172 243 48
13.760210237968357 -1.3713506513872424 1.907872479313865 172 243 48
12.936719920499343 3.020244871059187 2.1940496549041097 172 243 48
13.883665514228742 2.9453646203122936 2.1458377820557417 172 243 48
12.8769406785534 3.1155549695505753 2.1973907411637548 172 243 48
11.622234827847127 -1.610591197398097 1.177961273125899 172 243 48
10.810748339489884 -0.16204580437872976 1.436349432319777 172 243 48
11.602900484654016 0.028360213803407728 2.170735019569367 172 243 48
11.62257194403731 -0.07594805073929242 2.1695777130876044 172 243 48
11.494631447199573 0.1472507643684421 2.2875053799103178 172 243 48
10.832890365301605 -0.22439805670484103 2.342050341603746 172 243 48
11.55219980381526 -0.22439805670484103 2.4041595816820474 172 243 48
12.174906929729458 0.1472507643684421 2.3494733621185278 172 243 48
9.683352598934368 0.1709708353005506 2.9760068140845104 172 243 48
8.786844255881928 0.6798721668835076 2.9093313849052302 172 243 48
9.271292327421598 0.07586110101469506 2.744783728073936 172 243 48
12.354716709095523 -1.4374870812271414 1.8623208606270865 172 243 48
11.7798989423321 -0.5040405790369418 2.1604925995624304 172 243 48
13.385733351646932 -1.199033043105597 1.917693680881824 172 243 48
10.904929073919769 -0.5890689847320639 1.9024676281847324 172 243 48
11.765014173471243 -1.1678799914819584 1.7030044623054765 172 243 48
11.318319434322474 -1.050586986304746 1.7082547296686794 172 243 48
10.23326187433475 -0.7264230824210899 1.4287122184026086 172 243 48
12.160969287463352 -0.7955670191037214 2.0448002038653676 172 243 48
14.176830736572718 -1.2493233758944562 2.2182538531206704 172 243 48
13.28171641680752 -0.9253543877023135 2.175500383594274 172 243 48
11.071426070129327 -0.6236217804449153 2.3213137043534444 172 243 48
14.740886452925768 -1.354849468697092 2.1896240516787278 172 243 48
11.325425887873791 -0.4575038914456124 2.3005973606554817 172 243 48
12.634710457875089 -0.7264230824210899 2.211340318695987 172 243 48
13.517218451335015 -1.050586986304746 2.163509783082083 172 243 48
11.90060653352466 2.5051852254317546 2.66070644654894 172 243 48
9.722931665780912 -1.2507696887870006 2.953202236561849 172 243 48
9.715437454099732 -1.813079152615228 2.957292098100749 172 243 48
10.00491751183793 -2.5227763403027916 2.839180586259567 172 243 48
9.740298396814458 2.4137883090012875 2.944068845015013 172 243 48
10.786373640488613 -2.2610092670275614 2.932259217197214 172 243 48
9.595755376201836 -0.9044093392188748 3.0448682858274507 172 243 48
11.535111376551908 -3.02873658899187 2.546301657271081 172 243 48
11.009290155245187 -3.0081690056358448 2.621013484218559 172 243 48
12.790864091021795 3.007519188642751 2.303008518830383 172 243 48
11.120312435355283 -2.8332696626580707 2.6038558062233643 172 243 48
10.835767936162672 -2.8788808958275345 2.4801987001372012 172 243 48
11.457233152618032 -2.912943710542382 2.4133306796544436 172 243 48
8.044066387390055 -2.7895371751886056 1.3896626756464718 172 243 48
11.547812049008842 -1.8799970988242019 1.7935327549398523 172 243 48
11.00873373509779 -1.7932871784688156 1.5299904223047427 172 243 48
10.329156349888652 -1.9095034154009918 1.6241564289880623 172 243 48
9.78796354454983 -1.4502365514204787 2.6333768795475505 172 243 48
9.780519162933794 -1.6608907418629544 2.634745020562773 172 243 48
10.991029762936972 -2.0527284351952337 2.857640909010943 172 243 48
10.225226322982785 -2.297824029241762 2.7763944656386235 172 243 48
15.961483967184689 -1.774862438925182 2.2929772136287503 172 243 48
13.674983600560916 -2.0401962503722935 2.3439859465678596 172 243 48
13.086574881606674 -1.9978619875929522 2.1858423959871502 172 243 48
15.961483967184689 -1.774862438925182 2.2929772136287503 172 243 48
12.134306017095748 -2.413612862308616 2.352780045395445 172 243 48
12.402696363759514 -2.7895371751886056 2.4497420056756165 172 243 48
12.311758412106176 -2.8284761081728065 2.33856476101833 172 243 48
13.431404330342747 -2.1830191294118784 2.3618399997671546 172 243 48
14.882981235694778 -1.4478507893323562 2.10290492715302 172 243 48
13.608736551942206 -1.4478507893323562 1.9117758913520888 172 243 48
15.34468187515618 -1.5258221291592045 2.161872782067195 172 243 48
15.400256859672956 -1.6824538819552661 2.1594528857070143 172 243 48
13.072943179097267 2.92709372163193 2.186579239482779 172 243 48
11.701737782940677 -1.7030459720712814 1.1807749336602398 172 243 48
8.986197919008152 0.965186553675033 2.829065654268115 172 243 48
11.88145300961021 0.40779527451096736 2.374144822187505 172 243 48
12.623726450014399 0.32931037949941333 2.211989045290781 172 243 48
9.295899115096148 -0.2011260382484528 2.738513590313831 172 243 48
12.215682462682782 -0.5890689847320639 2.136807943163288 172 243 48
11.415302893660693 -0.41023708870446 2.182020353925707 172 243 48
10.5611815457038 -0.3714056125092895 1.3367698731904862 172 243 48
12.019953423081573 -1.354849468697092 1.6166447885595738 172 243 48
12.64701988766348 -0.8660270855941429 2.2106150218504395 172 243 48
11.74538495993658 -0.3081288754543033 2.2690520016648072 172 243 48
14.253844169158388 -1.091713755728392 2.1290962650171545 172 243 48
11.786436061621204 2.4747852975595905 2.5155114728889068 172 243 48
9.57191946802561 0.44268270643580404 3.075314327798053 172 243 48
10.988520864285595 3.091597054741314 2.624319704128778 172 243 48
9.881371133660677 -2.8500259610349494 2.8822411159632964 172 243 48
10.700472367671136 3.0993657595452233 2.49661726808952 172 243 48
8.940144397138729 -2.574665718609538 1.7451547424256733 172 243 48
11.22854143457209 -2.6763458993637026 2.3083428955162004 172 243 48
9.584777104372726 -1.8149619569694597 2.478027988440436 172 243 48
10.261748525451274 -1.6848676385678791 2.7671965610677436 172 243 48
10.261748525451274 -1.6848676385678791 2.7671965610677436 172 243 48
12.753661746394197 -2.1270762296578454 2.204406057408899 172 243 48
15.78625972779676 -1.5219933488614612 2.302798038082981 172 243 48
13.33416919401767 -2.3332974425058794 2.3692427613884703 172 243 48
11.963613467787209 -0.06878854787552012 2.053281596226532 172 243 48
8.986197919008152 0.965186553675033 2.829065654268115 172 243 48
13.376269723099346 -1.1678799914819584 2.082588615169942 172 243 48
10.78900649463857 -0.4587905586592902 1.7150445317764094 172 243 48
11.916288703677866 -0.2776566196794962 2.1528535772692154 172 243 48
9.337120700740757 -0.8147415041774834 2.7282831217965664 172 243 48
15.206901880585477 -1.4374870812271414 2.2498587544428967 172 243 48
8.663888083545627 1.1475269348895993 2.9799181192482607 172 243 48
11.117446958220498 -2.932160508413954 2.8209724215082583 172 243 48
12.08038242566796 2.7451944683444043 2.6329195492354645 172 243 48
9.138870569123464 -2.574665718609538 1.299493537869648 172 243 48
10.536229510302002 -2.1478644709471513 2.7056729530584476 172 243 48
9.70691488027106 -0.43372488173146306 2.9620630090281743 172 243 48
12.046786169235313 0.4618375276974907 2.4862145324240355 172 243 48
11.842720551895292 -0.9766131310199629 1.7021319351716253 172 243 48
12.610387847933534 2.4747852975595905 2.5619957536487554 172 243 48
9.802495432795926 -2.0401962503722935 1.6270262673720144 172 243 48
12.730399959645007 3.112794437905183 2.307286203532193 172 243 48
8.992594103688445 -2.8284761081728065 1.7441274496535022 172 243 48
9.427121474532091 -0.45058128144969967 2.7070281474190936 172 243 48
9.676709250449779 -0.9667743941821506 2.6544162212844333 172 243 48
12.598042625372099 2.269350652859433 2.5634944804112383 172 243 48
15.136188078668711 -1.5219933488614612 2.2536352137847295 172 243 48
9.095325395095152 -0.5915499500523455 2.7938449882361516 172 243 48
10.869654800639461 -0.3714056125092895 1.9035854710037545 172 243 48
11.924007270566689 -2.6763458993637026 2.370452612606691 172 243 48
12.176034405052638 -1.091713755728392 1.4515013715114304 172 243 48
10.671877874802018 -2.6696509228492116 2.990878963695301 172 243 48
