14.077266114627506 -1.1040367030399316 1.8225476058823684 239 134 69
14.720151616336862 -0.9817571056869552 1.673328964028981 239 134 69
14.33269487692361 -1.0407117975352191 1.7465909264911126 239 134 69
15.426152991236092 -0.9271035578311738 1.734013755680987 239 134 69
14.330373830248805 -1.0407117975352191 1.3959159110254111 239 134 69
15.918639239891954 -1.9245204253604686 1.0806807393952167 239 134 69
13.760796418287727 -1.7114153684571853 1.8284674013168916 239 134 69
13.412168582131967 -1.5605491088248051 1.758795731426915 239 134 69
13.889317865443852 -1.2666826749258364 1.463070414818431 239 134 69
14.264277183584888 -1.9245204253604686 1.3950971417607563 239 134 69
13.625091703556448 -1.3371916665274157 1.4609729693464213 239 134 69
12.479561414272133 -1.4778412571092134 1.36964818528269 239 134 69
12.428572977440929 -1.5597075253521842 1.3688115874163076 239 134 69
13.492574781573675 -1.7849166051774337 1.608355649800354 239 134 69
14.053334654033732 -1.9245204253604686 1.535683766776087 239 134 69
13.459431374041877 -1.4848604903710814 1.7581277248688711 239 134 69
13.989626594396123 -1.3371916665274157 1.824159249165211 239 134 69
14.360933126388504 -1.1991574992853429 1.7462416627549597 239 134 69
14.171078448429054 -1.856144911867173 1.8208452630696814 239 134 69
13.671115332152853 -1.1716718103626809 1.830196521056144 239 134 69
14.475822517374112 -1.9245204253604686 1.815472384732841 239 134 69
13.787847200371985 -0.8532319314640505 2.235679814456083 239 134 69
13.760866673060898 -0.7878593426682231 2.1477905816646565 239 134 69
13.784935464418401 -0.7227859855005033 2.2358454178414693 239 134 69
13.348097595514071 -0.9814184740480074 2.168053055531548 239 134 69
13.836247188323268 -0.9098359330599964 2.1442486276026673 239 134 69
13.88689025990068 -1.0687313081904606 1.9785368139691522 239 134 69
14.156244478786821 -1.3187782613934242 2.0483763117688425 239 134 69
12.981097510207368 -1.469577637893747 2.0958281929853904 239 134 69
13.031983453834929 -1.4778412571092134 1.92390335605868 239 134 69
13.383505273262069 -1.3421697960453314 2.3607576928945333 239 134 69
13.126525336755893 -1.2164002101680589 2.003697099785003 239 134 69
13.027353545826719 -1.2719207031822597 2.1848953481809743 239 134 69
12.692710811145549 -1.3421697960453314 2.305274350299855 239 134 69
13.156846870661768 -1.397203123686643 1.9204078890852154 239 134 69
13.851324993268781 -1.4778412571092134 2.05980331415818 239 134 69
12.555144592769077 -1.1473812027693753 2.2116682427243 239 134 69
12.823490693682006 -1.363970677264819 2.196148642415105 239 134 69
12.69534901977626 -1.4597080366506932 2.203455761354586 239 134 69
14.94886959651597 -1.8217622394424593 2.260028220672969 239 134 69
13.864069810807269 -1.9509432630628878 1.901871369991119 239 134 69
14.424369283340257 -1.722794535629334 2.118132772284908 239 134 69
13.294829272802545 -1.80190598745256 1.9166265509943554 239 134 69
13.83181659779808 -1.6417223726782142 2.0605539567833175 239 134 69
14.335587531875959 -1.8781831875811261 2.041912492969977 239 134 69
14.006143796509429 -1.9037739809736014 2.1364340115930656 239 134 69
14.333715378420802 -1.8217622394424593 2.2061616526991488 239 134 69
13.011246637697612 -1.6417223726782142 1.9244908058943082 239 134 69
13.490075780348475 -1.6480449448023926 2.1609123469301688 239 134 69
14.53868200380878 -1.7702230148952525 1.4678994045915823 239 134 69
12.291087138389061 -2.5127552584685486 1.6936863316124944 239 134 69
13.742243820915311 -2.019711320012187 1.388349138880688 239 134 69
14.104807492332256 -2.184062808172491 1.3205210455755532 239 134 69
13.746716179650948 -2.184062808172491 1.4619485078329855 239 134 69
13.201596477437098 -2.1216699765768645 1.6851721005641698 239 134 69
13.748167976718376 -2.184062808172491 1.6806062319181325 239 134 69
12.767727344819196 -2.3390029068255647 1.5321465339551632 239 134 69
13.329982090931301 -2.2288305223894076 1.8369941415442255 239 134 69
12.069708186864581 -2.3966550888001397 1.6127858874959229 239 134 69
12.535022318899246 -2.697071967162795 1.854328395451665 239 134 69
12.55857367332188 -2.3966550888001397 1.853782003526523 239 134 69
14.50155179761434 -2.0936840848008633 2.197654206252606 239 134 69
13.892385193830169 -2.1643269682620256 2.0582312620765113 239 134 69
14.19925014606078 -2.054105111067317 2.046809462178719 239 134 69
13.769727631523603 -2.054105111067317 1.9822150605013344 239 134 69
13.954914202787323 -1.856144911867173 1.3911601434186232 239 134 69
14.300692078567835 -1.6363550965723488 1.1765292924162307 239 134 69
15.188364222354735 -1.856144911867173 1.1290473913584944 239 134 69
14.33269487692361 -1.0407117975352191 1.7465909264911126 239 134 69
13.799986428023045 -1.410144397739301 1.8277190889663208 239 134 69
13.73922274858663 -1.856144911867173 1.5348806671373745 239 134 69
13.315641006324492 -1.7114153684571853 1.5337376445616746 239 134 69
14.21911310892324 -1.1991574992853429 1.465578360717828 239 134 69
14.610037797396956 -1.1350042124779987 1.4684037238250804 239 134 69
14.426296686428852 -0.8532319314640505 2.290259278392489 239 134 69
13.830443482807507 -0.6658098350012394 2.144519671078406 239 134 69
14.098904096457018 -1.80190598745256 2.0504822963591613 239 134 69
12.823490693682006 -1.363970677264819 2.196148642415105 239 134 69
13.106445719817671 -1.3820211675829281 2.090297038952791 239 134 69
13.968866486088531 -1.397203123686643 2.055331135422991 239 134 69
12.898640803293427 -1.2415481665846804 2.2909496582732576 239 134 69
13.864069810807269 -1.9509432630628878 1.901871369991119 239 134 69
14.451047368810086 -1.856144911867173 1.8879426629241571 239 134 69
13.545569702155479 -1.8781831875811261 1.909964836186735 239 134 69
13.115735291243965 -1.722794535629334 1.921550938270762 239 134 69
13.462992661238417 -1.5587153452803622 2.162260219788095 239 134 69
13.26077624283053 -1.4477165283873488 2.3701421624115433 239 134 69
12.91904340817669 -1.0605630759684557 2.190818617207591 239 134 69
14.63690688113655 -1.9509432630628878 2.031454111720432 239 134 69
12.668063580142066 -2.803236164110902 1.6900116735005217 239 134 69
13.985916120318862 -2.084212273568036 1.5355144380260288 239 134 69
13.274726365102458 -2.2794582452496432 1.1441501065872004 239 134 69
13.984586928757913 -2.2288305223894076 1.1671063217050428 239 134 69
14.637831296112068 -1.9896138582228857 1.7428893443191225 239 134 69
12.713653102195316 2.7236787677401764 1.9331472484802135 239 134 69
13.401197460760068 -2.054105111067317 1.91376815891073 239 134 69
13.769727631523603 -2.054105111067317 1.9822150605013344 239 134 69
12.479561414272133 -1.4778412571092134 1.36964818528269 239 134 69
13.86203865230426 -1.1040367030399316 1.7526251861954936 239 134 69
14.33269487692361 -1.0407117975352191 1.7465909264911126 239 134 69
13.757411763014249 -1.7114153684571853 1.3140604858769749 239 134 69
14.85584629942055 -0.9817571056869552 1.7403391475213326 239 134 69
12.765917968595776 -1.1847992419965165 2.1056200444887123 239 134 69
12.645230717425406 -1.5575281765105202 2.206364827642432 239 134 69
13.590883625523746 -1.7361592324847541 2.1559530119075023 239 134 69
13.355622277342878 -1.3187782613934242 1.9149869504671466 239 134 69
14.156244478786821 -1.3187782613934242 2.0483763117688425 239 134 69
13.805403914124982 -1.5597075253521842 2.061574124149844 239 134 69
15.172299607397177 -1.9037739809736014 2.2479529607312014 239 134 69
13.81624882330302 -1.9813919171151098 2.061154709565821 239 134 69
15.105395241601604 -1.9896138582228857 1.2687585281071616 239 134 69
11.898897114720784 2.7236787677401764 1.613389018303449 239 134 69
13.426406563588289 -2.0936840848008633 2.0767205652088374 239 134 69
14.440387074300235 3.077564854502898 2.0382192547015086 239 134 69
13.430305174987938 -1.410144397739301 1.459373568947377 239 134 69
12.457905097509771 -1.6417223726782142 1.3692937111828187 239 134 69
15.017966620161417 -2.084212273568036 1.1963201939147787 239 134 69
14.22446386368673 -2.1216699765768645 1.968308294975269 239 134 69
12.98316471065558 -1.5597075253521842 1.9252895298858412 239 134 69
14.034470899310303 -1.2666826749258364 1.7503666923455001 239 134 69
15.457316990332105 -1.9813919171151098 2.2332153480388928 239 134 69
13.439354122818285 -1.6363550965723488 1.7584109099342315 239 134 69
13.57603627283032 -2.1216699765768645 1.8320555513781642 239 134 69
12.692710811145549 -1.3421697960453314 2.305274350299855 239 134 69
13.931600454669427 -1.7849166051774337 1.825237850792325 239 134 69
13.971345606707288 -1.4597080366506932 2.319158292791117 239 134 69
13.327766789226537 -1.2433920749368577 1.8370394640543124 239 134 69
13.96170115773361 -2.019711320012187 1.8246771760380227 239 134 69
14.226430813846417 -2.2794582452496432 2.1266343898913886 239 134 69
13.989818936379205 -2.2288305223894076 1.975360976992171 239 134 69
