16.760282560797833 3.0663915410290294 1.4225447213782911 26 2 241
6.445918097985411 1.4956166531468926 1.8095413798687194 26 2 241
6.907743027515807 1.8109829189368405 1.944899822775764 26 2 241
6.597127368441756 1.8109829189368405 1.345207579484526 26 2 241
5.821685563368163 1.13064265910416 1.660987489428852 26 2 241
7.730145669182652 1.6553903808993258 2.1960301810916776 26 2 241
8.773760685688456 1.9166116671238451 2.601375955598847 26 2 241
8.652197929784228 1.4604409198563082 2.6252819918430075 26 2 241
8.008467585759886 1.13064265910416 2.332028431772743 26 2 241
7.783674940311463 0.8855028634297729 2.3599194790775826 26 2 241
9.184297073544153 1.4813543858455203 2.5309205559638412 26 2 241
9.18751797341897 1.6714176721801672 2.530419858390929 26 2 241
8.5100501898634 1.8545343753122505 2.4444260819162755 26 2 241
7.433832488410056 1.1453863335169652 2.641747353460854 26 2 241
8.388192919646587 1.6714176721801672 2.461957334615617 26 2 241
7.636299784746643 1.6714176721801672 2.3795586319297932 26 2 241
7.445763009665006 2.011229967220926 2.638821077185159 26 2 241
7.726317252740684 1.4956166531468926 2.1963879014983414 26 2 241
8.522575997380144 0.8855028634297729 2.4426729339244755 26 2 241
7.74775278649844 0.9863014205428392 2.1943907363099 26 2 241
8.21151137574553 1.7325518195848284 2.729582431050792 26 2 241
8.379179943703328 0.34454585678261473 2.6859582055407394 26 2 241
7.054862276954219 0.9910134791482955 2.751312004057619 26 2 241
7.723518252274786 0.5742703888019662 2.57687263659763 26 2 241
8.016846655995424 0.4669404986859616 2.7892523687514967 26 2 241
7.988728797592215 0.9910134791482955 2.79895311677841 26 2 241
7.864900058213227 -0.8732930265089687 2.846242910158812 26 2 241
7.923322951060107 0.0990075370672462 2.822900900320011 26 2 241
8.289745038902637 0.07059220301439997 2.7084948770615003 26 2 241
8.320401978934774 -0.21410759772550794 2.700593568459648 26 2 241
7.703728749419439 -0.47414752311655284 2.9253742561853633 26 2 241
7.641215731761204 1.2096405351550417 2.966476265656033 26 2 241
7.999831818971821 2.1688009910561004 2.7950832383614044 26 2 241
7.580618985162194 -2.1827318943333447 3.0196783923222124 26 2 241
7.682170376523526 2.9825180030189773 2.9385455930932305 26 2 241
7.682170376523526 2.9825180030189773 2.9385455930932305 26 2 241
7.543036135427546 0.4808186549859618 3.071195329958479 26 2 241
7.744352812162699 -1.863927785337109 2.9026646418576902 26 2 241
8.631109875953808 1.972867827607104 2.9841478941360693 26 2 241
8.693311453621913 -2.6832863079502998 2.9441148817952807 26 2 241
8.946843867337885 2.1688009910561004 2.8330517536141127 26 2 241
6.807677839675873 2.163097015069046 1.9506770593667615 26 2 241
6.34021761493653 2.163097015069046 1.4957051707093814 26 2 241
6.758600106649541 1.955633552283182 1.648457451026156 26 2 241
7.238313589745989 2.163097015069046 2.0793363109062732 26 2 241
8.3101736318029 2.3885701498920984 2.2979820473207733 26 2 241
9.002113659942165 2.1081535797659856 2.5604627950675694 26 2 241
7.774438222674932 2.163097015069046 2.1919237859801317 26 2 241
8.11624911029431 1.955633552283182 2.1621000117697324 26 2 241
8.39586777723878 2.163097015069046 2.2889357749589934 26 2 241
7.681814872543123 2.3885701498920984 2.2005791842060813 26 2 241
7.314986554668305 2.3981176495403855 2.42677118534126 26 2 241
7.348998357186606 2.415641910518374 2.66331307498054 26 2 241
8.249635319734985 2.415641910518374 2.7191327043846636 26 2 241
8.314691169701105 3.072180103934642 2.7020509699204682 26 2 241
8.345256468710613 -2.9309685079685788 2.694325261298797 26 2 241
8.035278413948689 2.6840997397293904 2.783065702081534 26 2 241
8.870402851237346 2.873276633845079 2.5834756147532447 26 2 241
5.409169903873166 -1.6817230209383598 2.056329862635816 26 2 241
6.098317599968441 -1.2708653433398707 2.1869766590533413 26 2 241
5.9478959811463685 -2.059737204622982 2.0091077234088464 26 2 241
16.497587931625336 2.935576418024645 1.8485990770109209 26 2 241
16.584727603486485 3.0663915410290294 1.6024182163638094 26 2 241
16.76754608734449 3.0663915410290294 1.7219208544839995 26 2 241
16.750900855043085 3.0065782937320256 1.6619236541624363 26 2 241
16.58325913767131 3.0663915410290294 1.5421100347808672 26 2 241
15.942351352019115 -3.0930392006135343 1.7937063540816276 26 2 241
6.307467238698655 0.9863014205428392 1.4953145332992226 26 2 241
6.450506484201129 1.6553903808993258 1.8093682570170524 26 2 241
6.59474687529028 1.3395677300833795 1.804052315131568 26 2 241
6.439170423172406 1.6553903808993258 1.3395742489336617 26 2 241
8.166607337683446 1.0437885286570385 2.4962707116910945 26 2 241
7.769958055183217 1.8545343753122505 2.3616996520210196 26 2 241
7.8622087127961855 1.8109829189368405 2.183957602438409 26 2 241
8.111564531512862 -0.6175713386538184 2.7587543405577013 26 2 241
8.016846655995424 0.4669404986859616 2.7892523687514967 26 2 241
7.328840833993239 0.7377179250982333 2.668645890488169 26 2 241
7.8700784846816525 1.8024183828686415 2.84408786906081 26 2 241
7.767174781252832 0.7027308030778927 2.890886366219827 26 2 241
7.715241925888419 -2.6832863079502998 2.918682380286328 26 2 241
7.546957527186083 2.707680407233531 3.0641759001546944 26 2 241
8.831015876428745 1.8024183828686415 2.8772878293628903 26 2 241
8.3101736318029 2.3885701498920984 2.2979820473207733 26 2 241
7.713531005504589 2.232874096625384 2.5789196372414334 26 2 241
7.77511140758037 2.2830966741139607 2.041245264952086 26 2 241
7.75028713214655 2.575006400994029 2.5714441241842034 26 2 241
7.941971762145756 3.0448865828219516 2.8158590966293326 26 2 241
7.75028713214655 2.575006400994029 2.5714441241842034 26 2 241
8.403860598942293 2.8023868815331574 2.680001146986391 26 2 241
8.035278413948689 2.6840997397293904 2.783065702081534 26 2 241
5.5962749061989605 -1.882046212502726 2.038768468036783 26 2 241
6.301520574689342 -1.4892322195278993 1.9829616651654243 26 2 241
5.898147259988214 -1.446156260861825 2.4450741321281817 26 2 241
6.098317599968441 -1.2708653433398707 2.1869766590533413 26 2 241
16.73825063599309 -3.0959723623273976 1.722187391704694 26 2 241
16.853330742608264 2.9477203749053533 1.6019140724788423 26 2 241
16.723073619423527 2.8747383556199613 1.8447559887726495 26 2 241
7.8509110626228225 1.3395677300833795 2.184970511025506 26 2 241
8.728359475116402 1.13064265910416 2.4150703144644647 26 2 241
7.955392062484831 -0.2964568378270167 2.810901032259414 26 2 241
8.335951826323326 2.011229967220926 2.6966578711670914 26 2 241
7.921656972167505 1.2373723196376745 2.5385426858837143 26 2 241
8.749584645431595 2.458252079535091 2.9142023093098395 26 2 241
8.78596966898307 3.087470232469046 2.599063347421105 26 2 241
8.249635319734985 2.415641910518374 2.7191327043846636 26 2 241
8.862830784216824 2.2830966741139607 2.2437737402685993 26 2 241
8.575970302395417 2.232874096625384 2.641162579771731 26 2 241
15.92637279326887 3.125792398221542 1.7939337796631878 26 2 241
16.064650492691552 2.935576418024645 1.7285874205169933 26 2 241
7.214723919921604 2.163097015069046 1.0681530143349915 26 2 241
7.876177642488598 -2.287784996230213 2.8415725176357083 26 2 241
7.694328540487201 0.9201616045700581 2.582889245171366 26 2 241
8.499613691435584 1.2974865173753276 2.4458935690612 26 2 241
7.670607561567779 0.1653624040226883 2.946002375818077 26 2 241
7.5767150151907225 -1.0133575652530735 3.0239586126476925 26 2 241
8.320401978934774 -0.21410759772550794 2.700593568459648 26 2 241
8.02691858412003 2.020142853824546 2.3298405674747618 26 2 241
7.973965873501803 -2.8516844694441437 2.8041816508464907 26 2 241
7.604261539798963 1.955633552283182 2.052704394212901 26 2 241
8.745291762473052 2.020142853824546 2.412894270032051 26 2 241
8.546842578906832 2.2643880905167943 2.4393014194601816 26 2 241
9.332589357906103 2.2643880905167943 2.508573227534116 26 2 241
7.195560263869534 1.955633552283182 1.9292439168517028 26 2 241
16.74653878541535 3.0065782937320256 1.4825653609306502 26 2 241
8.5100501898634 1.8545343753122505 2.4444260819162755 26 2 241
5.903161430732809 -1.7109217810454698 2.4440591444522717 26 2 241
7.6324242954474615 1.4813543858455203 2.3800908460572923 26 2 241
8.016846655995424 0.4669404986859616 2.7892523687514967 26 2 241
8.289745038902637 0.07059220301439997 2.7084948770615003 26 2 241
7.081385513744061 1.2974865173753276 2.263874098790981 26 2 241
8.655616834919822 1.6948991883783626 2.6245866079087197 26 2 241
8.522575997380144 0.8855028634297729 2.4426729339244755 26 2 241
