12.039442035033762 1.0782806774048674 2.128122608279003 124 119 134
11.26360060479309 0.9411152961044541 2.067544860812719 124 119 134
11.31113922196012 1.0276786645144462 2.1687774474531993 124 119 134
11.240659923621457 1.2307635427442818 2.2855980560302243 124 119 134
11.674140551690027 1.1684585777015974 2.1477456980822525 124 119 134
10.0412239951339 1.4787226358083825 2.020829843968434 124 119 134
10.483289141997474 1.5895316439062372 2.1083572920604827 124 119 134
10.261161869947623 1.4672954294660057 2.240280658341088 124 119 134
12.846864281295154 0.00024526020575409857 1.5215729587390519 124 119 134
13.001128175249665 -0.15438516312474262 1.5221574786415353 124 119 134
13.454246385306169 -0.3019666128392781 1.523796788131471 124 119 134
13.27936560493208 -0.46912312723585387 1.5231773689529184 124 119 134
12.858765293986293 -0.3996169035007828 1.5216185526076011 124 119 134
12.245078154890464 -1.4193170215871043 1.4371114168299484 124 119 134
12.609636458543052 -1.2616749132889002 1.5206461389131083 124 119 134
11.938914021627092 -1.2355476186213825 1.3485053309310617 124 119 134
12.027960447528745 -1.156846647713176 1.5182186742623311 124 119 134
11.662299328734084 -1.2355476186213825 1.5165685551527655 124 119 134
12.345881020884267 0.35401969344576756 1.9324198865506759 124 119 134
13.279830581898787 0.40006827053808514 1.8272061226712086 124 119 134
11.37769043118932 0.729629484870792 1.9648120049441327 124 119 134
12.345881020884267 0.35401969344576756 1.9324198865506759 124 119 134
12.2533248123796 0.18287426435006954 2.0242537487308034 124 119 134
11.895122954223705 0.38668388390191594 2.0389821618092174 124 119 134
11.47346041631026 0.4725456126976043 2.2681194901420016 124 119 134
12.448008663257776 0.2010005638610435 2.2042017561429734 124 119 134
11.847775264447703 0.36618424779098446 2.35503101736534 124 119 134
12.092288240375359 0.2964655798461371 2.1254012430501543 124 119 134
11.233046084664545 0.6540141768222709 2.0690199614015086 124 119 134
11.265469769717459 0.5685077038980112 2.171541498897284 124 119 134
12.092288240375359 0.2964655798461371 2.1254012430501543 124 119 134
12.342152333302371 0.08458522585374854 1.8471785796139197 124 119 134
12.34164236176428 -0.08405701935220007 1.8471903000416314 124 119 134
12.301318230257596 0.0002659899753633373 1.848120250604481 124 119 134
12.432528678605742 -0.2480808413422647 1.7624262093930425 124 119 134
12.057226881303068 -0.2699315342263542 1.941491189739356 124 119 134
12.646005282249181 -0.29587991271880987 2.1927521324977683 124 119 134
12.949224087672633 0.10168409811839686 2.27340115791335 124 119 134
13.579833918902747 0.0003201007980348021 2.3320619876585504 124 119 134
13.253574174812918 -0.29587991271880987 2.2541129954636503 124 119 134
12.252297453628213 -0.18231232889068708 2.0242946115999545 124 119 134
13.06382495380435 -0.20038580380289625 2.2659962812214296 124 119 134
13.145716650383878 -0.24966346791582109 2.4794708720080534 124 119 134
12.60400197227656 -0.09177590249994085 2.1004419830310885 124 119 134
13.616372323368962 -0.10105045230120746 2.3295081624515914 124 119 134
12.129988412673743 0.8931383592962857 2.4532370679492423 124 119 134
12.115813293772334 0.7091091819880578 2.4546606240387048 124 119 134
11.25483697308784 0.9668973196922075 2.2845053161437106 124 119 134
12.576662332405553 0.2852347965022297 2.5398939596873595 124 119 134
11.767498119705602 1.0027498894250775 2.491589115277243 124 119 134
11.718957384729645 0.8764502416755777 2.250696548784348 124 119 134
11.564796894241352 1.0701953285077561 2.3797504056572865 124 119 134
11.064326161877442 1.3150263672715832 2.4284269004934287 124 119 134
12.772664770574785 -0.41341232117457344 2.5178957188631763 124 119 134
12.575661388485916 -0.2843861853222859 2.54000988829167 124 119 134
12.456570210414077 0.14580356356999474 2.554081788646944 124 119 134
13.804283143050936 0.000401849837447997 2.538357349379918 124 119 134
13.840229011007981 -0.12660992583066955 2.5345975129773324 124 119 134
13.124477184024943 0.4755789605409936 2.618261951140887 124 119 134
13.262564842412491 0.000460674597222187 2.6004897142526233 124 119 134
13.299974894067377 -0.14490154335677966 2.595827055066725 124 119 134
12.815588684147317 0.1703604545801838 2.6616817642117696 124 119 134
11.756856446626605 -0.547722065456764 1.773588406825221 124 119 134
12.072523426070656 -0.6185294446758355 1.6012743265812575 124 119 134
12.70291824875177 -0.43223954490696836 1.9218094043099905 124 119 134
12.562869756524073 -0.3257832610734746 1.6798961436392392 124 119 134
12.84848721423733 -0.3996169035007828 1.5994331371285864 124 119 134
12.455942420881538 -0.5056483907482863 1.680836487102397 124 119 134
11.998310394183813 -0.547722065456764 1.8553165261053803 124 119 134
12.376565629192418 -0.38613460829379226 2.1112345706673814 124 119 134
11.106903916169943 -1.0779892467941656 1.9749697889183062 124 119 134
11.378980269158513 -0.9213702346008441 1.691299704413484 124 119 134
10.780689439496241 -0.8638406816720788 1.7922435562816714 124 119 134
10.709860709851766 -0.7973695087342484 1.9908813825399925 124 119 134
10.62296852357971 -0.9664769757911855 2.2136043407873074 124 119 134
10.512676213203894 -0.7993934750678128 2.2214848439940162 124 119 134
10.775220992072423 -1.0273305103419426 2.0922830253893125 124 119 134
10.055430445504136 -0.9664769757911855 2.1339197011545523 124 119 134
10.556665631220572 -0.7204413237458467 2.1042189247950813 124 119 134
11.357561921346665 -0.7084871519788309 2.3990742766744795 124 119 134
10.572335992518207 -0.8760080668744706 2.103343873825877 124 119 134
12.670508113229774 -1.0832268246059835 1.75878355273012 124 119 134
11.154361956335128 -1.405780844871605 1.6037839720002418 124 119 134
12.113592330144337 -0.971335620326145 1.6011709646915788 124 119 134
10.943340738644721 1.4526449331241973 2.441303441790429 124 119 134
11.541767009706277 1.0782806774048674 2.0545256497138658 124 119 134
12.434007636868333 -1.3390332692994846 1.4391546110909388 124 119 134
11.656545848641422 -1.3188043270091963 1.3430266521269039 124 119 134
11.373065494345273 -1.3188043270091963 1.5151880573529357 124 119 134
13.1917792512192 -0.22944494629965353 1.5228609629773835 124 119 134
12.875224528303875 -0.07753340813281537 1.5993736523322404 124 119 134
13.058562995672661 0.15486404896475012 1.6757392211997482 124 119 134
12.836576672563874 0.00024526020575409857 1.5994597153455208 124 119 134
12.662595004626331 0.24858068390967164 1.8400079106621139 124 119 134
12.93629028228576 0.3262606718967228 1.8341751068036303 124 119 134
12.705395397161146 0.43271856242706325 1.9217380123655425 124 119 134
12.705395397161146 0.43271856242706325 1.9217380123655425 124 119 134
12.455932842386828 0.27047122664662315 2.0163420736735738 124 119 134
11.48205718580728 0.5154411527336613 2.0572596326035253 124 119 134
12.73407071562052 0.35401969344576756 2.0059365749007108 124 119 134
11.886824925209822 0.32778964533662414 2.2393308162679255 124 119 134
11.600306979143658 0.42558703541213855 2.1518936255408923 124 119 134
12.448008663257776 0.2010005638610435 2.2042017561429734 124 119 134
12.722207815500347 -0.18231232889068708 2.095011081208619 124 119 134
13.725862495021396 -0.20038580380289625 2.321972859664479 124 119 134
12.604501328886359 0.0923520861589591 2.1004187895780935 124 119 134
12.948738024997438 -0.10105045230120746 2.2734329432192877 124 119 134
12.646005282249181 -0.29587991271880987 2.1927521324977683 124 119 134
12.0907266444197 -0.29587991271880987 2.1254812522022157 124 119 134
13.655722872220188 -0.1124014533633523 2.4329316859133185 124 119 134
11.159077536348889 0.7978189476116527 2.072629434433002 124 119 134
11.520133065156312 0.5300621239773486 2.3838232303131646 124 119 134
11.102004154857214 0.7209614404735148 2.1816661200644427 124 119 134
12.776267815949673 0.0005396748616563621 2.667628669906465 124 119 134
12.932347325123077 0.3308869393179475 2.6446149883819667 124 119 134
12.815097552827998 -0.16931193979418652 2.6617553997922463 124 119 134
12.899939099365902 -0.5735471171033707 1.599318887103436 124 119 134
12.161109094868085 -0.43223954490696836 1.7667580972525543 124 119 134
11.276084997755047 -0.7958569624971078 1.6924047361032626 124 119 134
12.265288579920984 -0.4702333245565791 2.0237784574381603 124 119 134
11.893006262720682 -0.38613460829379226 2.039072164707547 124 119 134
11.106903916169943 -1.0779892467941656 1.9749697889183062 124 119 134
11.22145449052637 -0.6315321866925819 2.287084440954319 124 119 134
16.628165793694446 1.0608767720781451 1.8365951981091455 124 119 134
10.640703220340795 1.3701269275598218 2.0995615043502824 124 119 134
12.027960447528745 -1.156846647713176 1.5182186742623311 124 119 134
12.875713366139536 0.07802096722212346 1.599372567073394 124 119 134
13.764900041282695 -0.2223714556273317 2.4237281235390893 124 119 134
11.933446027840358 0.9668973196922075 2.34789400533425 124 119 134
12.448008663257776 0.2010005638610435 2.2042017561429734 124 119 134
13.616834554379915 0.10168409811839686 2.3294759824670512 124 119 134
12.463346991671797 0.16771855961991175 1.8444214999226864 124 119 134
13.619290039471622 0.0003563469506248315 2.436058112143206 124 119 134
12.34164236176428 -0.08405701935220007 1.8471903000416314 124 119 134
11.904610865344614 0.6321321352385367 2.3502791090052346 124 119 134
12.129988412673743 0.8931383592962857 2.4532370679492423 124 119 134
12.910310238580163 0.0003201007980348021 2.275956174665145 124 119 134
12.776267815949673 0.0005396748616563621 2.667628669906465 124 119 134
13.123038415540496 -0.47472549961502164 2.618451996637365 124 119 134
10.729030252548052 -0.5679367465914242 2.0947582935846727 124 119 134
12.026414563046224 -0.3535083383173533 1.854633165706284 124 119 134
10.818142886546141 -0.9407407982884723 1.9864149176065642 124 119 134
10.34240482749698 -0.7973695087342484 1.9024837150435898 124 119 134
12.455942420881538 -0.5056483907482863 1.680836487102397 124 119 134
11.385207539886531 1.266109262307193 2.16435259323778 124 119 134
11.26360060479309 0.9411152961044541 2.067544860812719 124 119 134
10.390093830932972 1.345846169213018 2.230497605432934 124 119 134
11.533214747538258 1.1243134308942793 2.263787042940483 124 119 134
12.93629028228576 0.3262606718967228 1.8341751068036303 124 119 134
12.564519876761098 0.00029054749628628 2.10228263562136 124 119 134
11.596881308340032 0.2964655798461371 2.0520305027598376 124 119 134
12.605010130932461 -0.5056483907482863 1.7597721341695518 124 119 134
12.931373912779913 -0.3299211930528974 2.644753791876314 124 119 134
11.306686793070373 -1.0273305103419426 2.1690457108074717 124 119 134
11.276027589919515 1.274706346324923 2.551302510574464 124 119 134
11.113508318586426 -0.8760080668744706 2.180941476002789 124 119 134
11.902842068479206 1.0276786645144462 2.2382683656212596 124 119 134
11.237888711353296 -0.9957232667863659 1.875164638769875 124 119 134
12.456570210414077 0.14580356356999474 2.554081788646944 124 119 134
12.230047561670704 -0.16720135896761815 1.7656392619384431 124 119 134
10.787493561301636 -0.6535077481723826 1.987669160877761 124 119 134
12.77414300216347 0.4141847098666307 2.5177349031814256 124 119 134
11.25483697308784 0.9668973196922075 2.2845053161437106 124 119 134
11.26713064785125 -1.405780844871605 1.4254289698992018 124 119 134
11.83484038664358 0.7999177632346444 2.3561220201341273 124 119 134
11.273061709701143 1.1865970131126877 2.407278871477495 124 119 134
