11.339835341531614 0.16200251453029993 0.1492279731309474 214 117 90
13.09416049640807 -1.4724427063103809 0.5425448863165341 214 117 90
16.938659132911763 1.0471231499252132 1.1308640085036998 214 117 90
4.826900894921309 0.05824066434241207 1.316600692412587 214 117 90
9.646006005195693 -0.6955892265881074 0.8708399071396001 214 117 90
12.69591797352967 -1.6092885168028617 0.7587017221548307 214 117 90
12.800071080769001 -1.382421923983782 0.7672467099290702 214 117 90
13.50177583284557 -1.4013972233003176 0.819735744902501 214 117 90
12.82519230922796 -1.4851027205283196 0.6495001544407948 214 117 90
12.94492617814559 -1.5089933704576965 0.9797032086790075 214 117 90
12.82519230922796 -1.4851027205283196 0.6495001544407948 214 117 90
8.555271149707805 -1.1280830121024523 1.5458025644013533 214 117 90
8.307789741646774 -1.0721351320447114 1.1735912825560397 214 117 90
7.756555020241677 -1.0721351320447114 1.4136627043252066 214 117 90
7.999428212592763 -1.0017420609696293 1.0160079630832293 214 117 90
12.059161597613876 -1.5994486559188192 1.8039466430150979 214 117 90
17.29539845082167 1.9161830869484873 0.6061878985756263 214 117 90
16.310826757342262 2.0009174736495026 0.5126784401094716 214 117 90
16.79067636458977 2.0596478109928458 0.4368554922145067 214 117 90
16.79067636458977 2.0596478109928458 0.4368554922145067 214 117 90
16.269931990919325 1.9879186929335657 0.3622911308390409 214 117 90
16.443325203500276 2.134991509282909 0.3891632455261834 214 117 90
16.929100101939895 2.0712216774699095 0.2917302640793935 214 117 90
15.915250726376104 2.3659086598487002 0.29799780463708314 214 117 90
15.736039810717552 2.190849945077654 0.2583498188381546 214 117 90
14.596517669524847 -1.9358905027676487 0.6946900461761571 214 117 90
15.667080829511674 -1.978319767819354 0.5671934926554915 214 117 90
15.449062997790701 -2.143283859980122 0.5446389561213603 214 117 90
15.198726616094469 -2.0311204688173494 0.516805188505519 214 117 90
16.07572402896572 -2.0311204688173494 0.4860642453423644 214 117 90
11.064256913007961 2.4242714431233767 1.5514710831032412 214 117 90
10.43052480639887 2.518474917322371 1.0473587564511218 214 117 90
10.664386368380192 2.4965702184414327 1.3616870068219553 214 117 90
10.725693086749319 2.5776753749726087 1.1670455492222345 214 117 90
10.817964743526367 2.360588875029748 1.2691626952896813 214 117 90
11.023230316068956 -2.6097594139575193 0.7300575286951388 214 117 90
10.39919293493876 -3.0271874170132773 0.660231379958205 214 117 90
11.286828492988624 3.0061883835370016 0.9877900849290183 214 117 90
11.086171950752883 2.9699197329575826 0.7363786640538169 214 117 90
11.016321504446655 3.1045417656618093 0.7293565519747361 214 117 90
11.442742960604596 2.902883786781363 0.9967494734645047 214 117 90
11.488731287061785 2.7220676881083135 0.7742514891906108 214 117 90
11.244868943388632 2.841268719965949 0.7518168070207633 214 117 90
11.84613104884238 2.9699197329575826 0.679653851604075 214 117 90
11.255741735142385 2.875514240638842 0.8751260382759346 214 117 90
10.644252913552355 -2.7855713767958425 0.8261409943222886 214 117 90
10.749175063320335 -2.8253197434118613 0.9544313765264029 214 117 90
11.323090656839918 -2.5691002574184307 0.8800818126986846 214 117 90
11.0454015549269 -2.72105476563229 0.9733058350552882 214 117 90
11.421778603932726 -2.6256569679099635 0.995562030450791 214 117 90
10.713765431365761 -2.5691002574184307 0.952088007858164 214 117 90
12.83871210397138 -1.8722885672803613 1.0655879053266384 214 117 90
12.364465192806488 -2.326202622035097 0.8442294499108252 214 117 90
11.979541916342558 -2.198726126389148 1.1205072252525776 214 117 90
12.71695368548782 -2.0725096551699687 1.0602845955688989 214 117 90
12.04321304648716 -2.0323609220614243 1.4698373385684815 214 117 90
12.405410315360536 -2.0323609220614243 1.308742421828122 214 117 90
12.161659158135356 -1.7674141507738508 1.3877441600229352 214 117 90
12.698443487156702 -1.924932040716248 1.3955641010024407 214 117 90
12.900908295424784 -1.847933050584369 1.2380619588523762 214 117 90
12.009733415847755 -1.6842329728941507 1.3854017844863122 214 117 90
11.19110810804729 -2.478667771340294 0.9821388794699177 214 117 90
12.423396063460938 -2.539551578782834 0.9512535474459439 214 117 90
11.734437849921726 -2.399402401864972 1.0127429526977845 214 117 90
12.505910885480889 -2.3940284919271018 1.140756119814987 214 117 90
11.862780041653894 -2.330182563739109 1.1157436427676006 214 117 90
12.633840780492802 -2.5171427383400307 1.1453956755124854 214 117 90
11.403666943615036 -2.269761943760009 1.5520463333401324 214 117 90
11.458531232752932 -2.330182563739109 1.1942144660156837 214 117 90
11.369245601716583 -2.3940284919271018 1.5519895594832516 214 117 90
12.121551151196753 -2.450153103735938 1.5531568978397667 214 117 90
12.822128948553805 -1.6753882340812383 1.632150202752875 214 117 90
12.323463840123646 -1.847933050584369 1.7162512009591726 214 117 90
13.064639037049108 -1.924932040716248 1.8648191053703542 214 117 90
12.76717619613891 -2.1042845756712683 1.7907977553139691 214 117 90
4.881234845578993 0.07408469894154741 0.8521050107589518 214 117 90
4.465726183425629 0.334138823967047 1.0521181247311617 214 117 90
7.917804440016108 -1.1937998053421939 1.152837178047946 214 117 90
12.915622362462932 -1.358731074531893 0.6586647043097706 214 117 90
13.41529751438037 -1.50265904704732 0.8137006230431212 214 117 90
13.403076667626266 -1.6053350242492512 0.8128386823077102 214 117 90
13.613466469029813 -1.4169270470887774 0.9230899491562279 214 117 90
7.7112495978357884 -0.8874481510651051 1.2796109949293166 214 117 90
8.055493942944164 -0.8874481510651051 1.1604157893655407 214 117 90
13.869210070021484 -1.4298658886648985 1.023791998839947 214 117 90
16.443325203500276 2.134991509282909 0.3891632455261834 214 117 90
16.62090719610293 1.9273500025802404 0.4144411464816234 214 117 90
16.941881601865784 -1.8462098875887574 0.2942321222611569 214 117 90
16.15051314094203 2.233807344130902 0.3422515606700369 214 117 90
15.915250726376104 2.3659086598487002 0.29799780463708314 214 117 90
16.15051314094203 2.233807344130902 0.3422515606700369 214 117 90
15.683519123200382 -2.0981875518627304 0.4363759668046394 214 117 90
15.683519123200382 -2.0981875518627304 0.4363759668046394 214 117 90
10.531481589241888 2.434238834475952 1.1591537537314252 214 117 90
11.706049557739846 3.1089830168035304 0.7930549933026602 214 117 90
11.800130624772557 -3.0426727393622075 0.6748152521612465 214 117 90
10.75290708996489 2.8045085738177438 1.1681265337021733 214 117 90
11.995192319506298 -2.6256569679099635 0.9255547634395977 214 117 90
12.086611451192908 2.9434826064400452 0.5641353104508839 214 117 90
11.35660058497239 -2.8253197434118613 0.8825182281867697 214 117 90
10.520436825971796 2.614278648302724 0.9389427839745798 214 117 90
11.771808071854869 2.9901794951110547 0.7985414053947495 214 117 90
11.499373506437308 2.7675680384386423 0.8926871265908789 214 117 90
9.755600051307278 -2.875336128255449 0.7385390981250397 214 117 90
10.943319928401145 -2.6714233714738884 0.8510456257171983 214 117 90
12.615873799691157 -1.7852076919962316 1.055791895354366 214 117 90
11.812814333012026 -2.3940284919271018 1.2952621471880248 214 117 90
12.350625214473746 -2.148102162755622 1.222622683865699 214 117 90
12.609751089623956 -1.847933050584369 1.313086437144094 214 117 90
12.633840780492802 -2.5171427383400307 1.1453956755124854 214 117 90
12.384235479536194 -2.462539135998825 1.0451741501161407 214 117 90
11.672836256640123 -2.148102162755622 1.46662247239189 214 117 90
11.850057744013291 -2.4065541561838173 0.8049534056899134 214 117 90
12.253595306394672 -1.847933050584369 1.4715764667897977 214 117 90
11.87068479258586 -2.539551578782834 1.019891849850372 214 117 90
13.182745630056216 -1.3283575050180076 0.5535898082291387 214 117 90
11.73482915731745 -1.5994486559188192 1.552575526095002 214 117 90
5.036896132542415 0.334138823967047 0.8788294529051219 214 117 90
17.02346689290382 1.8816351695073632 0.4652796913431496 214 117 90
16.78055239079925 1.954150236729712 0.5604040417869772 214 117 90
15.667080829511674 -1.978319767819354 0.5671934926554915 214 117 90
15.89832212205233 -1.9049936456418661 0.46450278372875564 214 117 90
11.098147589473811 2.712461175044739 1.1813399691092863 214 117 90
12.533511931182943 -1.6842329728941507 1.2279138760758856 214 117 90
12.232336056715974 2.7973051278203642 0.5826924310520123 214 117 90
13.962840549661177 -1.924932040716248 1.109594706239147 214 117 90
12.447370679388312 -2.198726126389148 1.0481137678403019 214 117 90
13.118714002785142 -2.1705844702941386 1.707376733640685 214 117 90
11.780787401274218 3.1045417656618093 0.672760513028615 214 117 90
11.185468029326886 3.098700887546639 0.6028376239912441 214 117 90
11.637375469334529 -2.72105476563229 0.9022032897695604 214 117 90
12.708818844867777 -1.4948807878129744 0.7597719299801536 214 117 90
13.451456751458327 -1.4948807878129744 0.708546442613636 214 117 90
16.07572402896572 -2.0311204688173494 0.4860642453423644 214 117 90
15.215599200965595 -1.9011664971886353 0.7421841465323948 214 117 90
10.750566842108004 2.6275479372055734 1.643992123834678 214 117 90
11.948167569023628 -2.5171427383400307 1.2984635212382547 214 117 90
12.325117369303609 -2.257545473113004 0.9455548311343082 214 117 90
13.42970773797088 -1.9977904779358102 1.8565980557398873 214 117 90
11.938310077267225 -1.6842329728941507 1.7209788977772622 214 117 90
12.415454138006853 -1.5089933704576965 1.0466320731116274 214 117 90
3.8842612857476824 0.334138823967047 1.51572426767288 214 117 90
7.865269480559696 -0.7922330541088164 1.0054024031481343 214 117 90
11.400339362000393 -2.5005232713479106 0.766290751345539 214 117 90
10.726391547646761 -2.735024467690646 0.6985792363964702 214 117 90
12.15541315544841 -2.269761943760009 1.216787446949373 214 117 90
11.850057744013291 -2.4065541561838173 0.8049534056899134 214 117 90
11.186182881480207 2.7496725520582483 1.5516817481412915 214 117 90
13.515582962686215 -1.6021177663545678 0.917599075429911 214 117 90
16.79067636458977 2.0596478109928458 0.4368554922145067 214 117 90
11.421778603932726 -2.6256569679099635 0.995562030450791 214 117 90
11.048081956215187 -3.0544751520608355 0.8593281551408732 214 117 90
13.182745630056216 -1.3283575050180076 0.5535898082291387 214 117 90
12.562756651779296 -1.924932040716248 1.474025951718437 214 117 90
12.964538076316831 -1.7523175025155828 1.631475427367658 214 117 90
