11.449991247299966 0.9210569310738372 1.7692208863318606 49 44 25
11.193487887573504 0.794742588093017 1.6833383379437932 52 49 28
10.708516001326256 0.9405231765971379 1.9796323520076835 51 41 23
10.942592156252676 0.8631130300746729 1.87302813984161 56 47 29
12.220158518347858 1.471467280030664 2.430310294871385 60 41 31
12.325357703418666 1.3488801887428792 2.420462056213821 54 37 27
12.194025204119965 1.4825190708667921 2.3146673263085256 57 38 27
12.299447913723002 1.3730274469057897 2.3068082075286527 54 37 27
11.455825843370157 1.597108475408169 2.3757169575502766 65 46 36
10.979865618031637 1.8421988634561546 2.2928727870027927 64 50 37
11.517542161848395 1.7219285039157068 2.3701611005192365 65 48 38
11.549593602490477 2.058325982980568 2.2502147895674667 68 55 44
10.441090468325427 0.7184854297928794 2.0984402967612823 57 40 28
10.846115724366507 0.5940689431071707 1.7804286772005953 60 58 38
9.42187366480437 0.10630452795704999 1.9237740307217297 66 56 45
10.929151603868505 0.7275493431241854 1.8734115905207018 56 51 32
9.712471625304845 0.4680047247997423 2.0245146620232624 61 42 30
9.825150903113785 -0.1202139882047282 2.0189296553061595 57 47 35
9.539906521665221 0.32253935459001865 1.8096546538154044 65 55 41
9.399027542408243 -0.007948878962546129 2.1643636391938124 77 57 47
9.307477280930874 -0.2303836247881478 1.815740133331435 69 62 50
10.596048784390677 0.5117915975056861 1.8832414400226134 56 50 33
9.824661653123767 0.32253935459001865 1.9087114478299076 65 55 41
9.90657526829241 0.6287094104555732 2.130182155774956 54 41 26
9.44796787277188 0.525499993702305 2.1608726286814215 64 44 31
9.573287835270984 0.21698749671918943 1.9179534016883217 63 54 40
10.171442523165267 -0.5224374660372706 1.4976914484020045 64 53 42
9.687545601426496 -0.4328304560158693 1.5973366159275153 73 59 50
9.378712611123504 -0.7287288362986868 1.8138420069451124 59 38 31
9.696190255621621 -0.8839532620624557 1.9133711214941047 49 26 20
9.31647460301042 -0.7183146569898011 2.1703545820348658 84 64 59
9.94368443245349 -0.4328304560158693 1.7997784097838276 71 57 48
9.951294307248139 -0.6612190512481249 1.697458005331601 59 42 34
10.023086225411788 -0.9746884218789803 2.122920715857642 97 73 66
9.927628143122922 -1.0345897139140205 1.905069225500826 50 29 22
9.69475665023429 2.8327552794423663 1.4940900217016013 66 60 47
10.16613412130812 2.7374910092940468 1.3985014198552344 61 60 44
9.69475665023429 2.8327552794423663 1.4940900217016013 66 60 47
10.209172590747688 2.515354915017012 1.6942420314394502 63 61 45
9.252004135173607 2.641611922883156 2.0489325130304583 62 52 39
9.006273107100634 2.7978868709135996 1.8241087001121046 65 55 43
9.299664511239584 -3.0267841537940594 1.4908243660038478 76 72 66
8.792818381068416 -2.7845759098964518 1.4862038022177833 94 78 74
10.255146274774111 3.0499627975027734 1.59586735013848 65 61 51
10.399024223671821 3.0499627975027734 1.4023973595337302 57 55 44
9.414155832686154 2.9341641010594754 1.5981075424706837 67 62 49
9.466130328713826 -2.921319721490036 1.4922336326768326 87 76 71
9.70309764296669 -2.921319721490036 1.8055612707344852 92 76 72
9.805655983297655 -3.0129439093920514 2.1366389804704964 90 74 68
8.851100236408726 -2.7845759098964518 1.7133034732768555 93 77 73
8.593445599667401 2.878959292423674 2.089076454274972 80 66 55
9.74818064482775 -3.1340483547497007 2.140388117298117 87 73 66
9.481686406529812 -3.134867567091607 1.811150125386906 79 72 65
10.217564094242551 -2.7845759098964518 2.111237138742508 93 73 69
9.294526182410925 -3.134867567091607 1.7064616051391757 76 68 59
8.731369804232946 2.9097450620255385 1.832267917224121 73 62 51
8.731369804232946 2.9097450620255385 1.832267917224121 73 62 51
9.35478916566851 -3.0267841537940594 1.7055823088610647 82 75 68
9.81288305695301 3.040077583983713 1.9091332628325322 77 66 56
9.805655983297655 -3.0129439093920514 2.1366389804704964 90 74 68
9.983199087727126 -2.921319721490036 1.903136612012146 92 76 71
17.67005853686033 -2.1483564956265937 0.8438834861743917 4 3 0
8.806566499369548 -2.2063173002512104 1.486336176569703 97 75 68
9.36014177952546 -2.2063173002512104 1.9262048322609249 92 62 55
10.145381926337178 -1.949605971182241 2.115511708258933 94 58 50
9.370385566177463 -2.051945904547228 1.8140623526119606 96 65 59
10.50459928448377 -2.051945904547228 2.094920663586934 95 60 52
9.060799853024458 -2.2063173002512104 1.8225511470049547 96 72 64
9.758214116783368 -2.108269936241214 2.139729799157146 97 60 52
10.150089531493593 -1.911127444657161 1.8974672156717718 93 60 53
10.252835995823691 -1.8098913331498376 1.998969961199968 91 56 48
10.513728056859081 -1.911127444657161 1.9876732355040105 91 56 48
10.706764502570698 -1.8098913331498376 2.084039898371337 90 55 47
9.100618743418446 -2.3681722390198274 1.2646364914844495 90 70 64
8.839884057118637 -2.529407407828864 1.4866552620083995 89 68 64
9.22579155578535 -2.529407407828864 1.2689223322685026 87 68 63
9.448143390205665 -2.4424090984014364 1.4920837592982885 93 70 65
8.278517193372464 -2.6284746590631802 1.6018551998967974 94 74 71
8.768004455864467 -2.3681722390198274 1.7146633868120231 97 73 67
9.783371143146429 -2.529407407828864 2.0209837285061933 100 76 71
9.391495661943322 -2.529407407828864 1.9249659514683235 98 73 67
9.268560969781616 -2.3681722390198274 1.929874795581107 99 74 67
10.099916793830102 -2.6820980213105625 2.0058913238292164 96 75 71
20.291436778663698 -1.9973754975663558 1.7821635361341563 11 14 12
10.389820114917002 0.7979290317596845 2.21709011490274 56 42 28
9.690310648259237 0.40832069153303374 2.2727422592745645 73 46 38
10.085149921233567 0.5971921366513158 2.3739947533798667 71 46 36
9.284702604182023 -0.010693909261538606 2.4680500713595173 91 64 56
9.99558573223017 -0.15511529722990458 2.3833251790409715 93 72 65
9.99558573223017 -0.15511529722990458 2.3833251790409715 93 72 65
10.203117447935814 -0.25872121928911657 2.2309671523405408 85 65 57
9.281694199710516 0.13726371115333022 2.3105841983156115 83 55 47
9.331765056489457 0.16059003635346256 2.461755279564327 99 69 62
9.72858164026426 -0.42358153707872903 2.2694203570405316 94 74 69
9.331765056489457 0.16059003635346256 2.461755279564327 99 69 62
9.776363975623283 -0.48636815598886185 2.4073056701936593 103 83 78
9.72858164026426 -0.42358153707872903 2.2694203570405316 94 74 69
9.484617846330496 0.3229478194369914 2.442058272511376 87 57 50
10.529974068007565 0.891897208667538 2.3311573615116306 75 54 45
10.499634771651586 0.9664407354580016 2.209223464642657 56 42 27
10.326773009335264 0.6879870950076357 2.4973916962053204 83 58 48
9.549028006098311 0.6593064581397283 2.6153565391905595 81 51 44
9.902528590348181 0.8044127248181447 2.556816223414784 81 56 48
10.105242585600196 0.8110480172033004 2.7289570960862584 81 49 44
10.425837904816087 0.6593064581397283 2.6635518753893153 74 44 37
10.105242585600196 0.8110480172033004 2.7289570960862584 81 49 44
12.408476850459385 1.4572658187684981 2.5438689810053017 65 42 33
12.408476850459385 1.4572658187684981 2.5438689810053017 65 42 33
12.852645236950071 1.2778471672019245 2.6380053223585804 83 58 52
12.512092792656974 1.3181589582061777 2.531811447835256 77 53 47
9.134093420719068 0.24256841235673343 2.699795284623429 85 55 49
9.290199095812568 0.47258123222274884 2.665504931980364 78 47 40
9.741148163512799 0.38439306960603903 2.582335699224598 93 63 56
9.08600715369574 -0.01633468909368981 2.711120517556095 96 66 61
9.714095658938161 0.3242336320765855 2.8336308408958595 82 49 44
9.714095658938161 0.3242336320765855 2.8336308408958595 82 49 44
9.668894344731873 -0.02218547516392482 2.8486848732688403 78 43 37
9.714095658938161 0.3242336320765855 2.8336308408958595 82 49 44
9.147643924836432 -0.27311341988477034 2.696673700249522 84 56 50
10.863859562452587 -0.5686670130641275 2.5907784219529484 97 75 70
9.726838192762061 -0.3635601145616726 2.8295385926960344 81 51 46
10.477390793299591 -0.21812117588681684 2.654140636962539 80 55 49
11.0622451673066 -0.83164004367658 2.7577034710754154 96 67 62
10.625421460540084 -0.406409011582427 2.628478536157277 107 82 79
10.213589619249133 -0.49813991468529556 2.705358642987564 113 87 82
9.625882961512795 0.8247926682478953 2.8638846955305968 83 52 47
9.291026920757666 -0.07812775494520352 3.0560829987316964 95 60 53
9.91518326531528 -0.7183146569898011 2.2537158164155033 91 70 67
10.06195065766902 -0.8128800382073056 2.3763869420565573 105 81 78
10.06195065766902 -0.8128800382073056 2.3763869420565573 105 81 78
9.597863702865304 -0.7032216015240164 2.4281511486251115 106 81 78
10.79653368760581 -0.819874118292559 2.601016339037179 107 80 76
10.487276641909233 -0.9687587606244158 2.65236542191761 115 85 82
11.872837265036187 -1.2375060036794276 2.339855804506249 140 107 104
11.411866548514686 -1.1393042462204315 2.5169637484763694 104 75 72
11.973076526093669 -1.1944091510019839 2.454601896070739 100 68 66
11.411866548514686 -1.1393042462204315 2.5169637484763694 104 75 72
11.176536279926479 -1.1554988953322451 2.733132039974655 115 81 77
11.993621432623705 -1.378448457802882 2.7893139461632916 102 65 58
11.46545499713934 -1.415769245614721 2.678348009230179 100 64 59
11.176536279926479 -1.1554988953322451 2.733132039974655 115 81 77
11.060415675409342 -1.378448457802882 2.7581131785745727 97 60 55
11.678274547995514 -1.3521813083721803 2.3561088719699033 103 70 68
11.093527911073384 -1.441029328610761 2.5579443435045963 128 94 89
12.048348018449929 -1.2835059401605715 2.589305212877851 116 84 84
11.093527911073384 -1.441029328610761 2.5579443435045963 128 94 89
11.875156190945917 -1.4923362250746648 2.1257513527827827 107 74 66
11.36044927756463 -1.272015412024829 2.1540918283485664 105 77 72
12.728949405962421 1.6059642807724983 2.655935435373773 85 60 54
12.351835817175747 1.8108895751250988 2.7173943239796348 92 67 63
12.38499614229711 1.6008987604281693 2.546659513924246 76 54 45
12.784521292401953 1.7716389114995956 2.647763247842302 85 63 56
12.442104369480356 1.7433082341146726 2.5399105628380565 76 55 46
11.252257738836143 2.0040035307420934 2.3947176416748936 65 50 39
11.3108270014886 2.214792109243696 2.2673848832577903 71 60 49
12.278659858155718 2.0662371116201457 2.5595805413115573 66 51 40
13.125534201263376 2.0662371116201457 2.601473442424594 72 54 46
13.405128860434818 2.1874054077293894 2.567635872420474 73 56 48
13.013955517764913 2.4942469632922757 2.6159480085963125 88 70 60
13.868507608957037 2.276647631099177 2.654733589645546 83 63 56
13.88802355897389 2.4942469632922757 2.6520856169740297 91 71 62
10.259394382458526 -2.853402134651845 3.120351772192136 92 56 48
10.32826242846053 -3.090408283529028 3.0241198664266493 89 54 45
10.259394382458526 -2.853402134651845 3.120351772192136 92 56 48
10.508343258286526 2.1285132507352986 2.9224729262099736 89 57 50
9.517177960468494 -3.1135628537168283 2.9072650857772517 89 54 46
9.33589013618409 -3.090408283529028 3.0115655340560803 89 54 46
10.534086249356918 2.7399984772952743 2.911756895791743 87 55 46
9.997412988718006 -2.1957490238448987 2.7543333118640976 95 57 44
10.929886853176363 -2.1957490238448987 2.788892435858644 104 66 54
10.314021353158441 -1.7650475253733058 3.0364655778128196 93 58 49
10.382527060871844 -2.420830889656752 2.9859846881090313 87 52 42
10.46436332759882 -1.67177218461529 2.9422224704403286 93 58 48
10.46436332759882 -1.67177218461529 2.9422224704403286 93 58 48
10.531891166752668 -2.1010833011952488 2.9126494061987716 95 58 47
10.692921174527134 -2.3905966006635486 2.855097553495515 88 51 39
10.692921174527134 -2.3905966006635486 2.855097553495515 88 51 39
8.92211921293881 -2.8220052050097983 2.7530489659988797 91 54 42
9.854865367225564 -2.8220052050097983 2.7915004731270643 93 56 44
14.930942823739512 2.6996127518662942 2.6635411878955644 95 74 66
14.050583384668709 2.6996127518662942 2.6307929248766726 94 75 65
11.733108488924259 -3.1330018797422543 2.479928483680533 98 77 67
11.733108488924259 -3.1330018797422543 2.479928483680533 98 77 67
10.67750460716954 -2.7399402781183704 2.318096279729463 94 73 67
11.780903963255675 -2.9953364059762233 2.474736267100588 96 72 64
11.824433733169545 -2.89550185385531 2.3438253316050637 96 75 68
11.824433733169545 -2.89550185385531 2.3438253316050637 96 75 68
11.691593977363869 -3.0129439093920514 2.35497048337594 95 75 68
11.440038898000097 -1.6120448780207566 2.682815844508071 111 75 68
10.347566373093445 -2.0688741075625474 2.678363441827141 104 65 56
11.03406663969221 -1.6221836813411563 2.7640761146734154 108 70 63
10.347566373093445 -2.0688741075625474 2.678363441827141 104 65 56
11.098128594744988 -1.8600690528406365 2.7497765849147746 102 63 54
9.71038291161825 -1.9202340362047339 2.414864969212639 106 63 55
9.690265193098922 -1.8739472087468694 2.2727462259226274 101 61 53
9.690265193098922 -1.8739472087468694 2.2727462259226274 101 61 53
10.441508650150668 -1.8382264429973192 2.2133609849278275 93 57 49
10.11897391448263 -2.3739639736188103 2.5252529132148243 91 53 41
9.41198728260875 -2.1357922321029448 2.4512793126708994 100 60 49
9.745552903024645 -2.239408350624473 2.5816140133752006 92 53 41
9.41198728260875 -2.1357922321029448 2.4512793126708994 100 60 49
10.267481093269398 -2.370504324456983 2.355764095173325 94 59 51
9.745552903024645 -2.239408350624473 2.5816140133752006 92 53 41
9.675383172084372 -2.177699521858415 2.27404762892269 93 56 49
10.795602409279034 -2.2806551193746345 2.3080071590309594 96 58 51
9.675383172084372 -2.177699521858415 2.27404762892269 93 56 49
9.965895404273132 -1.9973002241438131 2.2495831936783612 98 60 52
9.985457825586947 -2.0576514772825862 2.384396635416794 96 58 46
10.350227035331324 -2.177699521858415 2.347807911336192 99 59 51
10.331355327605385 -2.108269936241214 2.2213659936221757 99 60 52
10.8047522524605 -2.529407407828864 2.1884260917831897 102 77 70
11.006042341128508 -2.6284746590631802 2.2907799461972256 94 72 67
10.16488266241782 -2.4576109187624042 2.2338907908539274 97 68 61
11.689616254221672 -2.6284746590631802 2.355139270240919 95 70 63
11.193487887573504 0.794742588093017 1.6833383379437932 52 49 28
11.789081841460089 1.2326901771622985 2.3467549397936214 52 37 24
12.299447913723002 1.3730274469057897 2.3068082075286527 54 37 27
10.979865618031637 1.8421988634561546 2.2928727870027927 64 50 37
10.681028897778447 0.6512394613422765 1.9807475642404242 52 45 27
10.159145716730565 0.5649096423352615 2.003183177859164 57 45 29
9.767790276739714 -0.007044712996194635 2.0217547751560616 64 51 40
8.98248231649854 -0.37446132686366984 1.9418563973825895 68 56 48
9.42187366480437 0.10630452795704999 1.9237740307217297 66 56 45
10.60086537188919 0.7961037436560146 1.9840361539221039 53 43 27
9.399027542408243 -0.007948878962546129 2.1643636391938124 77 57 47
9.596561466784612 0.24380621383437295 2.1505390575740426 72 50 39
10.049306968868404 -0.7287288362986868 2.008233414556001 73 53 48
9.561305097481853 -0.5761701001437016 1.8091097117353625 63 46 38
8.985590898620611 -0.5390412537802283 2.064360187878424 75 55 51
9.370637755499661 -0.4805864048196399 1.925789119962872 70 50 46
10.544176434730243 -0.8707518654239528 1.5951799812715868 64 46 36
19.845285001104934 -1.3245540115685637 1.4321372416246752 127 117 96
10.04312915025368 2.7374910092940468 1.496755743697667 66 60 46
8.809017829669441 2.7978868709135996 1.713988937910596 69 59 48
9.380250098003645 2.694291636257468 1.8138013669158168 63 54 42
8.87262328152482 2.7545857668095834 2.071222485683516 72 60 49
8.809017829669441 2.7978868709135996 1.713988937910596 69 59 48
10.379853811298302 2.515354915017012 1.7899956314904188 67 63 48
9.439924252124522 2.9341641010594754 1.4920150838921857 60 60 47
10.399024223671821 3.0499627975027734 1.4023973595337302 57 55 44
9.76813888455842 -3.134867567091607 1.9107454904376087 87 73 66
9.963671644598083 -2.89550185385531 2.1265983633522523 90 73 68
9.294568432657732 3.0278118897267268 2.0465606793334334 86 72 62
9.520291156928748 -2.921319721490036 1.703225252833007 84 77 71
9.793016006604278 3.0278118897267268 2.137458950339446 86 71 60
17.46891412047837 -2.209213859086909 0.9084439186106098 4 6 1
9.601751769477005 -2.1444339147006435 1.5975738158813522 97 70 64
9.874762920441242 -1.8382264429973192 2.1322004457412937 93 57 49
9.660139016343239 -2.051945904547228 1.9147023905981797 94 60 54
9.257892988836076 -2.108269936241214 2.0486028912192524 92 58 51
10.084781319440205 -1.703419232938694 2.0065890229154477 88 54 46
10.545945875888997 -1.703419232938694 2.092655827997093 93 59 52
9.879599475738274 -1.8098913331498376 1.906758114898739 91 56 48
10.243436388117695 -2.0056109147385333 1.7929634841306863 95 66 61
8.70916654023559 -2.3681722390198274 1.4853893162739569 97 75 68
9.432921017892143 -2.6820980213105625 1.8124173736349964 96 76 73
9.581788944892931 -2.4576109187624042 2.151548917031791 99 74 67
9.391495661943322 -2.529407407828864 1.9249659514683235 98 73 67
8.768004455864467 -2.3681722390198274 1.7146633868120231 97 73 67
10.145666205974802 -2.3681722390198274 2.115494732333392 98 71 64
10.085149921233567 0.5971921366513158 2.3739947533798667 71 46 36
10.150645176980134 -0.2947776406623494 2.367331489607131 100 76 73
10.048867711229235 -0.13546611072745163 2.242940471739506 88 68 59
12.512092792656974 1.3181589582061777 2.531811447835256 77 53 47
10.529974068007565 0.891897208667538 2.3311573615116306 75 54 45
11.900440084277587 1.1883212609760145 2.462076905140695 56 39 29
10.105242585600196 0.8110480172033004 2.7289570960862584 81 49 44
10.105242585600196 0.8110480172033004 2.7289570960862584 81 49 44
10.000210860351823 0.8005046157252442 2.3828369993473983 78 55 46
12.408476850459385 1.4572658187684981 2.5438689810053017 65 42 33
9.134093420719068 0.24256841235673343 2.699795284623429 85 55 49
9.592384006184048 0.1933486362528776 2.6076267721409616 104 74 67
9.592384006184048 0.1933486362528776 2.6076267721409616 104 74 67
9.726838192762061 -0.3635601145616726 2.8295385926960344 81 51 46
8.50101911602833 0.4824613220112339 2.901452834978744 93 62 55
9.488372511895946 -0.5351816864976139 2.920341253097495 86 52 48
9.60528800605526 -0.21812117588681684 2.6053589651628863 76 51 45
11.57751383480493 -1.2307099008703164 2.65933131998279 133 100 98
11.411866548514686 -1.1393042462204315 2.5169637484763694 104 75 72
11.209305501119877 -1.2835059401605715 2.5424844985398134 119 86 84
11.780169489274043 -1.322408589931674 2.474815478770012 117 84 82
11.176536279926479 -1.1554988953322451 2.733132039974655 115 81 77
11.94070859162111 -1.441029328610761 2.604111433305608 115 81 75
11.872837265036187 -1.2375060036794276 2.339855804506249 140 107 104
11.746991088814896 -1.3756621059958236 2.2367153114903484 109 79 75
12.056021574962312 1.9269275291279755 2.5882732419411223 69 53 43
12.917500391802076 1.9269275291279755 2.6289668184911856 84 63 56
11.426846940098581 2.290875014699258 2.3783576268197084 71 60 49
10.886550223154979 2.11608452234681 2.300447569132858 71 60 49
10.264798983093403 -2.379629480306227 2.69477719975576 87 49 36
10.772399682842707 -1.9468303500367838 2.831033905133859 102 64 53
10.692921174527134 -2.3905966006635486 2.855097553495515 88 51 39
8.858913470133068 -3.1222951698312493 2.7708668808565085 90 54 42
11.667944265672158 -1.6389208247104403 2.8754284293100807 104 69 60
10.302005130858497 1.789928681795179 3.048169104049903 86 52 46
9.797678706079063 -3.1222951698312493 2.807852642263266 90 56 47
8.858913470133068 -3.1222951698312493 2.7708668808565085 90 54 42
12.537144609882926 -3.1330018797422543 2.528956945282997 103 78 69
11.912747859752594 -2.8630055573398736 2.4607990316311286 98 73 67
10.267481093269398 -2.370504324456983 2.355764095173325 94 59 51
9.933873014484883 -1.9822646729883726 2.552067034584816 100 59 50
11.916306196399203 -1.6052462687149036 2.607557269842309 103 68 62
9.745552903024645 -2.239408350624473 2.5816140133752006 92 53 41
9.71038291161825 -1.9202340362047339 2.414864969212639 106 63 55
9.985457825586947 -2.0576514772825862 2.384396635416794 96 58 46
8.987623497565846 -1.9202340362047339 2.340870512181451 108 68 58
9.284137430603103 -2.0576514772825862 2.310344036639519 97 59 48
10.150412367139637 -2.2806551193746345 2.2350047663856536 94 63 55
9.745552903024645 -2.239408350624473 2.5816140133752006 92 53 41
9.463507261545491 -2.0688741075625474 2.6311287835153347 99 59 49
9.965895404273132 -1.9973002241438131 2.2495831936783612 98 60 52
10.809209022725595 -2.4576109187624042 2.3068647776456905 99 70 62
11.540367867726877 1.4825190708667921 2.250860658984355 60 41 29
12.220158518347858 1.471467280030664 2.430310294871385 60 41 31
11.223871020568666 1.9549558928800639 2.2738830956574665 65 55 41
9.44552038610695 0.11982598451518992 2.161046160067208 70 48 37
9.928407631835015 -0.10803674587519606 1.6977515591238441 68 71 56
9.622340957382576 -0.25872121928911657 2.148785767417752 77 62 54
9.351789585471781 0.3606161660462378 2.0434106178721168 68 47 36
10.518458138520396 -0.7363463360540473 1.5952396127128956 64 45 37
9.041624788417227 2.9097450620255385 1.9393126084012806 80 67 57
10.982564198378343 2.568869435384934 1.50309923291218 64 60 44
8.933056303763264 -2.7845759098964518 1.374427714665906 87 76 71
9.669667350199383 2.8327552794423663 1.5973856978337966 65 60 48
9.347207909715852 -2.7845759098964518 1.9267184744499986 91 73 70
10.475713806232417 2.6493852650674383 1.4998184354219548 63 60 44
9.252004135173607 2.641611922883156 2.0489325130304583 62 52 39
10.513728056859081 -1.911127444657161 1.9876732355040105 91 56 48
9.36014177952546 -2.2063173002512104 1.9262048322609249 92 62 55
10.509145978321154 -2.0056109147385333 1.8859137778717971 95 63 58
10.529974068007565 0.891897208667538 2.3311573615116306 75 54 45
11.900440084277587 1.1883212609760145 2.462076905140695 56 39 29
9.85252380859446 0.7060605516392755 2.2589004281839395 66 45 34
10.539993014234623 -0.48636815598886185 2.470921481999399 105 84 79
12.408476850459385 1.4572658187684981 2.5438689810053017 65 42 33
9.435358172234539 0.27799448508453145 2.295818934179514 80 51 43
10.038837436734374 0.525499993702305 2.243735794806568 68 43 33
9.861023835911487 0.6069430486058192 2.789794051830845 84 53 48
12.751796786462025 1.4383537188891922 2.6525517655120825 83 58 52
9.428963333575746 -0.03456399556996346 2.9503601259128605 92 58 52
9.902528590348181 0.8044127248181447 2.556816223414784 81 56 48
9.738280767791828 0.46950505465588266 2.4116484788571335 75 48 40
11.57751383480493 -1.2307099008703164 2.65933131998279 133 100 98
10.79653368760581 -0.819874118292559 2.601016339037179 107 80 76
12.834538022134652 -1.410275175076036 2.0800421644895586 85 55 45
11.37968064227573 -0.9687587606244158 2.693673926231642 107 77 73
12.489422714873314 1.9914225572783582 2.693624659847174 93 71 66
11.252257738836143 2.0040035307420934 2.3947176416748936 65 50 39
10.46436332759882 -1.67177218461529 2.9422224704403286 93 58 48
9.517177960468494 -3.1135628537168283 2.9072650857772517 89 54 46
10.259394382458526 -2.853402134651845 3.120351772192136 92 56 48
10.370590215246317 2.4816841468059585 2.993502047972554 88 54 47
9.737782246918481 -2.3905966006635486 2.8260733260419757 96 59 47
10.259394382458526 -2.853402134651845 3.120351772192136 92 56 48
10.508343258286526 2.1285132507352986 2.9224729262099736 89 57 50
11.643431897552558 -3.1340483547497007 2.3591053252302374 94 74 66
11.912747859752594 -2.8630055573398736 2.4607990316311286 98 73 67
9.690265193098922 -1.8739472087468694 2.2727462259226274 101 61 53
11.969326913632969 -1.6221836813411563 2.7948774554526024 104 67 59
11.03406663969221 -1.6221836813411563 2.7640761146734154 108 70 63
10.560184489892526 -2.2644422747254804 2.468515039378019 97 58 49
11.03406663969221 -1.6221836813411563 2.7640761146734154 108 70 63
10.347566373093445 -2.0688741075625474 2.678363441827141 104 65 56
9.599129829900956 -0.2303836247881478 1.9169795374755605 60 53 41
9.847341194819467 0.3606161660462378 2.133952719722536 67 45 34
10.537761896423342 -0.8839532620624557 2.093102475727392 83 61 55
10.704303171185005 -0.6036811106261236 1.501336630592689 58 42 32
10.005580869659612 -0.9478775247609192 1.6967671176865942 61 43 32
9.719861991750848 2.541008588640411 2.024143917922631 64 54 41
9.76813888455842 -3.134867567091607 1.9107454904376087 87 73 66
9.825497475782534 -3.0267841537940594 1.9086815561567991 89 75 68
10.16613412130812 2.7374910092940468 1.3985014198552344 61 60 44
9.299664511239584 -3.0267841537940594 1.4908243660038478 76 72 66
10.212340010771285 -3.1355262964463915 1.5959724605412826 71 67 59
10.356812645939872 -3.1355262964463915 1.401704407521154 63 61 52
17.38087893063025 -2.265035000904801 0.9757417806186969 10 11 7
8.89785763292492 -2.529407407828864 1.7125495415813277 95 71 67
9.988298361829308 0.5500955095454969 2.543969504694473 86 56 49
9.714095658938161 0.3242336320765855 2.8336308408958595 82 49 44
9.44388668961045 -0.6116724975792077 2.29501910081704 97 75 72
12.405493000062908 -1.3521813083721803 2.4131441603512727 129 96 94
11.983384449438034 -1.3946354856159824 2.1201619697818623 98 67 60
10.886602441221234 -1.131234676630286 2.183095539202498 118 91 85
9.54660642850025 -0.012925725832817092 2.6157933890624596 89 62 54
9.668894344731873 -0.02218547516392482 2.8486848732688403 78 43 37
12.048348018449929 -1.2835059401605715 2.589305212877851 116 84 84
11.36044927756463 -1.272015412024829 2.1540918283485664 105 77 72
11.176536279926479 -1.1554988953322451 2.733132039974655 115 81 77
12.125898933630724 -2.7399402781183704 2.439378510119889 93 68 62
14.050583384668709 2.6996127518662942 2.6307929248766726 94 75 65
11.508035962082014 -2.1010833011952488 2.932371553902806 84 47 37
10.492418047689352 -3.1135628537168283 2.9293961080708324 89 54 44
9.690265193098922 -1.8739472087468694 2.2727462259226274 101 61 53
13.125534201263376 2.0662371116201457 2.601473442424594 72 54 46
11.006042341128508 -2.6284746590631802 2.2907799461972256 94 72 67
11.008881529241288 1.8790256128726375 2.418915939785695 69 52 42
12.728949405962421 1.6059642807724983 2.655935435373773 85 60 54
9.586814269839305 -2.370504324456983 2.281906963864406 93 60 53
10.331355327605385 -2.108269936241214 2.2213659936221757 99 60 52
9.33589013618409 -3.090408283529028 3.0115655340560803 89 54 46
10.455158462954888 0.8752623535506645 2.097656344594225 51 40 23
9.323269721765607 -2.6820980213105625 1.3827469767400506 91 74 71
9.74086525231227 -2.7845759098964518 2.0230937059138525 90 73 69
10.255146274774111 3.0499627975027734 1.59586735013848 65 61 51
9.341539143895693 3.040077583983713 1.7057746577731399 70 65 54
10.22939756023384 -2.2063173002512104 2.110543163844311 91 63 55
10.545945875888997 -1.703419232938694 2.092655827997093 93 59 52
20.291436778663698 -1.9973754975663558 1.7821635361341563 11 14 12
11.570391924583381 1.6008987604281693 2.498201969591524 66 45 36
10.46436332759882 -1.67177218461529 2.9422224704403286 93 58 48
12.534578693330037 -1.3946354856159824 2.1882548321269573 114 81 75
10.294056020904875 -0.34205685348553594 2.501635177722599 106 84 82
11.577181691479396 2.11608452234681 2.3648780095487973 71 59 48
9.988298361829308 0.5500955095454969 2.543969504694473 86 56 49
10.461418464482739 -0.6793981899697967 2.6570285819044486 105 80 75
10.025431882789016 -0.5686670130641275 2.538549326659926 108 85 81
10.059500461347318 -0.27311341988477034 2.739470669717342 87 58 53
11.455825843370157 1.597108475408169 2.3757169575502766 65 46 36
10.26191233176367 -0.3030912234780072 1.5958508164279888 75 70 59
9.290199095812568 0.47258123222274884 2.665504931980364 78 47 40
9.435358172234539 0.27799448508453145 2.295818934179514 80 51 43
10.314021353158441 -1.7650475253733058 3.0364655778128196 93 58 49
9.234376567777955 -0.009119305712745872 2.315270985461987 86 61 54
10.11897391448263 -2.3739639736188103 2.5252529132148243 91 53 41
13.350624511227071 2.382880571076323 2.573981236085561 78 62 52
10.141189574351777 -0.18135868803498265 2.5221672460107896 85 61 55
9.475309291380894 0.4824613220112339 2.9265563339936156 95 60 54
10.332574204182476 0.5117915975056861 1.7910151348385042 63 62 43
9.345028936642796 -0.18135868803498265 2.460001410948408 83 59 53
