8.051638114261968 1.2452971459193296 1.4701474246794763 92 91 164
7.75733280329615 1.200054963645999 1.9947310285669346 92 91 164
7.804980966901116 1.0753103466062872 1.8553358121506343 92 91 164
11.240725748918521 0.7885134585436133 2.528113494311161 92 91 164
10.870759827592934 0.6667855114103334 2.5782543770070028 92 91 164
9.886656448729445 0.7909321344507505 2.764216592977511 92 91 164
9.672925079933785 0.5555513635724129 2.8245956110628243 92 91 164
10.268954897965147 -0.08958325580891217 2.679285247692095 92 91 164
9.559549333981206 0.22645711669421734 2.8630050403646923 92 91 164
7.306997785042023 -1.1285394538574471 2.1816377167153136 92 91 164
7.645812924850828 1.6284725819033827 1.464785582480473 92 91 164
7.791367186998013 1.3678726107576007 1.4667732634777624 92 91 164
8.181735868803981 1.9251590785553485 2.108582506563663 92 91 164
7.343654734550172 1.4857642746687405 2.020303732941808 92 91 164
8.181735868803981 1.9251590785553485 2.108582506563663 92 91 164
7.462058529619545 1.7856683395188993 2.012662531692207 92 91 164
7.8165783829649085 1.7580643502949465 1.723757881551125 92 91 164
6.720517007244023 1.4857642746687405 1.7489526539348128 92 91 164
8.053029036708288 1.3678726107576007 1.846338742285799 92 91 164
8.407923695889858 1.4857642746687405 2.2362185185375485 92 91 164
8.08921319651389 2.0516684431149184 1.9762909776780433 92 91 164
7.818657194496781 2.241824801833249 1.9911941422909563 92 91 164
7.00051805615095 1.6490341017019825 2.2126321998390432 92 91 164
8.008886545675036 1.9820845843084536 2.2759520155088904 92 91 164
8.367723108533644 2.122206114482534 2.2399946376908986 92 91 164
8.549625993290476 1.4490256539551731 2.570085975254432 92 91 164
8.486348828025738 1.298373703822409 2.3884192864216827 92 91 164
9.990145053400793 1.160491105494251 2.7388884471717883 92 91 164
8.960890943414565 1.415592794287684 2.7240319504521318 92 91 164
8.609127154745577 1.3572372591931998 2.828643190087003 92 91 164
8.609127154745577 1.3572372591931998 2.828643190087003 92 91 164
9.565512447035452 1.3572372591931998 2.8608337660650625 92 91 164
9.344438572819593 1.2312393486063067 2.960111501427404 92 91 164
9.221152498333725 1.8226156254889627 2.4651987839175713 92 91 164
8.872749494036679 2.0590782649956685 2.515727589448341 92 91 164
8.542401942354473 1.6659847948437956 2.5714023199293847 92 91 164
9.058179681313227 1.951822186624685 2.700447375168913 92 91 164
9.269689609612024 2.1673812609686185 2.6543567516078124 92 91 164
9.437774360535714 2.3060518635346883 2.912400547309756 92 91 164
8.710345745477863 2.0776695493740234 2.7945232689931965 92 91 164
9.656711708111454 2.0776695493740234 2.8297540788315017 92 91 164
8.930097946011434 2.3259790557498006 2.7318737373239714 92 91 164
9.437774360535714 2.3060518635346883 2.912400547309756 92 91 164
7.735808558760929 -1.8860726351068113 2.4985941724384664 92 91 164
9.321538968818068 2.7521620399414894 2.9740272291887346 92 91 164
9.22033418199148 2.2094844664791387 3.061774933693438 92 91 164
9.341386930665802 0.36134864864718397 2.9619004929338892 92 91 164
7.978228848536258 -1.40751874269281 2.6936157506544913 92 91 164
8.323563811156623 -2.1915750050236382 2.6138187601253593 92 91 164
8.661677943250467 -2.6173727441338337 2.810406468564884 92 91 164
8.55600145662582 -2.9750976111979455 2.8484388057788013 92 91 164
8.326381843645523 -2.864051929240405 2.9610037659289428 92 91 164
9.210541042436596 -2.3898029613822405 3.0764063466411136 92 91 164
10.318089535521334 -0.2565861309793686 2.9844648730257624 92 91 164
9.315419681454195 -1.1916139034917381 2.9779563654076813 92 91 164
8.434935593885607 -2.3662050670563644 2.9005007020808464 92 91 164
8.556552442463039 -1.3417763763019668 2.8482255523589504 92 91 164
8.434935593885607 -2.3662050670563644 2.9005007020808464 92 91 164
8.08734741425165 -1.9699608444025758 2.666311496087326 92 91 164
7.97048692861418 -1.6986277244371015 2.695641242981386 92 91 164
9.941058169006554 2.708380180838488 2.75064236023946 92 91 164
9.450883865086524 2.7975391758009507 2.6193230065560686 92 91 164
10.167410107010419 2.6970836702323115 2.5075026549735484 92 91 164
9.669524391848045 2.6133062078145244 2.5812860967808344 92 91 164
9.957600146023493 2.3424142724279906 2.2417510589555247 92 91 164
10.042401647737902 2.522219088237309 2.235065549436956 92 91 164
10.117077766959593 2.440554218956701 2.3613975189512537 92 91 164
9.197945961111179 2.2136804843743376 2.468348068635949 92 91 164
8.741951370851359 2.3345738056430783 2.5367345931675684 92 91 164
8.83842429150874 2.6133062078145244 2.5211207720706263 92 91 164
9.253279183346354 2.4959449571673074 2.657714562587845 92 91 164
9.7043684188883 2.558092289632293 2.4053611022331562 92 91 164
8.326988469499701 -2.5302876317602694 2.613113661430253 92 91 164
9.830775217976479 2.9715794489843783 2.7788271984792123 92 91 164
8.994508942248318 -2.7524794778834076 2.7156856710044517 92 91 164
9.42219281440251 -2.8340356362439674 2.624637979264083 92 91 164
8.994508942248318 -2.7524794778834076 2.7156856710044517 92 91 164
7.510243244875729 -1.651633326574437 2.3339259550122335 92 91 164
7.883958792154369 -1.994245735786244 2.289517759488655 92 91 164
8.457332100973746 -2.005246822886982 1.8328479383478655 92 91 164
8.102465053708512 -1.88869720400865 1.8446140995237883 92 91 164
10.085487829765283 -2.1448210717584626 1.6891609063556563 92 91 164
9.600359816245396 -2.1104625045793663 2.0225499960503437 92 91 164
8.855159849612692 -1.88869720400865 2.0638079576434714 92 91 164
6.788032368851265 -1.639064506967694 1.8994519027848655 92 91 164
7.56388749834182 -1.9342919358729527 2.0063034433665132 92 91 164
8.424099164109972 -2.176419302942598 1.959286704457924 92 91 164
8.305103873310285 1.2452971459193296 1.837767528466202 92 91 164
9.886656448729445 0.7909321344507505 2.764216592977511 92 91 164
9.957282002777877 -0.3768844551853363 2.746708005155114 92 91 164
9.874637064177458 0.16422664563174186 2.767299422372895 92 91 164
7.767559565359592 1.7580643502949465 1.466453271744838 92 91 164
7.8165783829649085 1.7580643502949465 1.723757881551125 92 91 164
7.335243089351196 1.6372003215329327 2.0208570507451897 92 91 164
7.335243089351196 1.6372003215329327 2.0208570507451897 92 91 164
7.717437645945779 1.9251590785553485 1.997065248897122 92 91 164
7.009331404271177 1.4706473642144442 2.211692766840854 92 91 164
7.763101015824882 1.8226156254889627 2.3032195256176387 92 91 164
7.641283338700901 1.6490341017019825 2.3176501963353804 92 91 164
8.710345745477863 2.0776695493740234 2.7945232689931965 92 91 164
9.675872159903562 1.0282256032981298 2.823668492275016 92 91 164
8.95399870557074 1.6922657987089837 2.725770370456314 92 91 164
9.675872159903562 1.0282256032981298 2.823668492275016 92 91 164
9.337829435194884 1.8397148861439985 2.9640100381188192 92 91 164
9.39971217392075 1.6659847948437956 2.6288603994946156 92 91 164
8.083546596396635 2.0590782649956685 2.443195993466026 92 91 164
8.651540745112099 1.8744373184011673 2.5520211512187636 92 91 164
9.210541042436596 -2.3898029613822405 3.0764063466411136 92 91 164
8.556552442463039 -1.3417763763019668 2.8482255523589504 92 91 164
9.527203948000018 2.9040844738374783 2.8751321759168036 92 91 164
7.621658705204018 -1.4440935862898274 2.5188599436611696 92 91 164
8.549334244268001 -1.7507006190659988 2.8510335280319987 92 91 164
9.217241451476449 -0.6302107271644134 3.066085988793045 92 91 164
7.97048692861418 -1.6986277244371015 2.695641242981386 92 91 164
10.167410107010419 2.6970836702323115 2.5075026549735484 92 91 164
9.581423264742167 2.3345738056430783 2.596118221259199 92 91 164
10.042401647737902 2.522219088237309 2.235065549436956 92 91 164
9.61658651617687 2.33936219647824 2.4154908866309137 92 91 164
9.197945961111179 2.2136804843743376 2.468348068635949 92 91 164
8.669385262980846 -2.360357895393248 2.54895115599356 92 91 164
8.342408926502314 -2.2330331924632674 2.4070080824655373 92 91 164
8.994508942248318 -2.7524794778834076 2.7156856710044517 92 91 164
9.334811711982267 3.0093777091035663 2.641349380693283 92 91 164
9.334811711982267 3.0093777091035663 2.641349380693283 92 91 164
7.510243244875729 -1.651633326574437 2.3339259550122335 92 91 164
7.634152206813461 -1.8306500324098711 2.3185152823419846 92 91 164
8.457332100973746 -2.005246822886982 1.8328479383478655 92 91 164
8.305103873310285 1.2452971459193296 1.837767528466202 92 91 164
10.194433376524417 0.951049799124364 2.694177475680469 92 91 164
10.516009002632202 -0.15860731898811964 2.8923190791265108 92 91 164
9.644894566683325 -0.5030819425154472 2.8335776011868408 92 91 164
7.486837686279023 1.3381117130208215 2.0110974178779473 92 91 164
8.533306987708047 2.0516684431149184 2.084184981714863 92 91 164
8.853806224018125 2.3424142724279906 2.063890099577627 92 91 164
9.450883865086524 2.7975391758009507 2.6193230065560686 92 91 164
8.960890943414565 1.415592794287684 2.7240319504521318 92 91 164
9.227027479530294 0.810142764555078 3.0531688815183533 92 91 164
8.892788496606476 -3.0229779782896062 2.7416441701543723 92 91 164
9.210541042436596 -2.3898029613822405 3.0764063466411136 92 91 164
9.321538968818068 2.7521620399414894 2.9740272291887346 92 91 164
8.930097946011434 2.3259790557498006 2.7318737373239714 92 91 164
9.181407304434504 2.4614297349663383 2.4706098481822005 92 91 164
9.308789940761232 -1.872204306188812 2.9823276757283166 92 91 164
9.559056161252714 1.7384062948382617 2.8631854733271482 92 91 164
6.924876154861244 -1.7915269559937417 1.892720550123524 92 91 164
7.942853417202473 -2.0631469054427565 1.9842148039208531 92 91 164
8.808684208994148 -1.7401808302634805 1.8221645649195648 92 91 164
9.865493450204896 -0.1145391998780565 2.7696660318807536 92 91 164
7.94130187735489 1.7856683395188993 2.126739392219954 92 91 164
7.6538832602949105 1.4969232963016792 1.4648977812855966 92 91 164
8.661677943250467 -2.6173727441338337 2.810406468564884 92 91 164
9.640960076671755 2.5636687217351364 2.834862970285595 92 91 164
7.966317257779008 -2.3620754326300277 2.6967373414397633 92 91 164
8.994508942248318 -2.7524794778834076 2.7156856710044517 92 91 164
7.613554211943691 -1.669856023283342 2.520343955664984 92 91 164
7.019169676692704 -1.2897484619644408 2.210647645451712 92 91 164
7.912289763731702 1.6284725819033827 1.851371459718123 92 91 164
8.601953073934489 1.7384062948382617 2.8312309527735624 92 91 164
9.406277830946769 1.4490256539551731 2.62762185344088 92 91 164
9.457378385240032 0.7944433998659436 2.903678118204117 92 91 164
9.758201496821165 -2.0563982355802146 1.7972538686976345 92 91 164
8.360301594471766 1.4706473642144442 2.404641632672884 92 91 164
9.118833646795679 1.6490341017019825 2.4793014632679298 92 91 164
9.983997100246764 2.4614297349663383 2.532925432926613 92 91 164
9.253279183346354 2.4959449571673074 2.657714562587845 92 91 164
