12.568768698908986 2.2693271877878542 1.3456247465598958 185 50 138
13.366378469813261 2.3252596068235722 1.0365313712571826 185 50 138
12.885942905746655 2.3252596068235722 1.103370430526335 185 50 138
11.944225774418989 2.5183662788825725 1.1566668675975431 185 50 138
12.157962372168154 2.4479856409761807 1.2523741455042474 185 50 138
11.687213157412964 2.4479856409761807 1.41562300940287 185 50 138
10.936260110735748 2.5183662788825725 1.588511314996234 185 50 138
11.058386500809378 2.5966532990918196 1.2194118792093234 185 50 138
11.644626625944797 2.3252596068235722 1.4150508873607475 185 50 138
10.957026808134463 2.724092436895749 1.4051896074292471 185 50 138
10.845023787497263 2.258011705675501 1.5886603623062066 185 50 138
10.443527674930559 2.811748120012691 1.5893472134032431 185 50 138
10.596809328910778 2.811748120012691 1.3995053705222151 185 50 138
10.85142373555902 2.904984437369792 1.212410927881137 185 50 138
10.32125474118354 2.904984437369792 1.3948851625988143 185 50 138
10.163818267568232 2.904984437369792 1.5898577968742234 185 50 138
10.862501234009269 0.05359641803948121 2.4254033385326834 185 50 138
16.798288634154748 0.9642893554893306 2.577269293599882 185 50 138
16.8925547345096 1.5543857014150182 2.68926739278562 185 50 138
16.484387243917027 1.5563432435650306 2.6081086024711877 185 50 138
16.77682779482824 1.214340046367113 2.5792934131072047 185 50 138
16.8925547345096 1.5543857014150182 2.68926739278562 185 50 138
16.77682779482824 1.214340046367113 2.5792934131072047 185 50 138
11.027521986451774 2.724092436895749 1.7710642144741136 185 50 138
10.9995107337347 2.5183662788825725 1.6795358293978622 185 50 138
11.017398305601722 2.388737546883929 1.7712507407452955 185 50 138
11.269147808665583 2.724092436895749 1.8581384842470805 185 50 138
12.621104379849987 2.3849690343244214 1.8266242203036778 185 50 138
12.405838326981113 2.3849690343244214 1.7485611833694752 185 50 138
11.062976240376344 2.258011705675501 1.7704137252311236 185 50 138
11.694347388992645 2.6427474594917917 1.8474103314499384 185 50 138
10.231845041243963 2.904984437369792 1.6877303049029837 185 50 138
10.29342654045406 3.098591706213113 2.0996769486314415 185 50 138
10.820764203269881 3.0025963995726213 1.968782603451343 185 50 138
10.304880466208099 -3.0721049249896324 2.099027492400984 185 50 138
11.74154335198388 3.0025963995726213 2.126457639700892 185 50 138
10.84333954991322 -3.0721049249896324 2.178764535944735 185 50 138
17.186703877930487 2.2234912889492557 2.6552314561822388 185 50 138
17.895844152493606 1.8200207412901812 2.7019116609205382 185 50 138
18.71591896380212 2.3936413894370374 2.6164213495496167 185 50 138
11.162926938710353 -0.2584136232959693 2.5385160523625014 185 50 138
8.621617202284611 -1.3326234035144877 2.5578076528804137 185 50 138
8.129966279365291 -1.270295234182642 2.6569484437914213 185 50 138
8.362921387888273 -1.5492340916601157 2.4047851577007187 185 50 138
9.19609779536098 -1.3738181566566356 2.469079390972562 185 50 138
8.32698391097195 -1.0405233262860558 2.6137691276456243 185 50 138
9.065008859295853 -1.5524914355756578 2.3230094806987496 185 50 138
9.287904783982203 -1.4246728506240802 2.1642076416466813 185 50 138
16.479443553154365 -1.2539423462603823 1.6432970759078755 185 50 138
16.9175004165345 -1.1972658488026702 1.7008344749530118 185 50 138
16.743564798612958 -1.2539423462603823 1.762715789263273 185 50 138
17.078080552970167 -1.233824946999486 2.005592612518663 185 50 138
15.806490178774478 -1.4358072316385253 1.6463895307021381 185 50 138
16.465255929240275 -1.3128042267011868 1.7660012437197348 185 50 138
17.1954999957258 -1.5630390908753178 2.0024235187058466 185 50 138
17.32541020590693 -1.4358072316385253 1.9989726221053095 185 50 138
17.398528951252768 -1.4266960801354425 2.12753441785389 185 50 138
10.349606686344615 -2.2858967125331238 2.3393168764679984 185 50 138
9.106705017136731 -1.7028207573683962 2.3187336271997685 185 50 138
9.842683936961299 -2.383657813648104 2.390392575977847 185 50 138
9.917493025558331 -2.1750745613411953 2.382349574212491 185 50 138
8.59346638340966 -1.7588575106148023 2.5627853760072252 185 50 138
8.646574622151858 -1.8946733846817507 2.8165176379622747 185 50 138
9.859267123840207 -2.1009387921720215 2.250051366920034 185 50 138
8.100106974829329 -1.809092372380826 2.6639967952686607 185 50 138
9.842683936961299 -2.383657813648104 2.390392575977847 185 50 138
8.646574622151858 -1.8946733846817507 2.8165176379622747 185 50 138
10.199507182980842 -2.503513846905042 2.5036878596734935 185 50 138
10.002681066917736 -2.0417535906950257 2.116749978987458 185 50 138
9.261779341810163 -1.6856534070643467 2.1661115027986666 185 50 138
10.291838777631119 -2.7779370479655436 2.344757856079445 185 50 138
10.418814997234358 -2.7226376633449036 2.4758130135466447 185 50 138
10.985428351902469 -2.8207923399978667 2.284770556988424 185 50 138
11.014054503071364 -2.7779370479655436 2.4097339958253956 185 50 138
11.265680962724614 -2.711114400837842 2.2634118568324966 185 50 138
10.972411238327608 -2.5503694846113096 2.2857989429016814 185 50 138
11.481774939770611 -2.939052733016587 2.365461123866852 185 50 138
10.94595560350148 -2.9613434035028465 2.1722553257155965 185 50 138
16.708781814044645 -1.7530793018768938 1.8868709875411527 185 50 138
16.906009293478846 -1.6905212390338247 1.9458928761346905 185 50 138
13.478369755617454 2.2034541396681377 1.0414403477836915 185 50 138
12.528669870972678 2.3849690343244214 1.344891576385232 185 50 138
10.41394572277521 2.5966532990918196 1.493296201638868 185 50 138
12.236930623304543 2.3849690343244214 1.5048599443239206 185 50 138
10.163818267568232 2.904984437369792 1.5898577968742234 185 50 138
11.051654848065013 0.06233127477110644 2.5532953388924287 185 50 138
10.541949393252802 -0.1200885936203594 2.630291716721938 185 50 138
17.352880855330316 1.5563432435650306 2.6374183841255263 185 50 138
16.99129954439302 1.1138387504848315 2.559570152372612 185 50 138
16.619856843768314 1.3229400705546017 2.594464597650168 185 50 138
11.710983474719898 2.3252596068235722 1.759231566485448 185 50 138
11.582658061430704 2.388737546883929 1.9412832485307199 185 50 138
10.84333954991322 -3.0721049249896324 2.178764535944735 185 50 138
9.731796578317267 2.8794827906620903 1.9051665169155643 185 50 138
11.312950919662345 2.6427474594917917 1.6765116220124836 185 50 138
17.331738748853983 2.054591299183864 2.6396337667765826 185 50 138
17.525241880409126 2.4776736139446722 2.619870902720092 185 50 138
16.656869535688966 -1.5034319897177224 1.5824269608217696 185 50 138
13.938954040145141 -0.7053529371436775 1.8763945359994998 185 50 138
8.053200752101473 -1.5373218752717042 2.675376009575222 185 50 138
8.807643983080771 -1.1402134912229867 2.5265682231060462 185 50 138
8.549267444217715 -1.5445668360853713 2.5707454736176376 185 50 138
9.309081819333757 -1.2606266477514412 2.2987485209909373 185 50 138
9.13327405529262 -1.4029789044324947 2.3160381317597114 185 50 138
17.23722322501803 -1.2539423462603823 1.8768611837648441 185 50 138
16.077154359324226 -1.373550898910375 1.7076731987107379 185 50 138
17.76393227792819 -1.4358072316385253 2.0502069204573035 185 50 138
9.917493025558331 -2.1750745613411953 2.382349574212491 185 50 138
8.752448522146413 -1.957198716482571 2.535552531740263 185 50 138
9.409476458677842 -1.8126039899313091 2.155518269564565 185 50 138
9.658982238126516 -1.9321088817282535 2.1385142995767907 185 50 138
10.790908423097168 -2.939052733016587 2.30049745579917 185 50 138
10.358194094672468 -2.8207923399978667 2.2117426211225886 185 50 138
10.713899263373198 -2.589911173498784 2.4414888419128546 185 50 138
11.014054503071364 -2.7779370479655436 2.4097339958253956 185 50 138
10.590461600131734 -2.6573969922978717 2.3175564334928533 185 50 138
10.972411238327608 -2.5503694846113096 2.2857989429016814 185 50 138
16.90979243986691 -1.8142288970403215 1.8829858619299489 185 50 138
10.837153115373626 2.724092436895749 1.496328421541324 185 50 138
10.812257709720734 2.811748120012691 1.3082446302989388 185 50 138
11.082729035121265 2.5183662788825725 1.4070850103699095 185 50 138
11.548413472445326 2.4479856409761807 1.5875721959123097 185 50 138
11.062323732375225 -0.10061484631943554 2.5518511735081866 185 50 138
10.855818312635252 0.047007210597469505 2.2951624207579275 185 50 138
10.855818312635252 0.047007210597469505 2.2951624207579275 185 50 138
10.84333954991322 -3.0721049249896324 2.178764535944735 185 50 138
10.669684748894435 2.811748120012691 1.7778767704744327 185 50 138
10.686803690372356 -3.0633193576580102 2.309244313779407 185 50 138
10.611909301936814 2.5966532990918196 1.7790207332212904 185 50 138
11.711173719878376 2.5183662788825725 1.9370242911689053 185 50 138
9.536445675452718 2.9871770490042615 1.9122920798690788 185 50 138
16.50735331473357 1.6752633236444532 2.605757628912027 185 50 138
17.85772022089418 2.3936413894370374 2.588342338785226 185 50 138
9.220784452873328 -1.5548938580678298 2.1691257235422134 185 50 138
9.460839530733436 -1.2992337859422622 2.1519288510346772 185 50 138
8.602648548348906 -1.5245511475555233 2.832025281280306 185 50 138
17.23158522751099 -1.499133041128253 2.0014591919186095 185 50 138
16.077154359324226 -1.373550898910375 1.7076731987107379 185 50 138
8.408099951239288 -1.725973455639818 2.398881810489134 185 50 138
10.431266422467866 -2.1404211676716414 2.091971706627218 185 50 138
10.221770787891165 -2.3788820704204845 2.2217366285499383 185 50 138
10.94595560350148 -2.9613434035028465 2.1722553257155965 185 50 138
10.221770787891165 -2.3788820704204845 2.2217366285499383 185 50 138
11.661524698785888 2.2034541396681377 1.501601415079638 185 50 138
11.441173927067453 2.5966532990918196 1.1372564894543438 185 50 138
11.269147808665583 2.724092436895749 1.8581384842470805 185 50 138
12.268552213823705 2.3849690343244214 1.6682501402808037 185 50 138
17.186703877930487 2.2234912889492557 2.6552314561822388 185 50 138
17.895844152493606 1.8200207412901812 2.7019116609205382 185 50 138
10.647470520692522 -0.30601363486179606 2.6128969464462024 185 50 138
8.804597852626294 -2.193285657765316 2.766896712724511 185 50 138
10.374782780036744 -2.4757419590244036 2.336973427310366 185 50 138
16.906009293478846 -1.6905212390338247 1.9458928761346905 185 50 138
16.82425212546347 -1.6270084791544328 1.9478069621467688 185 50 138
12.829126838362745 2.2693271877878542 1.2695715484025318 185 50 138
16.914966630426253 1.6892905231679283 2.6865482980915933 185 50 138
10.832454990241088 3.098591706213113 2.1794639523743964 185 50 138
16.8925547345096 1.5543857014150182 2.68926739278562 185 50 138
18.239030676234407 2.320924557172611 2.5553651134909146 185 50 138
9.065008859295853 -1.5524914355756578 2.3230094806987496 185 50 138
10.873355716519445 -0.08656201519400751 2.424257122004196 185 50 138
8.268580510203051 -2.0497722285461086 2.6260134977881506 185 50 138
9.510386825424364 -1.981110323516317 2.2800387414616345 185 50 138
