10.919194717236897 1.00954628470381 0.9919187819829931 89 253 84
11.588182430205855 1.107491945717462 1.2207814431292987 89 253 84
11.24898233252043 0.9796717059429538 1.2097514918617822 89 253 84
10.620084887176331 1.4721443447972231 0.9733982675641202 89 253 84
11.764100099046207 1.1075806770153918 0.8260280271722699 89 253 84
11.266531496134634 1.3343098822509976 0.7845086169836073 89 253 84
11.11194909844391 1.5882628829502978 0.7704733497930195 89 253 84
10.965651927624567 1.2539814349786667 0.9946851873757213 89 253 84
11.268326485832269 1.1543635517599224 1.012037590744478 89 253 84
11.48230646575977 1.4904307100697674 1.2174133587218887 89 253 84
12.64171351081209 1.0500254367323394 0.6616923061064947 89 253 84
12.180049314451223 1.3007922481302518 0.6113786247402152 89 253 84
12.037204082156222 1.5908544736024273 0.5942389516074601 89 253 84
12.384090710830554 1.5943489369653896 0.48190275959184087 89 253 84
12.522979754078696 1.2565683323614374 0.5026956729931111 89 253 84
11.984128429539828 1.3902538548126098 0.41357945142643676 89 253 84
12.09747882036573 1.195828938417943 0.4344340936392959 89 253 84
12.291405672366771 1.0269663296752396 0.4672806807971341 89 253 84
12.230908852267392 0.9454589418014965 0.7470561191101086 89 253 84
2.8714703475420844 1.2648531008646677 1.5799470399452142 89 253 84
11.375242591622357 1.8822686792507084 1.118267552182635 89 253 84
10.63337410462711 1.840029345503574 0.8555099479448413 89 253 84
11.207556632110725 2.061581271364083 0.8992029260120353 89 253 84
10.798019458694876 1.8104542528448058 0.9845667489550568 89 253 84
11.647076156407268 1.7670783578281584 1.2226266835266009 89 253 84
11.505826462564231 1.6761202313420025 1.2181672849994967 89 253 84
12.006665441691938 1.805951488605375 0.4178355867659687 89 253 84
12.224359407694667 1.8776703427544403 0.6165307231240374 89 253 84
13.52473604099948 2.2883587671801564 0.4836137641131029 89 253 84
12.566080675655968 1.9270305563594874 0.5088991527560129 89 253 84
13.435464899334756 2.4839897955671537 0.6150008528840387 89 253 84
13.405872025594471 2.300808020872006 0.6118689170546904 89 253 84
13.554069399016301 2.512370477978256 0.48771830266794003 89 253 84
10.647202344146056 -2.8302141162452106 1.5732641733321635 89 253 84
10.271876493599011 -2.705063792462207 1.3774454803919876 89 253 84
9.742829773221473 -2.567456603262316 1.6763286091079022 89 253 84
10.54232048113445 -2.618996658578106 1.573288725125693 89 253 84
11.90093459114861 -0.5295214826404047 2.755812134827888 89 253 84
11.61475718856425 -0.6683492410693341 2.821903927036181 89 253 84
11.09908256932502 -1.6774986445521356 3.02698977664339 89 253 84
11.462050979696976 -0.41493400591608137 2.864961681867661 89 253 84
11.531142061845049 -1.3116350126911593 2.8445871398896183 89 253 84
10.707209980868662 -1.051456611447797 2.7830355055090723 89 253 84
11.131904305831377 -0.9700093593529814 3.0037241110416435 89 253 84
11.395378044323055 -0.09119538760877088 2.8863793285339536 89 253 84
11.063241911214572 -0.2941459296686095 3.0598219661377475 89 253 84
11.462050979696976 -0.41493400591608137 2.864961681867661 89 253 84
11.75194759410818 -0.3156158267167369 2.7883356685510576 89 253 84
11.707276731947532 0.18868487911748213 2.7988335589549695 89 253 84
11.28907725911731 -1.205613075280739 2.925397515977337 89 253 84
9.437727950191885 -1.589407571329609 2.263383426033605 89 253 84
8.525442187045039 -1.141726730289873 2.201312633695399 89 253 84
9.451399252847407 -1.433556582479762 2.408952478975395 89 253 84
9.776869990524368 -1.2302101187056764 2.5338609076073757 89 253 84
12.73733726707985 2.8655385106502202 2.61727486364508 89 253 84
12.62092327968149 -3.098916270260907 2.6334515626135593 89 253 84
12.819346637324038 -2.788364040648355 2.6063163758201924 89 253 84
12.639767899114037 3.0218755352898183 2.630780922562996 89 253 84
12.639767899114037 3.0218755352898183 2.630780922562996 89 253 84
13.033020375032166 -2.652918496714429 2.5792832286939635 89 253 84
12.681154376465049 -2.9387252838252302 2.6249873610238326 89 253 84
12.428095179564618 2.9026615347172617 2.5094151792839714 89 253 84
13.198633198581291 2.8169363696116054 2.433563388144319 89 253 84
12.274988347419862 2.9311148523790362 2.3969628508387846 89 253 84
9.626957748680432 -3.112921687637908 1.890572730601491 89 253 84
10.580361449786075 -2.922009433586298 1.7634996672540881 89 253 84
10.429928956322795 -3.112921687637908 2.073628301348438 89 253 84
10.636613397193774 -2.7602475168782643 2.173121045546237 89 253 84
10.062546330454433 -3.0043156706303225 1.9824494854942434 89 253 84
10.502513148232994 -2.7986245222555706 1.9642311501512908 89 253 84
10.669178122526857 -2.898861935961336 2.061336486528206 89 253 84
10.127469027203421 -3.109399666243718 2.2081149960821684 89 253 84
11.95930006160262 -2.7127921542013413 2.426068496597037 89 253 84
12.932589148618197 3.0511213572366507 2.4579421105867407 89 253 84
12.30875678403722 -3.104891594306037 2.522774262577709 89 253 84
12.512131606758587 -2.83459596348334 2.500302041854158 89 253 84
12.370507890006568 -2.96653470984732 2.515798661971831 89 253 84
11.649835844864599 -2.8703928856718424 2.330850079632553 89 253 84
12.30875678403722 -3.104891594306037 2.522774262577709 89 253 84
12.91694695601045 -2.641046717808365 2.7680661072488766 89 253 84
12.632386087271094 -2.516590677032549 2.830564180716766 89 253 84
12.642421039480745 -2.1503715000254138 2.828104393178289 89 253 84
12.91694695601045 -2.641046717808365 2.7680661072488766 89 253 84
12.779810122856096 -2.845387114486896 2.7964793094319096 89 253 84
12.044114758175358 -2.4488484932376884 2.5543338417299255 89 253 84
11.563479913893818 -2.659011231794452 2.223864903476816 89 253 84
11.55405896566439 -2.6031454438252104 2.3387594695349136 89 253 84
11.312280901774448 -2.5061580052597927 2.240966378343611 89 253 84
10.464189177744949 -2.4855756341930513 1.7656663790662988 89 253 84
11.64182635700682 -2.343997938485516 2.4580362763491888 89 253 84
12.116206557054317 -2.4326593367837632 2.4112942669571726 89 253 84
11.244515099338528 -2.421279270630924 2.136405522462794 89 253 84
9.943929307942367 -1.9783480529229722 2.2218508914553032 89 253 84
10.303012689881662 -2.0884321938165513 2.1955582973609804 89 253 84
10.743482251782702 -2.1862917056903837 2.1662976683911728 89 253 84
10.52493244859121 -2.705063792462207 1.8624474071532942 89 253 84
10.771617012354286 1.1543635517599224 1.0908365234773427 89 253 84
10.747830599908232 1.3605349152921935 0.9814623734072468 89 253 84
11.47451051447888 1.2162158398366774 0.8025049520385473 89 253 84
11.60056125224643 1.3988451460594153 1.221170951045944 89 253 84
11.450489167722749 1.5833836696341923 1.2163881997001247 89 253 84
12.09747882036573 1.195828938417943 0.4344340936392959 89 253 84
12.291405672366771 1.0269663296752396 0.4672806807971341 89 253 84
12.09747882036573 1.195828938417943 0.4344340936392959 89 253 84
12.413515309032018 1.421202924582319 0.48641528605289025 89 253 84
10.87837236241993 1.9557470936642838 0.8749135428071328 89 253 84
12.435274148187768 1.766107646965714 0.48971399116018566 89 253 84
12.142090241602837 1.9941878846985526 0.4422861072960884 89 253 84
12.774064504048885 2.0708605937145523 0.5373602960554975 89 253 84
13.863218435313556 2.396398555111611 0.5282220571345008 89 253 84
12.08985618284956 1.7377015338488158 0.6006536915149514 89 253 84
13.9205623976822 2.5554130866740845 0.6627382280517359 89 253 84
10.384553233965185 -2.922009433586298 1.573326590948856 89 253 84
11.28907725911731 -1.205613075280739 2.925397515977337 89 253 84
11.256713808604488 -1.6304826624768352 2.9389037045425392 89 253 84
10.707209980868662 -1.051456611447797 2.7830355055090723 89 253 84
11.75194759410818 -0.3156158267167369 2.7883356685510576 89 253 84
11.253841702622255 -0.5949370871112855 2.9401493166335504 89 253 84
11.686928611338933 -0.06768364364013753 2.8037465611141115 89 253 84
11.131904305831377 -0.9700093593529814 3.0037241110416435 89 253 84
10.01582979114105 -1.0722327041259274 2.5003600255287948 89 253 84
12.593223562277302 -2.575674648827005 2.6374152043838373 89 253 84
12.371956506606534 -2.7266761749883073 2.670849241968607 89 253 84
10.502732497882311 -3.0043156706303225 2.069819855472713 89 253 84
10.838266480219602 -2.8302141162452106 1.7588586087636573 89 253 84
9.98653427192885 -3.112921687637908 1.9857750525188074 89 253 84
11.536971102361012 -2.922009433586298 2.021575304834982 89 253 84
10.452724340850487 3.0609795187911644 2.0724292839367977 89 253 84
10.150943651150476 3.0511213572366507 2.20640389884913 89 253 84
11.884554981168819 -2.7602475168782643 2.3122402305541114 89 253 84
11.726077181876127 -2.83459596348334 2.449262811985224 89 253 84
12.30875678403722 -3.104891594306037 2.522774262577709 89 253 84
12.730962620044869 -2.7127921542013413 2.4776202756933907 89 253 84
10.98481333217642 -2.8703928856718424 2.2648201977444997 89 253 84
12.370507890006568 -2.96653470984732 2.515798661971831 89 253 84
12.30875678403722 -3.104891594306037 2.522774262577709 89 253 84
12.84916923952723 -2.3363733181408564 2.781764783619886 89 253 84
12.422030343360658 -2.3273620826887074 2.8884929923178913 89 253 84
13.270940398890163 -2.7266761749883073 2.705031996656387 89 253 84
9.664274832140174 -1.78327048744583 2.5508187670825384 89 253 84
11.409885553222129 -2.567456603262316 2.127231688434737 89 253 84
12.503241208366926 -2.5344454404060452 2.5012550926011685 89 253 84
9.504790858737527 -1.7258582490212522 2.2575434674814163 89 253 84
10.721519961076819 -2.2576466066321097 2.2854332816155423 89 253 84
10.753613347677422 -2.272283410584484 2.057147653181487 89 253 84
10.417675558201056 1.5882628829502978 0.8373783761799621 89 253 84
11.266531496134634 1.3343098822509976 0.7845086169836073 89 253 84
11.450489167722749 1.5833836696341923 1.2163881997001247 89 253 84
12.3726820413343 1.1687781319819732 0.6332500124149335 89 253 84
11.953646917247143 1.5993174641390022 0.4077304329705928 89 253 84
2.741474487081873 1.6201242515863528 1.5803809635284358 89 253 84
2.8714703475420844 1.2648531008646677 1.5799470399452142 89 253 84
10.645510031174918 1.6999844908754862 0.9750222187794068 89 253 84
11.690444150021275 1.9723637440915276 1.1313348980441238 89 253 84
11.690444150021275 1.9723637440915276 1.1313348980441238 89 253 84
11.16896383613609 1.7164577866068964 0.7757186428061396 89 253 84
13.819831589897316 2.3896318658004456 0.6533428583268919 89 253 84
11.253841702622255 -0.5949370871112855 2.9401493166335504 89 253 84
11.707276731947532 0.18868487911748213 2.7988335589549695 89 253 84
11.416245831485385 0.2521298115261067 2.8794648247877874 89 253 84
11.185927819342805 -0.13957438939509098 2.97243785453282 89 253 84
11.409334991830692 -0.8813406097037545 2.8817320099080583 89 253 84
9.598326292882039 -1.5964787373111196 2.561143043531199 89 253 84
9.594717683716242 -1.2813575780833688 2.3924994232201353 89 253 84
13.137499274320152 -2.9006146919637716 2.727336288041206 89 253 84
10.924986668108028 -2.7986245222555706 2.0488721174040534 89 253 84
13.270940398890163 -2.7266761749883073 2.705031996656387 89 253 84
11.884554981168819 -2.7602475168782643 2.3122402305541114 89 253 84
10.010339398655622 3.0609795187911644 1.9847276106845515 89 253 84
10.82322281275907 -2.987692167883591 2.27730900401022 89 253 84
11.7165903506555 -2.5344454404060452 2.450239790246037 89 253 84
11.64182635700682 -2.343997938485516 2.4580362763491888 89 253 84
12.129456324743975 1.00954628470381 0.8534528719530468 89 253 84
10.909217393376943 0.9222428516784293 1.0973913231755044 89 253 84
12.06747453732433 1.4431434109117984 0.5979410975326489 89 253 84
10.430071648820325 -2.922009433586298 1.477302781676352 89 253 84
10.019286731076322 -1.3705974501027496 2.692612060044553 89 253 84
10.202431121311092 -2.987692167883591 2.202685925825608 89 253 84
13.137499274320152 -2.9006146919637716 2.727336288041206 89 253 84
11.959107427821785 -2.5061580052597927 2.30654636420487 89 253 84
12.037204082156222 1.5908544736024273 0.5942389516074601 89 253 84
10.93549828762902 1.5846761099066264 1.098622024415709 89 253 84
12.328078588346596 3.038525882386741 2.5205767780650916 89 253 84
10.580361449786075 -2.922009433586298 1.7634996672540881 89 253 84
11.26407144803648 -2.705063792462207 2.0333355203863377 89 253 84
11.175147116693227 -2.898861935961336 2.140350840309713 89 253 84
13.027965696870124 2.9311148523790362 2.4490051775530084 89 253 84
13.503342389983949 -3.098916270260907 2.6694914838802384 89 253 84
13.963636262802662 2.594380219001117 0.5404187969718606 89 253 84
