12.450276847130885 0.5528981655913263 1.490377920689704 51 52 31
12.162296553188812 0.66629084709184 1.5707837808180771 51 49 29
11.953498795224311 0.598299443996172 1.8244679641423147 49 44 27
12.242786785354378 0.598299443996172 1.9036173409502994 49 42 24
11.436743979484628 0.7205680738213274 1.658332206747612 48 43 24
12.07469243189797 0.7205680738213274 1.9084336522159735 49 42 26
12.892667793002229 1.1747868638276873 2.343479988297604 51 35 27
12.940837176774803 0.9923738597804247 2.2372294342595946 51 35 27
13.329476253857832 0.7824922939670864 2.2145001652489356 53 40 28
12.191834722674246 0.7113896073972094 2.182352462370303 54 43 30
12.978079718782743 0.9338731237534889 2.33708390284628 50 34 26
13.315712845794227 1.0254326423748934 2.4203427953361816 52 35 29
13.790789099838298 1.128396163397765 2.494139896036047 56 40 32
13.62049481325889 0.7820479141888501 2.3952493460977067 55 38 30
13.272206128721901 1.0707189500121053 2.5477348484355304 57 40 34
13.942579903395993 0.8643993856478913 2.479876994218218 59 39 32
12.880503743409438 1.3357025031919025 2.5944067180630612 64 48 40
12.797864558758825 1.4849251386726736 2.6050996410645797 60 47 38
13.382770199973038 1.278708609727673 2.4146624574861546 57 44 37
12.7696566027576 1.242441427666659 2.4704224760008993 59 46 39
12.793095709979111 1.6380518850471033 2.605726816660617 64 51 42
11.944186997048698 1.6380518850471033 2.5629661555378855 62 52 45
19.869795455377115 -0.7469692581629997 1.621137551894965 7 10 8
21.64603338745656 -0.7365243506434728 0.8051894541982352 44 45 43
22.010155057166557 -0.8619846245194743 0.938940391043765 43 46 42
12.125518857807517 0.2953326170223062 1.488219228514275 56 59 42
12.439973464101943 -0.3699024120805732 1.4903111701705893 69 62 52
11.866834318108255 -0.21154271513679557 1.486414895899648 64 68 53
11.659316493559489 0.4041758471225667 1.7431722619641354 53 52 34
11.660149460851398 0.1304887611619517 1.57078324052262 57 60 48
11.83188463104373 0.21438600604360467 1.5707834304647357 56 59 47
11.305618573336732 0.4413743012046227 1.9324194934160204 49 39 25
11.439043883755906 0.5233749420950371 1.8361456089879535 53 46 30
11.82812928034227 0.32148331207236075 1.915761594918477 53 45 31
11.99970347845172 0.21438600604360467 1.73823568654919 58 55 44
11.957189249389055 0.4814160918038464 1.6545130138239301 52 51 33
11.348228834362638 0.35250436124565304 2.0270453766870293 49 34 21
11.564929054185447 0.2574358511872347 2.116239177198569 61 41 34
12.673777222333902 0.28597158931952643 2.3604587627877764 76 53 48
12.113929125290499 0.2574358511872347 2.1868693438128286 62 43 34
12.358335844753496 0.5724682853450681 2.172935793723835 51 38 27
11.782848558427524 0.14268452164852338 2.0090210995934994 52 40 29
12.513601424386746 0.1754011858704875 2.3734540600027763 78 53 47
12.360488959806448 0.35250436124565304 2.1728160786474455 56 39 28
12.199202270243198 -0.21154271513679557 1.8192497962306549 59 53 44
11.953633463352393 -0.041736404862675415 1.8244650433908425 60 53 43
12.115557680475696 -0.29260624766849985 1.6534161983105302 68 63 51
11.85873853598207 -0.4014184158717238 1.8265401781842725 64 53 44
11.572582986371604 0.044707095101991376 1.5707831415024853 61 64 51
12.035569970019802 -0.12756178722499514 1.8227004837600531 57 54 45
11.955072624167272 0.044707095101991376 1.824433834379672 58 51 41
11.860795163339182 0.05404241822083592 2.202061759391822 71 45 40
12.477105302549502 0.05404241822083592 2.2668079986582006 77 50 47
12.66698806807172 -0.2822682017847923 2.360999473180571 82 57 55
12.350742002606463 -0.34933081222476964 2.1733584299635593 94 73 70
11.860795163339182 0.05404241822083592 2.202061759391822 71 45 40
11.81275298949101 -0.34933081222476964 2.103556271308963 80 61 58
11.683622293346117 -0.43842811742221605 2.013004654204159 74 54 51
11.694729719192585 -0.04568307552135317 2.0125549989481595 62 46 38
12.47572636193874 -0.05045340862750583 2.2669003492029614 85 60 56
12.554255843539178 -0.15386186043818087 2.261684526855628 90 66 62
11.778467418642828 -0.13949088600086718 2.0091954130871184 62 49 42
12.545280983165794 -0.4823714055198379 2.262276183878234 99 76 74
11.728432005654447 0.060340519209828566 2.321413357150659 92 65 62
11.81275298949101 -0.34933081222476964 2.103556271308963 80 61 58
12.943744544727629 -0.34933081222476964 2.2370527942045744 92 69 67
12.554255843539178 -0.15386186043818087 2.261684526855628 90 66 62
12.106826028645294 -0.25406733382750984 2.1872847881072097 88 67 64
11.941928025273759 -0.15386186043818087 2.1971039747315833 76 52 48
12.020922995415132 0.3213772646477362 2.41686786393769 75 50 46
12.312843711193956 0.6303758211784064 2.278006663008166 57 43 31
12.020922995415132 0.3213772646477362 2.41686786393769 75 50 46
12.020922995415132 0.3213772646477362 2.41686786393769 75 50 46
12.592513911351125 0.5385300133997062 2.3669888895954614 66 46 39
12.592513911351125 0.5385300133997062 2.3669888895954614 66 46 39
12.269351985114616 0.43540230054735146 2.3942867857918535 74 51 44
11.851927319586661 0.19803136872612653 2.4331211113014586 72 42 39
11.765788231811289 0.06829764079892899 2.441708260086436 74 44 41
11.765788231811289 0.06829764079892899 2.441708260086436 74 44 41
11.764325915363504 -0.06376669082627263 2.441855882899609 83 53 50
12.271801100349453 -0.47885313964482606 1.3238177632809571 74 66 56
12.93721501066982 -0.7257132630932938 1.4155691264470447 55 39 31
12.950630737165124 -0.44283496654485305 1.415731230367193 71 65 55
13.096869096272034 -0.6164276621600066 1.417476447291243 38 25 14
12.963731379172792 -0.9459314966954614 1.4935695316109543 58 44 33
11.934773701217194 -0.5958381801371861 1.8248747469704725 52 35 31
12.304662531012834 -0.6640629363426915 1.7340481138683947 53 36 28
12.820710460226328 -0.7257132630932938 1.648862491988224 56 40 32
13.50694645714347 -0.5958381801371861 2.1155887254993706 77 56 53
12.936369910977563 -0.569623310929476 2.2375010500726202 96 73 71
13.46280250937379 -0.780808616110983 2.0327089477823113 60 40 35
13.01683171020974 -0.5958381801371861 2.0498391310784876 67 49 46
13.352196624659015 -0.7182941092282654 2.1226268042274534 77 57 54
12.102587385375026 -0.5206709168633167 1.9966761670093998 67 47 44
12.169310966226579 -0.8976789687559372 1.6530504294552204 58 38 31
12.770717045858417 -0.8976789687559372 1.8893618769952851 55 31 27
13.896920581020437 -0.8427887399530057 2.1842026560265064 102 78 75
13.310101806827964 -0.7801984691141632 2.215592789310854 83 60 58
13.423595397853715 -0.7087727708479652 2.305611241099424 89 65 64
12.850097742303436 -0.8427887399530057 2.0565903264061913 58 37 32
15.861479949467023 -1.2445964348536247 2.0278555666376796 77 52 42
14.552573743254664 -1.119794352808915 2.0725959560003426 66 39 33
14.924587071531013 -1.151695297834353 1.9845083514197184 70 46 34
14.311237048208636 -1.0830551782061393 2.1639643065223115 74 46 40
15.020684227433852 -1.2204822431280737 2.0555765136393855 80 53 43
13.745332139356664 -1.0115611970779064 2.0225019483509525 52 27 21
9.205576916604382 2.5958707636969898 1.9027311349207578 59 56 45
9.153958341283497 2.7689277705823243 2.285558057715831 60 55 46
9.995818244748175 2.7081386907158054 2.498624092564266 63 52 45
9.47783529013294 2.641643694949574 2.2562701110831807 63 56 46
9.801674870889437 2.4715368000104045 2.525550064569792 58 50 40
9.949145918303392 2.448514574948479 2.351194801513445 65 57 47
10.203295484673623 2.3474606418585284 2.471953106576118 64 54 44
8.99345757119508 2.869557763633436 2.4627925059054583 65 54 46
9.090589122666913 2.9403987938947167 2.1531636460965755 66 57 49
10.441260123980664 2.349054904602409 2.30554750332537 62 58 47
9.995818244748175 2.7081386907158054 2.498624092564266 63 52 45
8.878607264806266 2.641643694949574 2.1689700017487237 63 58 47
8.396534228892888 -2.819462780650022 1.9361419194398597 86 72 69
8.80651488132318 -2.533423914477944 2.0422612346005686 86 71 68
9.084909750698849 -2.9448434990544192 2.1535753946584686 80 68 64
8.977995440197901 3.0721781297551183 2.1614453374841 68 59 51
9.465120309660083 -2.6457686905974924 2.2573691372984674 85 70 67
9.91793193505341 -2.424769449711002 1.4697817667136475 81 63 61
9.191703503051084 -2.3528036788015347 1.4617700988672455 80 66 63
10.126235024024457 -2.1409446243557637 1.4718665783076044 85 70 69
15.310285200633086 -1.9817101786671292 1.0959306907125748 71 57 54
13.081031023175429 -1.617055587142598 2.329536177783988 90 57 51
13.166527692166094 -1.4076435739795918 2.3233978127566095 92 54 51
12.605701180930597 -1.8507653684073104 2.3659205050723324 86 56 53
12.375289132065305 -1.62249968810057 2.3850935484477804 89 56 54
12.380218920595183 -1.504756320676083 2.3846717370297954 94 59 55
12.465627137914574 -1.3888105132598234 2.3774460387743965 97 59 56
14.703317494170053 -1.4634264179209666 1.7072325691512993 81 56 46
14.800851351828939 -1.5320787091450012 1.7748910278689245 56 32 24
13.432996225379933 -1.331182977560895 2.2087303848151483 90 56 54
13.278680211957143 -1.4229700821762008 2.2173735159908152 91 57 55
13.53843583558558 -1.4356803958964297 2.1141799026568995 86 56 53
13.827545103017805 -1.5173291966024631 2.2795178857811864 86 52 50
13.264887105153752 -1.707214397552831 2.2181586237189492 88 54 52
13.53843583558558 -1.4356803958964297 2.1141799026568995 86 56 53
12.612675152714624 -1.6126481350343598 2.1591414413242602 85 53 51
10.51796826183321 -2.0086070780496135 1.6660009717874118 88 67 66
9.35991062076688 -2.268861831549234 2.01234288464422 88 68 66
9.203035529174032 -2.1062191951940843 1.90282632094925 89 70 68
10.03301821379309 -2.0529035403191407 1.8744382537599549 91 69 67
9.824458799661675 -2.436228042097605 2.104724113531426 89 69 67
9.779658733826952 -2.3521827582097625 2.2312848878523317 89 69 66
15.441988331840236 -1.8682059183600472 1.7663050773053552 41 34 33
22.234601375852925 -0.929409897391869 1.0532707459396908 54 57 52
15.561290024062721 -1.4703130305309184 1.5707865211881384 79 55 42
15.492956715660979 -1.5345771338200194 1.5707864779394827 67 42 32
20.905467640331125 -1.8899908438919089 1.7633135370268298 3 0 0
21.264841858678626 -1.856990374746948 2.0078000078807197 25 21 18
21.700597399374058 -1.9355353803838518 1.850928896108162 18 16 15
21.404665406243506 -1.8430336910308114 1.9039494270639317 13 10 11
9.66236196860061 3.086852890756383 1.779276206199387 56 54 45
10.122488301146495 2.7849054079189237 1.6697325164922734 52 52 40
10.59593851630553 2.9972629827370816 1.66529830723508 42 47 35
9.129416996266993 -2.750183273580868 1.5707796129247016 79 69 65
9.358766139332456 2.746704360823701 1.7861439963646697 56 54 43
9.351377406960465 -3.08444474618827 2.0127742452744424 64 57 50
9.504058896866383 -3.0904880456055697 1.6761935018110072 59 57 51
8.969312380734204 -3.08444474618827 1.911825091582543 68 62 56
9.02108933627762 -2.855460208530096 1.7943392753395035 77 68 64
9.819896177348925 2.8809761349939786 1.672791610189552 53 53 41
10.45178500277214 3.092087659686531 1.5707817275766205 48 52 41
9.303321449998318 2.851711845134347 1.8991119489763695 56 54 43
22.222227183962968 -1.99911341024834 1.987767548596287 25 26 28
13.61682316357066 -0.38637199901650215 2.395540961924056 98 73 71
14.40307091076686 0.6029600942141038 2.555566602515202 79 55 51
14.330415929548762 0.7814430849385092 2.5632487713766485 71 48 42
14.330415929548762 0.7814430849385092 2.5632487713766485 71 48 42
11.54226135441772 0.26634619408806925 2.6186797424572075 84 51 50
11.54226135441772 0.26634619408806925 2.6186797424572075 84 51 50
14.840433825142522 0.8799913072902172 2.6382495501992023 71 50 45
14.564217682346863 0.9976340000312276 2.673849477827323 72 52 47
14.49841603919196 0.7805717641588883 2.68291586138185 77 56 53
14.867660023592565 0.7792080634434068 2.7982386691181467 84 60 58
15.135445915138018 0.9032156662339652 2.7517554087785725 79 58 55
11.453793637950229 0.09273850591841414 2.632238995918489 83 51 49
11.969837912330425 -0.07345308920185116 2.559693668562349 75 45 42
12.817047806405403 -0.07345308920185116 2.6025880981937157 83 52 50
14.3923165405767 -0.59939349800618 2.5566932180697624 112 83 85
13.313956030247715 -0.5351695580416973 2.420492877164452 106 78 78
13.313956030247715 -0.5351695580416973 2.420492877164452 106 78 78
14.112872984516416 -0.4880074888069622 2.587307153669698 93 64 63
12.527757161993842 0.1442319484288328 2.8502559744240252 85 53 49
12.846490978341194 -0.10545987854750005 2.776513051218366 86 52 48
12.526383797287721 -0.13475629292657526 2.850621816366158 81 47 43
13.488676522702542 0.1442319484288328 2.8715519514951047 90 60 57
13.597598926459739 -0.776748938311827 2.6519426586352086 101 66 63
13.301470032962325 -0.6521485962095901 2.695510819730618 87 53 49
14.210165370677904 -0.6521485962095901 2.725876434836886 95 60 55
14.204659516138657 -0.8994948468853549 2.7267553575008927 98 63 57
13.921449653048498 -0.7742932826579444 2.775686248036124 80 45 39
14.210165370677904 -0.6521485962095901 2.725876434836886 95 60 55
14.673603771710189 -0.6481222814882307 2.32058681291473 105 80 79
14.260051056082624 -0.569623310929476 2.3479443613127535 100 75 74
14.317203899909114 -0.7783152273990789 2.564663912147496 103 70 69
14.11356114626986 -0.7087727708479652 2.3582058360692084 119 92 92
14.317203899909114 -0.7783152273990789 2.564663912147496 103 70 69
15.263267782196639 -0.9655363498427216 2.2851876662672215 120 92 91
15.551366460720143 -1.0404126591466236 2.356501065465345 113 85 85
14.860864846010564 -1.0404126591466236 2.308915893367833 88 60 59
15.36233858135526 -0.912455259341081 2.368890351777971 93 62 63
13.959236658640163 -0.8769172774831304 2.6053510166908738 95 61 59
13.665220403355157 -0.99477988160782 2.6427368471616095 98 63 59
15.518082855122824 -1.0830551782061393 2.2710342807397614 103 76 70
15.518082855122824 -1.0830551782061393 2.2710342807397614 103 76 70
14.79316207613401 1.2380716263805536 2.8126142188654217 70 52 49
17.194355827361058 1.3515062348702536 2.9910354638992716 89 68 63
17.194355827361058 1.3515062348702536 2.9910354638992716 89 68 63
12.110582653103595 -0.29995075961838447 3.0062586645083953 85 51 45
12.110582653103595 -0.29995075961838447 3.0062586645083953 85 51 45
12.110582653103595 -0.29995075961838447 3.0062586645083953 85 51 45
13.699807335240697 -0.936747428489902 2.820551261478722 86 49 41
13.469990429967506 -1.411085130656117 2.8766098487661322 84 45 36
13.469990429967506 -1.411085130656117 2.8766098487661322 84 45 36
13.326555821966949 -1.0095159315577606 2.919707902212794 88 51 43
13.83937401511101 -1.235704040550928 2.7914909078938805 88 49 40
13.987505587122358 -1.0517473949296081 2.763552966667413 97 58 49
13.24669961372839 -1.3485655796285667 2.948237213638804 86 51 43
13.699807335240697 -0.936747428489902 2.820551261478722 86 49 41
13.469990429967506 -1.411085130656117 2.8766098487661322 84 45 36
13.469990429967506 -1.411085130656117 2.8766098487661322 84 45 36
12.817351499690274 -1.6684106602792204 2.782508197293878 90 51 43
13.677518924295747 -2.181719447162785 2.8254882051463195 81 50 43
14.498146714954167 -1.9626027654208873 2.878653238660266 84 54 47
14.425970581615044 -2.347292354978777 2.89793226864384 88 63 57
14.290929523347037 -2.096066244636775 2.9394153317951894 86 56 51
13.677518924295747 -2.181719447162785 2.8254882051463195 81 50 43
13.826140273814017 -1.881406695998993 2.7941216942239118 80 45 39
14.631275363025843 -2.181719447162785 2.8467365087530774 87 62 56
16.07274966234827 2.796546967959426 3.046312013513558 90 69 64
14.492101168392008 -2.7345049826564636 2.8802075252479127 91 70 63
14.174557348710517 -2.2251838831883854 2.7316042842074304 89 64 58
14.492101168392008 -2.7345049826564636 2.8802075252479127 91 70 63
13.439353007218196 -1.133812516973994 2.6745167828794942 95 57 53
13.285110832543907 -1.2934232233500607 2.6980926809759733 100 62 55
13.205003991416516 -1.4688275576352752 2.7110391162347947 89 49 42
12.863128178472802 -1.3345005228457436 2.5966279643060304 97 59 55
13.285110832543907 -1.2934232233500607 2.6980926809759733 100 62 55
14.339313235885585 -1.133812516973994 2.7059235397768893 98 60 55
13.205739463041478 -1.3888105132598234 2.429865527295276 99 61 57
13.125148202823528 -1.504756320676083 2.43701400363709 97 61 55
13.394986303198873 -1.3651314801904069 2.5342919856116417 98 59 56
13.394986303198873 -1.3651314801904069 2.5342919856116417 98 59 56
12.58673759314409 -1.3651314801904069 2.488938807582036 101 62 57
12.502156766694991 -1.4959617250197568 2.4978412295964043 99 61 56
12.775601265557814 -1.638407770625026 2.6080373235998735 91 53 47
12.775601265557814 -1.638407770625026 2.6080373235998735 91 53 47
13.416631922892504 -1.9893529608890141 2.677886217138254 87 57 51
13.855381758776716 -1.9306392469738782 2.618099959138252 89 58 53
12.298389982817186 -1.6506909436485768 2.677914682997245 91 52 46
14.318020358226796 -1.9893529608890141 2.709129292205063 89 61 57
13.12049831090391 -1.62249968810057 2.437430974483557 91 56 52
13.31095711147725 -1.6293944418642667 2.543436619868644 89 54 48
13.525439008930105 -1.8858827598365202 2.520547957838225 89 59 55
12.57218537008259 -1.7607821796257943 2.4904545612439364 88 54 50
12.497275078966936 -1.6293944418642667 2.4983619656823013 93 56 52
12.570190879457027 0.5528981655913263 1.4109983987231527 51 53 34
12.44318733177521 0.7828325935020508 1.814278474537281 46 41 24
13.440246409699597 0.7113896073972094 2.3044923114055957 57 42 31
12.234195827831199 0.7824922939670864 2.0833635503842673 54 42 29
13.581787866846382 0.9923738597804247 2.2951357367238963 51 34 28
11.614075245106324 0.598299443996172 1.6569923060016434 54 49 29
12.904192502198407 0.7820479141888501 2.342609685996584 52 37 28
13.942579903395993 0.8643993856478913 2.479876994218218 59 39 32
13.272206128721901 1.0707189500121053 2.5477348484355304 57 40 34
13.167985401661221 0.8643993856478913 2.433196009106113 50 33 25
13.007158381906482 1.128396163397765 2.44775213190799 55 38 32
13.609576688675359 1.1747868638276873 2.3961172356922384 54 41 32
11.944186997048698 1.6380518850471033 2.5629661555378855 62 52 45
12.037760666326848 1.3357025031919025 2.551172079765448 62 46 38
12.238776631521526 -0.29260624766849985 1.4066324631127551 64 68 54
12.849008697830236 0.4452619314834567 1.4928786177583786 54 53 35
12.412183968512556 0.3724870668149672 1.5707840333990675 58 55 40
11.871788236032812 0.4041758471225667 1.8262527768242527 54 48 33
11.952820948369187 0.23398293438074566 2.002367608332873 50 39 29
11.946249218044372 0.15737423384979313 2.196842304518952 64 42 34
11.820692451269524 0.5724682853450681 2.1031602875565456 50 40 25
12.558366342954187 0.15737423384979313 2.2614139259067003 67 44 37
11.822943478731442 0.35250436124565304 2.103048130244574 59 41 32
11.984362071346595 0.28597158931952643 2.301674596547767 74 53 46
12.157976845438306 0.4413743012046227 2.0868948750389786 48 36 24
11.572582986371604 0.044707095101991376 1.5707831415024853 61 64 51
11.817943262765334 -0.31854767380619153 1.9160713255739519 58 45 36
11.655722201158802 -0.12756178722499514 1.5707832355519864 60 66 54
11.614213848889671 -0.041736404862675415 1.6569912747855322 60 65 52
12.432047785279718 0.060340519209828566 2.3802685432323614 86 59 54
11.810474180378545 -0.1715017001861198 2.3149533726031963 73 48 44
11.941928025273759 -0.15386186043818087 2.1971039747315833 76 52 48
12.711212818299515 -0.25406733382750984 2.2515174540338823 85 64 61
12.19276333675674 -0.31854767380619153 1.993323626006267 61 47 39
12.984830190668928 0.6303758211784064 2.336583649448942 59 42 34
12.269351985114616 0.43540230054735146 2.3942867857918535 74 51 44
11.898391142644154 0.5385300133997062 2.308171157021675 57 41 32
11.765788231811289 0.06829764079892899 2.441708260086436 74 44 41
11.764325915363504 -0.06376669082627263 2.441855882899609 83 53 50
11.847571724617568 -0.1936529259371559 2.433550261889307 91 61 59
12.21677096505665 -0.780808616110983 1.406334067454859 64 44 39
13.896920581020437 -0.8427887399530057 2.1842026560265064 102 78 75
15.613353009565325 -1.119794352808915 2.185137031485249 103 73 67
12.392004609677105 -0.5505352026270455 1.5707840133802848 61 48 39
12.419660499938995 -0.780808616110983 1.814749071537797 49 30 24
19.122945306480826 -0.7825056821860881 1.5707883474858424 1 1 2
14.003224569292424 -0.8976789687559372 2.0942495777921746 70 45 41
13.13026292481485 -0.6640629363426915 1.961444747133633 57 37 34
11.941351746909268 -0.47885313964482606 1.65462430571225 65 53 46
13.390864721918074 -0.6481222814882307 2.211064867735452 93 71 70
14.924587071531013 -1.151695297834353 1.9845083514197184 70 46 34
9.892611902820459 2.5298336712031264 2.2224446743209665 63 57 47
8.82407959004153 2.5298336712031264 2.04124669780145 60 58 46
8.685268311252239 -2.599257048919408 1.5707787582080477 81 74 69
8.742630065527253 -2.599257048919408 1.6854117088788918 82 74 69
8.878607264806266 2.641643694949574 2.1689700017487237 63 58 47
8.758323920396172 2.6999348777086776 1.9203876393760466 59 56 45
8.453856147333918 -2.7037219734840097 1.809620542812423 84 72 68
9.525010823736693 3.061440800841349 2.3963026860504604 75 62 57
9.215025098057072 2.7081386907158054 2.4335132848771392 59 50 42
8.976078968640966 -3.076782748309399 2.161588501134511 71 61 56
8.803492595622979 -2.819462780650022 2.042436262945022 84 71 68
8.976078968640966 -3.076782748309399 2.161588501134511 71 61 56
9.525010823736693 3.061440800841349 2.3963026860504604 75 62 57
12.465627137914574 -1.3888105132598234 2.3774460387743965 97 59 56
11.748448700077198 -1.738831855811809 2.319825338531683 86 54 52
13.166527692166094 -1.4076435739795918 2.3233978127566095 92 54 51
12.967941649714488 -1.5219777319022398 2.051798284461537 86 56 53
13.278680211957143 -1.4229700821762008 2.2173735159908152 91 57 55
13.278680211957143 -1.4229700821762008 2.2173735159908152 91 57 55
12.862569446531776 -1.331182977560895 2.1462350194486755 91 60 55
13.93754431659729 -1.446388465593992 2.015821893284898 97 67 60
9.304538348738895 -2.1993257063376896 1.678462251450721 85 70 67
8.973327201089473 -2.436228042097605 1.9116663100434712 88 68 65
10.126204886837767 -2.1409446243557637 1.6696960854083824 89 71 69
21.404665406243506 -1.8430336910308114 1.9039494270639317 13 10 11
8.971230297797929 3.080381688904804 1.911749221317797 62 56 48
9.66236196860061 3.086852890756383 1.779276206199387 56 54 45
9.078224281777588 -2.9676601753047707 1.9075706004533102 74 65 61
9.60691037962619 -2.98577331160192 1.6750609914684507 65 61 54
13.906238333748592 -0.4823714055198379 2.3732893332956717 96 72 71
13.906238333748592 -0.4823714055198379 2.3732893332956717 96 72 71
13.972787169860407 0.8799913072902172 2.6037215384508 57 36 31
12.055946109423934 0.22725069290963876 2.5489250244138284 80 50 49
14.74730009640796 0.6991910823624278 2.5212820053888008 72 50 45
12.055946109423934 0.22725069290963876 2.5489250244138284 80 50 49
13.96483927528378 -0.6784556997617385 2.6046763655539635 108 75 72
12.336493972153024 0.09273850591841414 2.6717753593931137 85 54 49
14.210165370677904 -0.6521485962095901 2.725876434836886 95 60 55
13.676664229900654 -0.5595244456546913 2.64120318688213 101 68 64
13.794764531246045 -0.43165458073163904 2.493758893356971 105 76 75
12.846490978341194 -0.10545987854750005 2.776513051218366 86 52 48
12.846490978341194 -0.10545987854750005 2.776513051218366 86 52 48
14.112872984516416 -0.4880074888069622 2.587307153669698 93 64 63
12.846490978341194 -0.10545987854750005 2.776513051218366 86 52 48
13.597598926459739 -0.776748938311827 2.6519426586352086 101 66 63
12.847830125337792 0.11291429180172173 2.776240443692208 86 54 51
13.99868595029366 -0.49849584484267584 2.7615469789599167 87 53 49
14.09623496538485 -1.0684883331192643 2.589216859486298 103 68 65
14.599938347697313 -0.7801984691141632 2.325295641458033 84 59 58
15.551366460720143 -1.0404126591466236 2.356501065465345 113 85 85
13.959236658640163 -0.8769172774831304 2.6053510166908738 95 61 59
15.712386899919622 -0.9905192764354952 2.4398508646940167 114 84 84
13.68309236621729 -0.6273997725145967 2.390315619394254 101 74 74
14.931834570153086 1.0550344260818545 2.7864125788136667 77 58 55
14.931834570153086 1.0550344260818545 2.7864125788136667 77 58 55
17.073061366530613 1.8524402291374895 3.048949879860069 91 70 65
13.965676333480332 -2.0690797635959686 2.767508463127809 85 57 51
13.75805924870333 -1.6684106602792204 2.808053621144131 83 46 38
13.762493731532835 -1.4462941214684146 2.807124908916455 85 46 37
13.987505587122358 -1.0517473949296081 2.763552966667413 97 58 49
13.465459619477045 -1.6961776522894114 2.877852639698398 86 51 43
13.465459619477045 -1.6961776522894114 2.877852639698398 86 51 43
16.07274966234827 2.796546967959426 3.046312013513558 90 69 64
14.628280411653769 -2.516281964369395 2.8474113809460166 89 68 63
13.890733764089605 -2.3498644835868916 2.781501480375987 90 66 62
13.205003991416516 -1.4688275576352752 2.7110391162347947 89 49 42
12.298389982817186 -1.6506909436485768 2.677914682997245 91 52 46
13.416631922892504 -1.9893529608890141 2.677886217138254 87 57 51
13.315540493845381 -1.4959617250197568 2.542931675949443 100 60 54
13.12049831090391 -1.62249968810057 2.437430974483557 91 56 52
12.58673759314409 -1.3651314801904069 2.488938807582036 101 62 57
12.497275078966936 -1.6293944418642667 2.4983619656823013 93 56 52
12.725478598468092 -1.8858827598365202 2.474806019004748 88 58 53
13.285110832543907 -1.2934232233500607 2.6980926809759733 100 62 55
13.200382229074917 -1.6506909436485768 2.7118020624473953 87 48 43
13.200382229074917 -1.6506909436485768 2.7118020624473953 87 48 43
13.205739463041478 -1.3888105132598234 2.429865527295276 99 61 57
12.959802323809056 0.7277233694889265 1.4158418563023376 48 47 27
12.754420503415318 0.7824922939670864 2.1517451699164676 52 40 28
11.86437877329518 0.6506717797814335 2.0058032780249437 48 41 25
13.20389799416696 1.0791484807286005 2.320750655736845 49 33 25
13.690516718199452 0.9338731237534889 2.3897351703861434 50 33 27
13.039532817690741 1.1963710658555633 2.5747057200853662 61 45 37
21.533055882868833 -0.6954557276499224 0.8629878200774876 0 3 0
12.717978364377736 0.2574358511872347 2.25108671305714 65 43 36
11.94562205408722 -0.23089775462572074 2.0026451557669835 65 52 45
11.655722201158802 -0.12756178722499514 1.5707832355519864 60 66 54
11.778467418642828 -0.13949088600086718 2.0091954130871184 62 49 42
12.669112815900405 -0.43842811742221605 2.156172343418925 88 68 65
11.859344561726608 -0.05045340862750583 2.202151182862016 74 49 45
12.118214168058381 0.5233749420950371 1.996091258175396 49 39 24
11.782848558427524 0.14268452164852338 2.0090210995934994 52 40 29
11.646028715427738 -0.4014184158717238 1.7433709127092265 68 56 49
12.020922995415132 0.3213772646477362 2.41686786393769 75 50 46
12.432300005310356 -0.5505352026270455 1.4902613855117184 47 35 23
15.353924386941907 -1.151695297834353 2.0441789886248385 77 50 40
13.858445086540618 -0.9459314966954614 1.9399002246691732 56 32 26
11.724884928920197 -0.5206709168633167 1.918927537512507 64 47 43
14.72866406941474 -1.0115611970779064 2.144978389709418 71 45 39
13.05649306165619 -0.5206709168633167 2.13663033903836 83 62 59
12.814607633961009 -0.8364392222495247 1.6488997459679098 66 45 40
12.506175067794706 -0.6640629363426915 1.8130275412043115 53 36 29
12.182160119531035 -0.6640629363426915 1.6529634759267104 51 35 26
15.511951827042877 -1.2204822431280737 2.112645918787131 84 53 44
13.390864721918074 -0.6481222814882307 2.211064867735452 93 71 70
13.268651422364833 -0.9459314966954614 1.798853396247608 70 49 42
9.798990670084851 2.349054904602409 2.2297531152771475 60 57 44
9.090589122666913 2.9403987938947167 2.1531636460965755 66 57 49
8.813258435213783 2.8153067448864117 2.041871186961502 59 56 45
9.188741486792333 -2.599257048919408 1.9033627344291288 86 71 68
10.140466291601589 2.641643694949574 2.3326840608701414 61 53 43
14.800851351828939 -1.5320787091450012 1.7748910278689245 56 32 24
13.193910312417756 -1.6126481350343598 2.22223209084052 87 55 53
13.198534341046088 -1.5173291966024631 2.2219649903351253 85 53 51
14.800851351828939 -1.5320787091450012 1.7748910278689245 56 32 24
21.6803519743935 -1.8899908438919089 1.8995523770713212 33 31 30
21.11961818038268 -1.8899908438919089 1.8098048795004 3 1 1
9.083907833584794 2.9637077272628325 1.9073515536064842 60 54 45
8.853268209474006 -2.855460208530096 1.683973188764995 79 69 65
10.499500205647477 3.092087659686531 1.6661689407745384 44 49 38
14.840433825142522 0.8799913072902172 2.6382495501992023 71 50 45
13.676664229900654 -0.5595244456546913 2.64120318688213 101 68 64
13.273036165583012 -0.4880074888069622 2.5476422311027247 92 62 61
14.843385970362288 0.682194764436376 2.637888484922708 77 52 50
12.92276758220413 -0.31432398007522055 2.7613695229121857 88 53 48
11.452291483708118 -0.08660070392966147 2.632473895462223 84 52 50
11.969837912330425 -0.07345308920185116 2.559693668562349 75 45 42
11.97127512508164 0.07866717499909359 2.5595112076589692 79 46 43
13.569785576048684 -0.59939349800618 2.5159948606230773 93 65 65
15.93634331379883 -0.9655363498427216 2.332612310996021 129 101 101
13.959236658640163 -0.8769172774831304 2.6053510166908738 95 61 59
17.073061366530613 1.8524402291374895 3.048949879860069 91 70 65
14.290929523347037 -2.096066244636775 2.9394153317951894 86 56 51
16.07274966234827 2.796546967959426 3.046312013513558 90 69 64
14.28786323053795 -2.595342764320461 2.940465002173662 88 63 59
13.24669961372839 -1.3485655796285667 2.948237213638804 86 51 43
12.279586785283252 -0.18633023321836342 2.9277334960883903 85 51 47
13.548530606787791 -1.1494329620953299 2.8560267239265356 89 52 42
14.660329981193573 0.9414325448440949 2.840279603429125 84 63 58
13.699807335240697 -0.936747428489902 2.820551261478722 86 49 41
14.660329981193573 0.9414325448440949 2.840279603429125 84 63 58
13.714723588213213 -1.7892240416664291 2.6361514626092766 92 57 51
12.863128178472802 -1.3345005228457436 2.5966279643060304 97 59 55
12.788780152247146 0.8532134133243707 2.246615182349852 52 37 28
11.944186997048698 1.6380518850471033 2.5629661555378855 62 52 45
21.415830173169454 -0.7405840593145375 0.9184725069232901 39 42 38
12.125518857807517 0.2953326170223062 1.488219228514275 56 59 42
12.233533534104794 0.38981562568086187 2.2835608399496397 67 49 39
12.55761725818247 0.4855205207655186 2.2614632216824924 59 43 33
12.477105302549502 0.05404241822083592 2.2668079986582006 77 50 47
11.992532726913362 -0.21154271513679557 1.7383367514622206 64 58 47
11.765788231811289 0.06829764079892899 2.441708260086436 74 44 41
11.99970347845172 0.21438600604360467 1.73823568654919 58 55 44
11.953633463352393 -0.041736404862675415 1.8244650433908425 60 53 43
12.039857554059742 0.1304887611619517 1.8226088308725013 59 52 40
15.019232611425943 -1.8039314396239015 1.704345391577616 81 67 63
8.695316968363324 -2.268861831549234 1.8028650887474686 85 68 65
13.278680211957143 -1.4229700821762008 2.2173735159908152 91 57 55
12.375289132065305 -1.62249968810057 2.3850935484477804 89 56 54
13.085694939472159 -1.5117033600409824 2.3291983321396557 90 55 51
12.450933365919374 -1.738831855811809 2.3786782217223212 87 54 51
15.441988331840236 -1.8682059183600472 1.7663050773053552 41 34 33
9.03061986675223 2.851711845134347 1.794099354313619 57 55 44
13.921449653048498 -0.7742932826579444 2.775686248036124 80 45 39
14.49841603919196 0.7805717641588883 2.68291586138185 77 56 53
12.92276758220413 -0.31432398007522055 2.7613695229121857 88 53 48
14.11356114626986 -0.7087727708479652 2.3582058360692084 119 92 92
13.959236658640163 -0.8769172774831304 2.6053510166908738 95 61 59
12.110582653103595 -0.29995075961838447 3.0062586645083953 85 51 45
16.206362253562222 1.3515062348702536 2.981780383627111 84 60 56
14.83078485209187 -2.3498644835868916 2.8052623751700074 92 68 64
13.548530606787791 -1.1494329620953299 2.8560267239265356 89 52 42
13.699807335240697 -0.936747428489902 2.820551261478722 86 49 41
13.381313082203011 -1.7607821796257943 2.5357639755871606 90 56 51
12.998919526530804 -1.9306392469738782 2.5796328053114927 91 63 59
13.439353007218196 -1.133812516973994 2.6745167828794942 95 57 53
9.191670301769916 -2.3528036788015347 1.6797895505135196 84 66 64
21.752227379683585 -1.8430336910308114 1.94740766302791 11 9 9
21.812707150783737 -1.979550111284196 1.8020697099460394 2 0 0
14.498146714954167 -1.9626027654208873 2.878653238660266 84 54 47
13.569785576048684 -0.59939349800618 2.5159948606230773 93 65 65
12.279586785283252 -0.18633023321836342 2.9277334960883903 85 51 47
13.569785576048684 -0.59939349800618 2.5159948606230773 93 65 65
13.31095711147725 -1.6293944418642667 2.543436619868644 89 54 48
12.526383797287721 -0.13475629292657526 2.850621816366158 81 47 43
12.509476215637768 -0.1715017001861198 2.373795471396522 87 59 56
11.851927319586661 0.19803136872612653 2.4331211113014586 72 42 39
11.696200736901789 0.048933849745373265 2.0124955198266408 62 44 37
9.295115490929923 -2.50644030850723 1.6785718213733818 85 67 64
12.399703004982792 -0.3699024120805732 1.5707840210251078 69 62 52
14.318020358226796 -1.9893529608890141 2.709129292205063 89 61 57
13.965676333480332 -2.0690797635959686 2.767508463127809 85 57 51
12.780376642187496 -1.4844716186229507 2.6074051118271013 94 54 48
8.930875927982543 2.9101856149820717 2.307445314931427 60 54 46
9.536828405227673 2.5675646868677338 2.3949608974068073 59 52 42
12.430663846413943 -0.05633498500501812 2.3803853768294996 94 67 64
12.125493689721802 0.2953326170223062 1.653348342725319 59 55 40
15.059120073134546 -1.119794352808915 2.1308473253912297 83 53 47
9.623991754954522 2.650122191276464 1.67487526308174 57 55 44
14.551217938595135 -0.99477988160782 2.675621196735633 97 62 58
