13.98584465338444 0.5647372948725962 0.6328553085769812 150 144 108
13.486864836206573 0.33430723147786995 0.580525335573962 150 144 108
13.831417095003177 -0.07160391034091924 0.6174718071779532 150 144 108
14.213852983566412 -0.2214129330333452 0.5281096312272198 150 144 108
13.908771875212338 -0.1944338423021466 0.6252612834602931 150 144 108
14.138167505645425 -0.08180847039731816 0.5188598717617408 150 144 108
14.198454422090629 0.20146200036907697 0.5262476252777448 150 144 108
14.333536610182197 0.33430723147786995 0.5422516542389585 150 144 108
14.653225285940382 0.05341769035550402 0.5774423451474805 150 144 108
13.831417095003177 -0.07160391034091924 0.6174718071779532 150 144 108
14.198454422090629 0.20146200036907697 0.5262476252777448 150 144 108
14.138167505645425 -0.08180847039731816 0.5188598717617408 150 144 108
11.135480146676468 -0.3757204620903479 0.395148303075093 150 144 108
10.878627475123402 1.290240872475361 0.3340238445436631 150 144 108
10.878627475123402 1.290240872475361 0.3340238445436631 150 144 108
10.878627475123402 1.290240872475361 0.3340238445436631 150 144 108
11.33721725573221 -2.6266515814508606 0.10279202401087649 150 144 108
11.33721725573221 -2.6266515814508606 0.10279202401087649 150 144 108
10.340593823640699 -0.5256964266790637 0.11063417486925431 150 144 108
10.446223369194044 -2.1427205598839887 0.1800409820570275 150 144 108
10.606147838082464 1.1843721513184517 0.24963925172253154 150 144 108
10.443836308860254 -1.0101607288469083 0.1787808683964683 150 144 108
10.446223369194044 -2.1427205598839887 0.1800409820570275 150 144 108
10.422869479371453 0.9654630695841521 0.16728311829569736 150 144 108
10.333539780963953 0.40818353254880924 0.10430905198858789 150 144 108
10.293338308922435 -1.5925524748430469 0.055701089776823524 150 144 108
10.483460674276513 -0.28064779841522497 0.1986100914924085 150 144 108
10.483460674276513 -0.28064779841522497 0.1986100914924085 150 144 108
10.81775628369579 -0.4846173738688088 0.31741063890775134 150 144 108
12.0487904187705 -1.0254933700359719 0.6919804489938657 150 144 108
15.275925023304527 -0.8255802603878221 0.740331579541484 150 144 108
15.585892338157317 -0.8207317973915284 0.8507727878790808 150 144 108
16.316759645669485 -0.9868037755372003 0.8894154783018267 150 144 108
12.622170446330037 -1.0861336130066763 0.7451204101535555 150 144 108
15.585892338157317 -0.8207317973915284 0.8507727878790808 150 144 108
15.051114924432294 -0.9402660472575506 0.9066448811652689 150 144 108
12.559977393180205 -1.14418856769777 0.6124122069910052 150 144 108
10.779360841469469 -0.9130611634616708 0.30638287930569497 150 144 108
11.292086853567971 -1.35810983650061 0.42717566991210487 150 144 108
10.640467709035132 -1.2043168810311282 0.2619911310275391 150 144 108
10.594549824482085 -1.5756415492688 0.2453087482189408 150 144 108
9.941608197814727 -1.5742854657095262 0.3676168633490854 150 144 108
11.755776600117484 -1.14418856769777 0.6613304794321305 150 144 108
10.594549824482085 -1.5756415492688 0.2453087482189408 150 144 108
10.640467709035132 -1.2043168810311282 0.2619911310275391 150 144 108
13.57393872926949 -1.3849813941977593 0.9149893648966692 150 144 108
14.100762184637546 -1.4776643518922536 0.8527239561029413 150 144 108
13.7559761452813 -1.2954109558318558 0.9251317974633807 150 144 108
13.463905285702815 -1.4776643518922536 0.9086860698793557 150 144 108
13.814590120643675 -1.4007154817129135 1.0159778498153356 150 144 108
14.08754487812633 -1.4924127534159035 1.1089547892036238 150 144 108
12.455613808050817 -1.3849813941977593 1.0425962642593836 150 144 108
13.706488723148603 -1.4856711183141027 1.0110824752256429 150 144 108
12.653749737484624 -1.2954109558318558 1.0517087958743263 150 144 108
13.421789605874359 -1.6883523611107432 0.69863147566798 150 144 108
13.465756992282468 -1.6662655791122463 0.9087932550769349 150 144 108
14.744869472106092 -1.571975419671589 0.7995721248221797 150 144 108
12.875242239658103 -1.6662655791122463 0.9700935961052846 150 144 108
15.687056324059249 0.99953314495702 1.2276880213477055 150 144 108
7.848781444799754 0.20146200036907697 1.1400327650936606 150 144 108
8.775223068412116 -0.08180847039731816 0.925550461525271 150 144 108
8.766909585460576 0.061044609841777654 0.9248364712044416 150 144 108
8.766909585460576 0.061044609841777654 0.9248364712044416 150 144 108
8.766909585460576 0.061044609841777654 0.9248364712044416 150 144 108
12.167037415054454 -0.8207317973915284 1.298062703082397 150 144 108
12.068671010147414 -0.9402660472575506 1.3809567723973275 150 144 108
13.251806620885372 -1.2636784322722845 1.4742539610348495 150 144 108
11.8550969064161 -0.9402660472575506 1.547397139264534 150 144 108
12.167037415054454 -0.8207317973915284 1.298062703082397 150 144 108
12.666475815323526 -1.163883345570661 1.4697777420522167 150 144 108
11.51858293661102 -1.011862074895037 1.3717719468702434 150 144 108
11.018127192424606 -1.1761104497902652 1.9154425670493218 150 144 108
11.322950542379939 -1.2101455797547038 1.634659284646343 150 144 108
11.614818536720517 -1.011862074895037 1.8074075920323234 150 144 108
11.314305410921278 -1.011862074895037 1.6347081481264403 150 144 108
12.792976375737172 -1.414013182437421 1.4707800033519922 150 144 108
11.982802956319452 -1.3849813941977593 1.1147384215721532 150 144 108
12.379557868302236 -1.6580599869788095 1.2180043750837015 150 144 108
11.836134921973464 -1.4856711183141027 1.377180291369426 150 144 108
12.993059981145835 -1.571787859071823 1.3158015285867743 150 144 108
12.815612592143669 -1.4924127534159035 1.3921443993566616 150 144 108
13.671290065238738 -1.4924127534159035 1.174484410523367 150 144 108
11.965320248133846 -1.7429691128120377 1.379296776401024 150 144 108
11.81162174849067 -1.4007154817129135 1.462438858232825 150 144 108
12.759631721173296 -1.6580599869788095 1.1443925537823412 150 144 108
12.393505262985924 -1.3181631432268135 1.3031701268994973 150 144 108
12.694633564974918 -1.3181631432268135 1.22712764760252 150 144 108
12.377543665114489 -1.4856711183141027 1.21794445777291 150 144 108
12.637646552384561 -1.571787859071823 1.4695465065438256 150 144 108
12.676165724168463 -1.4924127534159035 1.46985522607768 150 144 108
12.63232679184351 -1.4924127534159035 1.6280320510647137 150 144 108
12.753449687248128 -1.7295135948716627 1.6274878823040504 150 144 108
12.59367353445139 -1.571787859071823 1.6282079153466007 150 144 108
13.580555376856182 -1.7295135948716627 1.925965604480465 150 144 108
12.499431278673352 -1.5718735359539144 1.958244794159738 150 144 108
12.458681891485544 -1.9045387314285955 1.3869685746066696 150 144 108
12.251908307793272 -1.9045387314285955 1.548155117339853 150 144 108
13.475564829250809 -1.879715017348379 1.7742384673355147 150 144 108
14.017180535923956 -1.879715017348379 1.914436799574967 150 144 108
13.14972226009644 -1.979524837791883 1.8578163178836355 150 144 108
13.322720333303472 -2.0499447901352617 1.776605773611141 150 144 108
12.185455739994715 -1.3849813941977593 2.059665187687005 150 144 108
12.38791341085964 -1.2954109558318558 2.05099157084789 150 144 108
12.948208398405386 -1.4856711183141027 2.0285818595996616 150 144 108
13.908771875212338 -0.1944338423021466 0.6252612834602931 150 144 108
13.893035176463167 0.17679822530951333 0.6236904745899794 150 144 108
13.486864836206573 0.33430723147786995 0.580525335573962 150 144 108
11.291924644951283 -1.5925524748430469 0.05077079503950303 150 144 108
10.585309817376805 -0.6694700672339351 0.2417973738253126 150 144 108
10.585309817376805 -0.6694700672339351 0.2417973738253126 150 144 108
10.476502827201 0.21166178718373774 0.19528273469175977 150 144 108
10.293338308922435 -1.5925524748430469 0.055701089776823524 150 144 108
10.483460674276513 -0.28064779841522497 0.1986100914924085 150 144 108
9.386500543605106 1.5795317337830703 0.15263332137939575 150 144 108
10.606147838082464 1.1843721513184517 0.24963925172253154 150 144 108
10.483460674276513 -0.28064779841522497 0.1986100914924085 150 144 108
14.007210528621828 -1.2101455797547038 0.938576893805001 150 144 108
12.0487904187705 -1.0254933700359719 0.6919804489938657 150 144 108
15.79556018438007 -0.8869333078891537 0.7756608202283725 150 144 108
15.09784663099493 -0.8869333078891537 0.8220541424308047 150 144 108
11.567161908988798 -1.5756415492688 0.2243119221407674 150 144 108
11.292086853567971 -1.35810983650061 0.42717566991210487 150 144 108
10.64281066729308 -1.9456945288405612 0.26281083973768044 150 144 108
10.64281066729308 -1.9456945288405612 0.26281083973768044 150 144 108
10.64281066729308 -1.9456945288405612 0.26281083973768044 150 144 108
11.542236195308247 -1.2771554488133074 0.6371808310290462 150 144 108
12.459616647431902 -1.7588879787001686 1.0427837127139377 150 144 108
13.165789660665471 -1.5718735359539144 1.073792086059752 150 144 108
14.08155788416568 -1.6761682157243878 0.7526990928226792 150 144 108
13.670872906812273 -1.5718735359539144 1.0094493273177447 150 144 108
14.366546169720607 -1.4007154817129135 0.9567783211255666 150 144 108
12.873305593244037 -1.4776643518922536 0.9699905163771734 150 144 108
14.379903628149815 -1.2954109558318558 0.8695604018806641 150 144 108
12.988343388617126 -1.3849813941977593 0.976047865760302 150 144 108
7.848781444799754 0.20146200036907697 1.1400327650936606 150 144 108
8.316136050688499 0.20146200036907697 1.0305510387249537 150 144 108
8.316136050688499 0.20146200036907697 1.0305510387249537 150 144 108
9.078813707674044 -0.07160391034091924 1.0802158065431833 150 144 108
8.75091065271603 0.17679822530951333 1.1869193460821632 150 144 108
9.07077847364263 0.05341769035550402 1.0797425908418832 150 144 108
8.587285001475573 -0.3528093833167257 1.0493836951923436 150 144 108
12.450674324787304 -1.2389784326614495 1.3868489957142411 150 144 108
11.41815194819339 -1.090486653564181 1.90289419608035 150 144 108
11.816493871848795 -1.1300216488072001 1.7170991476518653 150 144 108
12.36218383168355 -1.0555184607010673 1.3855170508446946 150 144 108
8.93796956345897 -0.4726684956240737 1.0717798388641264 150 144 108
9.770028381551843 -0.5199586346134099 1.2287114711972233 150 144 108
12.296648673378474 -0.9402660472575506 1.3010096705943452 150 144 108
12.877621464245088 -1.7429691128120377 1.1485508861607132 150 144 108
12.075811752301366 -1.3181631432268135 1.7139355406604442 150 144 108
11.60042654239973 -1.2954109558318558 1.8974803590638019 150 144 108
12.985965949198981 -1.337506193358238 1.472271250580273 150 144 108
12.931163644293479 -1.414013182437421 1.3937577770241452 150 144 108
12.815612592143669 -1.4924127534159035 1.3921443993566616 150 144 108
12.678132484692348 -1.6511504987803602 1.469870938474132 150 144 108
12.173488471133318 -1.8254482720563607 1.3826110103529097 150 144 108
12.792976375737172 -1.414013182437421 1.4707800033519922 150 144 108
12.749539099885665 -1.414013182437421 1.6275052896158644 150 144 108
12.195230103845102 -1.7429691128120377 1.2987092573324133 150 144 108
11.965320248133846 -1.7429691128120377 1.379296776401024 150 144 108
13.06156094691878 -2.0499447901352617 1.6261491920310323 150 144 108
13.831417095003177 -0.07160391034091924 0.6174718071779532 150 144 108
13.702178180470204 0.45598377669986395 0.6040621426079695 150 144 108
13.893035176463167 0.17679822530951333 0.6236904745899794 150 144 108
13.98584465338444 0.5647372948725962 0.6328553085769812 150 144 108
13.831417095003177 -0.07160391034091924 0.6174718071779532 150 144 108
9.640312407693711 1.1843721513184517 0.27526927796736383 150 144 108
10.340593823640699 -0.5256964266790637 0.11063417486925431 150 144 108
14.163238765020457 -1.0555184607010673 1.031163137764317 150 144 108
13.427646050547736 -1.571975419671589 0.9065794442858276 150 144 108
13.421789605874359 -1.6883523611107432 0.69863147566798 150 144 108
13.111020873217669 -1.1950383204154502 0.6699174459306323 150 144 108
11.757231881396 -1.011862074895037 1.2882999858602073 150 144 108
11.421854415386083 -1.011862074895037 1.7221924054214401 150 144 108
10.149295700769414 -0.5199586346134099 1.1357576971292334 150 144 108
11.889039532090829 -1.011862074895037 1.8892665556772246 150 144 108
11.53523872209626 -0.8869333078891537 1.2827094489822846 150 144 108
11.936584553967142 -0.8207317973915284 1.3788300270032325 150 144 108
12.153768625314626 -1.0555184607010673 1.5479722616717229 150 144 108
8.587285001475573 -0.3528093833167257 1.0493836951923436 150 144 108
11.873860956537623 -0.9402660472575506 1.6316924832454578 150 144 108
11.29461179398967 -1.011862074895037 1.5462357472839126 150 144 108
9.126675864842321 -0.3528093833167257 0.9542311685867135 150 144 108
12.068671010147414 -0.9402660472575506 1.3809567723973275 150 144 108
12.690384724152905 -1.571787859071823 1.7069592773210593 150 144 108
12.634300376702914 -1.6511504987803602 1.6280231005856647 150 144 108
12.845076823989235 -1.414013182437421 1.7053094550576564 150 144 108
12.19114045608834 -1.4007154817129135 1.2986156604564543 150 144 108
12.777513804661899 -1.571787859071823 1.3916059451853857 150 144 108
13.265980287531915 -1.7295135948716627 1.8552305412277017 150 144 108
13.95982577608078 -1.7295135948716627 1.9931794781181973 150 144 108
13.702178180470204 0.45598377669986395 0.6040621426079695 150 144 108
11.135480146676468 -0.3757204620903479 0.395148303075093 150 144 108
11.291924644951283 -1.5925524748430469 0.05077079503950303 150 144 108
12.834644490627069 -1.0254933700359719 0.6422458055435957 150 144 108
15.051114924432294 -0.9402660472575506 0.9066448811652689 150 144 108
12.693735042201904 -1.4680008484693394 0.8604670681313581 150 144 108
10.779360841469469 -0.9130611634616708 0.30638287930569497 150 144 108
13.36920056696662 -1.6761682157243878 0.8038546884743393 150 144 108
10.925446869019636 -1.301134480091508 0.3461606679963049 150 144 108
11.43041820494133 -1.2101455797547038 1.722078104247777 150 144 108
12.497145844767989 -1.4007154817129135 1.2214665972349381 150 144 108
12.931750093738719 -1.8059627032667975 1.5493455878489737 150 144 108
12.532882285788476 -0.8754356056044068 1.4686972030953518 150 144 108
12.735981610009391 -1.7295135948716627 1.5490158105367926 150 144 108
14.69528953262818 -1.9501570812002986 1.970797094256881 150 144 108
12.864335031461415 -1.571787859071823 1.7840504100409678 150 144 108
11.961151991959044 -1.4007154817129135 1.3792292137434896 150 144 108
14.133009028403562 0.061044609841777654 0.5182203477604438 150 144 108
10.779360841469469 -0.9130611634616708 0.30638287930569497 150 144 108
15.687281763065155 -0.9402660472575506 0.8564276940275436 150 144 108
12.082340510506322 -1.2101455797547038 1.2089317333836127 150 144 108
12.028041048021985 -1.5718735359539144 1.2948289752416735 150 144 108
13.514021739845475 0.6366716784902379 0.5835819103043776 150 144 108
15.2874729633656 -1.0555184607010673 0.9186908376911121 150 144 108
11.79650298294881 -1.848364171723402 1.1997435031785506 150 144 108
12.27006554738995 -1.9045387314285955 1.6297238082650125 150 144 108
13.826144170924682 0.05341769035550402 0.6169345332143793 150 144 108
10.397050050984738 -1.5787218488557009 0.15187295130867062 150 144 108
14.716357397799598 0.17679822530951333 0.5839939521745672 150 144 108
