9.762922706751795 -1.2654257759642822 1.6904269963489917 3 5 11
9.318229076389294 -1.5800758545872124 1.6961655309550083 4 4 8
11.545839201451678 -0.6824449982950445 1.6718845118718995 43 54 61
11.692803489951368 -2.34646399919446 1.4132247289302882 16 23 33
10.596153923804012 -2.8303394613384563 1.5863838524590383 22 35 45
10.141748355759953 -1.9869443188608589 1.4883860214533173 2 2 11
10.313557324712093 -2.206667481527307 1.6840117717490943 17 24 34
9.293939100466233 -0.041350920225322295 2.451127539365275 46 65 80
8.77714514508672 -0.24806833531377892 2.5258470113248936 42 62 78
8.633445248080786 -0.20743154017529852 2.3661369134172467 31 51 67
9.690671734250376 0.4359795586143911 2.402956441303077 43 61 75
9.453756074204245 -0.03090890852829213 2.148809245480493 34 50 65
9.96900717703606 -0.06243391690641105 2.7372608819602293 41 60 76
9.920232795015947 0.51100622927204 2.5376122982761893 38 56 71
10.243125674971056 0.6525096507599365 2.4933327870300026 33 51 65
9.55980172050797 0.15250420399836773 2.5946413408257194 44 62 76
11.350358447206677 1.4667553641896751 2.253988281445179 1 6 19
12.675285369253492 1.5805945200050469 2.3790375142014906 0 1 13
10.365754283580161 1.380862819493721 2.655525569804165 52 69 83
9.888143609422553 1.020993453795615 2.5423316969755856 38 53 67
10.406055397051539 1.1020797345846036 2.47293539456171 26 40 55
10.876700892957995 1.7572635593912045 2.5729666728226603 52 64 79
10.03140790157976 1.4132657265922999 2.521732383770227 3 10 25
11.274854309238629 1.7952801770851536 2.694199771711382 50 65 80
10.250849728231868 2.5338086308541885 3.012202994236115 35 53 70
10.087947224333274 1.0993906555246922 2.710538694998967 44 60 74
9.241560600017452 0.690501438306429 3.012919735507043 45 63 79
10.5323099148282 1.601922196158231 2.8767768071684388 44 60 75
9.232496574557988 -2.919931927219836 3.020744064520158 38 57 73
9.33212864197778 1.6196316035772722 2.952144542360209 46 62 78
9.526041645355674 0.7421200992817435 2.8654578481699393 38 54 69
9.213893717525375 -0.2615293555975681 3.0386975463318193 43 62 79
9.120364286665284 -0.38908327709213203 1.925212922962098 29 43 59
9.22073597241814 -0.27637043290337887 2.0394850199715955 33 48 64
11.216041996732107 -0.8729431006849208 1.8568823210163539 24 29 42
11.907949853310772 -0.741260505222706 2.0194550343080886 47 60 72
13.27718946449185 -1.082212233240121 2.2331526465589837 14 17 30
11.143400005544839 -1.7429489869320305 2.5365439413159763 63 78 93
10.629162921033865 -1.4722264865919958 2.078237464598009 3 6 16
10.140037471180365 -1.5800758545872124 1.994088055735198 6 8 17
13.22761289255404 -1.3426633773700674 2.4472592213006585 52 68 85
11.603975778386616 -1.581201292386103 2.3513205947895464 53 72 89
12.628552875179453 -1.3124773466268822 2.5063618313123133 107 122 139
11.104357287614127 2.2806112726707153 2.541646815719239 48 63 78
8.751874668883069 -2.9398496926021997 2.3524286454869356 32 48 63
10.974711179983075 2.4127138027655186 2.7550950544714827 41 56 71
9.649123625608917 2.9941579401842966 2.5796236026234065 54 70 85
9.133641337147912 -3.0817741874329903 2.6769139525008607 56 72 87
10.063017997957843 2.958795427425872 2.7159573048531307 46 62 77
10.853984484086661 2.5887227260701673 2.422301819548436 44 59 72
9.778353216581284 2.809255182588892 2.558973011902436 43 60 72
9.297559564075932 2.735822403808591 2.64289201354412 43 58 72
9.263349065418113 2.927824593195273 2.03715723767578 8 23 36
9.126830283391998 3.0484518293129543 2.0447014164338855 6 21 34
8.771972354284612 -2.9888551276992525 1.9399503975572627 38 54 68
11.070390571387275 -2.4110035105480296 1.7676464666836704 41 51 63
10.337844861137105 -2.269475812206846 1.9854841163520867 44 56 67
11.350623989094846 -1.9289317304895761 2.253969239558469 39 54 68
9.927786197774084 -2.5126930555256384 2.7470768191803927 45 63 80
10.931910676532475 -1.9869443188608589 1.961684167470537 10 17 25
8.291826280637501 -2.788231241829515 2.2432687357230554 33 49 64
11.235467505613077 -2.5394385238844257 1.7647171544200533 43 52 64
10.134691091715881 -2.3433077423170867 2.1055760859435795 66 76 89
11.343614595594376 -1.973460838410037 2.374313966425211 93 106 122
9.606151654718598 -2.8993868420043216 1.7981429155327253 21 36 49
11.439844897657306 -2.1993978379945065 2.665025877138612 48 63 79
9.656946281204828 -2.759979886444015 2.0167433131881003 33 46 58
10.499304820138951 -2.566180057624906 1.9787244122097576 43 56 69
10.529500446172658 -2.232620695042471 2.4582328285530073 63 76 91
9.548431739371566 -1.7927008390739374 1.6931276523438197 3 3 9
11.621724512846447 -2.468459980635087 1.5850082187199406 36 45 57
10.196536935803493 -3.0188024918398715 1.4888298299893552 16 31 42
10.403635942976994 0.3350223644225801 2.2050751701754026 43 60 74
10.82270966690817 1.5857012841294134 2.580821681268368 11 22 36
10.587782105931067 1.946182359051368 2.8580990153639068 42 57 72
9.196630910528086 1.6838938051387962 3.058842010672024 46 64 80
12.020986428204315 1.6941813644130264 2.317525906364466 20 32 43
9.366122978968827 -0.12714250946229572 2.9340671501822944 41 60 76
9.168828453981417 -1.9079980224056847 3.1133082501289047 45 64 81
13.12026374033493 -1.4603627258944072 2.4571444698391627 48 66 83
10.983439754489929 -1.2654257759642822 2.0603908462667295 0 3 14
11.733062635034186 -1.7195626517164007 2.4672854799115957 100 115 133
11.069186768732584 -1.8212252707601773 2.7346356323280907 47 65 81
11.638964526792247 2.1464086947262584 2.632882230050905 42 57 72
10.730703904499913 2.389764170885749 2.4355195494234945 46 61 75
8.874348128441683 -2.90157037892215 2.5105306914337193 32 48 63
11.13407938114927 2.5055625826485106 2.537755466747093 47 64 76
11.29671913719781 2.548281134406629 2.690182962558649 44 61 74
9.431163356518901 3.0181148418921757 2.4336979239572334 47 64 76
9.673786671236677 -3.062460026822425 2.8158780060941417 47 65 81
9.622628635479122 -3.0935157469713808 2.584011498560763 38 55 68
11.07600652116439 -2.0308901659479583 2.1611117633297154 33 47 58
10.282631791978128 -2.639216765665431 2.6710545306300792 43 59 76
10.695535262651731 -2.483968317429497 1.87122837886246 61 71 83
10.598825088612369 -1.8929579506909588 1.9746699859149102 8 12 21
9.567673998617403 -2.2542666095417174 2.14106172519777 57 67 81
10.978107651523667 -2.084301428060328 2.2819090997703135 63 73 87
10.126840113089157 -2.4302911750094194 2.225336055039482 57 70 83
9.559357347404998 -2.3408132072724994 2.2717341444931733 73 86 100
9.366581283098634 -2.573704589896095 2.441792311568037 37 53 68
9.646942290799348 -2.532562010019291 2.264096947175524 29 43 56
10.895471848319218 -2.337121246690721 2.5702763450104933 54 69 84
9.368415894056858 -2.870801373734872 2.031519616203858 28 43 58
10.106586070346607 -1.1702811085267388 1.6863405613437534 2 4 10
9.163462070621048 -3.114667262324201 1.6982944148180177 32 47 60
11.515060732528266 -2.662066545563832 1.4107716924507734 27 36 46
10.408055180371647 -0.5318110690617314 1.6829795006614223 39 49 62
10.22760021998701 0.882112616507668 2.495339501361009 45 59 73
9.32136840217768 0.12702216368368172 2.4475731871738913 48 66 80
9.994583982424574 0.1906212627292729 2.731321661100553 43 61 76
10.650048058086966 0.7646816040364585 2.6071931400214527 46 63 77
9.946771183736915 1.3319961482048586 2.7425174344789913 45 61 75
10.119402841456566 0.4215587673176095 2.703828595527491 43 61 76
9.394690137045911 2.124763175358025 2.9200890699458446 49 65 81
9.393341500398527 0.37582209490664487 2.920727517172845 43 61 76
9.533058483481875 -0.04975277113134804 2.5992659660468527 47 66 82
12.93430574125513 -1.1275479349847328 2.3582988236367317 70 86 103
10.466523085197263 -2.0213294656190373 2.9010425289176833 39 59 78
13.340998754497878 -1.4452694418264191 2.562402045872131 103 118 136
10.976953556449256 -1.7017382095488331 2.2819996760633567 47 64 82
10.650027028705738 2.9015442345565234 2.8386837255935418 32 49 64
9.503713440398881 2.950751659442416 1.800637262350145 12 27 39
10.200506551283238 -2.331097634900412 2.6871380776179508 53 70 87
9.191280759809917 3.0586532673177325 1.6979064290973012 19 34 47
9.291258960644472 -1.4722264865919958 1.5885732322524653 4 5 10
9.3764090786258 1.09062529132397 2.928919956517866 43 59 75
8.666366891943733 -3.1014062746531663 2.3622694506747868 11 28 40
11.567945178679329 2.188147247141501 2.485348567631193 40 55 71
10.020964202457794 0.5657313257716922 2.367444945533565 40 58 71
10.153711981001651 -2.7985908757186446 1.8878037892577249 30 43 54
10.197643732629004 -1.6877106089344533 1.9915444959028605 7 10 19
10.325717391457417 1.5888350501068895 2.6629160572019965 59 75 90
10.19110060006704 -2.1235176368605844 1.8866004135509884 16 23 31
8.833219796069116 -0.36274763265249477 2.3433297031724525 32 50 66
9.380883268688114 -1.6877106089344533 1.6953238296442157 4 4 8
10.650456726318954 0.7689656549432964 2.444401877536362 34 48 61
10.259480485949087 -2.7045441610144905 1.7834351647691618 37 49 60
11.253700630292448 2.062955261390091 2.5225133912201327 40 54 70
8.527183554920327 -0.03090890852829213 1.951081004692986 23 40 55
11.781115962651802 -1.1702811085267388 2.1215255323192412 3 6 17
9.782610009207827 -2.182864348335956 2.0106112063513413 40 54 65
10.215669059044235 -0.5206865508681285 2.684109476357809 42 62 79
9.79632849741308 2.7164594271296685 2.3911878951711723 44 61 73
11.511668829711361 -2.0297493370575026 2.491723010913799 55 68 83
