15.927781216154656 -0.6878659972501106 1.40154649797809 18 29 38
8.850322254994627 -1.4299151458722827 1.1416064770337686 21 34 43
8.97119885823058 -1.1964879618756263 1.2670894182084411 23 37 44
9.984615023109084 -0.849281872956059 1.193014385321925 17 31 39
9.562026281192116 -2.43923814649701 0.9343740149734434 25 44 53
9.646668656089766 -2.3462426854730754 0.8054733241965486 24 44 51
8.892400552770198 -2.515511145594145 1.2643110482971935 36 56 66
9.104294990885386 -2.1460936180317463 0.8966861812759743 20 32 41
8.396322581736435 -1.5521397136365715 0.9791419774259751 21 32 41
8.828074252790511 -2.733800447964832 1.0116556076288181 20 33 39
8.56115455051599 -0.7719985569337382 1.6078415839620344 11 25 27
9.449078342492411 -0.696904507154782 1.3917366198029761 10 26 29
9.17582873958168 -0.7719985569337382 1.9406743364950674 7 27 29
8.15469069826935 -1.4299151458722827 1.7330185599672707 22 43 52
8.56649722898631 -1.1964879618756263 1.607818469333439 19 36 42
9.044369305077506 -1.4454505178154042 1.6058615274125332 22 39 47
8.15469069826935 -1.4299151458722827 1.7330185599672707 22 43 52
9.070780279517367 -1.092591180224904 1.7165114764395446 15 34 41
9.000596887562855 -1.092591180224904 1.494848104136189 26 42 48
8.889730916227395 -1.3095800243343367 1.953183062294083 22 49 57
9.645496435030736 -1.4299151458722827 2.154657731973188 44 71 82
9.813033491729465 -1.3095800243343367 2.143419124006304 22 45 54
10.155782086526848 -0.9361628196049465 2.1218107318449633 9 26 30
9.180813721808251 -1.1964879618756263 1.9404638200208737 19 44 52
9.266693004634643 -0.9361628196049465 1.936875321358498 9 26 32
10.167011409919862 -1.410021921660895 2.3741493826157263 64 90 106
9.472801366860976 -1.410021921660895 2.3007898168288285 51 79 90
10.326090540037606 -1.2741280258483845 2.358309812486477 4 27 40
10.298858444859468 -1.3836631984980075 2.510821198980143 0 23 39
10.455931813992795 -1.227977307761787 2.490531367568234 11 32 45
10.908816447391448 -1.410021921660895 2.43783796516889 31 56 72
9.912316348827359 -1.1486038496348578 2.261780360499812 6 28 37
9.661482389807514 2.4769989030915336 2.607732122998481 18 39 50
8.858659539198028 2.796373652636959 2.790112448813403 19 39 56
8.858659539198028 2.796373652636959 2.790112448813403 19 39 56
9.231241736614349 2.8809642552161123 2.6927977527296614 18 40 56
12.818522481888046 2.236002090841173 1.6737259857634033 53 73 78
10.00042666805758 2.249999726149 2.254515778244625 15 34 44
12.902596997139577 2.1712481040930824 1.9119662585895836 8 28 33
13.094376537737705 2.405726686832349 1.9889327103664607 56 77 84
9.203440256989868 2.888902578457337 2.0590362245129565 40 60 74
9.201179362093086 2.7259509883811055 2.1869116669447775 34 55 69
10.128103466703909 2.3398239672397825 2.378139715982566 18 37 49
9.598220045796054 2.808320100309203 2.4377127488923316 50 73 89
9.55152594837444 2.853998574530936 2.293438036322793 49 72 87
9.474572367571886 2.7738448837636938 2.0438972757888 58 78 92
10.4474124127136 2.4500400600298344 2.4916024404310617 17 36 46
9.389751804925156 2.9924740370095773 2.308733309765181 51 75 92
9.437246370798329 2.967544313154898 2.4580501164294883 46 70 88
9.849873509470678 2.7462867264571154 2.576211022203255 17 37 53
10.210496854525308 2.5397116888021802 2.3697447780932523 40 60 74
10.380750614524882 2.808320100309203 2.5000974789601105 59 82 97
8.748330336964747 2.9924740370095773 2.224060826535439 52 78 98
9.526012989417751 3.0257543939259057 1.926460009117142 54 71 85
8.851408411245874 -2.8163236925438953 2.792353250777725 75 98 119
8.579478754230218 -2.6639686312127737 2.8936332720423485 17 39 56
8.79838848011664 3.1304068375412357 2.8092957961815204 27 50 69
9.29819550513629 -2.0946625448892857 2.4766225489276894 75 111 134
9.173418938184154 3.1332970828557376 2.706070106745271 45 70 90
9.866641766922912 -1.9308064732663148 2.5735380600848763 104 135 158
9.641524156600486 -2.487362659608034 2.6112444728432513 37 70 97
10.10398906002843 -2.0946625448892857 2.537729085536612 60 93 118
9.382067844920208 -2.67116678951642 2.660493071585896 41 69 94
9.173418938184154 3.1332970828557376 2.706070106745271 45 70 90
9.402915970121327 -2.0112046483623756 2.6562627696848655 113 141 164
8.474946948774912 -1.9165235756064967 1.608218585364024 22 45 54
9.303164892136234 -1.6675050454063929 1.8225093593663184 25 49 58
8.212831140521835 -1.8013147509171812 1.4875471019517803 20 36 44
9.015573551549627 -1.6675050454063929 1.6059735718546397 19 38 44
10.237502646428947 -1.549014468591961 2.5190745067958984 52 80 101
9.09544895015423 -1.9165235756064967 1.9441030698745507 25 53 65
10.884954139529077 -1.6950101026675377 2.4404248706324942 72 103 123
10.273579493245098 -1.7155545964466379 2.51419829896735 91 121 142
10.204518892909563 -2.1460936180317463 2.3703468745094987 95 132 158
9.151943804128399 -2.019051139220059 2.332623043072541 66 103 127
9.09544895015423 -1.9165235756064967 1.9441030698745507 25 53 65
9.064520452349408 -2.077777975658143 2.067193899032408 43 83 101
9.25318170738653 -1.8013147509171812 2.0561832402757867 31 64 79
9.990855196485994 -1.6675050454063929 2.0176196482984294 30 57 68
8.962127870529699 -1.832990094921895 2.2059272939979464 54 88 104
9.618500497217 -1.6795521275681982 2.156513239817264 41 71 86
8.233553339186958 -1.9615081773569387 1.9854501980429238 37 71 87
9.589259160183476 -1.832990094921895 2.2899736722954893 66 100 118
10.141403815360755 -1.6950101026675377 2.376770342232631 64 97 115
10.338746648254212 -1.8013147509171812 2.2281321562797523 57 90 106
10.150071977229631 -2.94479162471477 1.7009236832160353 15 21 24
8.819378524815779 -2.6746061152862066 1.6067564551964972 8 14 15
9.218587214555614 -3.032902414695717 1.8248695093094922 0 2 8
10.563801750885178 -2.8494946878107688 1.7919355689745426 6 7 8
9.430440132591704 -2.9781742399235807 2.458936661138771 58 84 106
10.227852525257084 -2.862614611053039 2.3680028117733025 50 81 109
9.538071713138365 -2.862614611053039 2.2946825040554324 71 100 128
8.623413176076728 3.1361234474593043 2.3928562086122698 49 75 98
8.842693363789662 -2.9454021743581844 2.54538608014409 57 83 105
10.141321118878952 -2.6178294471557177 2.243246734354081 90 126 153
10.185311686014877 -2.547181583280718 2.3722887366953236 98 134 157
10.572709447054962 -2.515511145594145 2.2111623711401682 99 135 160
10.422799731661462 -2.457913271750513 2.494715186842095 64 99 124
9.838942175134795 -2.673471046018779 2.409362604964371 31 65 87
10.614912395158814 -2.43923814649701 2.331347135254365 117 155 179
10.096355282403136 -2.3462426854730754 2.3814310349906993 87 126 152
10.059147667415377 -2.9232689039486797 2.014369227336893 81 94 103
9.497844485390843 3.137513318805522 2.164964161122314 47 71 86
9.672243613631261 -2.9232689039486797 1.9208498730924612 76 89 96
10.386761576770727 -3.032902414695717 2.108201999733542 57 81 98
10.137997640448125 -3.019221512122446 2.2435077914367527 50 76 94
9.417213143191262 -2.6746061152862066 1.930755038043174 144 156 159
10.718582226525776 -2.578514678825467 2.089853431917005 89 121 140
9.814176412604969 -2.6746061152862066 2.026263384039529 124 136 141
11.248206978013506 -2.578514678825467 2.1671236981768347 117 147 166
10.519057856527919 -2.780968455509449 2.214968163777982 62 92 115
9.116406105153704 -2.2708811279774195 1.6055843339260465 28 50 59
9.430738645236636 -2.119411345771306 1.7109122988781533 20 46 56
8.666058767330291 -2.1807957466932515 1.375357556350944 30 48 58
9.390492797170989 -2.4263471573554125 1.8201185355833431 53 76 89
10.14501503902812 -2.492793902746433 1.8012258171141278 94 106 114
9.400913297172712 -2.2708811279774195 1.8198363105492976 32 56 72
9.105660021483628 -2.4263471573554125 1.6056254057407797 43 66 77
10.539630960998242 -2.4263471573554125 2.0995808343562903 62 99 125
11.136409287093292 -2.3491192541002563 2.068546493267751 49 90 107
9.916846556524217 -2.3479239497175466 2.1366850026675297 70 102 124
9.961828433108915 -2.2552361019327574 2.257677012833057 71 111 134
10.190837461531888 -2.3394249276517187 2.724474507447818 90 116 138
11.245653621155073 -2.232600205291885 2.547228568630997 108 140 167
9.955560908305227 -2.133034545587608 2.7815070665709882 12 34 55
9.552047475160768 -2.6639686312127737 2.9193296766134624 22 42 59
9.81698618877447 -1.8559411111936226 2.8210900216625547 8 31 50
10.52563343381227 -2.196990771174208 2.6576765613661877 69 97 120
16.367599580640682 -0.7351279043448304 1.5290601721003052 18 29 38
8.673083887655196 -1.3095800243343367 1.256298554980233 22 36 43
9.367093134240267 -1.092591180224904 1.2803081831017338 21 37 42
9.660574125440638 -0.849281872956059 1.2893777212972253 10 24 32
8.752803802812625 -1.0357468161937131 1.9594827527567915 9 25 32
9.501093051013639 -0.9987670273779209 1.4988559949993572 19 34 41
11.02560369579277 -1.3095800243343367 2.296476197387329 20 45 55
9.222832588648764 -1.3376020406105174 1.6051827399784162 18 35 43
9.23678647493841 -1.0877609220013742 2.3238970742393916 5 28 38
8.35218565502792 -1.3095800243343367 1.7291498776321228 23 44 52
8.704440874135205 -1.4299151458722827 1.9617591597773134 12 36 48
9.553457927620277 2.141219027838271 2.293259735036261 14 33 43
8.58695951213453 2.6372679643671577 2.8902152566909116 24 44 60
8.42590639009544 2.2711691346533502 2.980695980019164 24 44 59
12.417503225897738 2.405726686832349 1.8412090604918667 48 68 75
13.175083649280722 2.236002090841173 1.8253040295453578 22 42 47
8.869101091178532 2.6681223472821305 1.4937198556399696 63 77 88
9.379279056675584 2.81220695375743 1.6046089537223114 46 59 72
9.813045242270375 2.7259509883811055 2.2701756486985216 23 47 62
8.921742692379821 2.853998574530936 2.2092675306144507 60 81 97
9.858500749703081 2.664797930956654 2.407158343737515 54 78 94
8.59088304783194 -1.9870531371339946 2.888442975129839 27 49 68
7.897147087102226 -1.5270180512577767 2.7559236139769134 11 36 55
8.547707082787738 -1.5048254715317286 2.908768025631813 32 54 72
9.224283496893442 -2.8965170508960814 2.6943667272268965 59 84 106
9.651673632564934 -2.196990771174208 2.60945388377623 52 82 106
9.65382902376685 -2.232600205291885 2.4309543320026106 118 154 181
9.72680032633554 -1.7441603239820853 2.5964786794365073 109 137 159
10.432189132371054 -2.232600205291885 2.493524473602629 97 132 158
8.077063547653143 -1.5544807414421409 1.7345916725900183 22 45 54
8.570815658849904 -1.9165235756064967 1.7250776980666318 13 37 46
8.28968671842309 -1.8013147509171812 1.730353958532995 21 46 54
9.16627195929663 -1.7763708262492417 1.6053950063429374 20 37 46
9.868750207972726 -2.019051139220059 2.4060088516483717 70 106 128
9.57995702738677 -1.5544807414421409 2.159184576646947 40 68 82
9.589259160183476 -1.832990094921895 2.2899736722954893 66 100 118
10.943781846746841 -2.1460936180317463 2.434081805899294 53 90 116
9.50585855555926 -1.9165235756064967 2.042213296601791 31 65 80
8.492580298147713 -2.019051139220059 2.2473186223970165 78 117 136
10.127051037964492 -1.7763708262492417 2.01118566104405 32 59 71
10.205376381515832 -1.6795521275681982 2.238258858001148 48 77 92
9.22278217980408 -1.9615081773569387 2.1852541257372473 42 78 96
8.972910732705788 -2.6746061152862066 1.382123029277811 14 19 23
10.327541644378867 -2.94479162471477 1.797081615957725 0 3 6
9.358719021145108 -2.8187027697540024 1.604683264612546 1 3 5
9.167691051553998 3.1379732176334696 1.8263114711475597 1 3 9
10.843724876840373 -2.6746061152862066 2.1926662815753657 93 124 146
9.924116461280356 -2.8187027697540024 1.9115994433422865 92 98 102
9.880267931585623 -2.578514678825467 1.9131737755455238 117 128 129
10.141321118878952 -2.6178294471557177 2.243246734354081 90 126 153
9.454219568113846 -2.780968455509449 2.0449995342497367 91 117 132
10.281769651833129 -2.8965663208143977 2.2324164739088754 62 90 115
11.198943714711792 -2.515511145594145 2.2828266201446255 98 133 158
10.527136698471514 -2.9232689039486797 2.1002744413251535 68 93 109
9.584831355324997 -2.818120822763674 2.439359761598384 50 81 107
10.792615499018657 -2.6178294471557177 2.3157948857329 99 132 158
9.836827344986402 -2.757568532230243 2.5783048110265727 52 83 109
10.466363183744043 -2.733800447964832 2.344940112299806 52 84 110
9.912147132647055 -3.032902414695717 2.021427799624457 71 85 95
10.08331177058325 -3.0016263601532227 2.3827925801534438 58 85 105
10.055702162919566 -2.3491192541002563 1.8033099701099662 51 75 88
9.430738645236636 -2.119411345771306 1.7109122988781533 20 46 56
9.881954239685172 -2.492793902746433 1.6028883666780838 75 92 102
8.538428351376131 -2.3479239497175466 1.3723975396274566 27 47 56
10.624132011799116 -2.2552361019327574 2.330521747687684 50 89 113
10.332052132213752 -2.3491192541002563 1.8976314668263994 63 93 108
10.418996372757995 -2.492793902746433 1.8948039999030923 54 85 97
9.909951661922207 -2.119411345771306 1.9121063950407982 33 61 74
10.84107625429197 -2.3437035113905753 2.604937681399796 79 110 134
10.516327464269464 -2.487362659608034 2.659362884665804 47 73 96
9.40753080246558 -2.3029726812555835 3.0028092124925383 24 44 60
8.883820122235518 -1.9165235756064967 1.2640053842706054 16 33 41
8.387628608562387 -1.9615081773569387 1.116210964378455 16 28 37
9.033496155505143 -1.6950101026675377 0.8904086064637757 20 31 40
10.298858444859468 -1.3836631984980075 2.510821198980143 0 23 39
10.298858444859468 -1.3836631984980075 2.510821198980143 0 23 39
9.689163274370298 -1.0357468161937131 2.1516830210981617 9 25 32
8.77414980795035 -1.1486038496348578 2.0852075212500534 8 27 35
8.66135266847319 -1.1964879618756263 1.7234522829863137 22 41 50
8.746382738108466 2.7738448837636938 1.8389156146371766 54 74 86
8.921742692379821 2.853998574530936 2.2092675306144507 60 81 97
9.035435992779028 3.0111924719930605 2.0689382075683116 51 73 88
9.021410803146852 2.7462867264571154 2.516790882720169 65 88 104
9.984202508323273 2.4328989604619338 2.2558405813596996 13 35 46
10.020401736104981 2.3356816731425787 2.549929811517147 17 36 46
9.638028334873384 3.1350004340877247 2.6118633545274204 55 79 97
9.57995702738677 -1.5544807414421409 2.159184576646947 40 68 82
9.95375368334804 -1.556299803253664 2.0194063669125644 22 49 60
10.104855079506443 -1.5521397136365715 2.380546721808585 75 106 125
9.581215283276867 -2.077777975658143 2.1590969558409006 38 76 97
8.789620862721254 3.1350004340877247 2.5543434102770655 47 72 94
10.084590384874202 -2.5942713149191863 2.5405232804370494 34 67 94
8.374216701131793 -1.4372707268749068 3.024708210310743 30 50 65
9.513046334498256 -2.1460936180317463 2.2970102982068976 50 90 115
8.831709199739578 -1.5270180512577767 2.79853065071695 33 55 75
10.406075666283265 -1.874447378432029 2.4968460478474146 65 97 120
9.430440132591704 -2.9781742399235807 2.458936661138771 58 84 106
10.85091016695211 -1.5521397136365715 2.4441491658386676 75 105 124
9.951995271474898 -2.43923814649701 2.2584875951513697 97 135 160
10.259329884225224 -2.578514678825467 2.0051181479558577 85 117 135
7.976420226953142 3.1350004340877247 2.48482353187506 51 77 100
9.793395888076578 -2.733800447964832 2.2718646792257413 65 97 123
17.89001176547555 -0.6600672836560157 1.5885209791787918 17 28 37
16.357691836448094 -0.8216575450844499 1.5290348780897765 17 28 37
8.97119885823058 -1.1964879618756263 1.2670894182084411 23 37 44
8.914393938198195 -2.1807957466932515 1.2650917060198044 29 47 56
8.658471771729243 -0.9361628196049465 1.6074250250214477 7 25 29
9.568038745017505 -1.092591180224904 1.9248289355616115 9 29 38
8.752330472238217 -0.9361628196049465 1.7218532246697984 10 26 31
9.670277702728331 2.4500400600298344 2.4289802124813216 18 38 52
9.693079962952808 2.9327511200780574 2.602242903689586 51 74 90
9.395745472509656 2.6580725262363054 2.657711780421159 23 43 57
8.748330336964747 2.9924740370095773 2.224060826535439 52 78 98
9.064520452349408 -2.077777975658143 2.067193899032408 43 83 101
9.994737569237909 -2.3437035113905753 2.5537620213852654 132 165 192
9.695943795959021 -2.2708811279774195 1.9199576162576715 53 84 103
8.955381411552118 -2.0229366740131334 1.7184028259940598 30 57 68
9.989480631106066 -2.7209534312864747 1.8048800157837677 37 43 46
11.0100954486343 -1.832990094921895 2.427067815967008 67 101 121
8.884286447402415 -2.0229366740131334 1.4938518584731104 29 48 58
10.007398751843944 -2.515511145594145 2.1309479521152257 70 108 135
10.298008740266255 -2.0112046483623756 2.701578314049255 99 125 147
8.778848397463056 -1.5544807414421409 1.137877358475476 22 33 42
9.94748107095674 -1.0877609220013742 2.3973053493391774 9 30 38
9.864829940937565 3.1379732176334696 2.0237498427168457 57 75 90
8.974441001812574 -1.556299803253664 1.6061348666941468 21 40 47
8.84995163234013 2.9327511200780574 2.5441785347097823 50 74 92
10.169057572853774 -1.5544807414421409 2.2410768069628775 45 75 89
9.458708515080069 -2.0229366740131334 1.9291044767380874 28 61 73
8.524767719924261 3.1244260484488473 2.920401732494253 23 43 60
8.41828251639853 -2.3029726812555835 2.986375387377587 32 53 70
8.579478754230218 -2.6639686312127737 2.8936332720423485 17 39 56
10.103673447659876 2.584713611042229 2.5377743701666375 18 39 50
