10.82716368355353 0.8090199176192416 1.5182612929778685 134 33 172
11.13974357481895 0.6785981037450479 1.7908362631375208 134 33 172
9.929700768720988 0.5738371897509249 2.0334037179764293 134 33 172
10.452112228601415 0.6626722221182453 2.008628473367777 134 33 172
10.820831106038048 0.8090199176192416 1.6106796406707886 134 33 172
10.068949182727016 0.6626722221182453 1.9185596306368287 134 33 172
11.082247543494098 0.8090199176192416 1.791996795990406 134 33 172
10.327701290305514 0.5180788904967555 1.9094923710840483 134 33 172
9.558557871138099 0.32206441251997736 1.937985168704297 134 33 172
10.491719489401017 0.38403363310992233 1.8046726219059552 134 33 172
9.16900448304035 0.09704467651605832 1.9543790505931398 134 33 172
9.133616508649407 -0.020812334922079085 1.9559431785300787 134 33 172
9.804748838978693 0.08684366464964877 1.8213987468044788 134 33 172
9.26666601424235 0.10995022281871317 2.1970684051549902 134 33 172
9.771663477244445 -0.018613461622581248 1.8222655648964405 134 33 172
9.408442575817489 0.2396969026152004 2.1862095622926625 134 33 172
9.312268031631987 0.21226958393399162 1.948178046679167 134 33 172
9.48426405544453 0.4735148053238128 2.056966227332437 134 33 172
9.99124036154377 1.102557121519876 1.7145621755840044 134 33 172
10.005301661964017 0.8125740260929951 1.9208665708286023 134 33 172
10.291089211371169 0.8957331209619317 2.12678397093788 134 33 172
9.63601234525052 1.3859777230165675 2.169609116820626 134 33 172
9.322831678372212 1.2658479666023499 2.0661396227959172 134 33 172
9.635380609173703 1.154129278354985 2.0486958127887998 134 33 172
10.182720479178514 1.102557121519876 1.8119082918450518 134 33 172
10.140433178590587 0.9612729956669575 1.916005431254066 134 33 172
9.981859255961352 1.4065251187116374 2.0307995329607254 134 33 172
10.476175492159411 1.0164639711891765 1.7078643171020838 134 33 172
9.7826361882297 1.298627752917783 1.9291896464174887 134 33 172
9.785827884073035 1.196838447453558 1.821893724183819 134 33 172
9.7826361882297 1.298627752917783 1.9291896464174887 134 33 172
9.383804089794273 1.101215391688351 2.1880671287998523 134 33 172
9.80018391467527 0.8957331209619317 2.0400053365031825 134 33 172
10.140433178590587 0.9612729956669575 1.916005431254066 134 33 172
9.657060861020762 0.817386615884531 2.1681225224051 134 33 172
9.756862604752566 0.9169585254005405 2.2905142381948926 134 33 172
10.816507000761346 1.0343790182349142 2.464661913033959 134 33 172
9.695015348631467 1.224449633444043 2.2961199222234057 134 33 172
10.252889196143652 0.817386615884531 2.248855012920883 134 33 172
10.315009120976983 0.6412029265359772 2.2440137498663058 134 33 172
10.666846018646751 1.101215391688351 2.3415656030734633 134 33 172
9.26762149032626 0.5342799862336125 2.1969938237418676 134 33 172
9.544842995039588 0.4119456366837978 2.3101558089543417 134 33 172
10.749519816828911 0.6107219343924625 2.4724544569292224 134 33 172
9.886946974819745 0.5342799862336125 2.2790385263438426 134 33 172
10.710780483807028 1.823553811926757 1.8969206579247326 134 33 172
10.990698321395294 1.9164177637742494 1.8883195714310264 134 33 172
10.667659100254413 1.8507942672942002 2.1049951477964184 134 33 172
10.375436792733169 1.631614799364068 2.1217403643780446 134 33 172
9.884945383027725 1.5184086128804986 2.035662924016752 134 33 172
9.478883522361743 1.5184086128804986 1.9412201999437164 134 33 172
9.99306796057551 1.743287820614951 2.0302438858200165 134 33 172
10.94867945000038 1.9520622648499066 2.089878272869144 134 33 172
10.488597108475492 1.9520622648499066 2.0070006724599656 134 33 172
10.667659100254413 1.8507942672942002 2.1049951477964184 134 33 172
10.727944882914889 1.9954116458819469 2.21367878251688 134 33 172
11.355690811474215 1.9954116458819469 2.2842192018869283 134 33 172
11.084993585301712 1.8843998432851785 2.305553367311549 134 33 172
10.142233893575925 1.6393653045970538 2.2576742517976593 134 33 172
10.498685057120253 2.0457476952779574 1.9037609760310832 134 33 172
10.498685057120253 2.0457476952779574 1.9037609760310832 134 33 172
10.899637122025577 2.334752723172872 2.0924508953728784 134 33 172
10.33089823646609 2.2524893989710937 2.124391347941885 134 33 172
11.527216507529381 2.4058341405809904 2.0614305694775594 134 33 172
11.116963150062112 2.266848953662251 1.9808091742371867 134 33 172
10.07162388299917 2.0963308287040068 2.0263885529273136 134 33 172
12.295123920904429 2.572282811780803 2.3264383538669042 134 33 172
12.303730769773694 2.6272827541241592 2.21930715374123 134 33 172
12.172369167219536 2.542937961050458 2.1274702084531407 134 33 172
12.15496334398905 2.4138491398031103 2.337359290411628 134 33 172
12.15496334398905 2.4138491398031103 2.337359290411628 134 33 172
11.726844352174876 2.6272827541241592 2.151292355633263 134 33 172
13.001268577540287 2.572282811780803 2.3824492050305897 134 33 172
12.02197630099637 2.334752723172872 2.2371909075757666 134 33 172
12.303730769773694 2.6272827541241592 2.21930715374123 134 33 172
9.790300078211716 2.9311241324865906 2.0405172177476234 134 33 172
10.152103000533016 3.0453910694728883 2.135313528539223 134 33 172
10.690201824354421 -3.1209622029082236 2.2163259650620994 134 33 172
11.464672381112896 2.9311241324865906 2.276020894030375 134 33 172
11.947137656030206 2.7204881463033592 2.2421266483054563 134 33 172
11.947137656030206 2.7204881463033592 2.2421266483054563 134 33 172
11.938273725604354 2.6721045783973243 2.354989512204651 134 33 172
11.348613136560422 3.0453910694728883 2.284759104395509 134 33 172
18.440127863649806 -2.8247939815913274 3.110923532508878 134 33 172
18.457681552965827 2.1487190575753656 3.088278987138889 134 33 172
19.751585280213675 -3.091835073494589 2.961305445526114 134 33 172
19.954943049309197 -3.102788820012604 2.9120324189157616 134 33 172
19.954943049309197 -3.102788820012604 2.9120324189157616 134 33 172
10.521852827760567 2.8537323982276965 1.902999579296564 134 33 172
10.625449214739675 -0.1119441727644401 1.7059267974016339 134 33 172
10.625449214739675 -0.1119441727644401 1.7059267974016339 134 33 172
9.761164289558396 -0.40238272963110294 2.160885696145642 134 33 172
10.130776653584315 -0.5101873774811002 2.136647171223647 134 33 172
11.37539919406642 -0.6304539437042791 1.970955445516808 134 33 172
10.276741966647144 -0.6913479760259692 1.9112397146361086 134 33 172
10.130776653584315 -0.5101873774811002 2.136647171223647 134 33 172
9.902503417898314 -0.675307359434121 2.1513574886123976 134 33 172
10.460013444472564 -0.7627313838199387 2.1167800022669163 134 33 172
10.460013444472564 -0.7627313838199387 2.1167800022669163 134 33 172
9.654940274404085 -0.45679263964764233 2.299805705069913 134 33 172
9.654940274404085 -0.45679263964764233 2.299805705069913 134 33 172
10.08605357809442 -0.32480080711443166 2.3991290596614125 134 33 172
10.576390204175901 -0.7584721421211081 2.3499054501152847 134 33 172
10.124609742302614 -0.6527087758464113 2.3949883344723224 134 33 172
10.643635097449872 -0.945084770544053 2.343685631749794 134 33 172
10.457027525693272 -0.8466222720643926 2.2332288967988827 134 33 172
10.879826966862531 -0.6527087758464113 2.4574518364258573 134 33 172
11.010200338877887 -1.0598103692402558 2.4430588305232046 134 33 172
11.5395864274586 -1.1913759325274733 2.5275287717119355 134 33 172
11.368231433974529 -1.3382529907624443 2.549245756717214 134 33 172
10.737743828283786 -1.1913759325274733 2.4738423956615945 134 33 172
12.2106346408099 -1.3382529907624443 2.5949849304470236 134 33 172
10.481994284732641 -0.9812017399027101 2.505419400306139 134 33 172
10.048676888042792 -0.9201483466445712 2.027507749711516 134 33 172
10.528001690502597 -0.9201483466445712 2.112860916317682 134 33 172
10.785555827927661 -0.9817854783992263 1.99420393037812 134 33 172
10.782660058255772 -1.0711702256339155 2.0986975165633863 134 33 172
10.41466764339622 -0.9817854783992263 1.9065523000572053 134 33 172
10.97226827519198 -0.9019174986475035 1.8888716408455886 134 33 172
10.620194793127165 -1.240213584606863 2.3458405039166426 134 33 172
11.342462247629724 -1.240213584606863 2.4088659102058836 134 33 172
10.504882835410589 -1.3937725552687166 2.229680440664601 134 33 172
11.47302225584624 -1.308596215496312 2.1658728211971012 134 33 172
10.2899959302531 -2.0909287012483126 2.377776998664249 134 33 172
10.755105653592889 -1.9605992381830353 2.471798012530819 134 33 172
9.811493034048494 -1.6292851752812667 1.9280882165496434 134 33 172
9.616502180203662 -1.7367885421941076 1.826412963688776 134 33 172
10.676667099196381 -1.6292851752812667 2.1044961075354287 134 33 172
10.204327903008718 -1.6292851752812667 2.0200265104640858 134 33 172
10.120012727087936 -1.8405675775446464 1.9167311546878243 134 33 172
10.120012727087936 -1.8405675775446464 1.9167311546878243 134 33 172
9.937980872700514 -1.9387318478915487 1.7153380395950508 134 33 172
9.54656908522547 -1.979118676925211 1.9384682434751195 134 33 172
9.935468989918057 -1.7566507153224193 2.1491825480707836 134 33 172
10.584948753943044 -1.8151531024219756 1.7064470264934586 134 33 172
10.433734043421989 -1.979118676925211 2.118311056133936 134 33 172
11.081548261779362 -1.5064101708310418 2.4354266627091503 134 33 172
11.178102429186488 -1.7818321424343175 2.4253581724736595 134 33 172
11.178102429186488 -1.7818321424343175 2.4253581724736595 134 33 172
10.265155194479243 -2.0287690509718375 2.247892933739932 134 33 172
10.70752480567677 -1.8717041233279437 2.2151080133734484 134 33 172
11.061859600441682 -1.6364193587676754 2.307444543754046 134 33 172
11.058485737218454 -1.5142671126505372 2.307721285966375 134 33 172
11.058485737218454 -1.5142671126505372 2.307721285966375 134 33 172
10.412837961157555 -1.5142671126505372 2.2365433614219077 134 33 172
10.416420950832569 -1.6364193587676754 2.2362732474969502 134 33 172
9.461272167702656 -2.5398235838441585 1.8307030492670369 134 33 172
9.95137061899242 -2.4718804712112346 2.1481396689793537 134 33 172
9.275035100161405 -2.6356347989677062 1.9497697440952841 134 33 172
10.186746780378385 -3.0046882235614465 2.1331613591554124 134 33 172
9.818339655056118 -2.7427831960505342 2.156990972742137 134 33 172
10.129734063968666 -2.785426694302262 2.023579717206289 134 33 172
9.625812159175153 -2.3845946648823375 1.9352991752931634 134 33 172
9.404495791856391 -2.3017097031099087 2.0614540803600483 134 33 172
9.915011522634995 -2.3017097031099087 2.150530184841252 134 33 172
9.625812159175153 -2.3845946648823375 1.9352991752931634 134 33 172
9.818339655056118 -2.7427831960505342 2.156990972742137 134 33 172
9.46981889370048 -2.573118574405285 2.1816346514258407 134 33 172
8.953399561858387 -2.6356347989677062 1.845818140903747 134 33 172
9.733889243862752 -2.785426694302262 1.931066137420855 134 33 172
10.806170045620643 -2.860518796898603 2.3291193032897377 134 33 172
10.753265660369857 -3.0046882235614465 2.211916190856493 134 33 172
10.649929752717146 -2.986796905301998 2.3431093471523914 134 33 172
10.496207214462036 -2.3017097031099087 2.23032061086188 134 33 172
10.144476263461248 -2.860518796898603 2.2574929873692073 134 33 172
10.004785598367665 -2.204401282437957 2.2689937874978447 134 33 172
9.661713094667132 -2.077428145966798 1.8251902780012599 134 33 172
9.661713094667132 -2.077428145966798 1.8251902780012599 134 33 172
10.078944874907483 -2.1346112959204557 2.139916779929697 134 33 172
10.245739721993768 -2.0300086520006135 1.6129195730678016 134 33 172
9.691952126437858 -2.2279957881812087 1.9326966686393765 134 33 172
9.38461632813101 -2.2279957881812087 1.8328757918099694 134 33 172
19.988798348530917 -2.887957258425359 2.9048933898681004 134 33 172
19.988798348530917 -2.887957258425359 2.9048933898681004 134 33 172
11.038316945402919 -3.018890923420719 2.085244751383885 134 33 172
10.739359194537075 -2.917260586068937 1.996143372515759 134 33 172
10.952159473502078 0.9386473642607553 1.5188614123065909 134 33 172
10.678550010524841 0.7407118169261625 1.8979416052408058 134 33 172
11.613727532567697 0.7461933247750844 1.6943660960547247 134 33 172
9.16900448304035 0.09704467651605832 1.9543790505931398 134 33 172
9.90018794058159 0.4243895905504112 1.9247458067661314 134 33 172
9.48426405544453 0.4735148053238128 2.056966227332437 134 33 172
10.491719489401017 0.38403363310992233 1.8046726219059552 134 33 172
10.561622209582815 -0.016834782426058115 1.7067484839898448 134 33 172
9.804748838978693 0.08684366464964877 1.8213987468044788 134 33 172
9.231652416364751 -0.02360021429805508 2.1998149095051325 134 33 172
9.638621066785467 1.0524295535690198 1.934792173593132 134 33 172
9.635380609173703 1.154129278354985 2.0486958127887998 134 33 172
9.63601234525052 1.3859777230165675 2.169609116820626 134 33 172
9.478241313467448 1.298627752917783 1.830226992800322 134 33 172
10.248313482713174 0.8803873184862134 1.7109317841671268 134 33 172
9.722988263435177 0.6412029265359772 2.1635174481732635 134 33 172
10.435077461854359 0.8803873184862134 1.8059659757544375 134 33 172
10.080939429023541 1.196838447453558 1.918128512597481 134 33 172
9.383804089794273 1.101215391688351 2.1880671287998523 134 33 172
9.763261804279297 0.7334499451296989 2.0419235032604615 134 33 172
10.176585045397177 1.298627752917783 2.0213412188054356 134 33 172
10.689925163206631 0.8242695069118113 2.4795353727569927 134 33 172
9.920261468329258 0.8242695069118113 2.4175274395282647 134 33 172
10.564782670639158 0.5342799862336125 2.3509909994612275 134 33 172
10.01594965602141 0.27505859886007017 2.406788715191322 134 33 172
10.01594965602141 0.27505859886007017 2.406788715191322 134 33 172
10.710780483807028 1.823553811926757 1.8969206579247326 134 33 172
10.94867945000038 1.9520622648499066 2.089878272869144 134 33 172
9.48281940406548 1.631614799364068 1.9410590184180445 134 33 172
10.47493769239803 1.743287820614951 2.115914557328117 134 33 172
9.884945383027725 1.5184086128804986 2.035662924016752 134 33 172
10.488597108475492 1.9520622648499066 2.0070006724599656 134 33 172
10.899653745259997 1.7648155972098538 2.321025780566181 134 33 172
10.138554005990224 1.511727395560585 2.2579719517727677 134 33 172
11.084993585301712 1.8843998432851785 2.305553367311549 134 33 172
10.8667060475353 2.0457476952779574 1.9908409960815154 134 33 172
10.697387837845264 2.1312199910383143 1.8000947705266108 134 33 172
10.54990616240445 2.0963308287040068 2.1116109735306847 134 33 172
10.899637122025577 2.334752723172872 2.0924508953728784 134 33 172
12.295123920904429 2.572282811780803 2.3264383538669042 134 33 172
12.081177613063934 2.4837408429153225 2.2333431170929647 134 33 172
12.081177613063934 2.4837408429153225 2.2333431170929647 134 33 172
11.726844352174876 2.6272827541241592 2.151292355633263 134 33 172
11.665607806247984 2.822155253195243 2.2614481683701233 134 33 172
11.348613136560422 3.0453910694728883 2.284759104395509 134 33 172
10.586250347538119 -3.1182260322474207 2.348986099224507 134 33 172
11.938273725604354 2.6721045783973243 2.354989512204651 134 33 172
19.751585280213675 -3.091835073494589 2.961305445526114 134 33 172
20.751764410753964 2.912770227868827 2.965665965005255 134 33 172
19.767974447689237 2.912770227868827 2.9568121047020464 134 33 172
19.954943049309197 -3.102788820012604 2.9120324189157616 134 33 172
19.954943049309197 -3.102788820012604 2.9120324189157616 134 33 172
10.29862584261182 2.9526412522133865 1.9104870879777955 134 33 172
10.518042654180961 -3.1231248120360675 2.005696063969018 134 33 172
9.207348035353718 -0.13809654175657746 1.9526989594145812 134 33 172
9.38762830331447 -0.2516938277318573 1.9449980599134395 134 33 172
10.652433423588564 -0.6913479760259692 1.9998430536289802 134 33 172
9.41845351554218 -0.5736956186293992 2.185458279012008 134 33 172
10.643635097449872 -0.945084770544053 2.343685631749794 134 33 172
11.301996132547027 -0.9812017399027101 2.558011493180907 134 33 172
10.853459041501376 -0.8592836662437504 2.4604362722173287 134 33 172
10.879826966862531 -0.6527087758464113 2.4574518364258573 134 33 172
11.010200338877887 -1.0598103692402558 2.4430588305232046 134 33 172
11.368231433974529 -1.3382529907624443 2.549245756717214 134 33 172
10.264579831015324 -1.0598103692402558 2.38036585364749 134 33 172
9.97116120081942 -0.945084770544053 2.271827119827737 134 33 172
10.625501220209122 -0.8376621043518426 2.001002894132477 134 33 172
10.785555827927661 -0.9817854783992263 1.99420393037812 134 33 172
11.319931305490522 -1.2782359502780052 2.2869565438012147 134 33 172
10.963726617645314 -1.170188227818583 2.197665693312172 134 33 172
10.239677437761669 -1.121224958586413 2.249894688661084 134 33 172
11.47302225584624 -1.308596215496312 2.1658728211971012 134 33 172
10.30548101602939 -1.7367885421941076 2.015299782999003 134 33 172
10.130467719760103 -1.9387318478915487 1.813176814744196 134 33 172
10.70752480567677 -1.8717041233279437 2.2151080133734484 134 33 172
10.265155194479243 -2.0287690509718375 2.247892933739932 134 33 172
9.915011522634995 -2.3017097031099087 2.150530184841252 134 33 172
10.129734063968666 -2.785426694302262 2.023579717206289 134 33 172
9.689643363105077 -2.6356347989677062 2.045797458064774 134 33 172
9.862008157047336 -2.8920084563421145 2.0368297202526833 134 33 172
9.46981889370048 -2.573118574405285 2.1816346514258407 134 33 172
8.953399561858387 -2.6356347989677062 1.845818140903747 134 33 172
10.615129342914578 -2.3898927374029113 2.346308021798222 134 33 172
10.649929752717146 -2.986796905301998 2.3431093471523914 134 33 172
9.96050261375411 -2.077428145966798 1.922509199686306 134 33 172
9.577171680432782 -2.1346112959204557 2.0518463911788096 134 33 172
11.038316945402919 -3.018890923420719 2.085244751383885 134 33 172
11.248779188450735 1.0633095958129994 1.609161561918323 134 33 172
10.372236105818208 0.6027486398167471 1.709246664242122 134 33 172
9.279991151993613 0.9916256882064272 2.06863543840205 134 33 172
9.80018391467527 0.8957331209619317 2.0400053365031825 134 33 172
9.65227871465574 0.36174423193385374 2.1684595701119633 134 33 172
10.443145133673054 0.9169585254005405 2.3625847766889576 134 33 172
10.717320473526861 0.4714375274446407 1.704761418382288 134 33 172
8.868814988910021 0.2396969026152004 2.0940108925100342 134 33 172
10.564782670639158 0.5342799862336125 2.3509909994612275 134 33 172
10.384799495944064 0.9916256882064272 2.238665552616128 134 33 172
9.72528911076145 0.21226958393399162 2.0439134216084907 134 33 172
10.182720479178514 1.102557121519876 1.8119082918450518 134 33 172
10.281677295868244 2.9311241324865906 2.1273528814513227 134 33 172
10.47493769239803 1.743287820614951 2.115914557328117 134 33 172
11.632160583290455 2.572282811780803 2.2638268405036586 134 33 172
9.478883522361743 1.5184086128804986 1.9412201999437164 134 33 172
10.215648561577476 2.0457476952779574 1.81111577418298 134 33 172
12.03077856193846 2.4058341405809904 2.1348112129260137 134 33 172
18.440127863649806 -2.8247939815913274 3.110923532508878 134 33 172
10.484392511558692 -0.675307359434121 2.231194629313438 134 33 172
9.304607119789212 -0.15631881815678078 2.1941216726908883 134 33 172
11.368231433974529 -1.3382529907624443 2.549245756717214 134 33 172
10.97226827519198 -0.9019174986475035 1.8888716408455886 134 33 172
9.873525828100446 -0.8466222720643926 2.153283900933412 134 33 172
11.168083132683305 -1.3697249372092757 2.426389468488139 134 33 172
10.61962160388898 -1.014445959084 2.2213412125056733 134 33 172
9.207348035353718 -0.13809654175657746 1.9526989594145812 134 33 172
10.782044255709161 -0.20506813923643932 1.703952434678247 134 33 172
10.755105653592889 -1.9605992381830353 2.471798012530819 134 33 172
9.826074760629579 -1.8405675775446464 1.8208432146124212 134 33 172
9.627503975929661 -1.8405675775446464 1.7200337155656176 134 33 172
9.949869028983388 -1.979118676925211 2.032393112982118 134 33 172
9.91665400106316 -1.7367885421941076 1.9241323239769523 134 33 172
11.061859600441682 -1.6364193587676754 2.307444543754046 134 33 172
11.155239524075835 -1.7566507153224193 2.2998783011898434 134 33 172
10.515534054177348 -1.7566507153224193 2.2288963689307586 134 33 172
11.081548261779362 -1.5064101708310418 2.4354266627091503 134 33 172
10.416420950832569 -1.6364193587676754 2.2362732474969502 134 33 172
10.129734063968666 -2.785426694302262 2.023579717206289 134 33 172
9.849114983259344 -2.4551277370047475 1.7166514849974497 134 33 172
9.461272167702656 -2.5398235838441585 1.8307030492670369 134 33 172
10.025925000650284 -2.3845946648823375 2.0286231006323567 134 33 172
9.106614899832092 -2.3845946648823375 1.7286395578175853 134 33 172
10.404936615712161 -2.7427831960505342 2.237139887417924 134 33 172
10.675141557105706 -2.204401282437957 2.340811199714964 134 33 172
10.753265660369857 -3.0046882235614465 2.211916190856493 134 33 172
9.661713094667132 -2.077428145966798 1.8251902780012599 134 33 172
9.977996720201002 -2.1660914039803374 1.7147543220640902 134 33 172
11.863160515689831 0.9889176596112366 1.4381882953200882 134 33 172
10.408504051034344 0.7233734893156016 2.365961519378766 134 33 172
10.556807956469562 0.6027486398167471 1.8032040242767877 134 33 172
9.579906148333665 1.4065251187116374 1.9371281778926992 134 33 172
10.152103000533016 3.0453910694728883 2.135313528539223 134 33 172
10.120153291847434 -3.1209622029082236 2.137314023575603 134 33 172
10.169267503766973 3.0554251825869643 1.9149859699447025 134 33 172
19.751585280213675 -3.091835073494589 2.961305445526114 134 33 172
10.29862584261182 2.9526412522133865 1.9104870879777955 134 33 172
10.124609742302614 -0.6527087758464113 2.3949883344723224 134 33 172
10.782660058255772 -1.0711702256339155 2.0986975165633863 134 33 172
11.233482403613072 -0.9817854783992263 2.075451930561231 134 33 172
9.761164289558396 -0.40238272963110294 2.160885696145642 134 33 172
10.105544543809987 -0.6064209649312883 2.024744558918364 134 33 172
10.028468428397678 -0.5736956186293992 2.2670135827777798 134 33 172
9.304607119789212 -0.15631881815678078 2.1941216726908883 134 33 172
9.937980872700514 -1.9387318478915487 1.7153380395950508 134 33 172
9.949869028983388 -1.979118676925211 2.032393112982118 134 33 172
10.186746780378385 -3.0046882235614465 2.1331613591554124 134 33 172
10.675141557105706 -2.204401282437957 2.340811199714964 134 33 172
11.358899811909808 -1.9106533090594373 2.4072591595622757 134 33 172
9.442820807449722 -2.4718804712112346 2.0592870719596514 134 33 172
9.26666601424235 0.10995022281871317 2.1970684051549902 134 33 172
10.068949182727016 0.6626722221182453 1.9185596306368287 134 33 172
10.964988578096191 0.6785981037450479 1.7017179126089832 134 33 172
9.90018794058159 0.4243895905504112 1.9247458067661314 134 33 172
10.80406501030702 1.6393653045970538 2.329303881936749 134 33 172
10.169267503766973 3.0554251825869643 1.9149859699447025 134 33 172
10.18083131503901 2.1867037183823403 1.9145788483816 134 33 172
19.97116533365328 2.961978131728706 2.9085818231462435 134 33 172
9.483038593757334 -0.28373697341920745 2.180658925749814 134 33 172
10.652433423588564 -0.6913479760259692 1.9998430536289802 134 33 172
11.084915105573206 -1.6455320117543224 2.4350706135217863 134 33 172
12.062054222978908 -1.308596215496312 2.234580647664023 134 33 172
11.145199674328143 -1.3937725552687166 2.3006832647112523 134 33 172
10.349981511317223 -2.8920084563421145 2.123252166275731 134 33 172
8.933899343766218 -2.573118574405285 2.0898136376721066 134 33 172
9.940727265741975 -2.3898927374029113 2.2744140460306417 134 33 172
10.504882835410589 -1.3937725552687166 2.229680440664601 134 33 172
10.563979676254867 -1.8147502326066882 2.494985579768958 134 33 172
10.652433423588564 -0.6913479760259692 1.9998430536289802 134 33 172
10.068949182727016 0.6626722221182453 1.9185596306368287 134 33 172
10.25593454804774 0.7334499451296989 2.12891529172526 134 33 172
11.647682296238067 2.3309796302653853 2.380197503062427 134 33 172
10.675141557105706 -2.204401282437957 2.340811199714964 134 33 172
10.637748471460702 -1.9106533090594373 2.3442254715504536 134 33 172
10.30548101602939 -1.7367885421941076 2.015299782999003 134 33 172
9.99306796057551 1.743287820614951 2.0302438858200165 134 33 172
10.138450328785122 -1.8717041233279437 2.1361665218688444 134 33 172
19.988798348530917 -2.887957258425359 2.9048933898681004 134 33 172
