10.092492696713336 0.6093772423162016 2.31166353316326 22 39 52
9.886544136704112 0.5684984503152725 2.481825874100446 34 66 91
10.792674456275865 0.6093772423162016 2.380085831939934 27 49 64
9.234937380732129 0.20385255490297052 2.4003081310341887 29 61 89
8.606438381212946 0.2423467713613583 2.4840007268468054 40 82 114
8.746110912075231 -0.32567499994677834 1.7794513115157933 28 46 66
9.108769178687021 -0.4320092893621724 1.7710285961122443 38 51 72
9.579917620399621 -0.3676990506874386 2.2226426092646587 24 48 76
9.70651853768763 -0.4320092893621724 1.9743570831373194 31 48 71
8.434208629408174 0.042941555625226946 2.3309925275864796 28 62 90
9.210015303195146 -0.10342129138520771 2.253664040885165 29 55 82
9.336456209924085 0.05133695428052293 2.562005096322488 54 96 131
9.152010068303072 0.042941555625226946 2.410260394578086 25 61 93
5.56654314998794 1.5505338962800121 1.902298188095076 14 27 38
7.962277902557804 1.110290024136486 2.06999324222405 16 23 29
9.800777942913152 0.8040058896119853 2.4931902754503255 16 42 60
9.425601385050435 0.9409691301393827 2.5477120268570435 15 43 61
9.800777942913152 0.8040058896119853 2.4931902754503255 16 42 60
5.636764659292543 1.7389556639283392 1.8980133235541086 14 29 42
6.2725704905318755 -2.6315197666858055 2.0356077907038332 99 136 167
6.441531943594754 -2.8003854587936714 2.2040108532478033 94 130 161
6.607348963490144 -2.3766014777710276 2.1857111382933843 77 114 145
6.767957856472998 -2.5287563677700327 2.361650153494203 75 113 146
9.96488670462804 2.515430267987809 2.3234402396804006 8 37 56
10.673442749273084 2.515430267987809 2.391876843735571 14 46 69
9.687832990114975 -0.9874394475544351 1.865264231689634 224 217 224
9.271934097618125 -0.8344831268839006 1.7674583915489768 51 66 93
9.897153885567292 -0.6792118371721685 1.9661467265868549 119 138 164
8.574793373705466 -0.8435170505914033 2.031439792407413 94 125 159
11.507118145865324 -0.6159193269469615 2.100239899983438 100 113 137
8.306681694795277 -1.4287383541647831 1.9161052001104568 131 127 146
8.02262057040812 -1.2677572785551692 2.065896595864566 58 80 113
8.76293412331692 -1.0234132070240085 2.020813083805378 56 74 102
7.819792452508394 -1.408001222269381 2.0799557219803977 66 91 124
7.498816815151547 -1.5482901679500594 2.45753748514182 89 131 170
8.11616375367602 -0.9903960810947802 2.3689459703097477 83 114 149
8.02262057040812 -1.2677572785551692 2.065896595864566 58 80 113
8.76293412331692 -1.0234132070240085 2.020813083805378 56 74 102
20.10209496206575 -1.3047238000766372 1.3097442230816831 60 67 72
19.680981886983794 -1.3047238000766372 1.4080805560127192 65 74 82
20.408405318545714 -1.5653933235512651 1.3137517270407666 5 12 18
20.817208144027337 -1.3656611531666722 1.318910217341463 57 66 76
20.438108876862195 -1.514787216154956 1.31413373253391 4 11 18
20.233380692983683 -1.4146799774365797 1.4125609107544495 4 9 17
19.18327397701363 -1.355041842635961 1.5609806675450189 19 27 35
19.437970582844656 -1.3047238000766372 1.6125672839825318 47 56 63
19.14270113096628 -1.2392294076094168 1.7712568175581032 60 70 75
19.439307400585385 -1.343283077128342 1.9288039874850162 9 21 27
18.459037554252916 -1.2904778362908085 1.5605955391303017 57 68 73
19.11186173894412 -1.343283077128342 1.8797783027341344 6 19 28
18.49900733579297 -1.4525830360147218 1.8339285160807386 11 24 33
18.942498594857724 -1.4588378643337823 1.6665851719494298 10 21 30
19.413145671196784 -1.5084874307233127 1.9849252267939557 17 26 33
6.746026023050457 -2.2586879071738473 2.0007123841332217 43 75 103
6.746026023050457 -2.2586879071738473 2.0007123841332217 43 75 103
7.355213612228621 -1.7026199023910864 1.9630522260384096 142 170 196
7.831191542410093 -1.685743773655802 1.674633275144165 110 110 123
7.143813665455253 -1.889535292083431 2.1336093770835673 91 120 149
6.733911716531465 -2.1190614466543574 2.172498366212935 73 106 136
20.652304667389313 -1.7240007046466654 1.1631133407039136 14 21 29
20.265730855291796 -1.6664300425361172 1.3626273444407062 6 13 19
20.6122086928296 -1.71635066375755 1.3163498678511467 7 13 19
20.776184933243442 -1.765551775206803 1.318402034766708 9 15 21
20.44328286611961 -1.775664206254438 1.211493903035331 14 20 27
20.5942869213105 -1.8755205908235837 1.2655942389600474 14 19 25
20.218348256933474 -1.9233179804469844 1.4124422690136065 11 16 22
20.36983617773235 -1.8138167847552131 1.5124272531590313 8 12 17
20.153002573415254 -1.765551775206803 1.5117985129502172 6 12 18
19.983913519141094 -1.71635066375755 1.511298729811941 6 12 18
19.758714185374114 -1.616027096649915 1.5612665413377012 7 15 23
19.56072744536506 -1.7240007046466654 1.8193353308664957 10 16 21
19.733442968104416 -1.775664206254438 1.8171147091118434 9 15 20
19.737580182815314 -1.826242752545381 1.765136573055692 11 14 20
19.63853469357253 -1.6184374409033746 1.8712293036646415 15 22 29
19.63853469357253 -1.6184374409033746 1.8712293036646415 15 22 29
20.88218675849859 -1.826242752545381 1.9542059446741478 18 20 26
20.348512765457002 -1.969492681077139 1.6106971281530318 6 8 13
20.537013193893234 -1.9233179804469844 1.8072889970243524 8 11 17
20.26582880938692 -1.9894901333445745 1.861653699133825 6 8 11
10.331663340155925 -0.32797566162655756 2.5922800825151624 52 90 128
11.196726327827228 -0.32797566162655756 2.6389267924146056 61 100 135
10.54601760090505 -0.49209946084304024 2.559926230619145 59 94 130
10.477445675120283 1.1900135585413258 2.569956036115106 15 42 62
10.25445665242716 0.6713277984153666 2.604705726066043 20 56 84
9.896494046887483 0.8098470262641179 2.668990269776914 17 56 86
10.698080537762596 1.545781918775933 2.731656939492636 18 55 81
9.981437827326525 0.503541439688859 2.6526060589190212 26 65 95
9.629501939542413 0.9974243381053919 2.7264876208476045 41 83 113
9.981437827326525 0.503541439688859 2.6526060589190212 26 65 95
9.613314427623626 0.6294303419472038 2.7303250992636308 75 117 147
8.970198465796463 0.8510463937664096 2.953332212100255 63 108 142
9.147554172138337 0.5398622608347288 2.8697789033250536 50 93 125
9.428204184712683 0.3859700251659726 2.7779610641094714 41 82 115
10.698080537762596 1.545781918775933 2.731656939492636 18 55 81
10.698080537762596 1.545781918775933 2.731656939492636 18 55 81
10.269633613513298 0.9409691301393827 2.6022279610727717 18 55 83
9.72520132590268 0.06380731151391036 2.704696418215523 77 121 157
10.777448382795955 -0.4002786336844114 2.715027684707312 49 90 129
10.437437752025295 -0.5099710354246163 2.7935712997177196 63 105 144
10.649663219636574 -0.7223372130182839 2.7422483436444014 59 101 140
10.649663219636574 -0.7223372130182839 2.7422483436444014 59 101 140
8.884800525619829 0.23280533002673554 3.013232520182356 77 123 161
8.884800525619829 0.23280533002673554 3.013232520182356 77 123 161
10.837363129459966 -1.427211594039484 3.0727689024752105 63 108 146
9.063827403281833 0.12391546029832705 2.905177424772532 57 102 138
9.96495089692458 -1.5094995942008604 2.965991326405302 57 102 140
10.184636469259694 -0.6896952815530665 2.870142528020639 56 98 137
10.557649971613033 -1.282936814028099 2.7634330259533644 88 126 167
10.184636469259694 -0.6896952815530665 2.870142528020639 56 98 137
10.246401956727224 -1.1866426512493435 2.849265404986061 61 102 141
10.863809348455922 1.9888170870245432 2.697859485478196 17 59 86
9.969901728385329 1.9888170870245432 2.6547851525755934 13 47 69
10.737052044553346 2.2963167282588017 2.7233830893344795 44 87 117
10.072140445428165 2.5535343488390385 2.9136932810267755 72 118 151
10.476617129194155 2.47797015995493 2.783405335722451 64 109 141
10.245623128348646 2.267626043603266 2.849518097743974 57 102 134
10.511782599724723 2.0966485167452467 2.7745726702356297 27 72 104
10.378384278889646 1.8380791263574279 2.809610768782178 36 81 115
10.307023155887522 2.73018447212823 2.8303174247100653 72 117 149
10.072140445428165 2.5535343488390385 2.9136932810267755 72 118 151
10.072140445428165 2.5535343488390385 2.9136932810267755 72 118 151
11.384014227272457 2.3109770568219696 2.6097707370947982 22 59 85
10.94344918315866 2.4250005102047303 2.5068153421465214 13 45 68
10.534342259524523 2.3109770568219696 2.561613908036245 13 47 69
10.631154195080292 2.828046413286561 2.746394152029236 53 96 130
10.157988955359595 2.88911724782937 2.6208816062588274 63 107 139
9.895595311519092 2.615193720517977 2.669167949170526 57 100 132
10.631154195080292 2.828046413286561 2.746394152029236 53 96 130
10.170918675571121 2.4441432223970097 2.618669254394086 19 56 82
10.594069090234079 2.553568497425049 2.5530641373415417 40 82 112
10.019902837901386 -2.770102984903022 2.9373837785156085 81 123 160
11.000993862689032 -2.770102984903022 2.955818842318027 78 123 160
10.004347033249582 -2.0456835659551635 2.945033274903344 61 106 144
10.979373666227257 3.003885171505256 2.96660620992862 48 96 133
10.232787801976487 3.051152959488516 2.8537192052813283 40 84 120
20.971107348102 -1.9414621897529027 2.0044435005609214 15 17 22
10.260045570206852 0.6955298435527681 2.436222341922567 29 58 77
9.924583378785826 0.17580141848720998 2.327250326274939 18 41 62
10.260045570206852 0.6955298435527681 2.436222341922567 29 58 77
10.792674456275865 0.6093772423162016 2.380085831939934 27 49 64
9.583188594874736 -0.29202256308408 1.4464786431203729 43 58 75
9.912115893083593 -0.48417720588713165 2.1973092232088725 34 57 86
9.99615000064042 -0.23980026063253682 2.320515159305903 19 47 74
9.579917620399621 -0.3676990506874386 2.2226426092646587 24 48 76
9.184179986303164 0.036905036384608396 2.2559543331845417 21 45 69
7.962277902557804 1.110290024136486 2.06999324222405 16 23 29
9.425601385050435 0.9409691301393827 2.5477120268570435 15 43 61
5.399046465655938 1.7389556639283392 1.7217111029564132 13 30 42
6.744906243062245 -2.2295560395101774 2.3651113447731986 74 112 143
6.607348963490144 -2.3766014777710276 2.1857111382933843 77 114 145
9.96488670462804 2.515430267987809 2.3234402396804006 8 37 56
7.947594659787398 -1.5570147253211277 1.8007748227065903 114 110 127
7.947594659787398 -1.5570147253211277 1.8007748227065903 114 110 127
8.02262057040812 -1.2677572785551692 2.065896595864566 58 80 113
8.341206605351758 -1.1387584630384309 2.0453854742251822 57 75 106
8.02262057040812 -1.2677572785551692 2.065896595864566 58 80 113
8.341206605351758 -1.1387584630384309 2.0453854742251822 57 75 106
8.909483047858775 -0.9222386733117749 1.8918702904139573 53 67 94
8.540328311678211 -0.9495837837713563 2.169303812529616 91 122 157
20.286768948377144 -1.4644664239246121 1.3628463912672806 4 12 20
20.286768948377144 -1.4644664239246121 1.3628463912672806 4 12 20
20.408405318545714 -1.5653933235512651 1.3137517270407666 5 12 18
20.484972757502167 -1.355041842635961 1.212258207430335 62 69 74
18.96891123664087 -1.2392294076094168 1.719571645814106 63 73 78
19.030536003350054 -1.406493728416089 1.5083142719809506 3 11 19
18.639381943244537 -1.3974105349727515 1.8319003609770024 7 20 29
19.06414608898401 -1.4588378643337823 1.7188229489567137 12 24 33
18.857490983684933 -1.5118048433694533 1.667018312688017 8 18 26
6.222712746070016 -2.1190614466543574 2.0396296303073447 59 90 121
7.013006980490289 -1.950995625548459 2.326927123284385 69 102 132
20.468127948288945 -1.6184374409033746 1.1592239196124636 13 21 31
19.64345011226097 -1.8755205908235837 1.5612106206400524 7 10 15
20.00896760596697 -1.8755205908235837 1.762467684466448 9 12 18
20.26582880938692 -1.9894901333445745 1.861653699133825 6 8 11
19.737580182815314 -1.826242752545381 1.765136573055692 11 14 20
20.367011209161042 -1.969492681077139 1.5124191479761122 7 11 17
18.96061688770095 -1.7240007046466654 1.560865397162995 6 12 18
19.56072744536506 -1.7240007046466654 1.8193353308664957 10 16 21
19.709357120267107 -1.6715003070137116 1.8701162400074138 11 17 23
11.085642092183123 -0.1434491293403892 2.6574673149005643 32 72 108
10.860780551633948 -0.27721754289373113 2.517224607969543 39 74 108
11.064889247300552 -0.4214395364578269 2.492059841778192 51 85 117
9.338229354001125 0.8210309270421062 2.80418623297488 67 110 140
10.269633613513298 0.9409691301393827 2.6022279610727717 18 55 83
10.322963772999906 1.3635235949614468 2.5936582999779825 15 42 62
9.896494046887483 0.8098470262641179 2.668990269776914 17 56 86
10.012596453436736 1.1117673751237434 2.6467892622938316 16 53 80
10.754636860856024 1.3167750745421702 2.7197190823350095 20 57 84
10.777448382795955 -0.4002786336844114 2.715027684707312 49 90 129
10.02564377955582 -1.0037019608301283 2.934636960730215 64 106 145
9.96495089692458 -1.5094995942008604 2.965991326405302 57 102 140
9.063827403281833 0.12391546029832705 2.905177424772532 57 102 138
10.983105822494306 -0.5879769212684013 2.6755318016459158 73 111 151
10.402020951490712 -0.9149195176131099 2.8030811851495088 64 106 145
9.72520132590268 0.06380731151391036 2.704696418215523 77 121 157
10.187024405703326 -1.5318610815993299 2.869301567740603 66 108 148
10.594069090234079 2.553568497425049 2.5530641373415417 40 82 112
9.715864677610316 2.828046413286561 2.706758748481639 55 100 132
10.307023155887522 2.73018447212823 2.8303174247100653 72 117 149
9.829151911029205 1.7773963132944135 2.6825722618177172 16 53 79
10.534342259524523 2.3109770568219696 2.561613908036245 13 47 69
9.932839471614255 2.1866519493879637 2.985259262973699 51 97 135
11.048574559236993 2.4441432223970097 2.6638864192084633 42 85 115
10.245623128348646 2.267626043603266 2.849518097743974 57 102 134
10.795657444328999 2.615193720517977 2.7113313466810007 53 96 126
11.195219195659718 2.708525043072614 2.6391717186047723 70 112 142
10.511782599724723 2.0966485167452467 2.7745726702356297 27 72 104
10.157988955359595 2.88911724782937 2.6208816062588274 63 107 139
11.081925227286549 2.167159380243083 2.658105505535924 21 58 84
11.081925227286549 2.167159380243083 2.658105505535924 21 58 84
10.072140445428165 2.5535343488390385 2.9136932810267755 72 118 151
10.170918675571121 2.4441432223970097 2.618669254394086 19 56 82
10.873598888286713 -2.4513992738344967 3.034846304915676 54 99 137
11.195238241601484 3.051152959488516 2.879082155171692 48 91 125
11.091483808410166 2.6360120870357395 2.4889092305049916 35 74 103
9.603071114558906 0.4170415671825401 2.520871448712894 40 78 108
10.596394709209688 -0.5492373386752825 2.3997194519473113 46 75 108
9.184179986303164 0.036905036384608396 2.2559543331845417 21 45 69
9.177935941953288 -0.12020577840406924 2.4071178452300073 34 69 104
5.892514528853858 -2.6315197666858055 1.8833178403923623 76 111 142
6.767957856472998 -2.5287563677700327 2.361650153494203 75 113 146
8.497896657119055 -1.3049790443642115 1.9080226116396117 255 253 255
19.54391110094706 -1.3047238000766372 1.458593000806908 62 73 78
18.546775827652485 -1.2904778362908085 1.6686354453472771 59 69 74
19.495730601019666 -1.4525830360147218 1.9830640348973476 16 27 35
19.413145671196784 -1.5084874307233127 1.9849252267939557 17 26 33
19.000882215011508 -1.5647841231391002 1.937450732489438 15 25 30
8.11616375367602 -0.9903960810947802 2.3689459703097477 83 114 149
7.551090438524181 -1.7571747783076963 2.4490911382997984 104 147 182
20.954893504982582 -1.6715003070137116 1.1168900453080097 11 18 27
20.316202078223135 -1.8755205908235837 1.3125585757818194 14 16 22
20.888294535973717 -1.6184374409033746 1.1153339207122863 11 19 28
10.698080537762596 1.545781918775933 2.731656939492636 18 55 81
9.896494046887483 0.8098470262641179 2.668990269776914 17 56 86
10.187024405703326 -1.5318610815993299 2.869301567740603 66 108 148
8.970198465796463 0.8510463937664096 2.953332212100255 63 108 142
10.837363129459966 -1.427211594039484 3.0727689024752105 63 108 146
10.437437752025295 -0.5099710354246163 2.7935712997177196 63 105 144
10.873598888286713 -2.4513992738344967 3.034846304915676 54 99 137
10.559197857027327 3.0743001046340934 2.7630642103405454 56 99 133
9.932839471614255 2.1866519493879637 2.985259262973699 51 97 135
10.792674456275865 0.6093772423162016 2.380085831939934 27 49 64
10.673442749273084 2.515430267987809 2.391876843735571 14 46 69
5.651231363329907 1.916166201972657 1.714928414748809 12 27 38
7.741825830117787 -1.5549695714757235 2.0855867004738924 83 108 140
8.838379666671598 -0.7542510645054923 1.8945470531032438 110 140 173
9.556685719885436 -0.6792118371721685 1.8694288827976178 119 144 174
7.792469465288311 -1.7026199023910864 2.0819142235874493 112 140 169
20.196859506258743 -1.616027096649915 1.361906998115644 5 12 19
20.657069674272567 -1.826242752545381 1.2153783558301248 15 19 25
20.6122086928296 -1.71635066375755 1.3163498678511467 7 13 19
20.36983617773235 -1.8138167847552131 1.5124272531590313 8 12 17
19.981873250083307 -1.9233179804469844 1.6114296517840565 8 11 15
9.428204184712683 0.3859700251659726 2.7779610641094714 41 82 115
10.437437752025295 -0.5099710354246163 2.7935712997177196 63 105 144
9.613314427623626 0.6294303419472038 2.7303250992636308 75 117 147
11.195238241601484 3.051152959488516 2.879082155171692 48 91 125
9.969901728385329 1.9888170870245432 2.6547851525755934 13 47 69
11.000993862689032 -2.770102984903022 2.955818842318027 78 123 160
10.108713078556585 1.9468750157166823 2.898585430276115 62 107 139
9.715864677610316 2.828046413286561 2.706758748481639 55 100 132
10.73478646159422 1.7773963132944135 2.7238582260450137 25 67 95
9.603071114558906 0.4170415671825401 2.520871448712894 40 78 108
10.924681891393224 -0.5879877628985972 2.244027393972456 29 48 76
9.613314427623626 0.6294303419472038 2.7303250992636308 75 117 147
9.803281132613817 0.2982336367284953 2.6879410583492334 42 87 119
20.08494509140073 -1.9233179804469844 1.4616276881719719 10 13 18
8.884800525619829 0.23280533002673554 3.013232520182356 77 123 161
8.902312828661376 1.4865190441087368 2.998798057201824 71 116 150
7.013006980490289 -1.950995625548459 2.326927123284385 69 102 132
20.536089571559106 -1.6715003070137116 1.1606680135737157 13 20 28
10.977119247622621 2.207766937150339 2.5026621086340732 11 41 62
10.207137387986531 2.167159380243083 2.612546179410818 11 45 67
10.437437752025295 -0.5099710354246163 2.7935712997177196 63 105 144
6.946031996987452 -1.7252579565106987 2.151676900730834 98 140 172
11.091483808410166 2.6360120870357395 2.4889092305049916 35 74 103
