6.803333401570419 0.351361223890806 1.782258230456364 165 240 53
6.547628250649301 0.4945626381578694 2.3134802465195063 165 240 53
7.791927929618286 1.3753091823834789 2.1752027237892406 165 240 53
5.917392982776037 0.4945626381578694 2.188666445043854 165 240 53
7.009662292347633 1.3395556171387015 2.2545302849503557 165 240 53
5.753565528779544 0.7921294655059015 2.209052006051955 165 240 53
6.984515668773868 0.24103415232535705 2.2574675614336166 165 240 53
6.561050896876743 1.0885433381618985 2.311603763009294 165 240 53
7.506600008693938 1.227886678429173 2.045031179684604 165 240 53
7.622549463734893 -0.4094836444692252 2.0372386113656407 165 240 53
8.264592655028101 -0.4733072837009086 1.7444467274955797 165 240 53
7.390439322798432 0.039919671799883545 1.7652347562881505 165 240 53
7.228233832063775 -0.4094836444692252 1.9133545993252021 165 240 53
7.074399826453973 -0.3152415755470516 2.247096022941811 165 240 53
7.282423092160178 -0.6156772892903001 2.060897669525396 165 240 53
6.827331945997135 -0.47696548709626235 2.0968122975340107 165 240 53
8.179211035405851 -1.41066171943303 1.8721820866030299 165 240 53
7.244188606690889 -1.3872974763411603 1.9125692854436789 165 240 53
7.409084803503953 -1.054004116475716 2.0517988871082187 165 240 53
7.567009633623766 -1.1961677523421734 2.1958796490456143 165 240 53
7.839634316842479 -1.1203367951162118 1.8856756081765946 165 240 53
7.45647468241721 -0.7317347406764295 1.9024595638408506 165 240 53
6.790303075951526 -0.8372957224607236 1.9364513223595607 165 240 53
6.843859306192677 -1.125987712239053 2.2744341336180245 165 240 53
7.481247716495035 -1.247902381333966 1.9013194102715125 165 240 53
7.244188606690889 -1.3872974763411603 1.9125692854436789 165 240 53
9.77704160925278 0.5212594304494654 2.873562915035682 165 240 53
6.897084955949443 0.06805973026008025 2.4767139244235086 165 240 53
8.726733135908376 0.12817373507480265 2.879161367279068 165 240 53
9.514250805775665 0.22831375904951884 3.0067991391884177 165 240 53
7.581675560733984 -0.13465366351763916 2.368751388753737 165 240 53
6.927554076438444 -0.16584662474558587 2.4711234714899772 165 240 53
7.100157045754248 -0.38303242232438744 2.441034984913698 165 240 53
7.100157045754248 -0.38303242232438744 2.441034984913698 165 240 53
7.328557362152394 -0.8789923104126031 2.6406070193850377 165 240 53
8.004551841308777 -1.1401090082834913 2.75971222806504 165 240 53
6.947883246475798 -1.026613975062313 2.4674423665933287 165 240 53
7.525834091746957 -1.246978597940863 2.5946482977953806 165 240 53
7.2940734416923565 -1.3123284680099707 2.4100708135762297 165 240 53
7.282377474426698 2.5363692212626106 2.2243807901999695 165 240 53
7.427797126184315 2.0509283999816916 2.2094712257674884 165 240 53
6.902504373523294 1.524434898472858 2.267246739269523 165 240 53
7.69567034338877 1.531798095830905 2.1838671077819694 165 240 53
7.167108624683993 1.531798095830905 2.069501511746792 165 240 53
7.374676154619641 1.8428570464666447 2.054235445307236 165 240 53
7.176118095238256 -1.6827747710541092 1.915945695913653 165 240 53
6.7185671569175565 -2.7962314553593837 2.2903663587153114 165 240 53
7.230355257029266 -1.527850226980739 2.2299029523400558 165 240 53
6.890021237489249 -2.3620868582029053 2.268762773122476 165 240 53
6.457900064131705 -2.623446349112232 2.130357862242189 165 240 53
7.570346244956429 2.692846162620866 2.3702872010983316 165 240 53
7.731596420603605 1.5136477971135316 2.552395173571414 165 240 53
7.570346244956429 2.692846162620866 2.3702872010983316 165 240 53
7.871371666360853 2.289809350531445 2.3317065965694037 165 240 53
10.534421775607703 2.1002917966550134 2.999295094572909 165 240 53
8.70467985212312 2.5078510573251767 2.888764461904378 165 240 53
7.330168269618419 2.876774443282448 2.4046019201410447 165 240 53
7.924391810012067 1.9590853020078351 2.516928865258104 165 240 53
8.13852643286713 2.4221426774019825 2.481307195556741 165 240 53
7.943000222063171 -1.8423091360754558 2.7794968285389396 165 240 53
6.818052468583465 -2.714087946921886 2.491642795934153 165 240 53
7.199481529020191 -2.5858735182594996 2.6743970387226614 165 240 53
8.099410700874694 -2.1452766623281816 2.7315337422252233 165 240 53
7.199481529020191 -2.5858735182594996 2.6743970387226614 165 240 53
7.22167511407952 3.080802868392859 2.42130946414399 165 240 53
6.663172133676567 -2.364243095390183 2.5228686742852653 165 240 53
10.45921922223607 2.7753927052377168 3.0642451909817914 165 240 53
7.426128193766162 -1.5047580139631584 2.617114500957335 165 240 53
7.128750765414562 -2.209388217295291 2.4362916173607316 165 240 53
6.638118323136633 -2.9545407551089733 2.528189588252614 165 240 53
7.226472840902236 -1.7296384145626884 2.4205532569507473 165 240 53
7.240052621183496 0.2035935589997931 2.064022552766633 165 240 53
6.671307108720086 0.41153409578132527 2.1104448984843067 165 240 53
7.496490431633364 0.17611578107316347 1.7624496445078082 165 240 53
7.326802558735313 -0.26734287462379336 2.057668849906857 165 240 53
7.866528278799339 -0.3579945172406819 1.7533302766625913 165 240 53
7.830513301492352 -0.23185067136489212 1.886055026917354 165 240 53
8.107907446267713 -0.3579945172406819 1.8749170154120258 165 240 53
6.5987034534805185 -0.7182811357347355 2.117048102821616 165 240 53
6.870566477354138 0.05511394121665542 2.2711403512794783 165 240 53
7.074399826453973 -0.3152415755470516 2.247096022941811 165 240 53
7.332723639215023 -1.3560732583194681 2.2191328420166236 165 240 53
7.839634316842479 -1.1203367951162118 1.8856756081765946 165 240 53
7.2940734416923565 -1.3123284680099707 2.4100708135762297 165 240 53
7.0294015421832885 1.2882213127326032 2.453057829207716 165 240 53
7.427797126184315 2.0509283999816916 2.2094712257674884 165 240 53
7.266766587070871 3.0913469196276626 2.226027127549682 165 240 53
7.728683148367602 1.6902055131939298 2.180865298737784 165 240 53
7.674311015281011 1.9836061887847936 2.03384551759622 165 240 53
6.407118545856484 -2.5162903225203537 2.333803708534595 165 240 53
7.140551081188203 -1.5342437589151579 1.9177371450084593 165 240 53
7.176118095238256 -1.6827747710541092 1.915945695913653 165 240 53
7.779387184740055 1.8910950132756394 2.343026610535475 165 240 53
7.731596420603605 1.5136477971135316 2.552395173571414 165 240 53
8.13852643286713 2.4221426774019825 2.481307195556741 165 240 53
9.518873093836058 1.3827231937840114 3.003264550460237 165 240 53
10.702934997186658 1.8891903758466886 2.9144211279095065 165 240 53
7.91088183162583 -1.4805096250453127 2.790371331510965 165 240 53
7.500250587753564 -2.364243095390183 2.6002761923243867 165 240 53
7.8217152280717 -2.368888061863647 2.8229361374560895 165 240 53
7.626649480456312 -2.0124972682749376 2.5733114498432803 165 240 53
6.818052468583465 -2.714087946921886 2.491642795934153 165 240 53
7.250780374946563 -2.993232985665479 2.4167472095102287 165 240 53
7.46033384802561 -1.7714232680930124 2.6092426199748258 165 240 53
7.191154882670078 -1.5187483630093872 2.4261591236958537 165 240 53
6.535026393620649 0.2035935589997931 1.791080404330619 165 240 53
7.688738982329242 -0.11329448392769378 2.1845014507916316 165 240 53
6.706531045978592 -0.5682357463492543 2.291940140479532 165 240 53
7.2338930755999 -0.9675217103292649 2.2295241444833103 165 240 53
6.8805999622501215 -0.6958488344975318 2.479776047596227 165 240 53
6.7323479901068435 0.9718307771985454 2.508579865887148 165 240 53
9.596861143249294 0.8027502618852032 2.953695076913147 165 240 53
7.265482662328681 -1.702175235075287 2.2261629390794386 165 240 53
7.44642805217646 2.14166139059142 2.387558541372087 165 240 53
7.871371666360853 2.289809350531445 2.3317065965694037 165 240 53
9.435579980528532 0.8674672452827213 3.1013692647093296 165 240 53
7.398047775869358 -1.9273543098777248 2.3945478488900984 165 240 53
7.270367587974611 1.3753091823834789 2.061782542509618 165 240 53
7.409084803503953 -1.054004116475716 2.0517988871082187 165 240 53
5.893930702351238 0.6591927939407689 1.9953788086767303 165 240 53
6.626310016654624 -0.8521779721729067 2.302633297979077 165 240 53
7.010603133624763 0.2948607419412997 2.4563229152329438 165 240 53
7.8217152280717 -2.368888061863647 2.8229361374560895 165 240 53
7.539453941709025 -1.5342437589151579 2.0427956820537863 165 240 53
7.13018839511978 0.04630302119653009 2.0723237481066255 165 240 53
7.6743543032918335 -0.09776505060329868 1.8926985334394757 165 240 53
7.728683148367602 1.6902055131939298 2.180865298737784 165 240 53
7.91088183162583 -1.4805096250453127 2.790371331510965 165 240 53
7.128750765414562 -2.209388217295291 2.4362916173607316 165 240 53
6.216948008690872 0.41153409578132527 1.9720111311297464 165 240 53
6.7185671569175565 -2.7962314553593837 2.2903663587153114 165 240 53
7.889343723124838 1.8428570464666447 2.166699906265971 165 240 53
7.616407538751447 1.7125032401657012 2.3640863921601234 165 240 53
7.889343723124838 1.8428570464666447 2.166699906265971 165 240 53
7.426128193766162 -1.5047580139631584 2.617114500957335 165 240 53
