10.00062245886769 -0.07275337495808541 0.4799576265820454 50 43 50
10.00062245886769 -0.07275337495808541 0.4799576265820454 50 43 50
9.668610612832861 -0.0598086910113083 0.6197110139801514 35 35 43
8.326414999460424 1.441706168208173 0.6002955519442373 37 9 4
8.458141781974552 1.2392938270127323 0.6226813890705201 80 43 33
8.326414999460424 1.441706168208173 0.6002955519442373 37 9 4
7.816250181627371 0.7965659822085476 0.49697823320339035 71 42 36
7.5420681010612585 1.0284796823113178 0.4251347640728813 70 38 30
8.203946767412258 0.6364036383085271 0.5781285438212646 61 37 34
7.935745521440635 0.4324698483596879 0.5240674003737588 101 86 86
8.613462314157646 -0.7308434247497162 0.41833417489995167 25 7 7
8.759645785054728 -0.35477670900620495 0.4544155302746837 80 68 70
8.103166952197725 -0.5748314283707443 0.5587797015609902 53 41 43
8.365450219603837 -0.968589372175372 0.34564372266050286 31 14 15
8.613462314157646 -0.7308434247497162 0.41833417489995167 25 7 7
8.397643634906338 -0.47370229988771967 0.3561370421503048 40 21 22
7.09528928225148 1.2218808460621324 0.2522781459599042 59 30 24
7.080406368146435 1.803538570064539 0.24399031555114842 65 41 38
8.99109900625966 -1.1451801339738166 0.16383672963704574 73 57 57
9.496446186728253 -1.3912316755086245 0.36504690564572395 41 24 23
8.069798845880628 -0.9076853740173847 0.5521310594267399 30 15 15
8.569778067981504 -1.3912316755086245 0.4067161807905847 29 15 14
8.569778067981504 -1.3912316755086245 0.4067161807905847 29 15 14
8.281424525452325 -1.216153781924935 0.5923130087312087 72 58 58
10.716946205624092 1.5140803642029086 1.4894617997804027 24 3 0
7.6394774506382035 0.6720810606801306 0.8794572151908545 44 29 27
7.528419145618581 0.6940116909792174 1.3196807446716101 55 50 50
7.61241796391329 0.791747165008685 1.037387652906249 24 8 5
7.771662955248666 -0.19951405657333407 1.0494447472086443 63 60 61
8.843654151841921 -0.05077123119979504 0.8448658821888573 57 57 61
7.098556348300407 -0.46934848091545434 0.8146085881070698 59 52 56
7.232891690738465 0.10023730530605886 1.1626650489296493 50 54 63
7.098556348300407 -0.46934848091545434 0.8146085881070698 59 52 56
6.9417410949444305 -0.23391491200654788 0.979307618859441 45 39 40
7.314541117193616 0.4437010010204982 1.0131643621970183 57 54 55
7.36414959991462 0.38339347756938874 1.3139541679542919 49 52 56
7.9571011679747174 -0.2979591898594553 1.58704705267454 2 2 5
7.786539752885125 0.21543829732323252 1.5874030514861905 49 56 62
7.683938429266607 0.087129298135365 1.4572385235831988 52 56 64
7.394664187121014 0.9527005033513444 0.6535836934194431 74 45 37
7.803334806416691 0.7934937680494286 0.7192017962743859 66 42 37
8.319899018768385 0.9127435765527949 0.7874969099932071 66 41 37
6.126087722876359 1.8121871735018293 1.2604738849500645 24 16 16
7.495003951884946 1.4643060699087669 0.8633971985949316 33 22 17
8.314292149214136 1.2946027746279576 0.786825144740762 92 56 42
9.585305986010098 1.0748800552873083 0.9116168988554753 44 25 21
6.370088583574765 -0.6268353073817023 1.1033000745087098 35 26 26
6.946174701310113 -0.7552287892144696 1.1447460465463344 92 87 86
6.878911440450321 -0.6268353073817023 0.9731596777480036 92 80 81
7.632731217664425 -0.4676258347469401 1.3231850300702188 57 53 54
7.610562226251862 -0.8587157312820842 1.1840262265936308 86 82 82
8.460423473445088 -0.8464694742765072 1.586080196826127 30 29 29
8.70519948943023 -1.0101701982839912 1.4706084621290658 72 72 72
7.902348522667336 -0.5808416187036878 1.5871596583609688 115 111 112
9.59004820026312 -1.0660323354028844 1.688827995215407 66 67 67
7.4726566981090805 -1.216153781924935 0.6670925931937615 154 141 141
7.749295051070042 -1.029682888752359 0.7112014191653312 145 131 132
7.749295051070042 -1.029682888752359 0.7112014191653312 145 131 132
7.679941026082228 -1.1165393738551233 0.8838097417510927 13 6 5
8.151185982535786 -1.322615442958959 0.9303609706277379 106 90 87
7.513393093794329 -0.9765422153124369 1.0295868802021626 125 122 121
8.09394295422976 -1.2785160121996175 0.7592975101393407 30 19 18
6.6683039149841825 -1.8819844248960949 0.7518520727466721 19 10 14
7.308806113607492 -1.6615389115648889 0.6380880245669944 47 37 39
6.6683039149841825 -1.8819844248960949 0.7518520727466721 19 10 14
7.308806113607492 -1.6615389115648889 0.6380880245669944 47 37 39
8.014415590742956 -1.4755174188234916 0.9175821772713378 97 88 89
7.249796055242706 -1.4578001899220787 0.8341072900932449 139 125 126
6.217298724943731 -1.8264351818667965 1.090854725655297 90 83 86
6.217298724943731 -1.8264351818667965 1.090854725655297 90 83 86
8.96112011263171 -1.380521514984716 1.2446971327655407 96 88 88
8.96112011263171 -1.380521514984716 1.2446971327655407 96 88 88
8.734326946299321 -1.267846435382927 1.5856008678602036 75 73 73
9.151942352453155 -1.1625583573131537 1.6945065297402728 57 57 57
8.358619256992279 -1.4982853947886399 1.5862663622387638 10 10 13
8.873592121548944 -0.0598086910113083 0.6852104674146 22 17 19
7.950564559986587 1.1578505070406642 0.5272833333577606 79 43 33
8.458141781974552 1.2392938270127323 0.6226813890705201 80 43 33
8.203946767412258 0.6364036383085271 0.5781285438212646 61 37 34
8.815750167968343 0.4324698483596879 0.4672741740320388 118 95 93
7.5420681010612585 1.0284796823113178 0.4251347640728813 70 38 30
8.203946767412258 0.6364036383085271 0.5781285438212646 61 37 34
9.581308569504728 -0.09282863619883287 0.387561072930004 93 78 79
8.103166952197725 -0.5748314283707443 0.5587797015609902 53 41 43
9.341403142025918 -0.47370229988771967 0.3188046115285508 69 53 55
8.966755751003712 -0.5748314283707443 0.4996210412214563 44 28 29
8.143061031217856 -0.6939108764708974 0.2593665739733757 59 40 40
7.09528928225148 1.2218808460621324 0.2522781459599042 59 30 24
9.496446186728253 -1.3912316755086245 0.36504690564572395 41 24 23
8.697819944974771 -1.1222115542620728 0.43964087475654745 16 2 1
8.281424525452325 -1.216153781924935 0.5923130087312087 72 58 58
10.716946205624092 1.5140803642029086 1.4894617997804027 24 3 0
8.978099933741417 0.966092843531801 1.125055406609457 13 2 1
7.5549054809080225 0.5064767563873983 1.587912264564189 54 56 60
7.394664187121014 0.9527005033513444 0.6535836934194431 74 45 37
7.286274994372379 0.5789763031162174 1.1658309726942795 60 55 57
7.610205004900712 0.2886223791832405 0.8762697036525564 49 53 59
7.644974728463167 0.34677894182852614 0.6952152861057356 55 50 53
8.035798961796884 -0.2979591898594553 1.7117970744087132 78 78 78
7.6680354955500105 1.2392938270127323 0.6988129044099107 89 52 43
8.319899018768385 0.9127435765527949 0.7874969099932071 66 41 37
5.9782879195569505 1.64033239165606 1.2525355253493544 12 3 3
8.180249279926603 1.4643060699087669 0.7703496069710924 23 5 0
8.40552250503394 -1.1806363634041754 0.9527255584683548 110 98 96
6.619527838119872 -1.4578001899220787 0.9462378696580911 50 39 39
7.4512519355014435 -0.8770879694058662 0.8583658983954866 123 111 111
7.308806113607492 -1.6615389115648889 0.6380880245669944 47 37 39
8.693832811723166 -1.2295131801748374 1.109372689891747 96 91 90
7.513393093794329 -0.9765422153124369 1.0295868802021626 125 122 121
8.931475538274059 -1.267846435382927 1.3597839377229362 89 84 85
8.836894138342295 -1.4982853947886399 1.2399393805708074 3 1 2
7.1266404584020995 -0.5367865575207342 1.1562091642413117 53 48 48
8.09394295422976 -1.2785160121996175 0.7592975101393407 30 19 18
7.654491167331222 -0.7465436486832723 0.6967044101162034 72 59 59
7.0132176507942185 -1.992631481514701 0.9861379047103849 21 17 21
8.365450219603837 -0.968589372175372 0.34564372266050286 31 14 15
9.581308569504728 -0.09282863619883287 0.387561072930004 93 78 79
9.192996016473328 -1.3171434642401065 0.26557855712916123 65 48 47
7.080406368146435 1.803538570064539 0.24399031555114842 65 41 38
8.006151840765616 -1.1451801339738166 0.18421056673321354 60 42 42
6.716970284644902 -0.3947967864829582 1.129203827059691 21 18 22
8.166413000839384 0.791747165008685 0.9317497840873947 39 23 22
6.993994352589007 -0.19951405657333407 1.3000279375491013 63 58 59
7.329319518133727 -0.6583513109283682 1.3127058417874204 103 100 100
7.139855079476562 -0.6583513109283682 1.448543188438424 119 116 117
9.272660403116898 -1.1625583573131537 1.3676588434270498 62 59 60
7.0880251213671785 -1.1165393738551233 0.993107063138656 88 80 79
8.693832811723166 -1.2295131801748374 1.109372689891747 96 91 90
8.151185982535786 -1.322615442958959 0.9303609706277379 106 90 87
8.489846379299586 -1.380521514984716 1.586027224052986 37 36 39
8.734326946299321 -1.267846435382927 1.5856008678602036 75 73 73
7.584879581529455 -0.5367865575207342 1.035242348794144 29 21 22
7.249796055242706 -1.4578001899220787 0.8341072900932449 139 125 126
9.39570244020435 -1.506029491634467 1.4779934652471285 15 14 17
9.007591065455417 1.0748800552873083 0.9994887037231179 49 35 32
7.450985961477871 -0.4676258347469401 1.453672105606748 112 108 107
7.9230249387660905 0.5244717202168566 0.7362877029045409 52 38 37
6.114798467253017 1.803538570064539 0.2835074895242286 27 15 12
9.536855498557143 -0.05077123119979504 0.76636508476767 52 56 64
7.3232248679833924 -1.4320406645156256 0.6407383228222095 130 117 117
7.213385483761467 0.5244717202168566 0.8295193347986047 57 53 54
7.613989109548456 -0.044104933612228676 1.5877794341498461 56 58 63
7.4512519355014435 -0.8770879694058662 0.8583658983954866 123 111 111
7.4726566981090805 -1.216153781924935 0.6670925931937615 154 141 141
