19.257434641060033 1.6902424740911721 0.7722543898958205 240 198 36
17.86650012947669 1.5230185165220445 0.48634102026585485 240 198 36
12.261900036609509 0.7732351914278863 0.276885988800923 240 198 36
15.037165319927137 -1.421905616946857 0.1797618950100349 240 198 36
14.860878497216497 1.2817525065823148 0.09429392571696286 240 198 36
14.89290713968809 -1.3348481242194496 0.11480991922645006 240 198 36
14.804167234143183 0.7076424163876701 0.0354598165752942 240 198 36
14.81099978677461 2.6254066828662608 0.04668741739150855 240 198 36
14.89969899893053 -1.9184823875464299 0.1186973227376012 240 198 36
15.245786258709858 -1.4622211549539184 0.24381966177080772 240 198 36
14.81099978677461 2.6254066828662608 0.04668741739150855 240 198 36
15.043892051134186 -1.7931619480261551 0.18220601377114043 240 198 36
14.82171961923732 -2.310468301952862 0.06021080614033634 240 198 36
14.572723902599154 -1.6991268134935413 0.3282065217286735 240 198 36
14.436407996333129 -1.6608344073641668 0.4815217933402869 240 198 36
15.32309532466987 -1.510973416731191 0.45041631524097814 240 198 36
14.076143361885405 -1.6491299034295295 0.5773120232689287 240 198 36
10.45724877698344 0.7085732806209446 1.1994258202576078 240 198 36
7.745931641332499 -0.5436781885508466 0.7255769478734478 240 198 36
7.745931641332499 -0.5436781885508466 0.7255769478734478 240 198 36
8.143532082557476 -0.693817235114463 0.7790368169234433 240 198 36
11.39648109848846 0.3758410791464339 0.326377442290692 240 198 36
11.733602781790669 0.2959396612610753 0.40272752307058624 240 198 36
8.703534679061756 -0.1214314705317964 0.6750090430066145 240 198 36
7.114609367032177 -0.4576157474602612 1.0081931995331754 240 198 36
7.545549962256491 -0.5956078335663754 1.0438144270312837 240 198 36
11.543032546450053 -1.0988442964793779 0.7045247630981077 240 198 36
12.63443607212976 -0.9870050690679678 0.6836837531890224 240 198 36
11.543032546450053 -1.0988442964793779 0.7045247630981077 240 198 36
12.401487654474176 -0.5619514266534928 0.7824648678008679 240 198 36
13.188882918889705 -1.0494528333517021 0.733761982992925 240 198 36
9.263831868636657 -1.0494528333517021 1.2643253037868485 240 198 36
9.87656402794654 -1.1007562452962156 1.388051600853752 240 198 36
10.27018988593911 -1.2324404995311236 1.493323901405655 240 198 36
14.044881861020869 -1.3005362029429666 0.6941504211598805 240 198 36
13.930832539352016 -1.75364883585372 0.6842555001354961 240 198 36
11.289107473833534 -1.2250216667768892 0.6776356452928953 240 198 36
9.916018251999388 -1.6401140628395114 1.0660938934327167 240 198 36
9.75349448824474 -1.3005362029429666 1.1711668428949897 240 198 36
10.337242903210699 -1.3273657213251504 1.2970209646409092 240 198 36
10.500366720696158 -1.7350754204569205 1.2010244942360768 240 198 36
9.710107571117938 -1.6329569779335995 1.4888455103478184 240 198 36
9.923266415230998 -1.4269726735117187 1.3889212958662984 240 198 36
10.659306376480322 -1.1967485172518915 2.080958469346473 240 198 36
10.734153729260395 -1.533396304841933 1.6833050007695254 240 198 36
10.74357498557877 -1.6271381016812638 1.683205921802471 240 198 36
9.786590415413587 -1.1007562452962156 1.6942515706521033 240 198 36
11.868579087853982 -1.533396304841933 2.02479722877619 240 198 36
10.40464460285064 2.222553602211265 1.09185655099908 240 198 36
9.418423637785237 2.6037413001477097 0.7649116581439043 240 198 36
8.860268428971704 2.513526971075914 0.6968135291868139 240 198 36
9.283679165394815 2.385261727730126 0.7496686999257821 240 198 36
9.817792319729765 2.482253410218643 0.8064066186073731 240 198 36
9.09048882711541 2.800772584387903 0.8795938052350895 240 198 36
9.570642137655126 2.3762810760988238 1.2744535280302625 240 198 36
9.2418585718095 2.5598679542489005 1.0253262885862318 240 198 36
10.063403446649765 -2.7955741571014476 0.507535494213808 240 198 36
10.235692640834127 -3.0421172596425956 0.7051147076438693 240 198 36
9.075500507570254 -2.999372215416414 0.53769699449533 240 198 36
9.333559644524149 -2.3482531584733497 0.5824028608436024 240 198 36
9.868505435481623 -2.5056068782794028 0.4708016519194351 240 198 36
10.272294291569324 -2.5629533531247484 0.7092911365783178 240 198 36
9.479558237095834 3.0899551967682246 0.7716072569289477 240 198 36
9.9316047723995 3.0675793834205276 0.4831352469107409 240 198 36
8.88564262748379 2.9411493313592816 0.860366049992213 240 198 36
10.578629613751312 -2.4697886431479255 0.589209943229355 240 198 36
9.113176388993658 -2.11177979253248 1.372547993460602 240 198 36
8.969964449050172 -2.11177979253248 1.4820663441549475 240 198 36
9.968112996974659 -2.2534720405441497 0.8207677180399624 240 198 36
11.322013273451935 -1.8101571391522908 1.3213660254394113 240 198 36
8.939338312696277 -2.1754486052170523 1.1323729340409339 240 198 36
8.820230091599175 -2.3510741719468324 1.1260320444926089 240 198 36
9.962327344570001 -2.447783964182233 0.8202265230180922 240 198 36
9.533565211444014 -2.0665579407992567 0.9174616082494604 240 198 36
10.243130301735762 -1.8338605295337482 1.787774677492298 240 198 36
9.879194129345567 -2.059235719853171 1.6930885177829562 240 198 36
18.060706985313956 1.6288649655489633 0.6108270303757007 240 198 36
19.200167753624967 1.6158273950016548 0.7691874777169284 240 198 36
14.284488935693073 -1.733648874777706 0.26258154677890577 240 198 36
15.064287115436386 2.170648583154127 0.1894131365330596 240 198 36
14.867684987797887 1.9921900533830934 0.09901670219220476 240 198 36
14.941566319624915 2.4443313073529356 0.14024781095471872 240 198 36
12.347854190420788 0.3758410791464339 0.3004093794674493 240 198 36
15.043892051134186 -1.7931619480261551 0.18220601377114043 240 198 36
14.804167234143183 0.7076424163876701 0.0354598165752942 240 198 36
14.89969899893053 -1.9184823875464299 0.1186973227376012 240 198 36
13.51640143011522 -1.029918394119079 0.5102279287555321 240 198 36
10.073015060152393 -1.6329569779335995 1.2896468188313306 240 198 36
8.623381510454543 -0.9100268272777113 0.9811943633503178 240 198 36
9.761750508401475 -1.4269726735117187 1.5918124613154194 240 198 36
11.877100519571426 -1.6271381016812638 2.0244471352383515 240 198 36
10.558145486656326 -2.8536649167077575 0.5863010201163645 240 198 36
9.150376707437463 2.8579663729172413 0.5512656731653902 240 198 36
10.299096477162346 2.379951151070927 0.8503061623939613 240 198 36
9.34942437268558 2.6709136284190076 0.5849742875562205 240 198 36
9.647266024251813 -2.7099294130488376 0.42353252127779645 240 198 36
9.526388820284234 -2.9606453349553656 0.3944440425304195 240 198 36
9.509701686582472 3.0471357112734925 0.3902069486216548 240 198 36
9.283679165394815 2.385261727730126 0.7496686999257821 240 198 36
9.604655062146687 3.080757167911363 0.6239600751225627 240 198 36
9.954456932862513 -2.1754486052170523 0.9494414697565982 240 198 36
10.180144429854405 -2.3499682980170298 0.6986789568197508 240 198 36
10.531200573687931 -2.3518464565651875 1.0980866344550098 240 198 36
9.768981186661007 -2.228842083094845 0.6469605933586788 240 198 36
9.27507844004176 -2.0103201861261053 1.1492784311771158 240 198 36
8.96097896220988 -2.0665579407992567 1.0061912151317491 240 198 36
10.015174620835772 -2.2022447660326603 1.8965556693206862 240 198 36
18.354677035816884 1.5281266952259132 0.534475296401662 240 198 36
14.82171961923732 -2.310468301952862 0.06021080614033634 240 198 36
14.88516247379237 2.9316565450381606 0.11020614547549434 240 198 36
7.9003366547320635 -0.3938121541280992 1.0697521116106423 240 198 36
8.685266727175607 0.06310964983651991 0.6723769989260504 240 198 36
12.95766332148564 -0.9100268272777113 0.586131030948642 240 198 36
13.188882918889705 -1.0494528333517021 0.733761982992925 240 198 36
12.084439136155707 -1.2250216667768892 0.625731340949981 240 198 36
11.906368268418841 -1.2672642085212367 0.7397032240691802 240 198 36
13.102464224562496 -1.1007562452962156 0.8349197665049972 240 198 36
9.953806202138376 -1.7350754204569205 1.3894855221424987 240 198 36
9.954367172297667 -1.3273657213251504 1.5914057416777314 240 198 36
10.035904104313591 -1.7350754204569205 1.7923289128606266 240 198 36
9.817792319729765 2.482253410218643 0.8064066186073731 240 198 36
10.254950452282223 2.2943094400561246 0.9702668865354825 240 198 36
9.879983972048038 2.7456841322331003 0.6616902118491891 240 198 36
11.861680883078195 -2.5629533531247484 0.5992540803058657 240 198 36
9.76307752838462 -2.4697886431479255 0.6461596964947866 240 198 36
11.058696984602877 -2.3482531584733497 0.4827630133421532 240 198 36
9.547823287697366 -2.137538205346293 0.778929542260367 240 198 36
9.805222622103765 -1.8626265567868316 1.1733939685723302 240 198 36
11.42048201608593 -2.447783964182233 0.691805618326933 240 198 36
9.294416633035077 -2.3510741719468324 1.028754568193972 240 198 36
10.378525292419143 -1.9276697578916522 1.687177406344249 240 198 36
14.814892010538772 -1.0264474704157014 0.052007725980038534 240 198 36
9.923266415230998 -1.4269726735117187 1.3889212958662984 240 198 36
10.804190811077314 -1.3273657213251504 1.970574164111844 240 198 36
9.832271534849433 -1.5295283864641276 1.3872190186566073 240 198 36
6.804410970687695 -0.29810150927586276 0.9791768255177994 240 198 36
10.005614905087116 -1.4269726735117187 1.7930107836453146 240 198 36
10.74357498557877 -1.6271381016812638 1.683205921802471 240 198 36
10.68048097999963 -1.9276697578916522 1.306034600041291 240 198 36
9.621177508510428 -3.024507278092101 0.6263415936591167 240 198 36
10.235692640834127 -3.0421172596425956 0.7051147076438693 240 198 36
14.81099978677461 2.6254066828662608 0.04668741739150855 240 198 36
10.691590063764862 -1.3005362029429666 0.9979790412817277 240 198 36
8.907413732149504 2.906572833634712 0.703114495037349 240 198 36
8.737559820518314 -2.270138785116357 1.4796998089697109 240 198 36
12.496073196026234 0.6031814375096947 0.33659299654348135 240 198 36
8.914016724889972 -1.0494528333517021 1.7064075750308456 240 198 36
8.81643962429141 2.673038714137826 0.9957727761984104 240 198 36
9.300783321537724 2.4613127189616724 1.1505173297325766 240 198 36
