10.161318192789114 1.6552771306165417 1.1266608314532411 176 180 77
10.714744387538456 1.6469819054540242 1.25123002909752 176 180 77
13.425691640082674 0.027313359351579195 0.39996021778794866 176 180 77
13.118048486305495 0.26411128551678165 0.3402313792727018 176 180 77
13.118048486305495 0.26411128551678165 0.3402313792727018 176 180 77
13.242686045459838 0.4692891494669388 0.36589146260372596 176 180 77
13.78788630803323 0.5414470772318929 0.45813097651780754 176 180 77
11.16554088742062 1.5163531102575356 0.38071264988875503 176 180 77
12.099647971864167 1.5163531102575356 0.3499976554532151 176 180 77
13.160650963120816 0.7723660876657554 0.34926079643506547 176 180 77
12.951880027162627 0.9545754879001704 0.30190521039397705 176 180 77
9.242206843640261 1.5430771385692612 1.078775903463915 176 180 77
10.68750032439024 1.5269242595462857 0.5025458667964138 176 180 77
9.593948369917689 1.5340592789058256 0.6954196155560711 176 180 77
9.646177623022746 1.4008420521772957 0.850031155460449 176 180 77
9.754515112244476 1.5430771385692612 0.9882963757082124 176 180 77
10.407904953637049 1.6961746534696571 0.6371060601183504 176 180 77
12.95828677578707 0.5863388236287536 0.30348876862514135 176 180 77
12.830886896625005 0.3404670599728759 0.2699843667733254 176 180 77
12.616660454292354 0.4743310725857368 0.19963197551903025 176 180 77
12.61008013826164 1.0511826243945042 0.19703617902318188 176 180 77
12.61008013826164 1.0511826243945042 0.19703617902318188 176 180 77
12.95828677578707 0.5863388236287536 0.30348876862514135 176 180 77
12.746201733397262 0.7664009643508083 0.24483083880188308 176 180 77
12.427511652550203 0.11595042708271344 0.09946417813576894 176 180 77
12.565611143487999 0.06405583820231678 0.1784412370772549 176 180 77
12.594008329352294 -0.36763022076344337 0.19053767787361228 176 180 77
12.420831129547944 1.3757451860271623 0.09392056022404839 176 180 77
12.420831129547944 1.3757451860271623 0.09392056022404839 176 180 77
12.391124678741383 2.9592403877171884 0.06357898955191607 176 180 77
12.419920820784606 -2.3053637355953436 0.09313923015113837 176 180 77
13.395452529273232 -1.3132744859497163 0.06622481855486617 176 180 77
13.415908874501717 -2.3053637355953436 0.08620676125369513 176 180 77
11.470728641145346 2.44723351254268 0.4424643577459569 176 180 77
11.784021095039968 2.309677915809795 0.4956214907035627 176 180 77
11.706911029304832 1.903005706265383 0.4832973242789899 176 180 77
11.925303701093927 2.08473713350054 0.3074549688532773 176 180 77
11.303372427665307 1.9754349877418915 0.4101041581478879 176 180 77
11.181643577483179 2.2939903136596462 0.3842947266857511 176 180 77
10.895373427751748 2.1876194426534497 1.158484262013132 176 180 77
11.443004970472565 2.643155579236935 0.6120027494241331 176 180 77
10.529622404856877 1.8519764768180815 0.652565033034951 176 180 77
10.743435691331952 1.9950012244753865 0.6781792007622013 176 180 77
10.63747161006689 2.250639707642145 1.0420496902195848 176 180 77
10.412795391442383 1.8142642508514233 0.7849728858633336 176 180 77
10.914713712872729 2.309677915809795 0.5392075230240756 176 180 77
11.443004970472565 2.643155579236935 0.6120027494241331 176 180 77
9.91198718748408 1.7853335436742637 0.9987262765263043 176 180 77
11.195294552363249 2.3252789786173733 0.852685857795842 176 180 77
11.039386331613068 2.0654983321624947 0.5577941322838778 176 180 77
11.251557446395621 2.4922508076758922 0.8570466125754471 176 180 77
9.980593028488649 2.0048258204172065 1.1180265945005652 176 180 77
11.977194181631303 3.103783426127269 0.32081861924615485 176 180 77
11.701595222608313 2.2623839618632418 0.24004131913711196 176 180 77
11.237974815296454 2.6252342246676386 0.39650574045989995 176 180 77
11.612085963088573 2.719720738507405 0.46749880696552915 176 180 77
12.544878272768926 2.569381639129484 0.16903234317497573 176 180 77
12.544878272768926 2.569381639129484 0.16903234317497573 176 180 77
11.701595222608313 2.2623839618632418 0.24004131913711196 176 180 77
12.030740545538231 2.8475856394165837 0.3339533919523428 176 180 77
12.674261151402728 3.0901755376134235 0.2209705478559684 176 180 77
10.825320885114516 2.9744725685570264 0.687514180171715 176 180 77
11.267971848352609 2.472889901416093 1.0744398068812395 176 180 77
13.93548373239796 3.044838935419123 1.0138634284220833 176 180 77
13.382936747698702 2.9753983676706013 1.316544929435977 176 180 77
10.161318192789114 1.6552771306165417 1.1266608314532411 176 180 77
9.773444105366952 1.6552771306165417 1.219184212227469 176 180 77
9.745344899787318 1.5461076466500063 1.218126232346294 176 180 77
9.773444105366952 1.6552771306165417 1.219184212227469 176 180 77
10.13001157998226 1.8654010277527755 1.2320671504939575 176 180 77
13.425691640082674 0.027313359351579195 0.39996021778794866 176 180 77
13.594861942428668 0.38913058622352553 0.42844016991941564 176 180 77
11.856115762278998 1.1989156911868453 0.28851010594310494 176 180 77
11.817969618272132 1.8123397975735462 0.2774272536445265 176 180 77
10.407904953637049 1.6961746534696571 0.6371060601183504 176 180 77
10.61504112706016 1.2231710626012648 0.6630227553377889 176 180 77
12.419920820784606 -2.3053637355953436 0.09313923015113837 176 180 77
12.397821208972067 -1.3132744859497163 0.07156259000497611 176 180 77
12.479125910248117 0.7503697921631588 0.13469816446335736 176 180 77
12.552393539014862 1.4658205405434392 0.17250521180013573 176 180 77
11.63107662080367 1.0511826243945042 0.21386806578574818 176 180 77
11.470728641145346 2.44723351254268 0.4424643577459569 176 180 77
11.303372427665307 1.9754349877418915 0.4101041581478879 176 180 77
9.91198718748408 1.7853335436742637 0.9987262765263043 176 180 77
11.2995326407287 2.4268920373260845 0.5936727504289561 176 180 77
9.698395605724505 2.0569041036291393 0.9844797445932437 176 180 77
10.129528112901298 2.159998412126781 1.012493881241013 176 180 77
10.520662303731251 2.2039076456166327 0.6514498505859282 176 180 77
10.97705436943079 2.5192457028545885 0.7041789876562391 176 180 77
12.674261151402728 3.0901755376134235 0.2209705478559684 176 180 77
12.030740545538231 2.8475856394165837 0.3339533919523428 176 180 77
11.701595222608313 2.2623839618632418 0.24004131913711196 176 180 77
11.894359722939736 2.4839196980339913 0.2991530398220728 176 180 77
13.510554148289229 -2.6915104852066354 0.14636859543482342 176 180 77
12.493535659253352 3.0612976804230647 0.1429574033931056 176 180 77
11.894359722939736 2.4839196980339913 0.2991530398220728 176 180 77
13.48408732556305 3.0612976804230647 0.13239134758039722 176 180 77
10.976024320092014 2.8352389548029286 0.7040685036039723 176 180 77
8.813978080654381 1.5430771385692612 1.1789413162300937 176 180 77
11.777069555268913 2.472889901416093 0.9997062274046721 176 180 77
13.433745908031504 3.044838935419123 1.077095700177159 176 180 77
13.440768999881351 0.6394667398701572 0.4026054586084008 176 180 77
13.473482609338262 0.21529047362666529 0.4082691266709667 176 180 77
13.242686045459838 0.4692891494669388 0.36589146260372596 176 180 77
12.159482660792577 1.2831222159780773 0.3632386516756956 176 180 77
11.190074431101117 1.755552402879307 0.3861535129949649 176 180 77
9.823455617550445 1.2687211320892953 0.8657753013088971 176 180 77
9.78258797762265 1.6655933982359552 0.9901855932476761 176 180 77
12.479125910248117 0.7503697921631588 0.13469816446335736 176 180 77
12.442889873886555 2.1662646974686304 0.11116330773140848 176 180 77
11.613650075037562 -0.36763022076344337 0.2068456657349041 176 180 77
12.427511652550203 0.11595042708271344 0.09946417813576894 176 180 77
11.43288538121047 0.11595042708271344 0.10814978133955398 176 180 77
12.368973617046501 0.5638796755280834 0.021597858308701597 176 180 77
12.456223675926676 -0.6102840055346765 0.1203733374138262 176 180 77
11.142302492964395 2.40504175435706 0.9626536678485218 176 180 77
11.534478102383348 2.592725085042701 0.7593096495063495 176 180 77
11.701595222608313 2.2623839618632418 0.24004131913711196 176 180 77
11.880488518342252 2.557165231894238 0.9020336709858178 176 180 77
13.25961758058465 3.0523712474600053 1.3141272332402065 176 180 77
13.118048486305495 0.26411128551678165 0.3402313792727018 176 180 77
12.746201733397262 0.7664009643508083 0.24483083880188308 176 180 77
13.242686045459838 0.4692891494669388 0.36589146260372596 176 180 77
10.976024320092014 2.8352389548029286 0.7040685036039723 176 180 77
12.397821208972067 -1.3132744859497163 0.07156259000497611 176 180 77
12.479125910248117 0.7503697921631588 0.13469816446335736 176 180 77
11.794742194447569 1.4990819851258366 0.2704257303564447 176 180 77
10.692965796467915 2.159998412126781 0.9330914484845905 176 180 77
13.160650963120816 0.7723660876657554 0.34926079643506547 176 180 77
11.214216311664678 2.7072151473208965 0.7287231603120625 176 180 77
13.473482609338262 0.21529047362666529 0.4082691266709667 176 180 77
10.381523156985264 1.5340592789058256 0.6336642170854078 176 180 77
10.914713712872729 2.309677915809795 0.5392075230240756 176 180 77
