12.455575770703685 0.0032855097853624346 1.3814440904496088 194 30 143
11.286199231244089 0.09233900996098289 1.5402744315047168 194 30 143
11.279074761580315 -0.0852392810338994 1.54025514624098 194 30 143
11.887575044982112 0.5332363511532258 1.541818935397771 194 30 143
11.481549986385533 -0.17273201216206302 1.4534328991398193 194 30 143
10.94944190823563 -2.9615457765462563 1.539335405234054 194 30 143
11.136108355818884 0.49968666451002286 1.9052608837744747 194 30 143
11.425638372866233 0.4576686644513678 1.6282055952812446 194 30 143
11.18791543653798 0.5493436144395373 2.100766597419784 194 30 143
10.137640795447146 0.2174754569184834 1.9397014995260315 194 30 143
10.564810381399592 0.19679549312709546 1.72815166292212 194 30 143
11.394728458467029 -0.0852392810338994 1.7166057022579377 194 30 143
10.392426698079044 0.11218853920875971 2.035298615746334 194 30 143
10.539588012818832 0.2174754569184834 2.028314496091177 194 30 143
11.331382245452522 0.4562108574827497 2.198586767194018 194 30 143
11.46280944991784 0.2749287169865703 2.4266042767897407 194 30 143
10.630066301181529 -0.11605840706326732 2.2473489773291835 194 30 143
11.279859701038356 0.005556703599450272 2.445491317445634 194 30 143
10.63762544826296 0.12568000979398136 2.246778509745696 194 30 143
11.283149566940754 -0.11605840706326732 2.316510315918138 194 30 143
10.727760525975846 0.2749287169865703 2.3654528907187613 194 30 143
11.612503689926184 1.0659072773029283 2.7327842913138025 194 30 143
10.709299015706216 -0.1527909259315515 2.511936525975485 194 30 143
12.156552770960136 0.7621109211582489 2.6394005711046766 194 30 143
10.666277148696937 0.0064481947318723275 2.5174937247389426 194 30 143
11.909896217448404 -0.18140235269381433 2.678516554035175 194 30 143
11.909896217448404 -0.18140235269381433 2.678516554035175 194 30 143
10.666277148696937 0.0064481947318723275 2.5174937247389426 194 30 143
10.453848278862537 2.128442300966512 2.3925211408880007 194 30 143
10.701108148921264 2.212641237858399 2.5129878401288916 194 30 143
11.3981888308608 1.5132183811162203 2.778627844151991 194 30 143
10.494278024220025 2.3092065003299265 2.7390814634908924 194 30 143
10.826368461060044 2.1713142559226015 2.6722315261974114 194 30 143
10.41649360280685 2.8721817498247693 2.756998619327624 194 30 143
10.801115895468055 2.4625773521366447 2.676862568305801 194 30 143
11.196456717509303 2.5062700850065673 2.8294961180735045 194 30 143
10.84367379047936 -2.6440241258805073 2.9550634147963133 194 30 143
10.84367379047936 -2.6440241258805073 2.9550634147963133 194 30 143
11.34256267118413 -2.8921146146260037 2.791768413165221 194 30 143
11.484549462855064 2.6452376570665406 2.7593179126605083 194 30 143
10.41649360280685 2.8721817498247693 2.756998619327624 194 30 143
11.009081588263511 3.127069024361764 2.8874919824185135 194 30 143
10.85108413405525 2.609569716703378 2.9514788526173557 194 30 143
10.268073471197058 2.321231932673379 2.573558538939929 194 30 143
12.108478313301239 1.1855333678444417 2.867223725813737 194 30 143
11.766668239296536 0.7008288655928491 3.0040713881940304 194 30 143
11.720669718435953 0.03258797733995145 3.0361526978455946 194 30 143
11.906279120949076 -0.40597285618310597 2.9360174492375517 194 30 143
13.103326652445912 0.311292719590614 2.8794207181942464 194 30 143
11.867597284663658 0.01799783366337696 2.9522838954895505 194 30 143
12.06995085901749 1.8179621407025621 2.8788027686121636 194 30 143
11.788842125576942 3.1188525169986567 2.9910889554768927 194 30 143
11.657972893533714 0.17089827206479075 3.121319641639056 194 30 143
12.821086232407284 1.4571404719937375 2.980738742993089 194 30 143
11.704217820571143 1.350543338257946 3.050392941992976 194 30 143
11.727017870246488 2.2062340696749563 3.0311557021869224 194 30 143
11.857627542391807 1.9304454400358053 2.956723516016183 194 30 143
11.788842125576942 3.1188525169986567 2.9910889554768927 194 30 143
12.04779981579175 1.4943440928860239 2.8857265758008013 194 30 143
11.657972893533714 0.17089827206479075 3.121319641639056 194 30 143
11.224622757017409 -0.31022219008150187 2.0988517059942207 194 30 143
10.361942234565523 -0.31022219008150187 1.9313462079600285 194 30 143
11.41179571079622 -0.23369700358982376 2.30614764622164 194 30 143
12.306902661611446 -0.34512223772557993 2.3508404389548723 194 30 143
11.41179571079622 -0.23369700358982376 2.30614764622164 194 30 143
11.760242795954225 -0.31022219008150187 2.172367796537239 194 30 143
11.854885301202035 -0.18922921582498947 2.068111014765908 194 30 143
10.904227549726057 -1.0092659207518402 2.9276286348480203 194 30 143
12.031842963793348 -0.35834796062050817 2.6586123091323217 194 30 143
11.282178970105514 -0.9244843581542166 2.806746670112257 194 30 143
10.844754612382792 -0.3046426441891119 2.494989478561619 194 30 143
11.521863086141312 -0.7413304224790987 2.7513420123012855 194 30 143
10.836808192171256 -1.4525213156196264 2.9584508265826197 194 30 143
11.085588046044608 -1.8243940888742796 2.8621522241622452 194 30 143
10.836808192171256 -1.4525213156196264 2.9584508265826197 194 30 143
10.861429239819932 -1.9438880509566845 2.9465914407714493 194 30 143
11.061465951170385 -1.4922762064434374 2.869855428547215 194 30 143
10.977471405989665 -2.3045378320423135 2.898826939608911 194 30 143
10.977471405989665 -2.3045378320423135 2.898826939608911 194 30 143
10.977471405989665 -2.3045378320423135 2.898826939608911 194 30 143
11.683020257609888 -2.4756347060154478 2.719068379795943 194 30 143
11.470542495659538 -2.661883664879496 2.76236670295985 194 30 143
12.601750549910248 -2.4756347060154478 2.751614369188859 194 30 143
13.426160850880203 2.3408607109367137 1.9249046741142464 194 30 143
10.829174839657894 2.4233557082592454 2.3559587099347628 194 30 143
10.829174839657894 2.4233557082592454 2.3559587099347628 194 30 143
12.123128711806718 2.1386480771579612 2.0561388596671915 194 30 143
11.329228151683056 2.333071009406678 2.3127602157628124 194 30 143
11.329228151683056 2.333071009406678 2.3127602157628124 194 30 143
11.329228151683056 2.333071009406678 2.3127602157628124 194 30 143
10.134057211139579 2.912952417539351 2.0481149516480874 194 30 143
10.419410378258453 2.848773051363999 2.3960824331673756 194 30 143
11.639235958427598 3.1370083503952695 2.2886092203927566 194 30 143
10.768342003763303 3.1331618865135518 2.682970456746568 194 30 143
10.836116309836433 2.6564541170298375 2.4960462802858627 194 30 143
10.089935606216201 2.73720757759209 2.6018533177965644 194 30 143
10.818390467857101 2.9267585869989743 2.6736876825205016 194 30 143
10.270527241848477 2.989073749702234 2.4119202443402026 194 30 143
11.056267087879261 3.0234978111577853 2.216766315692702 194 30 143
11.399809209719628 2.7193547044606188 2.432992919917993 194 30 143
10.077520508954237 2.768506137111234 2.166639976487607 194 30 143
10.430109845338405 2.884724943413351 2.262839845531369 194 30 143
10.055359869137602 2.6564541170298375 2.43617825881554 194 30 143
10.338625795655718 2.57388284610538 2.562953618215432 194 30 143
10.48474545881215 3.0234978111577853 2.140532686417449 194 30 143
10.943205000443514 3.045283367372872 1.7226676244223622 194 30 143
10.820008469790531 3.137477705748418 2.0155935342446543 194 30 143
11.131222963095992 -3.052685071462176 1.8116895245287932 194 30 143
10.820008469790531 3.137477705748418 2.0155935342446543 194 30 143
10.829672917003318 -3.052685071462176 1.6313686408433694 194 30 143
11.089838026732574 3.137859879341151 1.8126063926457716 194 30 143
12.156665158274238 -2.7292820559314563 2.4885882908405064 194 30 143
11.952610199258032 -2.8596972042637043 2.5112433181231477 194 30 143
11.836704713831322 -2.7515456639087805 2.6910589795431914 194 30 143
12.042723764889251 -2.585961340611001 2.6568921922452686 194 30 143
11.836704713831322 -2.7515456639087805 2.6910589795431914 194 30 143
12.32667079435563 -2.448439685901637 2.6148172002322494 194 30 143
12.545880754778135 -2.8944304793373123 2.449044187351272 194 30 143
12.740437241637515 -2.7775117247649947 2.4308362298009243 194 30 143
11.068540430730108 -2.9615457765462563 1.7209347826539083 194 30 143
10.226769604403595 -2.847350936059417 1.6349443565238386 194 30 143
10.545573749513755 -2.847350936059417 1.825355836608326 194 30 143
12.012838420619808 0.3452681607528437 1.458645884204662 194 30 143
10.50524742343439 -0.18922921582498947 1.4424680943557766 194 30 143
10.772698998479596 3.137859879341151 1.5388190652191571 194 30 143
10.781440440986541 0.2429164937753207 2.2361253380559893 194 30 143
11.222240419706438 0.6329655107980712 1.9985772900030616 194 30 143
11.242323912562012 0.004881774903180543 2.319869599476575 194 30 143
10.58321610370294 0.14283485450281888 2.3794665372617803 194 30 143
11.280319654721765 0.5094116669892799 2.3167420514130326 194 30 143
11.101517062544696 0.4124836153199799 2.00354102103131 194 30 143
10.801187160647542 3.1188525169986567 2.9772070581330206 194 30 143
11.176497420292389 -0.28860054007707436 2.8350794923885334 194 30 143
11.02426747353091 -0.18140235269381433 2.6379855457171555 194 30 143
11.462306717509113 1.2746171991563435 2.7641737665715005 194 30 143
11.462306717509113 1.2746171991563435 2.7641737665715005 194 30 143
10.563319638367684 2.6452376570665406 2.7239966719310456 194 30 143
11.22081959993842 2.0973162932414517 2.8228352913108017 194 30 143
11.124049954595716 2.321231932673379 2.6219389269939604 194 30 143
10.726184220710723 -2.2450732027999813 3.0267893045161434 194 30 143
12.751661477081855 -0.6614975183312726 3.0187552446368358 194 30 143
11.867597284663658 0.01799783366337696 2.9522838954895505 194 30 143
11.896842617210591 1.0272226148398789 2.9398567077624227 194 30 143
12.886839685834076 -0.40597285618310597 2.951858324793233 194 30 143
11.835079112383806 1.4571404719937375 2.967205581138028 194 30 143
11.657972893533714 0.17089827206479075 3.121319641639056 194 30 143
11.704217820571143 1.350543338257946 3.050392941992976 194 30 143
12.04779981579175 1.4943440928860239 2.8857265758008013 194 30 143
11.657972893533714 0.17089827206479075 3.121319641639056 194 30 143
11.680863209714946 3.0892476983103134 3.0757821413818935 194 30 143
10.54958232229577 -0.18922921582498947 1.7283806990494244 194 30 143
11.041557695351491 -0.18922921582498947 1.90823830669786 194 30 143
11.127524237277422 -1.1761117998911086 2.8493057527001837 194 30 143
11.631830399515323 -0.43360879584103323 2.728965750727486 194 30 143
10.836808192171256 -1.4525213156196264 2.9584508265826197 194 30 143
11.470542495659538 -2.661883664879496 2.76236670295985 194 30 143
10.861429239819932 -1.9438880509566845 2.9465914407714493 194 30 143
11.061465951170385 -1.4922762064434374 2.869855428547215 194 30 143
11.683020257609888 -2.4756347060154478 2.719068379795943 194 30 143
11.470542495659538 -2.661883664879496 2.76236670295985 194 30 143
10.977471405989665 -2.3045378320423135 2.898826939608911 194 30 143
13.426160850880203 2.3408607109367137 1.9249046741142464 194 30 143
13.426160850880203 2.3408607109367137 1.9249046741142464 194 30 143
13.171657715380404 2.399418099041715 2.0145966768678383 194 30 143
13.192373419458798 2.280593544296761 2.0138502492316404 194 30 143
11.924806981266585 2.193029665596286 2.162925193628317 194 30 143
10.599105333720146 2.8015696051676677 2.526348959439985 194 30 143
10.630628868561365 2.912952417539351 2.1317663234560023 194 30 143
10.836116309836433 2.6564541170298375 2.4960462802858627 194 30 143
12.357288759003161 -3.0325486675118665 2.3468144361201717 194 30 143
10.955271021898865 3.008462325849214 2.3445191941151675 194 30 143
10.32526221126975 2.935669855965442 1.8309118985199917 194 30 143
13.37359242858139 -2.8160039541058213 2.377468016465727 194 30 143
11.668015660503466 -2.847350936059417 2.076825307875666 194 30 143
11.217461159786287 -2.847350936059417 1.998771553444779 194 30 143
12.273622603784997 -2.8140113050455704 2.6222968955489385 194 30 143
11.43109281573673 2.866397869822758 1.3642388885763668 194 30 143
11.193399489291366 2.866397869822758 1.5400213077897231 194 30 143
11.014528623030055 0.3537413653516273 2.2196260981987517 194 30 143
10.869817001558475 -0.10358339249312004 2.1179997741770524 194 30 143
11.728229438311455 0.6514612996559755 1.7124311357344664 194 30 143
11.283064022118468 -0.09352287157850739 1.9961208387234226 194 30 143
11.381759926954098 0.004353044135848426 2.1953782614589934 194 30 143
11.320549989735516 -0.13192988653400617 2.441201004069773 194 30 143
11.68231069994862 0.39790771766241323 2.4052252872081574 194 30 143
11.125465563514418 0.37603665337816033 1.7201607969835306 194 30 143
10.622899329860962 0.10130386713794094 1.823462237485818 194 30 143
11.505644755862104 -0.22298000925813893 2.7547831899633586 194 30 143
10.716802275764106 0.16536370403190637 2.51097620457752 194 30 143
11.058040523621303 2.782022965081422 2.8709694124566387 194 30 143
11.505644755862104 -0.22298000925813893 2.7547831899633586 194 30 143
10.41649360280685 2.8721817498247693 2.756998619327624 194 30 143
10.453848278862537 2.128442300966512 2.3925211408880007 194 30 143
10.453848278862537 2.128442300966512 2.3925211408880007 194 30 143
10.99210669932538 2.2845932673965685 2.8935077560736033 194 30 143
11.680863209714946 3.0892476983103134 3.0757821413818935 194 30 143
12.017930320753008 -2.8077157958366277 2.895406632000885 194 30 143
11.834575677513147 2.609569716703378 2.967447205269981 194 30 143
11.549185833850002 -0.2091595630277562 2.1849671574207816 194 30 143
11.224622757017409 -0.31022219008150187 2.0988517059942207 194 30 143
11.155899359663627 -0.35834796062050817 2.6169702231091994 194 30 143
10.315702770928231 2.603357688312715 2.272066874711849 194 30 143
11.39692357428197 2.193029665596286 2.090055602306374 194 30 143
9.973381762532618 2.8077963638299472 1.9460766702026715 194 30 143
11.246840571810308 3.13462370287128 2.603162308668799 194 30 143
10.338625795655718 2.57388284610538 2.562953618215432 194 30 143
11.092698001505964 2.3283576776951844 2.465933767338919 194 30 143
12.472426749239046 -2.6674238318232613 2.595058048828786 194 30 143
11.455259589322383 -2.9435685659699313 2.087147245802147 194 30 143
11.952610199258032 -2.8596972042637043 2.5112433181231477 194 30 143
12.965171127017143 -2.7292820559314563 2.535467579047968 194 30 143
10.94944190823563 -2.9615457765462563 1.539335405234054 194 30 143
11.02629237411137 -2.9615457765462563 1.4485633656747365 194 30 143
11.354304005407231 0.003577997724016142 1.717128554400017 194 30 143
11.484549462855064 2.6452376570665406 2.7593179126605083 194 30 143
10.41649360280685 2.8721817498247693 2.756998619327624 194 30 143
10.777907880704989 0.3180969155868128 2.0174562658723882 194 30 143
10.052795247593208 -0.31022219008150187 1.8381323952864062 194 30 143
10.322244261120087 2.709765224191922 1.932796615051934 194 30 143
10.675559289686237 2.438544431787024 2.5162873228484606 194 30 143
9.966611302400034 2.7193547044606188 2.3020285964058065 194 30 143
10.568416273807697 2.8398305204311867 1.824793473172842 194 30 143
11.036071964607327 2.989073749702234 2.472361272551014 194 30 143
12.67050985017451 -2.8160039541058213 2.322833308997785 194 30 143
11.964011211621045 2.2845932673965685 2.9140330780343584 194 30 143
12.400459613883092 0.00949475607896957 2.7932246553253575 194 30 143
10.877209534498554 0.11218853920875971 2.1175857491975125 194 30 143
10.844754612382792 -0.3046426441891119 2.494989478561619 194 30 143
12.617032170025151 -2.1807168787218174 2.7486781306582957 194 30 143
11.803010128180752 -2.921667496918541 2.2765560788614247 194 30 143
11.29476895083413 2.9631452851311355 2.5960996553495796 194 30 143
11.261604763493843 -2.9615457765462563 1.808846330872474 194 30 143
10.854362126591434 2.2389372822564426 2.353642008125277 194 30 143
10.97829512740025 2.9543292178096605 1.630547639599937 194 30 143
10.315702770928231 2.603357688312715 2.272066874711849 194 30 143
10.900471179467951 3.045283367372872 1.4471452706596772 194 30 143
11.22081959993842 2.0973162932414517 2.8228352913108017 194 30 143
11.448775885005896 -0.2646046543520783 2.4280172141739795 194 30 143
11.34256267118413 -2.8921146146260037 2.791768413165221 194 30 143
11.048994357338842 -3.0325486675118665 2.2172626216348776 194 30 143
13.062036080017965 0.01243142049068467 2.8914714669712507 194 30 143
