7.454225501102936 0.3690253639873172 2.936401764111135 178 187 73
9.622184967956004 -0.7894086864199706 2.4317127690065914 178 187 73
7.82350510194339 -0.5410887684707125 2.7729324311891146 178 187 73
7.7008398918479415 -0.18496405989825582 2.8166516454074273 178 187 73
7.760981710324452 2.932624045262099 2.7943829146638133 178 187 73
8.554927565072335 2.238138304125007 2.3981850296085674 178 187 73
8.936085569199255 2.261286940669417 2.2054025294742785 178 187 73
7.80838098624416 3.0226280928125533 2.509089469448866 178 187 73
7.471815080869575 1.3078914473606067 2.925381906152881 178 187 73
7.341604556542254 2.3876252484439986 3.0323633126092235 178 187 73
8.520040073212668 2.5235148260855 2.5993457805299425 178 187 73
9.125923986280887 2.144291862980126 2.332431332061203 178 187 73
8.515864371114523 2.200175709272184 2.6001601961188134 178 187 73
7.626381858132904 2.3675531036300836 2.847004724514286 178 187 73
6.806469013919948 1.40872786779356 2.7525547359985483 178 187 73
8.26759373491123 1.9905723158514217 2.6523853252161134 178 187 73
7.894842624633693 2.6017996864608466 2.7502090517749243 178 187 73
9.699897007320619 -2.3707217617199454 2.422439443221617 178 187 73
9.269366867858514 -2.2485023426290067 2.4772277617011578 178 187 73
8.5685846360954 -1.7010962002464198 2.5900145434244743 178 187 73
10.017434127771084 -0.9162517185910035 2.5469362092881815 178 187 73
9.098261872870216 -1.1814017459192598 2.7189934866220664 178 187 73
9.522744675122896 -1.262746120133736 2.6287878624996384 178 187 73
8.76778604135994 -1.046943276562709 2.812704826543926 178 187 73
8.434252477160197 -1.2914270764394182 2.9615035745564624 178 187 73
10.075557813637573 -2.2485023426290067 2.5384595755893096 178 187 73
8.672240293627413 -1.8043754916903023 2.846685264671677 178 187 73
9.03002942153366 -2.3822574199250406 2.7361235103748847 178 187 73
9.434847417469461 -1.7010962002464198 2.6455853163887686 178 187 73
8.444137295790332 -1.952821823322347 2.955183464789139 178 187 73
9.125726742147545 -2.0008422836569615 2.7123499362325845 178 187 73
9.351242077607722 -2.213241446769247 2.6623683951394166 178 187 73
10.47299885790252 -2.3707217617199454 2.4853806287249895 178 187 73
8.386242247692534 2.458055778985667 2.1088764651544665 178 187 73
8.287594567566774 3.069474616752686 1.9800516579839091 178 187 73
8.475202605380048 2.5755309301765106 2.2460563337198707 178 187 73
8.32493198823014 2.5370653380504704 1.850447573670291 178 187 73
8.10761100710304 2.7134917078230636 2.2829186022333783 178 187 73
7.439587534313882 -2.6586395815788797 1.6108430617539242 178 187 73
8.075005175672349 -2.828847913713486 1.7322210283419541 178 187 73
9.225675441408246 -2.924492414029751 2.322171007333626 178 187 73
7.5017548713152316 -2.4684468097682117 1.8821090644711542 178 187 73
9.510323217103956 -2.7277696562395386 2.445511729269926 178 187 73
8.836770955608026 -2.952393086824258 2.0787152689850075 178 187 73
9.3027926266003 -2.887147536662934 2.472652953133985 178 187 73
8.334730493501382 -2.4684468097682117 2.11256913166553 178 187 73
8.79895910124947 -2.78503895963062 2.216924783957176 178 187 73
8.428638709084124 -3.0607884110753134 2.414630432248649 178 187 73
8.590444274277521 -0.704318100788974 1.3713319037173988 178 187 73
7.605481062570582 -1.8114500747049584 1.062403761639933 178 187 73
9.420541401816108 -1.0357923843418817 1.1669188464037898 178 187 73
8.440800896144534 -1.3829473650835313 1.116754347480839 178 187 73
8.821465664220923 -1.514953776394582 1.0086129251521025 178 187 73
9.541158726464465 -1.0892802640240082 1.602018945564069 178 187 73
7.9259913271687585 -1.3829473650835313 1.8649327389435468 178 187 73
8.805497794056947 -0.7886706992451299 2.0806932571299743 178 187 73
10.695561585913746 -0.970540059944434 2.3217349421368185 178 187 73
10.322881257659999 -1.083807909466663 2.355985209887107 178 187 73
9.334478803133132 -0.7886706992451299 2.174332294405466 178 187 73
10.123771066051233 -0.8899498673448882 2.375842951848643 178 187 73
9.729212733797656 -1.0110125308239655 2.419004800635326 178 187 73
8.164220642332007 -1.257216100545183 1.8561052276990775 178 187 73
8.962188296020754 -1.0357923843418817 1.8300859940266403 178 187 73
9.760879481379007 -1.1409218267693837 2.144520579628148 178 187 73
9.269116580253556 -1.0357923843418817 1.9345547132137253 178 187 73
8.271459462716019 -1.3829473650835313 1.9808979203853365 178 187 73
9.457329879062028 -0.8724295983684518 2.042547203185466 178 187 73
7.920017307944645 -2.1884489080766403 1.6084126355957178 178 187 73
7.655414152090578 -1.514953776394582 1.3465765857225882 178 187 73
7.574194880412597 -2.0777637103774405 1.344130438290689 178 187 73
7.728269848962145 -1.780160965162702 1.7395314702701803 178 187 73
8.029147719374482 -2.013293865974956 2.291385348392775 178 187 73
7.765331498259563 -1.853442296850071 2.321623958311123 178 187 73
7.484235656891431 -2.269844784903123 1.882862373024421 178 187 73
7.692860579121012 -1.951644764831326 2.013838488736025 178 187 73
7.912582839573924 -1.8114500747049584 2.1450004284051625 178 187 73
7.763716091522865 -1.5063212636444294 2.157455330034407 178 187 73
8.479155406221903 -1.853442296850071 2.4079572615609646 178 187 73
7.320136662986155 -1.951644764831326 1.890102928972798 178 187 73
8.170111461094214 -1.6489257843056444 1.9862972635243623 178 187 73
10.500156358097266 -1.0110125308239655 2.4820291987801735 178 187 73
10.029305219597173 -1.3165963865985717 2.5451883498339027 178 187 73
8.747096966567565 -0.5406376302395914 1.7197213294515783 178 187 73
8.97862177324338 2.0873939521416 2.5197442759982716 178 187 73
8.148599691337463 2.989882302087652 2.68056497417432 178 187 73
7.941442978834621 2.8159112728172397 2.4865733595670303 178 187 73
7.482971363327829 1.9312513318862512 2.9186958660261246 178 187 73
8.352120828885846 2.3600897036357247 2.2579147412012066 178 187 73
8.7815516158423 2.006597620231451 2.370527006176704 178 187 73
8.558843545962025 -1.4774996387222532 2.5918671158634403 178 187 73
8.870557243425697 2.361182119196782 2.536949443013171 178 187 73
8.62964737353717 -3.0432620775673658 2.578619456715484 178 187 73
7.7008398918479415 -0.18496405989825582 2.8166516454074273 178 187 73
8.187819749998159 -0.40189592972276234 2.6710134830894847 178 187 73
8.743500965018864 1.905838841078092 2.558311717837892 178 187 73
9.006222779316117 -1.7382163300575415 2.7423263724562585 178 187 73
9.76473376156661 -2.0965773748329517 2.58635948983911 178 187 73
9.42600158971214 -1.4774996387222532 2.6473223474857024 178 187 73
8.796282824698693 -2.1441622173749915 2.8033406183334413 178 187 73
9.365269412859295 -2.5414787861626107 2.6594938728993207 178 187 73
9.791583681770392 -2.650335447088405 2.581954647631359 178 187 73
8.99695553668007 -1.4507043011727574 2.7447747495922465 178 187 73
9.675358815862879 -2.3748505749132445 2.601434327516414 178 187 73
8.728357456109364 -3.0820398556805353 2.085642486109453 178 187 73
8.62537621423757 -2.828847913713486 1.9631268730342963 178 187 73
8.574227908401038 -2.924492414029751 2.2368410282968068 178 187 73
9.815831331784597 -2.5878361969707218 2.409051957171067 178 187 73
7.175598704937576 -2.4684468097682117 1.472787248906319 178 187 73
9.521509263205168 -2.4684468097682117 2.293525695615041 178 187 73
8.46810428281844 3.058567100905606 2.2467278219632822 178 187 73
9.04291150318676 -0.704318100788974 1.944095248645398 178 187 73
7.618020027760124 -1.3829473650835313 1.478495912330635 178 187 73
7.948364771240877 -1.6489257843056444 1.2239189729148194 178 187 73
9.600805362398356 -0.9422778172066907 1.285491275563837 178 187 73
8.732106400599996 -0.8724295983684518 1.837081895232951 178 187 73
9.424670829326868 -1.153582852645248 2.4564596649898442 178 187 73
7.493699851306323 -2.0777637103774405 1.7448664214906637 178 187 73
10.709978130385299 -1.0357923843418817 2.199424702336884 178 187 73
7.774453509504408 -1.6609736689985073 2.156537544232785 178 187 73
9.303670034274488 -0.9422778172066907 1.7107516566156 178 187 73
9.64189682244879 -1.083807909466663 2.2825670288387054 178 187 73
8.159894696932595 -1.514953776394582 1.9868497281887378 178 187 73
7.624534966552896 -1.6773980184792097 2.338997313486788 178 187 73
8.31896565793399 -2.269844784903123 2.1137100428116353 178 187 73
9.50859822951119 -1.186651970065644 1.2826458180446205 178 187 73
9.06249926027779 -0.5406376302395914 1.2680234183175467 178 187 73
8.914351044198888 -0.6065869767598221 2.0738775096355564 178 187 73
7.409431608727308 2.733851639653373 2.5867392704990815 178 187 73
8.883699859906747 -1.0735057505802903 2.5348117041431615 178 187 73
8.195255917042742 2.6342429220225103 2.4472512288226818 178 187 73
7.593495952526458 0.8296513987103965 2.8616312462779323 178 187 73
8.694106192565425 -1.9124983095744947 2.566978662920638 178 187 73
8.542234779424444 -0.7977962021690768 2.901816606614902 178 187 73
9.548988721985406 -1.9124983095744947 2.623927594909545 178 187 73
7.850965117917416 2.8711610701694874 2.311493496718577 178 187 73
8.586633518481996 -2.6586395815788797 2.095005034354805 178 187 73
8.534861539174793 -2.269844784903123 0.9873129087833988 178 187 73
8.164220642332007 -1.257216100545183 1.8561052276990775 178 187 73
9.729212733797656 -1.0110125308239655 2.419004800635326 178 187 73
7.575782152030818 -1.514953776394582 1.7429614369910216 178 187 73
8.083745648612926 -2.0777637103774405 1.9910157841264864 178 187 73
9.219070455465621 -1.3165963865985717 2.484225671358139 178 187 73
8.301660141705234 -1.780160965162702 1.9793168751768109 178 187 73
8.350403378351718 -1.6773980184792097 2.4252271440991753 178 187 73
10.08857809789714 -2.496058292337605 2.536588281845901 178 187 73
7.524166854504913 2.9106730520384505 2.024504140602994 178 187 73
8.142725217635839 -3.0160780159858582 2.6820194811635143 178 187 73
8.571481464241264 -2.3994119817642012 2.8882367699733047 178 187 73
9.7219250319012 -1.0735057505802903 2.593498997702452 178 187 73
8.541007490924484 1.8488159124811505 2.399959494709698 178 187 73
9.424643261730607 -0.6879814795111111 2.302626553036056 178 187 73
8.664887763074605 -1.257216100545183 1.1293377383134404 178 187 73
7.892863330569693 -1.9044995124516986 1.6085421091329861 178 187 73
7.586785553625662 -1.6489257843056444 1.7427092482706246 178 187 73
7.618020027760124 -1.3829473650835313 1.478495912330635 178 187 73
10.036369726221848 -1.2124300405549115 2.384943731372867 178 187 73
8.836479049938708 -1.1409218267693837 1.9532616297990697 178 187 73
7.330233123371156 0.9206795197242447 3.047562964627713 178 187 73
8.662615764810335 -1.4025191950030533 2.8503651319185512 178 187 73
7.8903360641864335 2.126855070298118 2.751595404240895 178 187 73
7.823604645488874 2.6473059662359555 1.8688994554749059 178 187 73
10.401064689855481 -0.7894086864199706 2.4944149973564436 178 187 73
8.519556455853053 -0.704318100788974 1.7237297062913726 178 187 73
7.487723104276514 2.8084924041309476 2.9159131742737605 178 187 73
9.58902123575673 2.1815144884824096 2.156146603841319 178 187 73
8.150106933499424 2.3631260786048003 2.6801928077080674 178 187 73
8.967985392312228 2.359389840360633 2.070589269401062 178 187 73
8.513968456307888 -1.1409218267693837 1.844077143954874 178 187 73
