10.332227614128008 0.7684148023173754 0.25997942442128386 177 157 88
9.623113201448064 0.5653301496703613 0.36620998357438916 177 157 88
11.38408453712939 1.2614081333528124 0.2655624533258887 177 157 88
11.348038103235844 1.6025132568568448 0.25362135596718466 177 157 88
11.099171322508667 1.5894271822474224 0.4519020662154623 177 157 88
10.274252162170562 2.5337091394143 0.5063557495990039 177 157 88
10.367124946005317 2.418199304093661 0.2723469663493701 177 157 88
9.918652602439625 2.3973384744033397 0.4373656206970102 177 157 88
10.90233675127829 2.0686431230073965 0.4131512368028787 177 157 88
11.13939564322943 1.6196729128500724 0.1666795170170342 177 157 88
11.152228122235615 1.7921034533668818 0.461606359587314 177 157 88
11.639149551775091 1.5942699074843456 0.3368549282233098 177 157 88
10.947075213683972 2.7176648638581393 0.42237673114024565 177 157 88
10.719767059232739 1.5862407551848963 0.5768721748098484 177 157 88
10.61404106314225 2.603140747720075 0.3460008337570713 177 157 88
9.887912509603295 2.6317997084493636 0.6308045530789803 177 157 88
9.138629877693768 1.4386872845540297 0.8567276259279285 177 157 88
7.411292713350512 0.7771734477496219 0.8330467485337771 177 157 88
7.97615779552136 0.8919202317556438 0.8956780844918704 177 157 88
9.970832275261564 2.1093603610250726 0.9269796974732787 177 157 88
9.296071527439633 1.5823042281559756 1.0048086533973681 177 157 88
10.001317508794067 1.86713987126209 0.7976234528307432 177 157 88
9.780857622097491 1.5839850332818908 0.7753848769316588 177 157 88
9.970832275261564 2.1093603610250726 0.9269796974732787 177 157 88
9.795851671765254 1.9460095915509656 1.0369008970897966 177 157 88
10.087028981296884 1.8311666147845755 0.9355971822384013 177 157 88
9.43418576282508 2.2718377597090327 0.7371397884262538 177 157 88
9.88069089523099 2.2101578267666775 1.04196925657858 177 157 88
9.4600536761364 2.4945558629036393 0.7401467767224276 177 157 88
9.793173684219436 2.287210475183212 0.9132942471565271 177 157 88
9.335243723476623 2.376665236072232 1.1297580582848699 177 157 88
9.242563152010225 2.4694922587700097 1.0011262384015405 177 157 88
10.46416929038727 -0.37759978396216276 0.30378840826601916 177 157 88
11.181821216257076 0.4169811649015209 0.18789543137316195 177 157 88
9.835236964496898 0.2130788260470453 0.41885906793721667 177 157 88
11.082871774234937 -0.9032612739923108 0.13298493042311135 177 157 88
11.082871774234937 -0.9032612739923108 0.13298493042311135 177 157 88
10.401474531717978 -0.052905505571415636 0.28393131067801375 177 157 88
10.401474531717978 -0.052905505571415636 0.28393131067801375 177 157 88
9.835236964496898 0.2130788260470453 0.41885906793721667 177 157 88
10.724275471564205 -0.03939005999617393 0.37347060464692383 177 157 88
11.040065957601676 -3.0011997136526976 0.0999053632287012 177 157 88
11.247194732732599 -2.039353590861256 0.21634108148200498 177 157 88
10.986467507994156 -2.1008640761930835 0.016256237436898174 177 157 88
11.045842421839883 -1.6488760117816825 0.10499332151302247 177 157 88
11.241521734004065 -2.6371268843564857 0.21403281944856398 177 157 88
11.469629415986807 -2.7841779019525004 0.2917287370000754 177 157 88
11.040065957601676 -3.0011997136526976 0.0999053632287012 177 157 88
10.486469100415835 2.8744043539373503 0.3104999820572505 177 157 88
11.38771168409141 -2.3411665075901524 0.2667310091287498 177 157 88
11.412459526156649 -3.091773524942258 0.2745552331452682 177 157 88
11.071354471982602 2.4817448156619553 0.12496827217044552 177 157 88
11.017908231615703 1.677134712378045 0.0772895998739764 177 157 88
10.986467507994156 -2.1008640761930835 0.016256237436898174 177 157 88
10.823429319673142 2.937656961224902 0.3961921192257462 177 157 88
14.64578465503678 -1.8217418727904113 0.6123051728570431 177 157 88
15.887606185827053 -1.5806598042516056 0.6140785445457838 177 157 88
15.33322744278007 -1.5818693473665062 0.5607533352873646 177 157 88
15.745944021415138 -1.6777614370359175 0.7057128589456764 177 157 88
15.010091810274943 -1.668235199441683 0.8430076654408846 177 157 88
15.104479780225535 -1.7738176854473755 0.7564622045615583 177 157 88
13.456148395177625 -1.0161779540248672 1.3471025648840929 177 157 88
14.537748377077822 -1.0538538718323334 1.2931269240238228 177 157 88
13.168131525672681 -1.496087863371772 1.1825490928884637 177 157 88
12.920829250888607 -1.2595716341155347 1.4165563544352455 177 157 88
12.654185733369127 -1.3358173099799142 1.4132794152253978 177 157 88
12.348667647263447 -1.496087863371772 1.4093485014977833 177 157 88
12.805381555905994 -1.2595716341155347 1.4937982420516747 177 157 88
12.342567515728064 -1.414945901770271 1.4909049686562421 177 157 88
11.894648617054452 -1.668235199441683 1.229163562633729 177 157 88
11.95298331266644 -1.8410720065324993 1.318395145680763 177 157 88
11.520555120766405 -1.7560493013467156 1.3976300779067647 177 157 88
11.743243944268599 -1.8410720065324993 1.40094612032997 177 157 88
12.363283089476646 -1.660262841711472 1.4095410322074633 177 157 88
12.194267053344117 -1.5782253001708257 1.4899312601516121 177 157 88
12.371795546978701 -1.7411130172145697 1.4910941109736895 177 157 88
12.579424195893314 -1.819780119255858 1.4924123529902384 177 157 88
11.26190161377867 1.195398951116015 0.4808134543090941 177 157 88
10.562875528290828 0.5653301496703613 0.3323036930258502 177 157 88
10.61404106314225 2.603140747720075 0.3460008337570713 177 157 88
10.61404106314225 2.603140747720075 0.3460008337570713 177 157 88
9.761252954906915 2.386977452775246 0.6128155125248449 177 157 88
10.250439158591018 2.2476835616061597 0.5021508537752889 177 157 88
11.399936703178517 1.93665653187224 0.2706278708135276 177 157 88
8.954515520966376 1.168902003623093 0.9803833426623204 177 157 88
7.401124232216147 0.6644929249026881 1.0022188762426256 177 157 88
8.636499575484121 0.8919202317556438 0.8051668849552893 177 157 88
9.359355420500812 1.70887529496495 1.009098593616808 177 157 88
9.6184773462124 2.057080334445875 0.7580063029751721 177 157 88
9.364997162897845 2.578345029184548 0.8774901487887177 177 157 88
10.401474531717978 -0.052905505571415636 0.28393131067801375 177 157 88
10.231296446778781 -0.5435936518717048 0.21985674047814724 177 157 88
11.183185789039701 -3.0680120588654005 0.18853609566255256 177 157 88
11.918101924717721 -2.6568664628590035 0.39833396042408126 177 157 88
11.194588036726667 -1.6126894118489137 0.1938017123322903 177 157 88
11.040065957601676 -3.0011997136526976 0.0999053632287012 177 157 88
11.183185789039701 -3.0680120588654005 0.18853609566255256 177 157 88
10.986467507994156 -2.1008640761930835 0.016256237436898174 177 157 88
11.071354471982602 2.4817448156619553 0.12496827217044552 177 157 88
15.745944021415138 -1.6777614370359175 0.7057128589456764 177 157 88
12.462303343226198 -1.414945901770271 1.4108333863540874 177 157 88
13.25772380488576 -1.1868848917124226 1.4205059530896675 177 157 88
12.579424195893314 -1.819780119255858 1.4924123529902384 177 157 88
11.67429716276754 1.3385272288081005 0.34534900590959233 177 157 88
10.490424778804565 2.7937067018735924 0.5423523944152847 177 157 88
10.11457117993137 1.914194424279777 0.6608729853894794 177 157 88
10.590992075446923 2.204296145369589 0.3399125936718178 177 157 88
10.420304621079259 1.9780345261582355 0.5310804085712076 177 157 88
10.77469228554558 1.7551831142995826 0.5846596159970492 177 157 88
11.192261761609354 2.104313783138758 0.19273982913561963 177 157 88
11.689755785839601 1.847041994760148 0.34900616303285986 177 157 88
8.68124047928704 1.2987564712081507 0.9591348198112902 177 157 88
10.155751967196236 2.0513601836515116 1.0577238773122994 177 157 88
10.434678046306532 0.28292366590103407 0.29463932434255224 177 157 88
10.434678046306532 0.28292366590103407 0.29463932434255224 177 157 88
10.167165803603375 -0.08050987713821442 0.18957456954579444 177 157 88
15.33322744278007 -1.5818693473665062 0.5607533352873646 177 157 88
11.194588036726667 -1.6126894118489137 0.1938017123322903 177 157 88
14.089950884201583 -1.1182235415877042 1.2840563534633687 177 157 88
12.654185733369127 -1.3358173099799142 1.4132794152253978 177 157 88
12.342567515728064 -1.414945901770271 1.4909049686562421 177 157 88
13.13698123319809 -1.5782253001708257 1.1815790654652352 177 157 88
12.861667899001677 -1.8954270578753418 1.4941358708429642 177 157 88
12.202897413072712 -1.660262841711472 1.5720242429296976 177 157 88
12.315444803439098 -1.5782253001708257 1.4089091309648816 177 157 88
9.971144349767478 0.44110977323765294 0.44849253415848417 177 157 88
7.649933527871517 1.108963921113385 1.022866035263055 177 157 88
10.257043431500856 1.9948196117106443 0.8216730545660973 177 157 88
11.055031151304865 0.7490798928524987 0.11260583933016204 177 157 88
11.045842421839883 -1.6488760117816825 0.10499332151302247 177 157 88
11.099154150299096 -2.327780344878157 0.14353525879415463 177 157 88
10.201131994737427 0.4169811649015209 0.20620734252325404 177 157 88
11.778496804943064 -2.866589832661006 0.3691535807423015 177 157 88
11.722833295758655 -3.103939998675115 0.3566791525872936 177 157 88
11.136023347785093 1.3852297800371658 0.4586724566577859 177 157 88
14.998824000142742 -1.6777614370359175 0.7489681755501759 177 157 88
12.02760382483475 -1.7560493013467156 1.2330914173631697 177 157 88
12.491251210127961 -1.7411130172145697 1.411207276013793 177 157 88
10.719767059232739 1.5862407551848963 0.5768721748098484 177 157 88
11.02369630660366 -0.16778457518395587 0.0837961638654275 177 157 88
13.995975906990454 -0.953968440084502 1.3558686983257189 177 157 88
9.928119944155549 1.70887529496495 0.9237470312220307 177 157 88
10.401474531717978 -0.052905505571415636 0.28393131067801375 177 157 88
11.612948180542963 -2.5328506494699 0.3303518812973676 177 157 88
12.536282735975666 -1.3358173099799142 1.4921420513562582 177 157 88
10.57429882337396 1.7287318745942584 0.7149373529686498 177 157 88
11.17611503396483 1.112908637722161 0.1851909413601723 177 157 88
