11.692263840754249 0.20826102479920092 2.1190666692816253 18 239 127
11.339533320139859 0.3943786692224061 1.940190702066075 18 239 127
11.430092948886536 0.30402681838148354 2.0327283865006507 18 239 127
11.063202778100491 0.10846895378704834 2.0493080693922585 18 239 127
11.737687565086803 0.3943786692224061 2.019723406262299 18 239 127
11.339533320139859 0.3943786692224061 1.940190702066075 18 239 127
14.029159006294089 1.268428909491282 2.0201588708210125 18 239 127
15.417242290695723 1.6652177083063084 2.123518643720151 18 239 127
15.777885226121768 1.6729926457326232 2.2649894497087484 18 239 127
12.297435585514954 0.8043684909990736 1.997909053611841 18 239 127
12.402719206957398 0.9297341635819646 1.9940489395440415 18 239 127
11.976564898839642 0.6784067625751771 1.9196773903369724 18 239 127
12.666016164262953 1.05071324181049 1.9847040537979084 18 239 127
13.498769598639058 1.1642612197908926 2.0391965795662297 18 239 127
12.845845133102811 0.9297341635819646 2.065085534366567 18 239 127
13.051467292239188 1.0869401372790017 2.239757502233902 18 239 127
12.871607041547891 1.004426309395096 2.154534486895545 18 239 127
12.723090999177273 1.1341608490812787 2.3670985831654905 18 239 127
12.190733865450483 0.8864297694544283 2.2968970607019368 18 239 127
12.88173332572016 1.0812941057817065 2.4712383368787902 18 239 127
12.720653901105953 1.1772682923049493 2.2604882895411484 18 239 127
12.456022841314882 1.0869401372790017 2.176736917519418 18 239 127
11.52498056286732 0.730895992539733 2.233873924500398 18 239 127
12.36174619216726 1.0153559669330259 2.5262282999480483 18 239 127
12.188190320003114 0.950259959823735 2.19204486508621 18 239 127
13.670380803968342 1.2429433353155692 2.116410133714215 18 239 127
13.20146922046049 1.1287362627688635 2.138118374554814 18 239 127
11.330217611428909 0.52393167912463 2.0371217951083938 18 239 127
11.420851107687088 0.43416892833699644 2.1336458360264006 18 239 127
11.50753804986321 0.6141098274558915 2.4820578318505575 18 239 127
12.039484821939714 0.5410078680244633 2.4269998175264935 18 239 127
11.461743513539874 0.23122991721011868 2.2381904344297148 18 239 127
11.446569517361523 0.8159463766717417 2.488958122241347 18 239 127
11.031722096711007 0.642647077543465 2.2692940201749625 18 239 127
13.55491583261689 0.3437886423151206 2.6730630776129503 18 239 127
11.625849628046334 0.37583244168317553 2.340914124749953 18 239 127
13.354260180783827 0.5715290927039206 2.70368192487378 18 239 127
13.036369434223486 0.15592646610514613 2.588711533141973 18 239 127
12.004003662118778 0.1361053093053943 2.430413594609096 18 239 127
14.327486339485622 1.596953316063028 2.4564457670207087 18 239 127
15.0271546758947 1.682157132025075 2.307334032593587 18 239 127
14.537498880817523 1.600195569481583 2.5533689180030237 18 239 127
14.55557063527356 1.4764637247369452 2.5515100447961956 18 239 127
13.827584961593036 1.3555488169384629 2.5019680903605668 18 239 127
12.76516888878712 1.287843760247133 2.6241664619118743 18 239 127
13.038934481507399 1.3555488169384629 2.456174246004413 18 239 127
13.735950752001358 1.4764637247369452 2.5109899549859187 18 239 127
13.770432725374764 1.7230379682156236 2.5075679306979968 18 239 127
13.269356477036338 1.3262046863376926 2.560881487480665 18 239 127
14.007590412143093 1.604354984775247 2.612765742311864 18 239 127
13.206648228012382 1.3028443031605408 2.2305019279356433 18 239 127
12.503959973245202 1.0712719179420567 2.6621467551717353 18 239 127
16.073390759213837 1.7404052482753793 2.1721860799704045 18 239 127
14.374814806750086 2.0005404765462216 2.570559097059542 18 239 127
14.183126014282914 1.8775314341628124 2.5919548109042907 18 239 127
13.318595960900181 1.9525702494584198 2.4308823920842224 18 239 127
13.896008586475654 1.8414388270214204 2.495378624416502 18 239 127
12.649857498799477 2.2088168048556054 2.3730335434484884 18 239 127
13.234242679327782 2.1468293661253917 2.3283798670507614 18 239 127
12.43594753567898 2.44423348807081 2.279522088872965 18 239 127
13.234242679327782 2.1468293661253917 2.3283798670507614 18 239 127
12.887238014468306 2.283226514996423 2.4706997635940766 18 239 127
11.328645686829526 2.531130176387109 2.2474828846526984 18 239 127
12.25464349406652 2.685078304132698 2.5387015809932514 18 239 127
11.752203123884614 2.564201998907612 2.4556539953117382 18 239 127
12.590640960753033 2.8638814875604277 2.5009607992004357 18 239 127
12.465871620034614 2.995734568382152 2.5145095700477227 18 239 127
11.992182882572047 2.5904532909859954 2.2037939317340083 18 239 127
12.24232245902213 2.683341690468506 2.2931615929382145 18 239 127
11.605436904039692 2.683341690468506 2.228470573084106 18 239 127
12.442274050063904 2.896172693670045 2.390446495875408 18 239 127
12.24232245902213 2.683341690468506 2.2931615929382145 18 239 127
11.947726755967848 2.7855683809878493 2.315104816933763 18 239 127
11.695364434627777 3.0270022831175676 2.2225451062337496 18 239 127
12.316001744944906 3.013235003275231 2.4014923127528145 18 239 127
13.779423466496157 0.5015277751510655 2.824891996015411 18 239 127
14.085392215969426 0.408771182346999 2.7641929368528917 18 239 127
13.973975430144582 0.2196139466021121 2.7848463265181564 18 239 127
14.40169285750746 0.36733008153055197 2.934559803926054 18 239 127
13.964196920139466 0.6832444863807486 2.786729997087786 18 239 127
20.323286850709962 2.396629593037377 2.991286248554819 18 239 127
20.395064405815948 -0.14752510518208328 1.7729116422923707 18 239 127
20.38735083587227 -0.19663067605286183 1.723153038850033 18 239 127
20.603829487489314 -0.24479470298427983 1.7215399666346247 18 239 127
20.866037117625535 -0.2918278176567216 1.719631481396463 18 239 127
19.007464676124187 -0.1638544611292772 1.8971788197665616 18 239 127
18.265586934178543 -0.23067517830012765 1.9109594709297317 18 239 127
18.802560531079912 -0.052693616649698294 1.900869864436396 18 239 127
18.202337699556498 0.003766773596218174 1.9711436469361587 18 239 127
17.58611114940426 -0.19637156675159023 2.114280140379872 18 239 127
18.202337699556498 0.003766773596218174 1.9711436469361587 18 239 127
17.446993721401075 -0.130452727443464 2.1191047136362657 18 239 127
18.22632198698597 -0.05583074173286015 1.9705868138285723 18 239 127
18.43763119444775 -0.1734397689702122 1.9657490394792494 18 239 127
19.604800328208416 -0.5624701934097397 1.886883240704627 18 239 127
18.798380167961778 -0.34038214492273067 1.9009460540066845 18 239 127
18.506900915459248 -0.2864136993209919 1.9063484005841076 18 239 127
20.76109666207912 -0.5100443886275597 1.7693002112660983 18 239 127
19.45925933640229 -0.5157678694031248 1.9439609351510823 18 239 127
19.415904612811595 -0.46645618449184467 2.0008089621288274 18 239 127
19.02902090201191 -0.4145701165799689 2.0101537712155753 18 239 127
11.051782055331854 -0.09566825284967996 2.049844181050177 18 239 127
11.051782055331854 -0.09566825284967996 2.049844181050177 18 239 127
11.508973221403986 0.0064674960909555405 2.1288222699857364 18 239 127
20.798864279778243 -0.6872459583245837 1.768934961157446 18 239 127
20.429661946496275 -0.5780920874542996 1.7725646350052533 18 239 127
21.85620922741832 -0.756624532222894 1.950167317627435 18 239 127
20.267169448308998 -0.6799461718435514 1.9284010051947877 18 239 127
21.424727374914568 -0.8293394404990321 2.06138441796459 18 239 127
21.88309318160504 -0.8697886319489463 2.1563618831720843 18 239 127
21.905690674126664 -0.754470509310913 2.10185958525966 18 239 127
20.96384261046761 -0.754470509310913 2.019504019750313 18 239 127
20.663743823694592 -0.9037195679083492 1.973283158455285 18 239 127
21.905690674126664 -0.754470509310913 2.10185958525966 18 239 127
22.13323858993749 -0.9918874196022992 2.203845147834862 18 239 127
23.285692232993085 -0.8768721390172698 2.3338896949077155 18 239 127
11.376535658129688 -0.42224270312372586 2.1361054176127 18 239 127
11.070313822837361 -0.32338240730124 2.1537527633876095 18 239 127
10.847955230895433 -0.21753232915291798 2.1673302141920647 18 239 127
13.397133055938228 0.010956281540151184 2.696896474390147 18 239 127
11.27470599436447 0.007205527726787367 2.2513314377925147 18 239 127
12.700604865350735 -0.24401230461448764 2.8313177265071676 18 239 127
11.707484908803568 -0.4096888337069355 2.4603338307128046 18 239 127
11.497455694425222 -0.27892920005581845 2.483189643494085 18 239 127
12.536689998004812 -0.16115775172914565 2.657149201402491 18 239 127
13.031927207993373 -0.19422026640413054 2.759911555629894 18 239 127
12.227695970296246 -0.3862317227318288 2.7076059242186625 18 239 127
12.813238442734262 -0.47535990073443896 2.804980339443729 18 239 127
13.002030412014713 -0.6627253254446166 2.765682029147853 18 239 127
11.254121083066174 -0.12010343366239952 2.3734699370544057 18 239 127
11.956998760757376 0.008133691856875373 2.4349884880700943 18 239 127
12.698021252024018 -0.9732193999808737 1.8990854510602513 18 239 127
13.599772056271828 -0.9076113754753615 1.9547356482889329 18 239 127
11.645786376282917 -0.6305733486296174 2.3392550650795867 18 239 127
12.103638121102643 -0.7204470820667906 2.303304653899566 18 239 127
11.645786376282917 -0.6305733486296174 2.3392550650795867 18 239 127
12.212233235728736 -2.431761436325277 1.4965522475708635 18 239 127
11.732504139187641 -2.131317028282232 1.5788208489091853 18 239 127
12.302431686462066 -2.315472860567785 1.4152530970962216 18 239 127
12.761639487231552 -2.992500447549051 2.624652593611045 18 239 127
12.727361350942907 3.1314693699353193 2.6294099585741817 18 239 127
11.74497095113003 -2.630512723002146 2.604977748517018 18 239 127
11.709141805520256 -2.5785486520760115 2.4601593131722943 18 239 127
12.03403748072444 -2.496990319629684 2.5658710945101895 18 239 127
12.570564887106764 -2.8800926896573946 2.5031060920869304 18 239 127
12.022681247942518 -2.8404969015630797 2.567327991597401 18 239 127
13.246130157476486 3.132868093563012 2.5635591285811663 18 239 127
12.762947035287496 -2.7560921460054812 2.483065932070186 18 239 127
11.236906129557337 -1.9738558048085648 1.8497560662934256 18 239 127
11.552331055744311 -1.9738558048085648 1.9330687249680492 18 239 127
11.641783014623995 -2.1801179446970855 1.9301582085376454 18 239 127
11.494852478667491 -2.3101127159634105 1.9349645465852072 18 239 127
11.543187082659893 -2.1008680960672397 2.0278565280955108 18 239 127
12.350581148210313 -2.303129099786595 2.285462959657512 18 239 127
14.60912230028923 -1.9183168011599048 2.4331845706093627 18 239 127
12.627428655815377 -2.5429418782734605 2.374872342788255 18 239 127
12.082123872331989 -2.472038589778867 2.422941387111316 18 239 127
13.267996313234269 -2.3808536486115868 2.4353244204370035 18 239 127
12.627428655815377 -2.5429418782734605 2.374872342788255 18 239 127
12.48744701497418 -2.154063350876866 2.2759917693528235 18 239 127
12.412604835808745 -1.7922377405559085 2.1791626282333425 18 239 127
12.305743775598073 -3.0283432108747053 2.402405521149566 18 239 127
13.547203157692017 -2.738706238254335 2.3067486324890005 18 239 127
13.609734950387217 -2.8859574291835535 2.119117578110489 18 239 127
11.548563588994394 3.133927225413133 2.347425538195533 18 239 127
12.281838549678948 3.134757048569093 2.290329716419135 18 239 127
13.291087162124407 -2.8337586653847198 2.324342218263609 18 239 127
13.859963956099731 -2.8046113571574387 2.1081268503901054 18 239 127
12.996367456408867 -3.0405151349909016 2.345837200324942 18 239 127
12.88613503749079 -2.6957473605154263 2.354250922697471 18 239 127
13.19337812089449 -2.9546034289352368 2.23128230835285 18 239 127
13.106459571775892 -2.934905024460465 2.337642382653028 18 239 127
13.355412918247293 -2.7991039650602967 2.4276856962279982 18 239 127
13.288932590502277 -2.7276431861000763 1.9642035134047129 18 239 127
11.95901747583681 -2.4974669656348873 1.8325026756526008 18 239 127
11.520944199720292 -2.441675861204642 1.9341014468330737 18 239 127
13.080246860263893 -2.6555421647642743 1.8096109887273366 18 239 127
13.953005861629762 -2.692245033677971 2.189648486360137 18 239 127
12.55937491247112 -2.6016565287942375 2.2711269255220152 18 239 127
13.236772090783376 -2.6507596430198004 2.2287379699320105 18 239 127
12.386416761096406 -2.5170794710211584 2.180635943678117 18 239 127
12.98505347068703 -2.5170794710211584 2.243807447413463 18 239 127
11.77986366198748 -1.9404079714592137 1.663813201946784 18 239 127
11.76386845306214 -1.9404079714592137 1.4937170160071274 18 239 127
11.729317731137726 -1.9404079714592137 1.5788230289124485 18 239 127
20.857800993478747 -1.935839066094437 1.3333671336186481 18 239 127
21.295221485094938 -1.9190069109168673 1.4811796634430294 18 239 127
21.26906024205797 -2.0246244182427433 1.4337441897482974 18 239 127
23.040044050758546 -1.962596078644718 1.9297638779345219 18 239 127
22.07233803451822 -2.004670702328316 1.6658157707250592 18 239 127
13.624240968149737 0.016778724976673296 2.8617243797282703 18 239 127
13.933617791760934 0.013256382765155731 2.79270078143992 18 239 127
13.933617791760934 0.013256382765155731 2.79270078143992 18 239 127
13.933617791760934 0.013256382765155731 2.79270078143992 18 239 127
16.212007956567852 -1.6926145223877624 3.020937594693664 18 239 127
15.426887604527145 -1.969476945595186 2.933521139514101 18 239 127
15.6480853974953 -1.8752657029530098 2.8747195582274774 18 239 127
15.6480853974953 -1.8752657029530098 2.8747195582274774 18 239 127
15.396115964101066 -1.3166520504279078 2.943210245578688 18 239 127
16.57035403583774 -1.6309540726107818 2.9012710922641523 18 239 127
15.396115964101066 -1.3166520504279078 2.943210245578688 18 239 127
21.60092573521346 -1.8159055368579502 1.5288481713816569 18 239 127
21.87351861780821 -1.8603266621543837 1.6208387342021287 18 239 127
23.297400518573337 -1.8603266621543837 1.9256221381151297 18 239 127
14.214406143037062 -3.0709354235866817 1.9373274623213617 18 239 127
13.990524078345702 -2.9963034693371626 1.8677798580877372 18 239 127
11.7350458232582 0.4784256845064384 1.9271742505183629 18 239 127
12.61605774710412 0.862521664246539 1.9012991775288468 18 239 127
11.58286002359113 0.6630742841796982 2.124845419049048 18 239 127
12.692143086245697 1.1287362627688635 2.0716233102306125 18 239 127
12.348683102865422 1.004426309395096 2.0869123391994617 18 239 127
13.498769598639058 1.1642612197908926 2.0391965795662297 18 239 127
11.415420369864187 0.605277085897149 1.937618187211739 18 239 127
12.081037270444835 0.8071118310039692 2.198408165749495 18 239 127
11.639918712037195 0.8107825517532394 2.339742482939867 18 239 127
12.377985051088956 1.0372446653822385 2.283543589755155 18 239 127
13.053842628973774 1.0372446653822385 2.3415335994438093 18 239 127
11.922677479123458 0.9049307158794152 2.438367389608766 18 239 127
11.092175700497078 0.5779375030003046 2.152453685413445 18 239 127
11.683229387698464 0.3362817109979502 2.2233378192521354 18 239 127
12.25611060544173 0.8159463766717417 2.5385277123094516 18 239 127
12.133523333128291 0.25976522292839155 2.418111638443315 18 239 127
11.303136791204711 0.5410078680244633 2.3689913558308184 18 239 127
13.211342672934867 1.2406792654671448 2.440366249429674 18 239 127
12.941224809419152 1.143225037782546 2.6007434622599135 18 239 127
14.980091767527819 1.594355044292837 2.4047483230156703 18 239 127
13.438808880378254 1.1979260959752627 2.5419379035171987 18 239 127
13.596294920346478 2.0546291217714905 2.4074701867015125 18 239 127
13.02815992401198 2.1111360001054607 2.457186317442906 18 239 127
13.896008586475654 1.8414388270214204 2.495378624416502 18 239 127
15.142312070638246 1.7703195060145513 2.30045948385433 18 239 127
13.596294920346478 2.0546291217714905 2.4074701867015125 18 239 127
12.421949866032906 2.2941683304742093 2.28048855502144 18 239 127
12.134272241072017 2.459712444493808 2.418041764370307 18 239 127
12.54203220064733 2.564201998907612 2.506177641807139 18 239 127
11.294241062516718 2.7855683809878493 2.2499319985797097 18 239 127
13.973975430144582 0.2196139466021121 2.7848463265181564 18 239 127
14.085392215969426 0.408771182346999 2.7641929368528917 18 239 127
13.728548095693345 0.8368904789801934 2.8364018033243554 18 239 127
20.603829487489314 -0.24479470298427983 1.7215399666346247 18 239 127
18.77931220999139 0.003554716732651499 1.9012940342516007 18 239 127
17.961313279124017 -0.18420273379503208 2.038282231737978 18 239 127
19.137732686601385 -0.39236525477403955 1.8948756730142724 18 239 127
19.06109400243658 -0.5443513505817308 2.0093630808426757 18 239 127
18.39446127506923 -0.3035180305116522 2.0264303413938016 18 239 127
19.45925933640229 -0.5157678694031248 1.9439609351510823 18 239 127
11.546868842053522 -0.09566825284967996 2.126775007638129 18 239 127
11.012182851458778 0.0064674960909555405 2.051712827234548 18 239 127
20.931531272737594 -0.756624532222894 1.8166371049281467 18 239 127
20.871796110806134 -0.719571354636238 1.9175978860541107 18 239 127
20.996217109676486 -0.9464054789123584 2.0723178629733905 18 239 127
21.039860522323753 -0.934959422046005 1.9147124929353054 18 239 127
22.03507898551945 -0.7916788734621946 2.046646596067195 18 239 127
22.03507898551945 -0.7916788734621946 2.046646596067195 18 239 127
21.9438441901863 -0.913200197658243 2.210193260682346 18 239 127
22.39888631195567 -0.792167635241717 2.195169946089219 18 239 127
10.91853372868665 -0.36167867258771796 2.2780312837768895 18 239 127
12.65078304100842 -0.32423120040994236 2.6402818235186762 18 239 127
11.27470599436447 0.007205527726787367 2.2513314377925147 18 239 127
13.397133055938228 0.010956281540151184 2.696896474390147 18 239 127
11.956998760757376 0.008133691856875373 2.4349884880700943 18 239 127
11.313386349981622 -0.10650749155580938 2.2485666958149984 18 239 127
12.186306473157067 -0.13765329460624973 2.54689655123451 18 239 127
13.141721432104331 -0.3862317227318288 2.7396080530534883 18 239 127
11.035103815398452 -0.566439638772997 2.155858198883515 18 239 127
12.983728781382085 -0.9076113754753615 1.8114212202614923 18 239 127
11.551643544527627 -2.251487839113194 1.6656563683065129 18 239 127
12.366384103997792 -2.5460465026956336 1.578409517295687 18 239 127
11.603512919513111 -2.4974669656348873 1.6652310623559883 18 239 127
12.223689289008497 -2.7015212939947277 2.5423900760180946 18 239 127
12.420101475242749 -2.787359895032054 2.6753001493659205 18 239 127
12.455737077201379 -3.0128568183454942 2.515633241635414 18 239 127
11.731773309086666 -2.3773752769883787 2.1170111901068625 18 239 127
11.791267244408374 -2.2368447153685835 2.113946776810397 18 239 127
11.426023065738349 -2.0558409732503677 1.7551169494935266 18 239 127
12.37486874456729 -2.454575052947325 2.283761267199577 18 239 127
14.283801179362184 -2.0611584731094164 2.460196840305864 18 239 127
13.8071399540057 -2.984617570456047 2.0279284008215113 18 239 127
14.226192203069846 -2.8303352977029044 2.013490103339605 18 239 127
11.548563588994394 3.133927225413133 2.347425538195533 18 239 127
13.028657178815843 3.133927225413133 2.4571395450178604 18 239 127
13.42948882032369 -2.970907266275503 2.1273362238391615 18 239 127
12.88613503749079 -2.6957473605154263 2.354250922697471 18 239 127
12.421958191656541 -2.9106501345434572 2.392199679692328 18 239 127
13.22596656766681 -2.6016565287942375 2.328971903734903 18 239 127
13.397689320089613 -2.692245033677971 2.1288135560323322 18 239 127
13.236772090783376 -2.6507596430198004 2.2287379699320105 18 239 127
12.159886437474794 -2.0173815453169834 1.4962320436780316 18 239 127
21.090849377179786 -1.8739942067113051 1.432578743997935 18 239 127
21.01690731130361 -1.981088076232003 1.3838661926349214 18 239 127
21.08908510330293 -2.0246244182427433 1.5278294531287244 18 239 127
21.434269882233107 -1.9190069109168673 1.7156575682809598 18 239 127
11.584183200658128 -1.7725616604266363 1.841179785824597 18 239 127
15.268108780006806 -2.1392041695139072 2.990493213352076 18 239 127
13.521893729752765 -0.6114156847762866 2.8893948593350975 18 239 127
15.379031958201416 -1.6513604479415616 2.948814343615416 18 239 127
13.382607337493784 0.02284980024107573 2.933588940932589 18 239 127
13.382607337493784 0.02284980024107573 2.933588940932589 18 239 127
20.844897420844216 -1.160075039098218 2.5323189007953766 18 239 127
21.672518126478728 -1.160075039098218 2.5587273948139626 18 239 127
14.214406143037062 -3.0709354235866817 1.9373274623213617 18 239 127
11.557800360207027 0.10846895378704834 2.1261874229429933 18 239 127
13.051467292239188 1.0869401372790017 2.239757502233902 18 239 127
13.051467292239188 1.0869401372790017 2.239757502233902 18 239 127
13.155729268306033 0.29610030936353665 2.5741791930907256 18 239 127
13.354260180783827 0.5715290927039206 2.70368192487378 18 239 127
11.928397383108626 0.4821969597067021 2.316598313910857 18 239 127
11.151745292438578 0.7208530307185484 2.383020333064343 18 239 127
11.27379131757908 0.4821969597067021 2.2513971205187677 18 239 127
12.463999428942484 1.2406792654671448 2.3885816157214843 18 239 127
13.735950752001358 1.4764637247369452 2.5109899549859187 18 239 127
13.820856672623552 1.4127775767036332 2.196474672769354 18 239 127
13.71679919852804 1.600195569481583 2.5129049862990698 18 239 127
13.429577376702477 1.3260647454253218 2.127332121373698 18 239 127
13.133071473196443 1.2748977205195624 2.3356917115075078 18 239 127
14.060114734442815 1.7441887995933831 2.606407299898163 18 239 127
14.345822653888284 1.486820233131963 2.454883201332027 18 239 127
15.02921776257459 1.693118183404829 2.4011528500107677 18 239 127
11.59722404390183 3.013235003275231 2.3433109224958155 18 239 127
14.091603593159222 1.9525702494584198 2.4771940480906673 18 239 127
14.499149602332293 1.8127958138715974 2.4420837104708655 18 239 127
11.0649716051525 2.896172693670045 2.266773371523727 18 239 127
11.593110971578977 2.6300156711006393 2.343656740649386 18 239 127
11.605436904039692 2.683341690468506 2.228470573084106 18 239 127
11.593110971578977 2.6300156711006393 2.343656740649386 18 239 127
14.626500605771996 0.2753570156459513 2.8709656650009254 18 239 127
20.449016430421494 2.2015922869076245 2.9550220088798573 18 239 127
20.14164008368129 -0.535100688320244 1.8264895792894704 18 239 127
18.859842919591287 -0.2864136993209919 1.9564349029781232 18 239 127
11.508973221403986 0.0064674960909555405 2.1288222699857364 18 239 127
20.14164008368129 -0.535100688320244 1.8264895792894704 18 239 127
17.825124382910893 -0.12226174692820156 2.0421428697373605 18 239 127
19.522462135407086 -0.44220589402129457 1.8882629320371203 18 239 127
18.304986441346532 -0.11503432595916678 1.9687716445946002 18 239 127
20.192053879782588 -0.6481417485168526 1.77497227242367 18 239 127
19.850280045794868 -0.6065771952961866 1.8303285370542064 18 239 127
23.421601469703127 -0.9597294524270565 2.3283548358519157 18 239 127
23.098937900286895 -0.8328923279342051 2.2829378308448054 18 239 127
12.310740096732303 -0.9229952921951456 1.9974172376025179 18 239 127
13.031927207993373 -0.19422026640413054 2.759911555629894 18 239 127
12.2710325161787 -2.6433820086520905 2.405513847929443 18 239 127
13.982518698506821 -2.9060515934996776 2.021768160372808 18 239 127
13.062144667997746 -3.0283432108747053 2.454003972964899 18 239 127
13.607866122743363 3.1314693699353193 2.6654322869877833 18 239 127
12.55937491247112 -2.6016565287942375 2.2711269255220152 18 239 127
13.028657178815843 3.133927225413133 2.4571395450178604 18 239 127
13.631311643788434 -2.7744609924635313 2.2065582530298853 18 239 127
13.376806109288188 -2.862212599879597 2.220672896229338 18 239 127
12.402940769655276 -1.9738558048085648 2.084431875145527 18 239 127
21.571677779084414 -1.962596078644718 1.57516070810831 18 239 127
21.022234128764833 -2.0463557982901297 1.2860295121797303 18 239 127
11.596518622444908 -1.8585632870156488 1.7523765959312287 18 239 127
21.933252487799713 -2.0246244182427433 1.8523512269975406 18 239 127
13.415211313808472 -0.32692006582841693 2.922371516491952 18 239 127
15.964950776843878 1.6652177083063084 2.176854360825351 18 239 127
13.735950752001358 1.4764637247369452 2.5109899549859187 18 239 127
12.97509948074762 0.862521664246539 1.974263479547559 18 239 127
12.79708696637662 0.9790797073092116 1.8964498428855205 18 239 127
13.770432725374764 1.7230379682156236 2.5075679306979968 18 239 127
12.16098074286172 0.8728755980198647 2.095692276917295 18 239 127
14.026344925283645 1.463204634287177 2.6104820030898868 18 239 127
12.584389034667458 2.370337663209241 2.378429203678875 18 239 127
12.771531290839125 2.9727612092466065 2.6232918438569195 18 239 127
12.893343091234737 2.822137782998615 2.6069591045095093 18 239 127
21.80709623593728 -0.9637618741343836 1.9021397597829646 18 239 127
19.949943440345784 -0.48980192370912845 1.8812302842880948 18 239 127
11.22889550352395 -0.46934226055087563 2.2546385764937975 18 239 127
10.693019374333689 -0.24451030085945494 2.29619953546325 18 239 127
11.517257992300678 -0.6528902510102929 2.128373321631152 18 239 127
11.035103815398452 -0.566439638772997 2.155858198883515 18 239 127
11.626280965433999 -1.8857234565123788 2.024344675370443 18 239 127
14.144609099803585 -2.7581302836172776 1.9392224103989986 18 239 127
11.628812655795882 -2.3747568016965137 1.7518667424063865 18 239 127
12.421958191656541 -2.9106501345434572 2.392199679692328 18 239 127
15.60090828817261 -1.6309540726107818 2.8860140194814874 18 239 127
21.4637050808561 -1.7704755040716569 1.6685186678945574 18 239 127
13.907558591439834 -2.923263828051349 1.7951533062065668 18 239 127
13.451443053707278 1.2129666306367153 2.216462615238151 18 239 127
12.136265112525892 0.7382364784862935 2.0968719849067465 18 239 127
13.985682585100129 0.9736289829770793 2.7826070157272413 18 239 127
13.540559377675567 0.6414087041165883 2.8840996752823784 18 239 127
11.420851107687088 0.43416892833699644 2.1336458360264006 18 239 127
18.15165254613004 -0.24474801843737276 2.0329958244651327 18 239 127
12.171586492648192 -2.013524189316766 2.1930216567487006 18 239 127
13.703431061305224 -2.7276431861000763 2.031654433848014 18 239 127
12.420614746934904 3.132868093563012 2.5195553192020586 18 239 127
12.762240313565066 0.9316672862445334 2.6245697888183264 18 239 127
13.794619951822353 1.345644678574907 2.0283748820704197 18 239 127
14.026344925283645 1.463204634287177 2.6104820030898868 18 239 127
15.271791183190436 1.7541638764656724 2.208667518959216 18 239 127
11.324543249719422 0.12073330223652479 2.247773884943248 18 239 127
13.22596656766681 -2.6016565287942375 2.328971903734903 18 239 127
18.39446127506923 -0.3035180305116522 2.0264303413938016 18 239 127
12.019244190088179 2.7412014749628386 2.428943123463951 18 239 127
13.624240968149737 0.016778724976673296 2.8617243797282703 18 239 127
13.81742539197021 2.1111360001054607 2.502957069606432 18 239 127
12.723090999177273 1.1341608490812787 2.3670985831654905 18 239 127
13.439101855180667 0.18242992038064088 2.690387495194356 18 239 127
21.52700725002706 -2.0663880194427433 1.5751697646604694 18 239 127
13.355412918247293 -2.7991039650602967 2.4276856962279982 18 239 127
18.77931220999139 0.003554716732651499 1.9012940342516007 18 239 127
