12.750653674098507 1.6377303688645313 0.6231005704679944 103 0 204
12.829205230047473 1.3711322764297333 0.6315712975009283 103 0 204
13.213547765553095 1.1299991184736677 0.6703172084190201 103 0 204
12.196246127603484 1.4577344553439215 0.37370808863113214 103 0 204
12.438718482843234 1.9416093504919698 0.5873033290540497 103 0 204
11.953701016158432 1.9831186780033123 0.3179765832571396 103 0 204
11.270972779946785 1.6828161740117888 0.406060713934836 103 0 204
11.78466259384899 1.8401992057553445 0.49779242812364943 103 0 204
12.67742279158063 2.069379055595137 0.6150164936071648 103 0 204
13.159659572264697 1.0423286559899954 0.977780903131289 103 0 204
14.168664075805564 0.9134404261184849 0.8496822201130808 103 0 204
12.734115188478077 1.4504591743434132 1.3848323111396574 103 0 204
12.300290857772543 1.42766007387129 1.027908587337113 103 0 204
12.21853044874321 1.5226436621480395 1.023866245730755 103 0 204
13.071963344496721 1.2149767191603358 0.8774518952526899 103 0 204
12.840231961336526 1.3112589485874804 0.8623598553977637 103 0 204
12.231008526030664 1.2466605140409897 1.117670986148725 103 0 204
12.598532793123013 1.5112359165333697 0.7339953956433325 103 0 204
12.677842773844997 1.3943131242059066 0.7409034072773244 103 0 204
12.604055660899483 1.5175433076150466 0.846192092624662 103 0 204
13.06663824846351 1.1767832113942276 0.7728779801815228 103 0 204
12.654973406355001 1.6108315306747734 1.383655602828441 103 0 204
12.733565213898833 1.6907630864931027 1.3848241852861642 103 0 204
12.036011669902123 1.769856160409126 0.680582844135257 103 0 204
12.455304907044914 1.9261805658210034 0.9391574593515987 103 0 204
12.461078594971278 1.8059686401294681 1.0356757607586988 103 0 204
12.444124685977089 2.011079009174872 0.7201343590750432 103 0 204
12.12435972011465 1.859031681838613 0.8105994243757422 103 0 204
12.455439700886714 2.2082028303944408 0.835579441253254 103 0 204
12.478331097300792 1.7860415085097379 1.2143332268385734 103 0 204
2.8210440515361266 1.7732854512415448 1.0699959308384206 103 0 204
11.572822129747408 -0.127229998331821 2.738555469929079 103 0 204
11.842043077094893 -0.5196784805188114 2.6881887108470544 103 0 204
11.3638368743896 2.726311265661916 2.584493429090174 103 0 204
12.224069092077853 2.726311265661916 2.627759813020921 103 0 204
11.808155403230046 2.647265784552212 2.6941145546483285 103 0 204
11.808155403230046 2.647265784552212 2.6941145546483285 103 0 204
11.295534028201972 2.7549420332131658 2.8006967476260445 103 0 204
11.504485574057883 -2.1804903147628614 2.7527225877147563 103 0 204
11.193242363329613 2.888133962371698 2.6094634111997745 103 0 204
11.564441457322125 3.047586760335042 2.7402585219152513 103 0 204
11.988813008838399 3.0646110805254443 2.6636780597640484 103 0 204
12.71871182224945 0.4938936776173005 2.7278498091954324 103 0 204
13.116682864188967 0.7695100852898605 2.872755874672751 103 0 204
13.940365029687237 1.0159737122163341 2.9355630019231356 103 0 204
13.740066792065695 -0.3660844789765993 3.024224256473838 103 0 204
12.668610418326564 -0.8535574243473796 3.0812311717542458 103 0 204
12.492774015823215 0.09390898284659735 2.7711907643394533 103 0 204
13.801654366684696 0.7586557334244628 2.9910417357334436 103 0 204
12.986720669426441 -0.562035780993857 2.9118646521108342 103 0 204
12.992387424306203 -1.042808491619746 2.910006955547436 103 0 204
12.753257467323094 -1.2622261952790048 3.011528677247494 103 0 204
13.151020805277133 -1.431233496505443 2.863436099740903 103 0 204
12.566523644744708 0.30633668945652737 2.7563604721238026 103 0 204
12.17442482616693 -0.16298674243751896 2.845752636713393 103 0 204
12.16818531053377 0.12049185413655734 2.84743972071264 103 0 204
12.992387424306203 -1.042808491619746 2.910006955547436 103 0 204
12.753257467323094 -1.2622261952790048 3.011528677247494 103 0 204
12.632355023883122 2.366828525853605 2.743705738984511 103 0 204
12.154544352005257 2.371149240480892 2.8511673188816142 103 0 204
11.917915950276821 2.973415044011337 2.927386882349248 103 0 204
13.661193638772962 2.4358852117398055 3.0937138847121957 103 0 204
12.185744904902707 -2.3407673507387305 2.8427197905318398 103 0 204
11.846736329040175 -2.330732380199028 2.957029909761506 103 0 204
12.985821862747796 -2.578714395084635 2.912160809484159 103 0 204
13.150843294705254 -1.7090785634370769 2.863483372390977 103 0 204
12.91482842570486 -1.7616424773037864 2.937024323323395 103 0 204
12.991848382984479 -2.097430637877568 2.910182966146299 103 0 204
12.753074420268016 -1.8766748201304833 3.0116384550318513 103 0 204
12.173082511649408 -2.978392188384233 2.846114645834273 103 0 204
13.365263125245555 -2.564902881944842 2.6287000879195768 103 0 204
12.582970836530881 -2.804569247776664 2.753149691651338 103 0 204
12.746883586566819 -2.621466841827419 2.7228449504047996 103 0 204
12.674367681463416 -2.345128811144349 2.7358916984432264 103 0 204
12.261151003552829 -2.718264846494158 2.8233655125608834 103 0 204
12.261151003552829 -2.718264846494158 2.8233655125608834 103 0 204
12.516081321954081 -2.131031970426427 2.587824351606025 103 0 204
12.831508983702188 -2.249560664372367 2.5492596140258112 103 0 204
11.683738411961459 -1.8870990768587452 2.716841835628597 103 0 204
11.683738411961459 -1.8870990768587452 2.716841835628597 103 0 204
12.103735190480165 -2.2234243567418757 2.645659506974723 103 0 204
12.602175467597391 -1.2535722693506317 2.749442670255063 103 0 204
12.6373560158348 2.1744245507745235 1.13326889849711 103 0 204
11.879904025235177 2.784518777751199 2.5182308927477757 103 0 204
17.95688163602991 -2.5113458345129964 1.606753430502189 103 0 204
13.284818364752088 -2.528023933807104 2.500313364780256 103 0 204
17.452472279136977 -2.55786015732727 1.6652234228871143 103 0 204
12.984343483350065 1.2456977327188394 0.6477267715901516 103 0 204
12.988932973017844 2.181608549837408 0.6481936212786931 103 0 204
12.047570628360427 1.7283977943242794 0.9141653932983758 103 0 204
12.683331106692366 1.4127116809769513 0.8517117522084992 103 0 204
12.200856857576941 1.8953300881796682 0.6971029524734704 103 0 204
13.374636239494656 1.125107388210517 0.8961135373027023 103 0 204
12.773878471277234 1.125107388210517 0.9572846500887369 103 0 204
12.41079517144842 1.273318057559648 1.2971064616704804 103 0 204
12.229672422075325 1.8945296247586523 1.1176177894516328 103 0 204
12.563702738187905 2.0561242463220144 1.2168623320860732 103 0 204
12.598347498003779 1.6298044534270255 0.7339790921356174 103 0 204
12.409478424780083 1.867900978387103 1.2970766733086285 103 0 204
12.705209135336796 1.7011504622629934 1.1357655689317885 103 0 204
12.462015248134655 1.3352004816279028 1.0357203166227127 103 0 204
12.7006493103179 1.2466605140409897 1.0468213868006786 103 0 204
11.464606529914962 2.5355463974932704 2.761302029751094 103 0 204
11.026955964417674 2.6234070105146423 2.877809281994315 103 0 204
11.644072316991629 2.834957519887844 2.724437586978436 103 0 204
11.213428337434031 3.020941516192821 2.821977013749498 103 0 204
11.295534028201972 2.7549420332131658 2.8006967476260445 103 0 204
11.665423187491793 -0.3366997501479972 2.7203266426503325 103 0 204
10.651067062021271 3.047586760335042 2.703573517031521 103 0 204
13.227018450118297 -1.173064138179221 2.843977215277583 103 0 204
13.661364518048288 0.7011012034486882 3.093453544007814 103 0 204
14.148564982514197 1.1573299761411386 2.8741384167398336 103 0 204
12.747484410277591 -0.3660844789765993 3.0150380703307125 103 0 204
12.969165565147525 0.5173824570869986 2.9177263271670535 103 0 204
12.668426148199883 -2.283412649157225 3.0814723354141935 103 0 204
12.014178822993372 -2.578714395084635 2.893230021101484 103 0 204
13.145600018341037 -0.799891948881874 2.8648838303178374 103 0 204
12.753074420268016 -1.8766748201304833 3.0116384550318513 103 0 204
13.377544092198228 -0.9602253492367261 2.8092511578378314 103 0 204
14.077543187839598 1.4251280890102507 2.8932148404991067 103 0 204
12.154544352005257 2.371149240480892 2.8511673188816142 103 0 204
12.915009180187683 -1.378203499584879 2.9369568755896864 103 0 204
12.110393444295836 -1.833197352219012 2.6446442624241855 103 0 204
11.853483640694233 -2.070428758751841 2.686211920211523 103 0 204
13.666826423992823 -2.4474391647378253 2.5907859671773963 103 0 204
12.522386260500657 -1.4614568954299847 2.7651481485798444 103 0 204
12.392077166774731 2.22780482804737 1.0323716059449768 103 0 204
13.432753003713206 2.7742765473263913 1.1607929969274293 103 0 204
11.716825753816552 2.9258395158458357 2.5378579864310176 103 0 204
13.806722621538782 -2.6384863436358827 2.574504438400882 103 0 204
13.806722621538782 -2.6384863436358827 2.574504438400882 103 0 204
17.22629802393661 -2.4769700088325917 1.6664669836720611 103 0 204
11.78466259384899 1.8401992057553445 0.49779242812364943 103 0 204
12.677290358018949 1.7467423324322946 0.740855769691076 103 0 204
12.626019137865175 2.0988944483008205 1.043402421940003 103 0 204
12.878740004920276 1.5303859387580687 1.3072924784338888 103 0 204
13.076165035893553 2.149007634444256 0.8777188779843997 103 0 204
13.369431699782433 1.0799610524915708 0.7958324055330723 103 0 204
3.5197381670402677 1.7151294873250198 1.7552456378378145 103 0 204
11.026955964417674 2.6234070105146423 2.877809281994315 103 0 204
11.716881700745677 2.366828525853605 2.7106302278570853 103 0 204
11.92428642285829 -2.914961568892394 2.924944783578295 103 0 204
12.262483677644166 -0.4228284138958475 2.8230357705430493 103 0 204
12.831611157090528 -0.8093058826976075 2.9710857001304465 103 0 204
12.273912735668281 -1.9674182431812446 2.8202242253670624 103 0 204
13.817645058768617 -2.330732380199028 2.9835956968970665 103 0 204
13.734538556279443 0.2751081224266287 3.0276888266242215 103 0 204
13.145600018341037 -0.799891948881874 2.8648838303178374 103 0 204
12.020692481978738 -2.097430637877568 2.8911022202126047 103 0 204
12.429308509664745 -2.506803923898711 2.7845707291733497 103 0 204
12.429631398490065 -2.3475677641361408 2.599177615404928 103 0 204
13.215254592322166 -2.349125776040257 2.507398158744781 103 0 204
12.274239712369384 -1.9919324955507887 2.6205634934825044 103 0 204
12.522199838616128 -1.6791274909472118 2.7651858115619143 103 0 204
11.716825753816552 2.9258395158458357 2.5378579864310176 103 0 204
12.67742279158063 2.069379055595137 0.6150164936071648 103 0 204
11.359144270030358 1.8972144521252647 0.42375110497075846 103 0 204
12.224069092077853 2.726311265661916 2.627759813020921 103 0 204
11.988813008838399 3.0646110805254443 2.6636780597640484 103 0 204
12.587643397140877 1.4504591743434132 1.4629851133889538 103 0 204
13.738499657316488 0.9921964321129705 0.8218137405802651 103 0 204
14.148564982514197 1.1573299761411386 2.8741384167398336 103 0 204
12.19235837324912 -1.7090785634370769 2.8409642447030605 103 0 204
12.014178822993372 -2.578714395084635 2.893230021101484 103 0 204
12.750836755905064 1.503236241948554 0.6231205512790379 103 0 204
12.988932973017844 2.181608549837408 0.6481936212786931 103 0 204
12.83481072152105 1.2820516035237501 0.7541771493249921 103 0 204
11.755563599985345 -2.7744666164440193 3.004668897909615 103 0 204
12.277067498159475 1.7998391334443613 0.5672186719912637 103 0 204
13.728838057114988 1.2316747593893382 3.0313779008426422 103 0 204
13.67539168434092 2.8013671088103527 1.3229756328932174 103 0 204
12.969165565147525 0.5173824570869986 2.9177263271670535 103 0 204
13.868277048789766 1.3664597519899495 2.9621256594986143 103 0 204
