11.572545802369332 -0.2560423453060953 1.3546714360284984 122 37 176
12.088899782745834 -0.15481620378664168 1.5309401766302817 122 37 176
11.152172865733123 0.19303240597117763 1.5275904549894332 122 37 176
11.109190631881246 -3.063792786990853 1.5274231837535746 122 37 176
11.231176976484985 -2.974825178076317 1.5278945677895452 122 37 176
11.16477835069195 3.1291768439375134 1.4376926009462665 122 37 176
11.439604716019465 -2.888438403209932 1.528676697738232 122 37 176
11.539723348635048 2.9507789428829505 1.354046915269118 122 37 176
12.082750179579415 -2.974825178076317 1.1908007752423035 122 37 176
11.028343120388003 -2.8645015770040927 1.2495980663640935 122 37 176
10.71848608355262 0.3058857816163993 1.8079636697864125 122 37 176
10.868491295847496 0.39460909106980807 1.7109531205583186 122 37 176
10.455988046661501 0.4336639631618217 1.9139808512412015 122 37 176
10.311953427290481 0.11398883256038779 1.817504109609024 122 37 176
9.669712786679515 0.12661745640682653 1.94319260315859 122 37 176
11.83822380724558 -0.2560423453060953 1.872554285985468 122 37 176
11.636937875952919 -0.1687180127361256 1.8779428039358312 122 37 176
9.65504364070106 0.37653005597255024 2.057793321152117 122 37 176
11.431805510681675 0.49760566443228604 2.7391111172292826 122 37 176
9.898571037237664 0.2631227922943389 2.1621502867730964 122 37 176
11.619220111557974 0.02783371240962667 2.7027664199220474 122 37 176
11.57648363949576 -0.4494206303594367 2.5360807843618423 122 37 176
11.57648363949576 -0.4494206303594367 2.5360807843618423 122 37 176
10.264548256411524 -0.12375240811097592 2.3927159786138574 122 37 176
11.287665702690717 0.2813873729472159 2.7702502597187735 122 37 176
10.689979188405552 -0.6289484679748385 2.669009874620159 122 37 176
10.882099727092195 -0.3609095150014191 2.6355631227225294 122 37 176
11.26329599091656 -0.21581020455280792 2.7758467274566643 122 37 176
11.141040875232406 -0.26239502269852977 2.441198789407996 122 37 176
11.231055907498131 0.03490222718206803 2.783417159230858 122 37 176
11.217812358502343 0.023145664362120684 2.5839401087559866 122 37 176
10.466634381065168 -0.4421133278783877 2.7126247889698334 122 37 176
10.882099727092195 -0.3609095150014191 2.6355631227225294 122 37 176
10.22916082220592 0.019809014222966444 2.396445323920509 122 37 176
11.250090394846445 -0.1443362946046597 2.579356632463287 122 37 176
12.58243526957063 0.2265262602094293 2.7273657731835326 122 37 176
11.685413161002526 2.285782197367063 1.967806134023093 122 37 176
11.51766899469755 2.156794279774226 1.8812290575237856 122 37 176
10.930151966607982 2.3390114888068867 2.8662077743381174 122 37 176
11.027813084876826 1.8980941370219007 2.836431032634174 122 37 176
11.027813084876826 1.8980941370219007 2.836431032634174 122 37 176
11.027813084876826 1.8980941370219007 2.836431032634174 122 37 176
11.015987465586086 1.281208380906286 2.8398575908280956 122 37 176
10.920941241205544 0.0467795051995296 2.8692085221365535 122 37 176
10.954094091959977 -0.28587101856361474 2.858575616467221 122 37 176
10.363686402292343 -0.7729416339855857 2.734887096946396 122 37 176
9.98331996071898 -1.2551491477505214 2.8351785895043515 122 37 176
10.594944972416952 -0.7452405471225062 3.0212444197733674 122 37 176
9.98331996071898 -1.2551491477505214 2.8351785895043515 122 37 176
10.126022745460066 -0.97643064682554 2.7933829749708305 122 37 176
10.722783162509238 -1.1056360069398727 2.945991520008981 122 37 176
10.855769800142053 -0.7663824539873506 2.8916002270827645 122 37 176
10.729516213326109 -0.41938281829460927 2.9428492591749094 122 37 176
10.594944972416952 -0.7452405471225062 3.0212444197733674 122 37 176
11.289048540014752 -0.7729416339855857 2.769935823009924 122 37 176
9.578710752819278 3.013316736479438 3.0292333206665143 122 37 176
10.572999611270477 3.013316736479438 3.0398381794801645 122 37 176
10.633113419797482 2.323417253968052 2.994512973923317 122 37 176
10.51940967846629 2.0137106228071127 3.1271366602274875 122 37 176
10.879756483475989 -2.4077200854105616 2.8831067794972096 122 37 176
10.879756483475989 -2.4077200854105616 2.8831067794972096 122 37 176
10.952806951867215 -1.9270200416486427 2.85897998063068 122 37 176
10.553823940404666 -1.6462033303246963 3.059533313496761 122 37 176
10.553823940404666 -1.6462033303246963 3.059533313496761 122 37 176
10.734931781023223 -2.090275017528396 2.9403597984739984 122 37 176
11.094788007050257 -2.1957600039846468 2.8178161690550168 122 37 176
10.395228830263532 2.5870270811768896 2.53123705513009 122 37 176
10.917468718986903 2.6642169632179558 2.4658552400871594 122 37 176
10.673159935637894 2.802777822801213 2.4949411092369402 122 37 176
10.813982693606107 2.3502761529986276 2.217760532761885 122 37 176
10.899439539525698 2.5128811367803547 2.2118507931885514 122 37 176
10.739439587422323 2.45667260612217 2.486809777953969 122 37 176
10.912683497630114 2.187980804883607 2.2109455075357984 122 37 176
11.404935882946813 2.426351910864588 2.1791705861285524 122 37 176
10.465323791332237 2.6118259073859753 2.2431746818309226 122 37 176
10.917468718986903 2.6642169632179558 2.4658552400871594 122 37 176
10.821806787806413 2.2084133196556786 2.6457100692569555 122 37 176
11.643842278805472 -2.700615190321985 2.5277739537739956 122 37 176
11.323632885161087 -2.3903525916273964 2.7621771390193723 122 37 176
10.036812295786687 -2.8672647575792705 2.8187582492201795 122 37 176
11.222636184730163 -2.88382494447901 2.4326172995000923 122 37 176
10.457857456238475 3.118944218696744 2.5227267386995083 122 37 176
10.0006190447995 3.0967996431182785 2.8297574954658473 122 37 176
9.911429855398628 3.114474823606545 2.604975777084162 122 37 176
10.841948306950595 2.920705423187398 2.6422867922807853 122 37 176
10.064152299004526 2.786272672389332 2.8107340265256857 122 37 176
11.319391478803135 -3.0003166032001234 2.569713351083311 122 37 176
12.283747975508103 -2.8436354865264475 2.5988175546138312 122 37 176
10.379560804587046 2.9819766219137445 2.3808700760973576 122 37 176
10.51862932103581 2.9562175217231403 2.514660062821248 122 37 176
9.506885988604443 2.868779587553118 2.6815077464079247 122 37 176
10.064152299004526 2.786272672389332 2.8107340265256857 122 37 176
10.738639644790535 -2.5280671217013158 2.6602215085480267 122 37 176
11.73493501057765 0.5314379750017146 2.9491511424869303 122 37 176
11.94061802864348 0.3697268411862277 2.8748427018789053 122 37 176
11.887118182621643 0.0467795051995296 2.8918423851446056 122 37 176
12.118942309132608 -0.33955755502440943 1.8653523090571904 122 37 176
13.311826750141355 -0.5497915464194436 2.367458516663383 122 37 176
12.265516318132743 -0.4530253163799789 2.338510801171038 122 37 176
12.61618446013013 -0.5497915464194436 2.312017389352729 122 37 176
11.963757321104392 -0.5497915464194436 2.2503216522936524 122 37 176
10.054492686921861 -0.40804536099868205 1.8239580981634789 122 37 176
10.952738579681787 -0.3708095402842358 1.8027971439921195 122 37 176
11.636770157056793 -1.7864433898636622 2.6995640387416593 122 37 176
11.393837839070494 -2.0617834179343926 2.747011929490981 122 37 176
11.770503833085606 -1.9724163247082933 2.6761344424385842 122 37 176
11.255629698356248 -1.839873079205846 2.7776293314453455 122 37 176
11.98645490882097 -2.133237155409395 2.6414546314445526 122 37 176
11.919740865306819 -2.3817396538424354 2.651794397272746 122 37 176
12.296770433434169 -2.4900873111874158 2.5970644643251184 122 37 176
11.92913587798153 -2.5745166176550067 2.4946070412543344 122 37 176
11.453119313044406 -2.4900873111874158 2.5518199036068054 122 37 176
11.827897606103933 -2.376595063128532 2.506023457773833 122 37 176
11.92913587798153 -2.5745166176550067 2.4946070412543344 122 37 176
12.467342282614268 -2.6412777098283358 2.439449030622351 122 37 176
12.31581185061896 2.35173721736719 1.9464392546481362 122 37 176
10.302656815004928 2.932345919227778 1.6211260078606522 122 37 176
10.997663414905775 2.6260052190209464 1.8964354313997918 122 37 176
10.87449312515381 2.932345919227778 1.9002624252271725 122 37 176
10.987762237062684 2.751588204692267 1.7094218579942382 122 37 176
10.351853989805502 2.9100412005256038 2.022471756111573 122 37 176
11.39065680971494 2.7134250178375874 2.0765414067952426 122 37 176
11.463646179525007 2.7706006725364247 2.286090312672193 122 37 176
11.790752426162504 2.6260052190209464 2.0578454871611034 122 37 176
12.259552316190367 2.546449876218141 2.037699776841025 122 37 176
11.231224488495753 2.8825330260326187 2.30421262252554 122 37 176
10.263622242748333 2.7706006725364247 2.1384524008218406 122 37 176
10.003357502533172 2.8825330260326187 2.1551325229904905 122 37 176
12.259552316190367 2.546449876218141 2.037699776841025 122 37 176
11.441205231640799 -2.888438403209932 1.6161139298508411 122 37 176
10.541293030831701 -2.9586077288281354 1.8120287927325005 122 37 176
10.411226583847487 -3.056099096688677 1.8151035066989702 122 37 176
11.066475553115934 -3.056099096688677 1.9913742983533183 122 37 176
10.142482794139504 3.0290674313739494 1.6219215215202702 122 37 176
10.37083516311649 3.1245593096035513 2.250449372769039 122 37 176
11.084476681045212 3.0014916241259657 2.3162072781376093 122 37 176
10.647683384893975 -3.046721809249473 2.115616092889781 122 37 176
11.3196732435325 -2.938944183048237 2.1844264573534007 122 37 176
11.026823798097231 3.1245593096035513 2.321044247782204 122 37 176
11.87762197290898 -2.914627034328492 2.3705336597998077 122 37 176
11.059659255869136 -3.0350427598821637 2.318280575150883 122 37 176
13.060052235285161 -2.694946930176196 2.3873802710722094 122 37 176
10.508019795060198 -2.694946930176196 2.1236903699361136 122 37 176
9.748529966809116 -2.599032738102255 1.8320865640247879 122 37 176
11.68942002464869 -2.775164179338714 1.9676624212504756 122 37 176
11.340454991705922 -2.775164179338714 1.8862462383547411 122 37 176
11.682967183077977 -2.694946930176196 2.2698942645721685 122 37 176
10.887271340028581 -2.775164179338714 1.710709765082728 122 37 176
12.02723730954975 0.011511185773460256 1.4472880638340015 122 37 176
12.169834709786418 -0.15481620378664168 1.4487425180944589 122 37 176
9.82500037039409 -2.835721355356234 1.315440980991136 122 37 176
11.650386078687765 -0.17305193250368048 2.69710096359035 122 37 176
10.945501554571697 0.6018840371286096 1.7099605678217 122 37 176
10.291283270073956 0.16256392679077286 2.3899252963895727 122 37 176
10.237907339343082 0.23480734956891627 2.0278782331988396 122 37 176
11.274488650440848 0.1893507258864575 2.5759313540123863 122 37 176
12.222264396919314 -0.28053975372918244 2.13331028040677 122 37 176
10.547660052358278 -0.3041087082652947 2.510870633729441 122 37 176
10.947968774354488 0.01256378792813864 1.6181571088552453 122 37 176
10.502466726727663 0.015375702529095852 2.124016684841183 122 37 176
12.560577887829512 -0.17305193250368048 2.7313416695264077 122 37 176
10.786003950334383 2.033123828350593 2.918335247372944 122 37 176
11.015987465586086 1.281208380906286 2.8398575908280956 122 37 176
10.582115164564103 2.0337621809373245 2.6893547951655727 122 37 176
10.607240006786594 -2.4608848130170506 3.012011895513288 122 37 176
9.939668919768174 -1.5935584722127567 2.849378585622438 122 37 176
10.729516213326109 -0.41938281829460927 2.9428492591749094 122 37 176
10.594944972416952 -0.7452405471225062 3.0212444197733674 122 37 176
10.607240006786594 -2.4608848130170506 3.012011895513288 122 37 176
11.07778845966833 -0.5655134917904074 2.8224205554206345 122 37 176
10.901084318926966 -1.5935584722127567 2.8758077618807514 122 37 176
10.94090026148854 -1.2551491477505214 2.8627521798490156 122 37 176
10.363686402292343 -0.7729416339855857 2.734887096946396 122 37 176
9.743790723144746 -1.1056360069398727 2.9260435206595163 122 37 176
10.879756483475989 -2.4077200854105616 2.8831067794972096 122 37 176
10.947534059999402 2.2607731387491494 2.327816303194358 122 37 176
10.536131297324996 2.847821031575001 2.3653830223759 122 37 176
11.525380834034344 2.5128811367803547 2.2814461455442725 122 37 176
10.864434702292513 2.426351910864588 2.103569739903227 122 37 176
11.24570600044342 2.5429434395442727 2.430228973573076 122 37 176
10.871080020964524 2.2751593227283973 2.10320933535516 122 37 176
10.783545007687543 2.7236857898583633 2.3422835054919715 122 37 176
10.917468718986903 2.6642169632179558 2.4658552400871594 122 37 176
11.643842278805472 -2.700615190321985 2.5277739537739956 122 37 176
10.064152299004526 2.786272672389332 2.8107340265256857 122 37 176
11.222636184730163 -2.88382494447901 2.4326172995000923 122 37 176
9.439602797892073 3.1078086245848264 2.696106697678714 122 37 176
11.155658753170178 -2.627188101022775 2.592938326812264 122 37 176
10.457857456238475 3.118944218696744 2.5227267386995083 122 37 176
10.941823542514932 -2.789211773294238 2.6257992462657773 122 37 176
12.031376407166007 -0.5655134917904074 2.8485037025561306 122 37 176
11.917583583481278 -0.28587101856361474 2.8820098542353283 122 37 176
11.94061802864348 0.3697268411862277 2.8748427018789053 122 37 176
12.361131236976178 -0.45517265666727896 2.0335617784148714 122 37 176
12.494357397235355 -0.3708095402842358 2.1196391335564235 122 37 176
12.649156036738718 -0.4984031321446786 2.207281466868601 122 37 176
11.695961717814589 -0.33955755502440943 1.700978663042852 122 37 176
11.770503833085606 -1.9724163247082933 2.6761344424385842 122 37 176
10.452825284257983 -1.1064189791427295 2.715522400337609 122 37 176
12.280286726201215 -2.267109764412602 2.5992849942029554 122 37 176
11.04733457456211 -2.3817396538424354 2.6091967755350964 122 37 176
11.370935648264526 -1.1064189791427295 2.75187707280546 122 37 176
11.393837839070494 -2.0617834179343926 2.747011929490981 122 37 176
11.616793081550087 -2.2415913645827237 2.7032117690214434 122 37 176
11.919740865306819 -2.3817396538424354 2.651794397272746 122 37 176
10.722864379943722 3.0290674313739494 1.905101553022274 122 37 176
11.188927604974527 -2.9586077288281354 1.9864847296687147 122 37 176
10.55554440406174 2.839429849695011 1.619919236818157 122 37 176
11.526500862013327 -2.835721355356234 2.171843516779172 122 37 176
12.350236568366897 -2.694946930176196 2.331910392978034 122 37 176
10.590759052602921 -2.6492463284795145 1.8108798589960247 122 37 176
10.793333875020164 -2.775164179338714 1.6188361602971808 122 37 176
10.463057804599588 -2.738796193804151 1.913739422317505 122 37 176
10.763088708335976 -2.8645015770040927 1.8069621091105987 122 37 176
10.603568326021374 2.808402877141508 2.010987330114237 122 37 176
11.682967183077977 -2.694946930176196 2.2698942645721685 122 37 176
10.991978940493107 -2.835721355356234 2.0967415090734907 122 37 176
11.492001309155269 -2.974825178076317 1.3531323773876764 122 37 176
11.492001309155269 -2.974825178076317 1.3531323773876764 122 37 176
10.024701886948737 0.48063751595641857 2.038365494995316 122 37 176
11.370565231063258 -0.3041087082652947 2.5627583553760505 122 37 176
9.731748473983938 0.1423716592656715 2.1737066158951963 122 37 176
11.097085845032849 -0.5256457667024816 2.6016353653983963 122 37 176
10.466634381065168 -0.4421133278783877 2.7126247889698334 122 37 176
10.97644389765944 1.59156550917563 2.8516565099687763 122 37 176
11.145476169524313 1.0181875681843966 2.804526877770038 122 37 176
10.786003950334383 2.033123828350593 2.918335247372944 122 37 176
10.572999611270477 3.013316736479438 3.0398381794801645 122 37 176
11.094788007050257 -2.1957600039846468 2.8178161690550168 122 37 176
10.954094091959977 -0.28587101856361474 2.858575616467221 122 37 176
10.673159935637894 2.802777822801213 2.4949411092369402 122 37 176
10.395228830263532 2.5870270811768896 2.53123705513009 122 37 176
11.439136472306354 -2.8436354865264475 2.5536489432613916 122 37 176
10.51862932103581 2.9562175217231403 2.514660062821248 122 37 176
11.634216884449808 -2.5280671217013158 2.700027989769864 122 37 176
11.319391478803135 -3.0003166032001234 2.569713351083311 122 37 176
9.975531163644314 2.920705423187398 2.594269268149703 122 37 176
10.350976865770779 3.1078086245848264 2.737747309384831 122 37 176
11.94061802864348 0.3697268411862277 2.8748427018789053 122 37 176
11.94061802864348 0.3697268411862277 2.8748427018789053 122 37 176
11.73493501057765 0.5314379750017146 2.9491511424869303 122 37 176
12.299427981012581 -0.40804536099868205 2.2284646589997723 122 37 176
12.741306992969607 -2.5745166176550067 2.541934135600094 122 37 176
11.244043681589305 -1.3333420537667948 2.7803439704999344 122 37 176
11.92913587798153 -2.5745166176550067 2.4946070412543344 122 37 176
12.081578015640737 -0.4984031321446786 2.14066890235424 122 37 176
10.613573464356802 3.1264379918310294 2.1175648093773436 122 37 176
11.066719583433644 2.808402877141508 2.0928255760046466 122 37 176
10.587907367239133 2.8825330260326187 2.233990745133918 122 37 176
10.217584849212349 2.808402877141508 1.9223307141626949 122 37 176
10.834138758368766 2.7706006725364247 2.216355868264663 122 37 176
11.39812794852775 -2.8645015770040927 1.978397453583663 122 37 176
11.293751405529182 -2.738796193804151 2.081299420868726 122 37 176
11.53976959028616 2.4911046974532223 2.0693996473890786 122 37 176
11.071101947193773 -2.775164179338714 1.8002720464651594 122 37 176
11.695781883708108 -2.888438403209932 1.3569842472412454 122 37 176
10.94806216813755 -0.08660963177201879 1.9962171558741852 122 37 176
10.477090633403206 0.5745791525589135 2.0166809966235673 122 37 176
10.269798889768342 0.017313085290920856 2.25842528400935 122 37 176
11.387816337616961 0.27941138435169316 1.6163265365485722 122 37 176
10.237907339343082 0.23480734956891627 2.0278782331988396 122 37 176
10.264548256411524 -0.12375240811097592 2.3927159786138574 122 37 176
10.689979188405552 -0.6289484679748385 2.669009874620159 122 37 176
9.74074126967199 3.0751632900092605 2.9274780487514533 122 37 176
10.607240006786594 -2.4608848130170506 3.012011895513288 122 37 176
11.027813084876826 1.8980941370219007 2.836431032634174 122 37 176
10.379560804587046 2.9819766219137445 2.3808700760973576 122 37 176
12.467342282614268 -2.6412777098283358 2.439449030622351 122 37 176
12.992673409901514 2.4100749750090844 1.925975478629409 122 37 176
10.567583468759796 2.7134250178375874 1.9102099831729262 122 37 176
10.179970437325162 3.12794344829358 1.7205017452323959 122 37 176
11.53976959028616 2.4911046974532223 2.0693996473890786 122 37 176
10.87449312515381 2.932345919227778 1.9002624252271725 122 37 176
10.97644389765944 1.59156550917563 2.8516565099687763 122 37 176
10.449176597381046 0.29897260836353284 2.373896063278498 122 37 176
11.231055907498131 0.03490222718206803 2.783417159230858 122 37 176
9.851710617837655 -0.40804536099868205 1.72552947163465 122 37 176
10.633113419797482 2.323417253968052 2.994512973923317 122 37 176
10.314644793677502 -1.3333420537667948 2.746071166425084 122 37 176
10.682154255893659 -1.6057708128367458 2.96622191471425 122 37 176
9.666030630126158 0.017313085290920856 2.1783946436693586 122 37 176
10.673458760010762 3.0167767433850035 2.114153308479003 122 37 176
11.39151010266982 -2.8005283307609794 2.2916050245653508 122 37 176
11.87762197290898 -2.914627034328492 2.3705336597998077 122 37 176
11.975653559435656 -0.07215121975343969 1.530563079548346 122 37 176
11.600820377567254 3.1291768439375134 1.2659732455967592 122 37 176
10.133152326073601 -0.5655134917904074 2.7914498626999773 122 37 176
11.115737634146218 2.6118259073859753 2.313614439554164 122 37 176
10.412372558359285 2.868779587553118 2.7241645828701646 122 37 176
9.838311903224815 3.0014916241259657 2.16626900828866 122 37 176
11.685413161002526 2.285782197367063 1.967806134023093 122 37 176
10.663256551931696 3.12794344829358 1.9070438603501674 122 37 176
11.100555983966139 -3.0201006678931717 2.4455364992858226 122 37 176
11.182185950769206 -2.914627034328492 2.308171342613014 122 37 176
11.705327840088104 -1.1056360069398727 2.962596366528903 122 37 176
