7.071754740215515 1.3092749455231796 1.733724137303551 229 69 106
6.745276862831081 1.599836303289164 1.5926051258243654 229 69 106
6.847654861925261 1.7463676283942489 1.5922790160249352 229 69 106
7.804419363220452 1.4027648723876593 2.4777701119307967 229 69 106
7.077226777664703 1.599836303289164 1.8790350075704194 229 69 106
6.790908263915865 1.2662964251444087 2.0526557328879855 229 69 106
7.30095230493157 1.3092749455231796 1.8692935345081552 229 69 106
7.752188794590541 1.43161918543609 2.2968901045329773 229 69 106
10.27878205697507 0.6243366191104144 2.6679236281098557 229 69 106
10.27878205697507 0.6243366191104144 2.6679236281098557 229 69 106
8.614125089069425 1.4027648723876593 2.5493570344953063 229 69 106
9.31333292752494 1.6828055821470997 2.9523687629677693 229 69 106
8.266188658338326 1.121411025200671 2.615185707610408 229 69 106
8.369729004811978 1.138042118850859 2.9104273079820215 229 69 106
8.633308900825957 1.2853947547908877 2.804383174760856 229 69 106
8.633308900825957 1.2853947547908877 2.804383174760856 229 69 106
8.369729004811978 1.138042118850859 2.9104273079820215 229 69 106
8.059668863769309 -1.0652134531359447 2.6611117533685524 229 69 106
8.220140184382569 0.7444107202616197 3.0081808917461235 229 69 106
8.190790296901225 -0.31176495171145374 3.0382537000155847 229 69 106
8.282957607323693 -1.0024289340128794 2.9602215419679707 229 69 106
8.644889276898073 -0.8969048024820981 2.8005829900551933 229 69 106
8.456792826682937 -1.6572530403380712 2.8701264445095434 229 69 106
9.93428621736927 0.1923331045299902 2.7408207745611124 229 69 106
9.93428621736927 0.1923331045299902 2.7408207745611124 229 69 106
7.896193978456762 -1.3288813929473562 2.7024855084865482 229 69 106
6.655169907998882 1.77615873309173 2.0633524463864914 229 69 106
7.769730385352349 2.0787541476933202 2.133825389369862 229 69 106
6.905280852806655 1.9361171520674465 2.0440130653423014 229 69 106
7.802542240230671 1.77615873309173 2.291174495975806 229 69 106
7.285226201563172 2.0787541476933202 2.017486815395122 229 69 106
7.174869755911857 1.7463676283942489 1.8747050483144476 229 69 106
7.769730385352349 2.0787541476933202 2.133825389369862 229 69 106
7.762859673980161 2.013507825136286 1.8510355411685055 229 69 106
8.15921919689054 2.29528269301638 2.253421057537376 229 69 106
7.873612337494013 2.2777842454457486 2.4666151822951674 229 69 106
7.621758257765546 2.413458242091611 2.3121893010714127 229 69 106
8.394964574328336 2.1639296810330984 2.3923955731697326 229 69 106
7.85443797484066 1.817878491753363 2.4696710588036823 229 69 106
7.692934469440303 2.1639296810330984 2.3037500990283166 229 69 106
9.152574482480476 2.1639296810330984 2.4668752859134013 229 69 106
8.659467960200791 1.817878491753363 2.5416187125278 229 69 106
8.678551542780017 1.982194413777056 2.789816050071251 229 69 106
8.6768635286181 2.2777842454457486 2.5386943545017564 229 69 106
9.17063199481356 2.4326841520314213 2.6646218468133767 229 69 106
8.468545324900118 2.7483101405753816 2.575415561412571 229 69 106
8.615521752593047 2.4712595139154248 2.8103221164492442 229 69 106
8.729141932800582 2.5629498915119364 2.530048725297129 229 69 106
9.17063199481356 2.4326841520314213 2.6646218468133767 229 69 106
8.155043003605451 1.8801944667436605 2.6391354011405146 229 69 106
8.678551542780017 1.982194413777056 2.789816050071251 229 69 106
8.922938541826246 2.642810137886664 2.721498729581178 229 69 106
9.327939181459787 2.7483101405753816 2.632952995613357 229 69 106
8.470274854236676 2.8162014302897376 2.864465427847808 229 69 106
9.19395401391169 2.9668296952814823 2.6597361905951753 229 69 106
9.691254178986702 2.9999651167273567 2.569305664952248 229 69 106
8.480350697502683 -2.346378825928055 2.5732290887694127 229 69 106
9.167722260563583 -3.0799021228181327 2.6652363946757727 229 69 106
8.75531348924918 -3.060672730063058 2.766657767675137 229 69 106
8.23846344844838 -2.92816118179058 2.992521758041296 229 69 106
9.250160673401474 -2.850042289615009 2.648243466285462 229 69 106
9.692765536633685 -3.060672730063058 2.804448749041625 229 69 106
8.33010330238048 -2.3303906537584336 2.931590450302677 229 69 106
8.73502027570885 -2.3419727240919586 2.772605925513066 229 69 106
8.841598007822956 -2.7662634250067453 2.742594012820771 229 69 106
7.945634880173235 -1.9224519004108915 2.689419009587431 229 69 106
9.744592840932226 -2.903832973107181 2.56086402749155 229 69 106
6.724372795594478 -1.759570576176487 1.8957874468206488 229 69 106
6.972001624062881 -1.9081966881077543 1.883843966634421 229 69 106
7.679390208108991 -1.9663142783361793 2.305339023015615 229 69 106
7.455294549284817 -1.7943710212920385 2.3328306235657177 229 69 106
6.388911210443673 -1.2403208006835786 2.0858562728941674 229 69 106
6.388911210443673 -1.2403208006835786 2.0858562728941674 229 69 106
7.693010709559532 -1.1701107371518722 2.4965086936581553 229 69 106
7.521571041291972 -1.3841792148480627 2.5274400584265586 229 69 106
7.481019187317084 -1.6167373848153788 2.53517005970455 229 69 106
7.794156938669831 -2.046805148970446 2.479455129682706 229 69 106
8.575086978464054 -2.348700591539595 2.3700774904993045 229 69 106
9.107122387059528 -1.8306483392383874 1.9236361986090935 229 69 106
10.312550935018548 -2.9410938294867575 2.4816337125976498 229 69 106
9.462355747767928 -3.0997870501967895 2.4269366875442415 229 69 106
10.238670116301323 -3.0997870501967895 2.490988554001998 229 69 106
7.09097978137387 1.8857041955295053 1.5915417361087814 229 69 106
8.764218955407891 1.207156133534937 2.5243641100776615 229 69 106
8.598002077743704 1.642116511670584 2.8162984049458397 229 69 106
8.333305512567941 1.6828055821470997 2.929795167076459 229 69 106
8.764218955407891 1.207156133534937 2.5243641100776615 229 69 106
7.857575739197248 -1.6308034642423948 2.7130688095735134 229 69 106
8.220140184382569 0.7444107202616197 3.0081808917461235 229 69 106
7.568267202588853 2.29528269301638 2.150717842946408 229 69 106
8.329789216597398 2.413458242091611 2.400846482977534 229 69 106
8.067453938661403 2.0045480457369895 2.437133878297616 229 69 106
7.775997553995688 2.201942369412842 1.9874679536270197 229 69 106
8.01693723078759 1.9361171520674465 2.2679362783209536 229 69 106
7.4074538922698006 1.8857041955295053 1.8648726696650382 229 69 106
8.294956403211117 2.4326841520314213 2.609247850846369 229 69 106
8.416388650579274 2.172688935051541 2.8879453646207107 229 69 106
9.327939181459787 2.7483101405753816 2.632952995613357 229 69 106
8.853135179446229 2.0045480457369895 2.510350936675349 229 69 106
8.590088711272335 -2.6476717977095494 2.55352895762848 229 69 106
7.945634880173235 -1.9224519004108915 2.689419009587431 229 69 106
8.75531348924918 -3.060672730063058 2.766657767675137 229 69 106
9.19395401391169 2.9668296952814823 2.6597361905951753 229 69 106
9.744592840932226 -2.903832973107181 2.56086402749155 229 69 106
8.441794663649686 -3.0241065573572765 2.8765845137598314 229 69 106
8.841598007822956 -2.7662634250067453 2.742594012820771 229 69 106
9.66637204946289 -3.091753270740757 2.5733139425330123 229 69 106
8.841598007822956 -2.7662634250067453 2.742594012820771 229 69 106
6.972001624062881 -1.9081966881077543 1.883843966634421 229 69 106
7.679390208108991 -1.9663142783361793 2.305339023015615 229 69 106
8.022758323681739 -2.1168320699135106 2.2673288303762713 229 69 106
8.575086978464054 -2.348700591539595 2.3700774904993045 229 69 106
10.262164718690281 3.022588178055854 2.4879866322843087 229 69 106
7.712849555046403 1.604891172763568 2.3014280166004677 229 69 106
7.712849555046403 1.604891172763568 2.3014280166004677 229 69 106
7.127569126557114 1.43161918543609 2.191783828911657 229 69 106
6.549783916476138 1.604891172763568 2.072007770685966 229 69 106
10.27878205697507 0.6243366191104144 2.6679236281098557 229 69 106
8.369729004811978 1.138042118850859 2.9104273079820215 229 69 106
8.578739313089056 1.6120754630525518 2.5555161095747367 229 69 106
8.333305512567941 1.6828055821470997 2.929795167076459 229 69 106
9.595918913810046 0.25828544491728045 2.8345368610874537 229 69 106
8.15356749157175 -2.2178210468618866 3.1017438930454757 229 69 106
8.492686722211744 -1.2288151163901637 2.855334332247918 229 69 106
7.709728993726192 -0.8969048024820981 2.7571905747189733 229 69 106
8.246150852156768 -1.725066721671318 2.986437668847044 229 69 106
8.067453938661403 2.0045480457369895 2.437133878297616 229 69 106
6.905280852806655 1.9361171520674465 2.0440130653423014 229 69 106
8.020264507364038 2.642810137886664 2.6706248222230324 229 69 106
8.87180218628063 2.2462365478838144 2.7345948422589057 229 69 106
8.360403312188867 2.1015905639111097 2.596105028333067 229 69 106
9.250160673401474 -2.850042289615009 2.648243466285462 229 69 106
8.531250680886977 -2.620929472511805 2.8403574547719432 229 69 106
8.156269416886 -2.1636746107593874 2.6388618291983503 229 69 106
8.782777081203786 2.913803184117004 2.7587907644849436 229 69 106
7.57345794421615 -1.844510478808497 2.5177896287417907 229 69 106
6.7004186594321515 -1.6080109736956443 2.2381768896567413 229 69 106
7.521571041291972 -1.3841792148480627 2.5274400584265586 229 69 106
7.348498064076754 -2.0428722313402115 1.8673033446370888 229 69 106
9.542249071064271 -2.9410938294867575 2.417339959885722 229 69 106
6.8848625445657925 1.4520559899268142 1.7381880815452522 229 69 106
7.120078771382375 1.4520559899268142 1.8771193900785224 229 69 106
7.621758257765546 2.413458242091611 2.3121893010714127 229 69 106
7.7653447282663945 1.6120754630525518 2.484229471291966 229 69 106
8.87180218628063 2.2462365478838144 2.7345948422589057 229 69 106
8.480350697502683 -2.346378825928055 2.5732290887694127 229 69 106
8.069269436501044 1.6230922256674978 2.658834074510085 229 69 106
8.538674491116309 -2.057618499092069 2.8375715472736984 229 69 106
7.09097978137387 1.8857041955295053 1.5915417361087814 229 69 106
7.077226777664703 1.599836303289164 1.8790350075704194 229 69 106
8.190790296901225 -0.31176495171145374 3.0382537000155847 229 69 106
8.470907169365567 -2.2441992843008647 2.223857163283209 229 69 106
6.790224061431254 1.4520559899268142 1.5924607420292682 229 69 106
8.183050885990227 1.8291971417529431 3.0478141772462264 229 69 106
8.10687930630804 1.3590423743416278 2.6500559953726834 229 69 106
7.986914086528871 -0.9885462635167663 2.4490824996222993 229 69 106
8.267644099410049 2.5869424205389264 2.9706164363824503 229 69 106
7.42778220646122 2.201942369412842 1.8640439146438015 229 69 106
