9.226803981024991 0.9455963977315205 1.8871353310431151 243 86 91
10.529777386051396 0.872186227525335 2.28163511324086 243 86 91
10.53185085637762 0.6947561409555403 2.2814656175610843 243 86 91
10.790737781037459 0.5905055047687181 2.3881860555511762 243 86 91
10.695622992510842 0.7832663131425163 2.397715482485295 243 86 91
9.982766698939498 0.7832663131425163 2.329831861178824 243 86 91
9.897231407279444 0.5448512573362689 2.4901472933538256 243 86 91
10.307994377812879 0.21305778076407644 2.6071096623037757 243 86 91
10.19798314327011 0.33144200132846735 2.4523950678995647 243 86 91
10.248617821866416 0.021486894294056473 2.616979359821883 243 86 91
10.038838546170433 0.1791207024242682 2.47186555421271 243 86 91
13.506574930097411 1.6368978259998912 1.3369587807640928 243 86 91
13.47931073304056 1.5607186495924474 1.3364769633143578 243 86 91
13.4521760716022 1.4095778275305029 1.4118155444251355 243 86 91
13.5264929966856 1.3362861135405633 1.4871858060083778 243 86 91
14.927764753370674 1.561432813894518 1.903142642161486 243 86 91
15.307339065589433 1.6322254186902505 1.9643791045640697 243 86 91
15.83818499664565 1.4208265412694612 2.0194852001486585 243 86 91
16.003510723697406 1.3523633845507221 2.014517570316443 243 86 91
16.802664802135215 1.4208265412694612 2.126938734209179 243 86 91
15.549473504844697 1.77131204739861 1.9579215086969484 243 86 91
15.42015416751303 1.8383416832168291 1.892142174631099 243 86 91
16.65813988047356 2.216011446060682 1.743970351376034 243 86 91
9.26123984294288 1.692254432010042 2.257334311281631 243 86 91
9.289729082140436 1.4128982161580272 2.2548235940188435 243 86 91
9.737944824788185 1.155865585158701 2.2178441320412134 243 86 91
9.155653420021393 1.202250154329915 1.8896801557208336 243 86 91
8.677412434389426 1.4321012796705515 1.9079318815920066 243 86 91
8.677412434389426 1.4321012796705515 1.9079318815920066 243 86 91
10.104049728012306 1.0443544950009869 2.1907418448145037 243 86 91
8.619402223563306 1.5522161373285772 2.1712855251548207 243 86 91
9.463789828345323 1.279463582161856 2.2399175790967143 243 86 91
9.169888176970742 1.155865585158701 2.130724516981223 243 86 91
9.557776973421927 1.0443544950009869 2.105481742873036 243 86 91
9.028272470296532 1.6773996821617458 2.013842286369336 243 86 91
9.890953506894428 1.0995842132363016 1.9728434322088844 243 86 91
9.05749450946383 1.4321012796705515 2.01231194783206 243 86 91
8.98743318714753 1.5545066436797113 2.0159995721056045 243 86 91
9.117407963582755 1.02094139926696 2.4242315055027417 243 86 91
9.777281478939884 1.538662279397621 2.707476073267659 243 86 91
9.713274875588882 1.097120784494531 2.3564911982352217 243 86 91
10.253394545339606 0.8908399540929436 2.445862326225103 243 86 91
9.2638655979938 1.3875920774727932 2.4062932487125166 243 86 91
9.623076260289473 1.1755320904172077 2.5284840071013273 243 86 91
9.384833174878159 1.5449472442655898 2.565551199229842 243 86 91
9.42395045746565 1.7390200428756322 2.5591917189723468 243 86 91
9.23529657491517 1.7118874529226005 2.409719798281676 243 86 91
9.81483477308173 1.7788865325261443 2.6992952051050065 243 86 91
9.451949281276335 1.3527790830126476 2.5547092305510204 243 86 91
9.42395045746565 1.7390200428756322 2.5591917189723468 243 86 91
9.415267780181797 0.919646351519525 2.560593429216781 243 86 91
10.265865165927352 0.919646351519525 2.6140834455553303 243 86 91
9.640893420026625 0.5928949755507219 2.739072220311333 243 86 91
9.90794664754795 0.7819002803724774 2.6798496635360323 243 86 91
9.472393842211625 0.340664429872925 2.783147255784858 243 86 91
9.640893420026625 0.5928949755507219 2.739072220311333 243 86 91
9.472393842211625 0.340664429872925 2.783147255784858 243 86 91
10.010548308251616 0.47217357033851143 2.659661115461458 243 86 91
10.267991929592819 0.6452329519618103 2.6137280199837267 243 86 91
9.640893420026625 0.5928949755507219 2.739072220311333 243 86 91
9.166287794835716 -0.3953200610178732 2.8868002741159136 243 86 91
8.933566739904965 -0.212077437489143 2.648741489896763 243 86 91
9.786210490437622 0.026684627844759532 2.7055121943076372 243 86 91
10.098620351541559 0.05168185040711253 2.9285725702120153 243 86 91
9.187944435250984 1.078393425765322 2.8779022604258144 243 86 91
9.948306272107109 -2.3437716362256618 3.0163299601933846 243 86 91
9.948306272107109 -2.3437716362256618 3.0163299601933846 243 86 91
8.530182403527213 1.7971583313154476 1.7918561603473262 243 86 91
9.068653735499547 1.9106829474243119 1.892849107271385 243 86 91
9.99889038553443 2.0690079155682435 2.198269528982599 243 86 91
9.407779330585196 1.8276918814376086 2.244634678610518 243 86 91
8.81848012417757 1.8276918814376086 2.155905257625137 243 86 91
9.083024837849354 1.954179869163209 2.1367305847257487 243 86 91
9.783503938330812 2.015801460781423 1.9775180429169523 243 86 91
9.432984724193137 1.9106829474243119 1.9935800835616262 243 86 91
9.382241274403109 1.8674680250218365 2.392449710055431 243 86 91
9.567998261352292 1.921223222978496 2.5367142163729586 243 86 91
9.812356456718941 2.082194616541421 2.501577402183614 243 86 91
9.953227121259099 1.9973351841047744 2.6707898700830985 243 86 91
9.567998261352292 1.921223222978496 2.5367142163729586 243 86 91
10.08486718743083 -2.6970662439004016 2.9349720973455846 243 86 91
6.978478267756451 -1.001089821450756 2.158695058287957 243 86 91
7.132508481718211 -1.2875645231016601 2.5375440633635464 243 86 91
6.537039554625333 -1.2234636999359576 1.860968600785716 243 86 91
6.553251359451595 -1.5483667675221713 2.0241751495783906 243 86 91
9.08779587479782 -0.42892570828117776 2.6180154511179197 243 86 91
9.31666523512626 -0.7251959892320043 2.8308149747306124 243 86 91
9.36946720910461 -1.8625583134720651 2.8137228514275368 243 86 91
9.139803039884594 -1.031038567120127 2.8981746439268967 243 86 91
6.863938370963827 -2.101239279682471 2.1698591207992477 243 86 91
9.512044660627772 -2.558969916611472 2.7721805822117096 243 86 91
9.259764852376323 -2.3503835526915404 2.8505548064214707 243 86 91
15.129576192807736 2.734989487770409 2.1178779255793474 243 86 91
18.20066770803411 -3.0855814350553636 2.079865365279486 243 86 91
10.552538670939432 0.9455963977315205 2.1607209348996523 243 86 91
9.226803981024991 0.9455963977315205 1.8871353310431151 243 86 91
10.030720421245974 0.9455963977315205 2.0777821176979168 243 86 91
10.25552389513001 0.6752860281287301 2.445613709768013 243 86 91
10.084607162732619 0.5905055047687181 2.320295141654582 243 86 91
10.450810543913102 0.469400893301442 2.4235365696958295 243 86 91
13.506574930097411 1.6368978259998912 1.3369587807640928 243 86 91
13.330295929418078 1.4846560396570512 1.4103494240060777 243 86 91
13.33048241039528 1.4095778275305029 1.485953465310455 243 86 91
15.32459240110397 1.4907337837432397 1.9639116376641172 243 86 91
16.003510723697406 1.3523633845507221 2.014517570316443 243 86 91
16.802664802135215 1.4208265412694612 2.126938734209179 243 86 91
15.04359190954483 1.7024078577327173 1.9004864076839625 243 86 91
10.104049728012306 1.0443544950009869 2.1907418448145037 243 86 91
9.463789828345323 1.279463582161856 2.2399175790967143 243 86 91
8.98743318714753 1.5545066436797113 2.0159995721056045 243 86 91
8.324212565071754 1.5545066436797113 1.7974203284299712 243 86 91
9.544120757988972 1.0995842132363016 1.876271534241889 243 86 91
9.697586221166851 1.3137218460911677 2.0969650150225077 243 86 91
9.713274875588882 1.097120784494531 2.3564911982352217 243 86 91
9.507438112863467 0.8908399540929436 2.3783959189511465 243 86 91
9.42395045746565 1.7390200428756322 2.5591917189723468 243 86 91
9.81483477308173 1.7788865325261443 2.6992952051050065 243 86 91
9.117407963582755 1.02094139926696 2.4242315055027417 243 86 91
9.384833174878159 1.5449472442655898 2.565551199229842 243 86 91
9.23529657491517 1.7118874529226005 2.409719798281676 243 86 91
9.187944435250984 1.078393425765322 2.8779022604258144 243 86 91
9.948306272107109 -2.3437716362256618 3.0163299601933846 243 86 91
9.84837532781399 0.2624971123289854 2.6921577032125015 243 86 91
9.948306272107109 -2.3437716362256618 3.0163299601933846 243 86 91
9.449078443598657 -0.2767689498801889 2.7897927039489 243 86 91
9.783503938330812 2.015801460781423 1.9775180429169523 243 86 91
9.99889038553443 2.0690079155682435 2.198269528982599 243 86 91
9.656192854197737 1.954179869163209 2.224256457576397 243 86 91
9.178532143125482 1.7971583313154476 2.0060884272337853 243 86 91
9.827608956277063 2.315666428650648 2.696558486884196 243 86 91
6.892195720407009 -1.55162141781322 1.5519855537484746 243 86 91
9.330121503925504 -1.5251053027638823 2.826355550852347 243 86 91
9.36946720910461 -1.8625583134720651 2.8137228514275368 243 86 91
9.514339929125928 -2.144628323233148 2.771558016576129 243 86 91
6.609149104433006 -1.71709783034285 2.0200584621926754 243 86 91
9.595024887874802 -0.5428654055672122 2.7504523964507683 243 86 91
6.812972947920827 -1.877904595449247 2.0056834301225313 243 86 91
10.463045872372245 0.39011749229600917 2.5825814140858183 243 86 91
13.60747275752589 1.7123177867308983 1.3387245982028115 243 86 91
15.42015416751303 1.8383416832168291 1.892142174631099 243 86 91
14.927764753370674 1.561432813894518 1.903142642161486 243 86 91
16.2288818770433 1.2859167566919179 2.007926856044729 243 86 91
9.51665433752958 1.202250154329915 1.9896279671388766 243 86 91
8.368289152089087 1.6773996821617458 1.7962059842613032 243 86 91
9.221432368349248 1.5522161373285772 2.2608772548358926 243 86 91
8.619402223563306 1.5522161373285772 2.1712855251548207 243 86 91
8.692430395872874 1.4128982161580272 2.1655430752698286 243 86 91
9.438403324356276 1.235065992758378 2.3860732511609157 243 86 91
9.42395045746565 1.7390200428756322 2.5591917189723468 243 86 91
9.451949281276335 1.3527790830126476 2.5547092305510204 243 86 91
9.623076260289473 1.1755320904172077 2.5284840071013273 243 86 91
9.892818011409762 1.02094139926696 2.490732604573223 243 86 91
10.080275804970457 0.9761837199657798 2.3206951084031995 243 86 91
9.640893420026625 0.5928949755507219 2.739072220311333 243 86 91
9.407744908724128 0.035198097330491195 2.8019640877635776 243 86 91
10.010548308251616 0.47217357033851143 2.659661115461458 243 86 91
9.812356456718941 2.082194616541421 2.501577402183614 243 86 91
8.678927489411677 -0.5428654055672122 2.706510847482621 243 86 91
7.152087030620812 -2.023933092313671 1.9837667709549471 243 86 91
18.04108299097484 0.9480478732704137 1.8441472026473937 243 86 91
9.010978976277524 0.7756610589070394 2.964696987538148 243 86 91
9.068653735499547 1.9106829474243119 1.892849107271385 243 86 91
9.90794664754795 0.7819002803724774 2.6798496635360323 243 86 91
10.316990583139662 -2.840774314405985 2.8462732492743763 243 86 91
8.863505968409049 1.3137218460911677 1.9005820059823093 243 86 91
9.467782410871274 1.2217098606198715 2.78444964783873 243 86 91
9.221432368349248 1.5522161373285772 2.2608772548358926 243 86 91
9.631313505207203 2.0096259534435474 2.3650428255189606 243 86 91
8.661976864206084 1.692254432010042 2.167923245571406 243 86 91
9.892818011409762 1.02094139926696 2.490732604573223 243 86 91
10.188350142777834 2.1799973918898368 2.627293177375678 243 86 91
9.432721191621393 2.015801460781423 1.8799979348767977 243 86 91
15.746248904746459 2.885280605464228 2.248285664922781 243 86 91
18.621088233042887 0.90283780780754 1.8354248888238267 243 86 91
10.459433209445661 0.7836145851279873 2.1666920345263523 243 86 91
9.19032064764022 0.48010428617852713 2.876946256563569 243 86 91
9.841721628553993 1.3020239568539886 2.693561340102182 243 86 91
10.316990583139662 -2.840774314405985 2.8462732492743763 243 86 91
9.449078443598657 -0.2767689498801889 2.7897927039489 243 86 91
9.557776973421927 1.0443544950009869 2.105481742873036 243 86 91
9.363897395891634 0.7802512996918137 2.8154760815434323 243 86 91
9.195376790657708 1.5491762152087332 2.414565692110399 243 86 91
10.006184892828736 1.0922782364921304 2.6604954613649587 243 86 91
9.793442646386206 0.7827490276252651 2.5041757572296213 243 86 91
9.407744908724128 0.035198097330491195 2.8019640877635776 243 86 91
9.363897395891634 0.7802512996918137 2.8154760815434323 243 86 91
7.357780150107015 -1.069378239958422 2.4945066288522684 243 86 91
10.307994377812879 0.21305778076407644 2.6071096623037757 243 86 91
9.638628288046494 0.9698636000637577 2.7396245364222835 243 86 91
6.649011571330041 -1.3808916601047618 2.0171698891694483 243 86 91
