19.755756697714325 1.104985880010426 1.6688437444633764 214 26 135
19.855278124033223 1.1514582546443055 1.8219205385504378 214 26 135
19.48257740935353 1.1999377632028139 1.8268312443652412 214 26 135
19.154883858697577 1.250315083568965 1.8313123131065285 214 26 135
18.039208676929615 1.6372680900590482 1.7906378020966556 214 26 135
18.039208676929615 1.6372680900590482 1.7906378020966556 214 26 135
18.264811558948384 1.5235460966055738 1.8443258183838882 214 26 135
18.885912477710995 1.5804382346612567 1.946735870292406 214 26 135
11.982756989815115 1.1419887129190547 1.818154496726345 214 26 135
11.615731496797924 1.222996740138666 1.8261418892828587 214 26 135
17.09790463416223 1.6412676967960842 1.3306828706212546 214 26 135
11.596137634386858 1.4991044475864443 1.5650960294822165 214 26 135
11.633494998804347 1.4991044475864443 1.6511595287690373 214 26 135
11.747316832301129 1.4138243736097122 1.6503792193245435 214 26 135
11.9440654565238 1.3307807945121675 1.6490655839288024 214 26 135
11.71032257911382 1.4138243736097122 1.5651516125010738 214 26 135
11.756104956096992 1.4991044475864443 1.7360491065854393 214 26 135
16.607514392140573 1.6412676967960842 1.5668161255927684 214 26 135
11.62531351375626 1.6715571859565435 1.5651103355894154 214 26 135
11.62531351375626 1.6715571859565435 1.5651103355894154 214 26 135
11.662577422880691 1.6715571859565435 1.6509586999084425 214 26 135
11.662577422880691 1.6715571859565435 1.6509586999084425 214 26 135
11.727947683525391 1.585439426059893 1.7364495217754388 214 26 135
11.784884810478587 1.6715571859565435 1.7356418426248732 214 26 135
10.997339568819557 1.4923460129048232 1.840849421562309 214 26 135
11.11767621687122 1.3992458664035272 1.8378544366764977 214 26 135
11.02809973882196 1.6810196105144568 1.8400773958346632 214 26 135
11.325368485592142 1.3090473723778102 1.8328405123549585 214 26 135
12.274396682070705 1.222996740138666 1.9844600434241508 214 26 135
12.693128448092896 1.0665565924707796 1.8859089072322652 214 26 135
12.265979900869132 1.1419887129190547 1.8972819002128156 214 26 135
11.907687267360771 1.222996740138666 1.907487996183481 214 26 135
11.69089702696287 1.4923460129048232 2.0064786867302224 214 26 135
11.80416537355814 1.3992458664035272 2.0020163836546616 214 26 135
11.999981959885133 1.3090473723778102 1.9945213151595933 214 26 135
11.719837010493361 1.6810196105144568 2.0053294861428066 214 26 135
10.409344729739765 1.6924337850246232 1.9583449117453189 214 26 135
10.826922718580914 1.6924337850246232 2.0439620703167294 214 26 135
11.317687635099583 1.6924337850246232 2.1226928481172354 214 26 135
11.844000379929405 1.4841842268571035 2.1962135247301493 214 26 135
11.624619098534204 1.3090473723778102 1.9160240740999328 214 26 135
11.422369382695802 1.3992458664035272 1.9223991942928895 214 26 135
11.275993462760926 1.5868250474156873 1.927165480361602 214 26 135
11.275993462760926 1.5868250474156873 1.927165480361602 214 26 135
11.287716649004144 1.4841842268571035 2.1243285173829367 214 26 135
11.60754241391022 1.2831056066531608 2.107389114665449 214 26 135
18.732325755872903 1.908546906842933 1.4602754392911483 214 26 135
18.291022694876066 1.8038367193686686 1.7318932595622463 214 26 135
18.544548103235396 1.8569975245845525 1.7296720252341682 214 26 135
18.847785479518592 1.908546906842933 1.7270947164943644 214 26 135
18.66781718685069 1.6936716346259035 1.8942761814805533 214 26 135
20.200221830884487 1.9582964420744475 1.9211803823712823 214 26 135
21.344654275157172 2.051881479082109 1.9516404668287393 214 26 135
20.26129110629725 2.0061060117658984 1.8680220932940446 214 26 135
18.286947683572002 1.759828388432697 1.1740696412855256 214 26 135
17.774743325981436 1.7010076633710394 1.2225217980625291 214 26 135
17.207271659628447 1.817355819161898 1.4504345316544651 214 26 135
16.992687981585252 1.759828388432697 1.44890707862006 214 26 135
18.309523737741262 1.9792317475880878 1.402544258010961 214 26 135
17.458788564963037 1.7010076633710394 1.2763867993871005 214 26 135
17.611020733757154 1.759828388432697 1.2790068500473577 214 26 135
17.818159400273778 1.817355819161898 1.282496787110081 214 26 135
18.286947683572002 1.759828388432697 1.1740696412855256 214 26 135
13.108839763183681 2.0608045958451378 1.5657538245187852 214 26 135
16.74157966149951 1.7010076633710394 1.507073372207284 214 26 135
18.154273567419963 1.9792317475880878 1.6775246566427648 214 26 135
17.70975725630635 1.9272929057997017 1.5105613946354897 214 26 135
18.082429460833954 1.9792317475880878 1.511804271694352 214 26 135
11.920830445602512 2.0257979851875185 1.7337450204338962 214 26 135
11.522475662116344 1.94663634550688 1.7394315637321345 214 26 135
12.309312678758326 2.213946444048582 1.8114607032404866 214 26 135
11.19949517859279 1.8622121352159362 1.7443435130345324 214 26 135
12.109970304335102 2.213946444048582 1.7311777741740848 214 26 135
11.178449667916626 1.773295839968843 1.836367303428796 214 26 135
12.12328323369401 2.0257979851875185 1.8152283917439682 214 26 135
10.826917441036498 1.773295839968843 1.6571607888849476 214 26 135
11.731804773163674 1.94663634550688 1.8235600153447336 214 26 135
11.41474879736237 1.8622121352159362 1.8307409388174312 214 26 135
11.178449667916626 1.773295839968843 1.836367303428796 214 26 135
19.678793633989144 2.1213478922626936 1.4143515744395536 214 26 135
19.547959400937334 2.1213478922626936 1.464904591086658 214 26 135
19.995001904181102 2.234330845069898 1.4168455448644597 214 26 135
20.087790400788403 2.1213478922626936 1.3158452931117641 214 26 135
18.501702849596736 2.028937950101981 1.513142611173079 214 26 135
20.008229999702547 2.164015708360333 1.5174879542100093 214 26 135
19.43857794294169 2.1213478922626936 1.5673958104707926 214 26 135
18.957514530302788 2.076322978386842 1.6200790041714215 214 26 135
19.658629301111173 2.1213478922626936 1.7205982668437556 214 26 135
20.073182639424285 2.164015708360333 1.6672884089325624 214 26 135
19.75863089140777 2.234330845069898 1.567450892696656 214 26 135
13.099370972853622 2.3292738876054044 2.2214042127432565 214 26 135
12.043596777801167 2.1435896670502093 1.9035408212158291 214 26 135
12.211570346526242 2.267660243946888 1.986719711277162 214 26 135
11.783114471355315 2.023768720865986 2.1999499195537706 214 26 135
11.23228740673877 1.8188310319865337 2.2361259814758956 214 26 135
12.004428882371164 1.9818179243963758 2.087836235497544 214 26 135
11.175855861666184 1.8500263554523728 2.3601727228932576 214 26 135
10.980027717763916 1.7938006079336084 2.036836331710452 214 26 135
11.563281118156832 2.0662248803852123 1.917932403242606 214 26 135
12.004428882371164 1.9818179243963758 2.087836235497544 214 26 135
11.940572350984052 2.0662248803852123 1.996766615864821 214 26 135
12.406289582216964 2.1435896670502093 1.979797794762441 214 26 135
10.568500879088829 1.7938006079336084 1.95220540355608 214 26 135
11.152161991684931 1.9818179243963758 1.931302216958853 214 26 135
19.3388404699281 2.076322978386842 1.7756455993064364 214 26 135
20.638141810850044 2.1213478922626936 1.9134365001748392 214 26 135
12.824242802477631 2.33248977875656 1.9657139811657696 214 26 135
13.286663630829063 2.451700058664705 2.0337643372595045 214 26 135
12.824242802477631 2.33248977875656 1.9657139811657696 214 26 135
21.150541488511564 2.3092553891891034 1.472954802856057 214 26 135
20.411027550890136 2.2729787049595935 1.6165669319981146 214 26 135
20.417503519776144 2.2729787049595935 1.518557515768771 214 26 135
20.348977348024274 2.3423871895552635 1.518381438024157 214 26 135
21.05753148493777 2.3764776890032544 1.52014665597279 214 26 135
20.412845775763177 2.3423871895552635 1.665677935074469 214 26 135
21.39529437743164 2.3764776890032544 1.7557159045832857 214 26 135
21.851641064233206 2.3764776890032544 1.845803588960449 214 26 135
16.43912153364768 -3.1147682464640964 1.7502281442417367 214 26 135
15.460863095820523 3.104287275117026 1.761717026495139 214 26 135
16.156686893284864 2.9740119491047414 1.8811318359502052 214 26 135
15.57458108876335 2.9624284348220864 1.961672816843773 214 26 135
15.982345695861653 2.9624284348220864 2.0195549304140847 214 26 135
15.681392971265895 3.104287275117026 1.8243691493198841 214 26 135
15.677173263087353 -3.113000853988895 1.82443890374729 214 26 135
19.373891043512337 1.0352321641321736 1.4639495662385533 214 26 135
18.068499297875093 1.6372680900590482 1.343814169488346 214 26 135
19.755756697714325 1.104985880010426 1.6688437444633764 214 26 135
18.002063675064377 1.5804382346612567 1.7910988930722669 214 26 135
18.885912477710995 1.5804382346612567 1.946735870292406 214 26 135
18.87454181613247 1.3024338796211337 1.8352738190320037 214 26 135
19.855278124033223 1.1514582546443055 1.8219205385504378 214 26 135
12.419650234536505 1.0665565924707796 1.809280937233988 214 26 135
12.419650234536505 1.0665565924707796 1.809280937233988 214 26 135
11.615731496797924 1.222996740138666 1.8261418892828587 214 26 135
11.567590983622459 1.585439426059893 1.5650819620617906 214 26 135
11.784884810478587 1.6715571859565435 1.7356418426248732 214 26 135
11.868751013060638 1.4138243736097122 1.734466469592942 214 26 135
11.9440654565238 1.3307807945121675 1.6490655839288024 214 26 135
11.71032257911382 1.4138243736097122 1.5651516125010738 214 26 135
16.607514392140573 1.6412676967960842 1.5668161255927684 214 26 135
10.967234415323885 1.5868250474156873 1.8416093619594138 214 26 135
10.997339568819557 1.4923460129048232 1.840849421562309 214 26 135
11.662582322272783 1.5868250474156873 2.007609177149897 214 26 135
11.317687635099583 1.6924337850246232 2.1226928481172354 214 26 135
21.79295801984498 2.0955704942453632 1.9434174352750706 214 26 135
19.86731509007198 1.908546906842933 1.9273111843570996 214 26 135
20.200221830884487 1.9582964420744475 1.9211803823712823 214 26 135
20.26129110629725 2.0061060117658984 1.8680220932940446 214 26 135
17.82395453859405 1.873265991711659 1.3406441995126257 214 26 135
17.47652571585647 1.873265991711659 1.4522976972351056 214 26 135
17.622745337927064 1.873265991711659 1.3959209276793108 214 26 135
18.48651423904571 1.817355819161898 1.1785879437730948 214 26 135
18.082429460833954 1.9792317475880878 1.511804271694352 214 26 135
16.900273450186372 1.759828388432697 1.507672531386433 214 26 135
11.178449667916626 1.773295839968843 1.836367303428796 214 26 135
12.387289923205323 2.0992789699831786 1.727557192182752 214 26 135
11.19949517859279 1.8622121352159362 1.7443435130345324 214 26 135
12.582239446660783 2.0992789699831786 1.806140619188901 214 26 135
12.582239446660783 2.0992789699831786 1.806140619188901 214 26 135
12.12328323369401 2.0257979851875185 1.8152283917439682 214 26 135
19.046888554615787 2.076322978386842 1.4621079946748037 214 26 135
19.585544418471063 2.193198748704838 1.3616680454585255 214 26 135
19.269902591114157 2.193198748704838 1.4633707542133287 214 26 135
18.571925099177616 2.028937950101981 1.6751156685526944 214 26 135
19.780578670869463 2.234330845069898 1.6180268068837476 214 26 135
11.71171584177349 1.8622121352159362 1.9133508905527283 214 26 135
12.836814988515947 2.1435896670502093 2.051334341897376 214 26 135
10.980027717763916 1.7938006079336084 2.036836331710452 214 26 135
12.585188773912094 2.213946444048582 1.8887059744736678 214 26 135
11.940572350984052 2.0662248803852123 1.996766615864821 214 26 135
11.694766336407353 1.8907258540726943 2.1029586415795603 214 26 135
12.825878346775774 1.8907258540726943 2.2377371442701675 214 26 135
12.084373620920973 1.8622121352159362 1.991373635329391 214 26 135
11.563281118156832 2.0662248803852123 1.917932403242606 214 26 135
12.043596777801167 2.1435896670502093 1.9035408212158291 214 26 135
21.693556731486826 2.2043634221475 1.8961346909561554 214 26 135
13.286663630829063 2.451700058664705 2.0337643372595045 214 26 135
12.617316565342069 2.394510264452287 2.0604247646984044 214 26 135
20.551040932451087 2.3423871895552635 1.4210427806407662 214 26 135
20.417503519776144 2.2729787049595935 1.518557515768771 214 26 135
20.48115825666993 2.2729787049595935 1.665360520384036 214 26 135
20.765679358929813 2.2729787049595935 1.7613904995329146 214 26 135
21.869791678700302 2.3092553891891034 1.845569423770893 214 26 135
16.43912153364768 -3.1147682464640964 1.7502281442417367 214 26 135
15.852540804035833 3.031508042594138 2.0235015469698516 214 26 135
11.567590983622459 1.585439426059893 1.5650819620617906 214 26 135
11.756104956096992 1.4991044475864443 1.7360491065854393 214 26 135
11.747316832301129 1.4138243736097122 1.6503792193245435 214 26 135
16.84836453789294 1.581020219499014 1.387794471622013 214 26 135
17.09790463416223 1.6412676967960842 1.3306828706212546 214 26 135
10.826922718580914 1.6924337850246232 2.0439620703167294 214 26 135
11.287716649004144 1.4841842268571035 2.1243285173829367 214 26 135
11.69089702696287 1.4923460129048232 2.0064786867302224 214 26 135
12.149190867802151 1.2831056066531608 2.178190038074474 214 26 135
18.847785479518592 1.908546906842933 1.7270947164943644 214 26 135
17.611020733757154 1.759828388432697 1.2790068500473577 214 26 135
17.47652571585647 1.873265991711659 1.4522976972351056 214 26 135
17.458788564963037 1.7010076633710394 1.2763867993871005 214 26 135
10.958555521900813 1.773295839968843 1.748199286020875 214 26 135
12.270988297198462 2.0992789699831786 1.6469762407552473 214 26 135
12.109970304335102 2.213946444048582 1.7311777741740848 214 26 135
18.913212703823973 2.028937950101981 1.3541174717750766 214 26 135
20.362994016952523 2.1213478922626936 1.2683061037161347 214 26 135
19.366165544805945 2.076322978386842 1.3592632849049269 214 26 135
19.467678716073387 2.1213478922626936 1.51600629901826 214 26 135
13.241185796916447 2.33248977875656 2.035479442628566 214 26 135
13.145339440835064 2.464567402395553 2.2187451553236186 214 26 135
11.464240338305297 1.7938006079336084 2.1148407438398555 214 26 135
21.619898015906237 2.3092553891891034 1.801036142593423 214 26 135
15.529668755839946 3.0387121913149775 1.7608607752127878 214 26 135
16.028293963152674 3.0387121913149775 1.8837018106254537 214 26 135
16.36380167384092 3.0387121913149775 1.9418777848771764 214 26 135
16.156686893284864 2.9740119491047414 1.8811318359502052 214 26 135
18.068499297875093 1.6372680900590482 1.343814169488346 214 26 135
18.020420179128234 1.5235460966055738 1.7908707852915124 214 26 135
11.325368485592142 1.3090473723778102 1.8328405123549585 214 26 135
11.907687267360771 1.222996740138666 1.907487996183481 214 26 135
11.804849227051854 1.7562045118470655 1.649990547352956 214 26 135
18.14038870732816 1.7010076633710394 1.1706825504789737 214 26 135
10.568500879088829 1.7938006079336084 1.95220540355608 214 26 135
20.348977348024274 2.3423871895552635 1.518381438024157 214 26 135
18.87454181613247 1.3024338796211337 1.8352738190320037 214 26 135
11.605040241892576 1.585439426059893 1.6513570006467133 214 26 135
11.727947683525391 1.585439426059893 1.7364495217754388 214 26 135
11.605040241892576 1.585439426059893 1.6513570006467133 214 26 135
11.305276442594707 1.4923460129048232 1.9262014152518399 214 26 135
11.624619098534204 1.3090473723778102 1.9160240740999328 214 26 135
11.404989873711639 1.3817177902090727 2.1179864906874446 214 26 135
19.198379374590246 1.9582964420744475 1.72421762794779 214 26 135
18.131514079595036 1.6936716346259035 1.7895003736161748 214 26 135
18.309523737741262 1.9792317475880878 1.402544258010961 214 26 135
12.387289923205323 2.0992789699831786 1.727557192182752 214 26 135
18.957514530302788 2.076322978386842 1.6200790041714215 214 26 135
17.207271659628447 1.817355819161898 1.4504345316544651 214 26 135
11.768035835340758 1.7562045118470655 1.565179295818969 214 26 135
10.818131260067132 1.8907258540726943 1.942968136661344 214 26 135
19.566771541899584 2.076322978386842 1.8257049920205743 214 26 135
19.154883858697577 1.250315083568965 1.8313123131065285 214 26 135
19.585544418471063 2.193198748704838 1.3616680454585255 214 26 135
18.544548103235396 1.8569975245845525 1.7296720252341682 214 26 135
11.335200999583883 1.6810196105144568 1.9252217273222048 214 26 135
11.305276442594707 1.4923460129048232 1.9262014152518399 214 26 135
16.298517761514155 3.104287275117026 1.9434368345908175 214 26 135
10.967234415323885 1.5868250474156873 1.8416093619594138 214 26 135
11.522475662116344 1.94663634550688 1.7394315637321345 214 26 135
