7.71571501577617 -0.4397144397010615 1.6955436943674433 15 151 172
7.383587262409788 -0.5026866757134443 1.9832865703602807 15 151 172
8.524022354987839 -0.03735705124842174 2.1918437721840975 15 151 172
7.537829562012669 -0.03735705124842174 1.974349668151794 15 151 172
8.387934397931376 -0.5026866757134443 2.203500963512521 15 151 172
8.262665142105387 -0.157488151904304 1.810293412888044 15 151 172
11.03485185360806 0.9068030090836049 2.696560165796831 15 151 172
9.174617073194582 1.0813268906454745 2.9248809143187193 15 151 172
8.860471378372617 1.8499922059237486 2.6868506981593 15 151 172
8.486800053455232 1.943755575580563 2.7874079353545285 15 151 172
8.24976460938144 2.737587516671327 2.5748661379334123 15 151 172
8.708251107818768 2.626043662302767 2.7240248395442284 15 151 172
9.190410140406426 2.1228972198039284 2.9172094524390304 15 151 172
7.461950285755945 -1.0103986085712262 1.4309701566843973 15 151 172
9.67554966300782 -1.5795757123417595 1.0228931307024691 15 151 172
8.873076504222704 -1.9269550224185932 1.4533201309974595 15 151 172
9.085847650674564 -0.8389195177344195 2.638488326593942 15 151 172
8.814626911323833 -1.0366857127068612 2.697606926599715 15 151 172
8.57420453048175 -0.4061241080608732 2.760794834856281 15 151 172
8.28625388128433 -0.5785758897707232 2.8600558089454466 15 151 172
8.112152823983623 -0.93583585006782 2.9476208819682492 15 151 172
8.495871084560251 -0.864399505805117 2.784531713277207 15 151 172
9.011617093534781 -0.2722225493317546 3.0345317396959417 15 151 172
8.223524742126388 0.36705932777880024 2.88776074483795 15 151 172
9.159136715670055 -0.5219499081726207 2.62413536163268 15 151 172
9.194911662737987 0.36705932777880024 2.915074345341588 15 151 172
8.907093750221401 0.18649995840544908 2.676259318592576 15 151 172
9.365314790279857 -0.05249593002956654 2.586680904645453 15 151 172
8.879985426542124 -0.06582753037585863 2.6823764632256624 15 151 172
9.09544197611395 -0.93583585006782 2.9688152476824756 15 151 172
8.48523194910819 -0.0882117948537139 2.7879080434239207 15 151 172
8.368017054642463 -1.187451782157025 1.9323525135337878 15 151 172
8.704396031921467 -1.3415172303797465 1.7979199476232943 15 151 172
9.3519061704281 -0.8179223303764929 2.2617928585820617 15 151 172
7.790893730305957 -0.8179223303764929 1.960520610322031 15 151 172
7.959953974229618 -1.0103986085712262 1.9518125851925558 15 151 172
10.09920366864039 -1.4437123209654406 2.3311327979628382 15 151 172
10.812675711491105 -1.4437123209654406 2.398197384230704 15 151 172
9.07526802583635 -1.3563680320006302 2.64061068222672 15 151 172
10.96887301607109 -1.4236798414624463 2.5267406371876104 15 151 172
9.845071334280417 -0.8258604117017452 2.5124435026979546 15 151 172
9.302415113848378 -2.014073904103982 2.8694342935170245 15 151 172
8.990908774683835 1.6683284299004444 3.058677600791981 15 151 172
9.737811204756769 -2.507630671407256 2.7392003636382087 15 151 172
9.51670993112796 -2.466716520172561 2.5615252110563147 15 151 172
9.05436141587316 2.5369422994967183 2.9971107036178015 15 151 172
8.564546658007893 2.9049134819528644 2.763621580273026 15 151 172
8.37435994638826 -2.635168864647509 2.5518984238900115 15 151 172
8.826376706117651 -2.507630671407256 2.6948164345135206 15 151 172
9.534554472871621 -1.5930424281151447 2.792671011017339 15 151 172
9.28235556874187 -2.5957256065392276 2.8772882414808834 15 151 172
9.555477222992009 -2.752723379537159 2.786701353922806 15 151 172
9.756934411242497 -2.137232288887594 2.7346199966052853 15 151 172
9.027695317722015 -2.904718060651298 3.0190714398322642 15 151 172
8.945071358693983 -3.078102798908064 2.6678736168575914 15 151 172
8.838643094130338 -1.6999345883920736 1.91229051277011 15 151 172
9.414702895361348 -2.0289127071865467 1.7805175114264096 15 151 172
11.933736948723283 -1.971204328791484 2.4200904101340823 15 151 172
12.56709591201128 -1.9269550224185932 2.3645277094991077 15 151 172
10.800775754343423 -1.5795757123417595 2.271034808591912 15 151 172
11.65619313094694 -1.816661651481588 2.322522199078244 15 151 172
11.874841403593587 -1.9269550224185932 2.3054449889104434 15 151 172
12.701736844326192 -1.971204328791484 2.472115687131276 15 151 172
9.920965230083391 -1.5878201672919754 2.6978239711353247 15 151 172
10.773067162903773 -1.580785099930251 2.4022053562326944 15 151 172
10.929830524635701 -1.582380895261123 2.5318173580326713 15 151 172
11.983723927046956 -1.8912054886887486 2.190494481304133 15 151 172
11.76709900974373 -1.791005915142354 2.2036912190450826 15 151 172
9.54061485941555 -1.5845834839001784 2.5577125024966993 15 151 172
9.091233681404262 -1.817494051284512 2.637412875273896 15 151 172
12.546350638222666 2.875891361825397 2.1588523348052453 15 151 172
12.80207374751696 2.7859680290754207 2.1455922665433573 15 151 172
9.512560502593375 -2.267435473064445 1.6718898041927082 15 151 172
8.589120904376893 -2.427871746806796 1.209022602784176 15 151 172
8.916484994579049 -2.180714893038926 1.4538946712777367 15 151 172
8.797738110685192 -2.599573106578204 1.2179810767469021 15 151 172
10.416194126539386 -3.0037120481149056 2.067105851019123 15 151 172
9.194979153078169 -2.7578965686726034 1.8985499652328066 15 151 172
10.927815032427285 -3.0037120481149056 2.1476615387384452 15 151 172
10.343078747712704 -3.113062423627337 2.0709378508864003 15 151 172
8.703855609203917 -2.898324783267144 2.497505092139635 15 151 172
10.015205525662424 -3.098981883023609 2.489463630881588 15 151 172
11.50378992698206 -3.0037120481149056 2.220587058477542 15 151 172
9.44242138790116 -3.0905949120642373 2.573644218731967 15 151 172
8.616221931072987 -3.0905949120642373 2.511174412043662 15 151 172
11.145752860632735 -2.7578965686726034 2.2452298440219782 15 151 172
10.24090470482313 -2.4171475679388266 1.9678323180375852 15 151 172
11.37812883857675 -2.121581680671348 2.1221182897801754 15 151 172
9.297218173825492 -2.5022190275864293 1.8948132556946522 15 151 172
10.558120570084702 -2.343188765782038 1.8549601250900158 15 151 172
9.595074972396489 -2.656123691295765 1.8844054685930591 15 151 172
11.157563937628732 -2.34107970117895 2.2443838065860438 15 151 172
11.932386901556706 -2.121581680671348 2.193567364185843 15 151 172
12.366450437527767 -2.267435473064445 2.2700918223230597 15 151 172
7.578586705714767 -0.6230355257160001 1.2982581961347985 15 151 172
8.499520019651452 -0.20927553531437065 2.347901490041759 15 151 172
11.72509766790646 0.6493809927937617 2.5857604772462226 15 151 172
9.109262177113616 2.737587516671327 2.633837380715074 15 151 172
9.370207916260558 1.5972431595946817 2.8446116735442764 15 151 172
7.28133640976435 -0.8179223303764929 1.4274781149012146 15 151 172
9.431673520810858 -2.0289127071865467 1.3527831227571723 15 151 172
8.861072282833899 -2.0820729315866013 1.2206116593844007 15 151 172
9.455559606744734 -0.6926312891909542 2.5714703330290316 15 151 172
8.62014512176053 -0.2501364643860484 2.5105510188888385 15 151 172
9.168654349789962 -0.13352623942845135 2.9278548122818684 15 151 172
8.194155312460964 -0.13352623942845135 2.9019658893064055 15 151 172
8.48523194910819 -0.0882117948537139 2.7879080434239207 15 151 172
9.83787748095887 -1.187451782157025 2.2215972752788895 15 151 172
10.8402830609282 -1.4589631638115501 2.267967569903047 15 151 172
10.540687540780752 -1.1332951013514705 2.4267111353112396 15 151 172
8.971983031178784 2.961588798887929 2.6620556207444253 15 151 172
9.048319445920413 -1.6283301798774332 3.0017749279856174 15 151 172
9.200233845081648 -3.017310206489125 2.912577888466959 15 151 172
9.111372281384806 -2.2764125212317112 2.959068780343706 15 151 172
9.51670993112796 -2.466716520172561 2.5615252110563147 15 151 172
9.22225275151696 -2.635168864647509 2.6122355782551865 15 151 172
9.469949683336264 -2.3131864156873503 2.8119340982331265 15 151 172
8.258718992835894 2.798180726208407 2.8718231973238217 15 151 172
12.848226325694007 -2.0289127071865467 2.3425234634884706 15 151 172
9.978505456785072 -1.817494051284512 2.685844812738472 15 151 172
11.933736948723283 -1.971204328791484 2.4200904101340823 15 151 172
9.028040196816441 -1.5878201672919754 2.650249065731777 15 151 172
11.632695261655657 -1.686117809849888 2.212193336943929 15 151 172
9.114368234632405 -2.986888399108219 1.1115709072029991 15 151 172
8.86556163868543 -2.5022190275864293 1.6792955798049614 15 151 172
8.8745760781544 -2.5022190275864293 1.4533400732373793 15 151 172
9.625851519703245 -3.0037120481149056 1.883368727534476 15 151 172
11.087604046109833 -2.8975703281634515 2.1383123167214837 15 151 172
11.333701318796013 -2.796739079295282 2.1245305575355293 15 151 172
9.44242138790116 -3.0905949120642373 2.573644218731967 15 151 172
9.522454713311092 -2.898324783267144 2.5606051787822937 15 151 172
9.705409103558077 -2.722633991741302 2.532492764739427 15 151 172
8.903646700438975 -2.722633991741302 2.4681905822707937 15 151 172
9.069940934875147 -2.180714893038926 1.788615361449101 15 151 172
10.25909017501406 -2.267435473064445 1.967089167479534 15 151 172
11.184319998169329 -2.267435473064445 2.1328094485185938 15 151 172
10.900715005424185 -2.656123691295765 2.1492800757834023 15 151 172
8.704002680653494 -0.3640997032213922 2.3250498071100814 15 151 172
9.127903291244895 1.6124186401866174 2.949504637073404 15 151 172
8.407652306218482 2.4428817607962476 2.8138115102271835 15 151 172
8.169022695545413 2.076694475600306 2.5905930760201206 15 151 172
9.24074036687294 -1.4589631638115501 1.118322032251506 15 151 172
7.88565956812788 -1.187451782157025 1.6928416740837862 15 151 172
12.229435703084961 -2.0820729315866013 2.3930187206482616 15 151 172
8.57420453048175 -0.4061241080608732 2.760794834856281 15 151 172
8.96405392080247 -1.8438585130131449 3.111593589070128 15 151 172
12.278218894214403 -1.9851755334446735 2.1734845827726046 15 151 172
9.038330627948996 0.6741469858063549 3.009859981138435 15 151 172
8.34355353846097 -2.014073904103982 2.8372109126015403 15 151 172
9.54061485941555 -1.5845834839001784 2.5577125024966993 15 151 172
8.776947386814001 -0.6571951997836009 2.70671974346712 15 151 172
8.495871084560251 -0.864399505805117 2.784531713277207 15 151 172
12.635984864009899 2.7504815537982714 2.252283320754569 15 151 172
12.031129297879609 2.7504815537982714 2.1876861232185645 15 151 172
9.209611005737045 -3.0037120481149056 1.675227213169045 15 151 172
11.230246256270236 -2.5022190275864293 2.239229007350092 15 151 172
10.387759446978441 -2.656123691295765 2.0685887641308547 15 151 172
11.16764128075615 -2.4171475679388266 2.1337502614509107 15 151 172
9.145712643926586 -0.04365196387232564 2.4356719442856356 15 151 172
9.109262177113616 2.737587516671327 2.633837380715074 15 151 172
8.57825545173511 -1.816661651481588 1.449263001419996 15 151 172
8.8222203348299 -1.4589631638115501 1.9129522108519301 15 151 172
9.978505456785072 -1.817494051284512 2.685844812738472 15 151 172
9.493207633641244 -1.0103986085712262 2.2495449261100067 15 151 172
8.965041175363774 -0.3101911875001854 2.663546781308379 15 151 172
9.824796902944136 -1.3415172303797465 2.1000012033763724 15 151 172
8.059283063289893 -1.6283301798774332 2.9844818801417374 15 151 172
9.029514035234387 -2.841786275367022 2.649944125682139 15 151 172
9.429697902443989 -0.0882117948537139 2.824646719972042 15 151 172
9.47572281457999 -3.057524315235556 2.810158006607743 15 151 172
9.56677638372755 -0.9293298616529437 2.385496533723384 15 151 172
11.907311886788927 -2.180714893038926 2.302984413175867 15 151 172
9.534554472871621 -1.5930424281151447 2.792671011017339 15 151 172
9.490545275780304 -0.9685905192643532 2.565746152282264 15 151 172
10.227008142162434 -1.4589631638115501 2.192932786110907 15 151 172
9.08755541151542 -2.180714893038926 1.344386387565885 15 151 172
12.17197101602967 -2.0289127071865467 2.283607609168878 15 151 172
9.258325405100816 -2.0289127071865467 1.6746757402967458 15 151 172
7.856364067825242 -2.709805675558308 1.438032520673165 15 151 172
8.670109295844751 2.21818367508417 2.7340541728976397 15 151 172
11.37812883857675 -2.121581680671348 2.1221182897801754 15 151 172
8.420913900453831 -2.986888399108219 1.3261104824766414 15 151 172
10.943899487262472 -1.3112514076438497 2.385245579929787 15 151 172
13.127488550306204 2.875891361825397 2.222274878856317 15 151 172
