18.95935752125347 -1.793385039921661 1.1003814697153913 103 17 195
14.60711861233614 0.737778567391218 2.2704733355953493 103 17 195
11.889136024578105 0.18142630069325233 2.35615481760441 103 17 195
12.774918414398803 0.2954644061494676 2.398426498566159 103 17 195
12.961575940852182 0.6243472129016288 2.5029025039134183 103 17 195
12.508556117738005 0.7086753045499852 2.5534181872078774 103 17 195
12.647868442485313 0.5112365499917044 2.5371011865002764 103 17 195
13.473712390813283 0.5559898146771073 2.45334442949546 103 17 195
12.243399310415851 0.23740233394698826 2.5867297997929777 103 17 195
12.814419106539274 0.44562158783305744 2.6684363286336445 103 17 195
12.94114276740006 0.33332573302746477 2.5050320377022666 103 17 195
8.99844048093435 -0.7186022888782997 1.9590490133280851 103 17 195
11.212112044341014 -0.2012569921030448 2.418517476758066 103 17 195
10.296479317106762 -0.4468297588865386 2.24235675452418 103 17 195
11.57377282455811 -0.3771146603434011 2.5196488839340905 103 17 195
9.065560074089278 -0.1774603268479188 1.9560226252287725 103 17 195
9.186471881221992 -0.4468297588865386 2.071084860914042 103 17 195
12.195891481416036 -0.9884537706264229 2.4516599579040563 103 17 195
12.683016565895874 -1.1045392987268887 2.2953747756969896 103 17 195
11.113261012290502 0.062432064278434736 2.3002481017527785 103 17 195
12.51346291440147 -0.909226884730281 2.5528304829814257 103 17 195
12.16005558960275 0.08227006515697344 2.5978884221265077 103 17 195
12.496363613549363 -0.7049578254364062 2.554882777326794 103 17 195
12.108700543087323 -0.8098240569383265 2.604945953394002 103 17 195
11.77516469414443 -0.6843318816374976 2.6546583752067208 103 17 195
12.51346291440147 -0.909226884730281 2.5528304829814257 103 17 195
12.239248444169462 -0.23229159271928304 2.587277210143346 103 17 195
12.807808687583037 -0.4403740619461428 2.6694454905371083 103 17 195
11.569293495757165 1.1052432843518865 2.6894153061430583 103 17 195
10.944441627001558 0.8371052632554782 2.8267754680531962 103 17 195
10.781573531120921 1.1037317914071338 2.877067399911726 103 17 195
10.519979959820633 1.3951381389115778 2.994614595977514 103 17 195
11.057857050035938 1.2244506063267095 2.7966668236893404 103 17 195
11.216714191727753 0.9977808940476737 2.7591937502371686 103 17 195
12.262261804379458 2.5480874602601817 2.765797946309532 103 17 195
11.82656605050504 2.6345369613753684 2.8742860503403187 103 17 195
13.240845511199469 2.591164492242444 2.608948367143755 103 17 195
12.441491675325908 2.831296685166129 2.7308279137090774 103 17 195
9.145461091353875 -1.5390687510508483 1.952482559279602 103 17 195
8.08898562508137 -1.9207057062967285 1.7455699726165275 103 17 195
8.371385988671966 -2.03329201444783 1.6193802959646801 103 17 195
8.513263012124035 -1.158902249971595 1.8573864261558652 103 17 195
8.981272146347978 -2.2946780718013082 1.8420636119773475 103 17 195
12.382262898634965 -1.2029530214937592 2.317085812274384 103 17 195
9.199383785339887 -1.2029530214937592 1.7242950763663398 103 17 195
8.629876195546803 -1.656727915070708 1.734513422110374 103 17 195
8.662391624929054 -2.2946780718013082 1.6177469378346683 103 17 195
11.008350390429655 -0.4258782970829486 2.8094100811235365 103 17 195
11.206139127035277 -0.9933629022731637 2.761546961773048 103 17 195
10.49640787807156 0.3867680466267315 3.010653202493568 103 17 195
10.494794119504226 -0.36366493156214735 3.011826047009419 103 17 195
10.662043815829014 -0.2097436286226272 2.922235587553899 103 17 195
10.588051231398449 -0.8629320920231215 2.956169949545809 103 17 195
13.228020635231077 -1.158902249971595 2.4762501487742714 103 17 195
13.428746443149677 -1.5390687510508483 2.4574261941545488 103 17 195
13.428746443149677 -1.5390687510508483 2.4574261941545488 103 17 195
13.829503445814114 -1.276360723795191 2.5406422550584806 103 17 195
13.644713852552199 -1.5348322724088235 2.5606921404470624 103 17 195
14.43903883638532 -2.1345536022109015 2.481573074167197 103 17 195
13.912684570506084 -1.9207057062967285 2.5319755435586786 103 17 195
14.320174298737188 -1.7720597211401472 2.4923426362556067 103 17 195
14.776089726387976 -2.201185579097232 2.5674113167119152 103 17 195
14.725088373740013 -2.3782797043174475 2.5727879238627382 103 17 195
13.94703256075305 -2.201185579097232 2.5284578709464904 103 17 195
14.59158582984858 -1.7980902014333597 2.5872641052844925 103 17 195
14.486935573893657 -2.092978490016419 2.5990450862346113 103 17 195
14.38270149681608 -2.477750191448856 2.6111882552442056 103 17 195
13.367294758951642 2.5217746440449202 2.351387037871425 103 17 195
13.618814955960467 2.9869464706566005 2.3332569610764207 103 17 195
12.882872536046118 2.6600942001509558 2.511176399445516 103 17 195
14.467864593239641 2.888482245906237 2.3735725980508127 103 17 195
13.815121447464533 2.8609190285242434 2.4238203892725574 103 17 195
14.37251080234662 -3.0863202074257137 2.4875601527672786 103 17 195
13.859064425544217 -2.9520562748264587 2.5375378737838057 103 17 195
15.001019700130154 -3.091990539558893 2.434702518773458 103 17 195
13.789177503227297 3.0748244711435384 2.5449215950630393 103 17 195
14.693086030611395 -2.9520562748264587 2.576204082512934 103 17 195
13.377061382489918 -1.647704107173079 2.350664180582219 103 17 195
13.359799622403786 -1.542412558406912 2.3519428441088577 103 17 195
12.874318818445207 -1.335919264424524 2.2822967112312633 103 17 195
14.18521789972182 -1.751320331048055 2.394429595201046 103 17 195
9.865644845103645 -1.4377444980714014 1.8172155088930269 103 17 195
8.63566967749398 -1.052335356708968 1.50202193768886 103 17 195
8.508056015754576 -1.5390687510508483 1.5009887134501707 103 17 195
8.27462128734666 -2.830808393503885 1.3770157068900861 103 17 195
8.49275999620858 -2.5540131655732488 1.2604680380533066 103 17 195
8.108834260010854 -2.5540131655732488 1.4975458645844657 103 17 195
13.17220751652103 0.45061277508538694 2.4816686303496405 103 17 195
13.047728222571969 0.5885427313906095 2.6346186180548377 103 17 195
12.656044496839309 0.28030591330222326 2.6934958935602493 103 17 195
13.047728222571969 0.5885427313906095 2.6346186180548377 103 17 195
13.352044281763124 0.7086753045499852 2.5949850801875747 103 17 195
9.027664443374503 -0.8021641772446998 1.615845932476303 103 17 195
12.70454354402811 0.07099350048235845 2.5306728492998394 103 17 195
12.70321030015815 -0.06635544002859513 2.530822736784352 103 17 195
12.400214826608542 -0.3771146603434011 2.5666505393501566 103 17 195
10.5928491481237 0.8740683001461566 2.9537706131862236 103 17 195
12.096660275757154 2.755407467999824 2.8021811988649303 103 17 195
11.82656605050504 2.6345369613753684 2.8742860503403187 103 17 195
9.526554666157038 -1.3912107040885222 2.9827037021469325 103 17 195
8.603094668219258 -1.5390687510508483 1.7350276998920702 103 17 195
10.42286446342681 1.0906225929629134 3.085643232697656 103 17 195
10.93670100471496 -0.8303618978753198 2.8289561838606367 103 17 195
13.445919690170987 -1.656727915070708 2.455861673076458 103 17 195
13.616467253812925 -1.3094140965151366 2.4406932875721186 103 17 195
13.700974083542642 -1.4027806793564135 2.554466378159521 103 17 195
13.661615621812546 -1.668143212567787 2.5588102146511122 103 17 195
14.776089726387976 -2.201185579097232 2.5674113167119152 103 17 195
13.700941824370078 -1.8822287511336424 2.4334178722735107 103 17 195
13.815121447464533 2.8609190285242434 2.4238203892725574 103 17 195
14.626026522436296 -3.079188021107861 2.583472055707083 103 17 195
14.331482027018795 -2.7881696002255247 2.617314329546951 103 17 195
14.19243643011393 -2.924717162099415 2.634513533699496 103 17 195
13.982507546040365 -2.5540131655732488 2.524861151182419 103 17 195
13.468752596696765 -1.751320331048055 2.3439535834682306 103 17 195
8.779803697523473 -0.2917109975224738 1.3882951266826409 103 17 195
8.872909235413914 -2.1345536022109015 1.5038635829942444 103 17 195
9.990525519713495 -0.1774603268479188 2.142622073435949 103 17 195
11.897833482549737 -0.06635544002859513 2.4826021372597844 103 17 195
12.173453835871838 -0.5840820363135328 2.596070385362648 103 17 195
12.575435880076457 0.09779184595933475 2.7070210314050116 103 17 195
12.389789324273783 2.591164492242444 2.5679504653615424 103 17 195
10.709988472780443 1.464231328745319 2.9029858382986036 103 17 195
10.758574617242855 0.5892561993334103 2.8850779317250197 103 17 195
9.550747043420277 -2.0286181951382485 2.96760652549266 103 17 195
9.526554666157038 -1.3912107040885222 2.9827037021469325 103 17 195
8.147920822828409 -2.201185579097232 1.744292919981947 103 17 195
10.753850640519213 -0.5788675697678035 2.886758090615902 103 17 195
13.016991019672018 -1.276360723795191 2.4971910015119327 103 17 195
14.233968760190896 -1.656727915070708 2.5003642293128525 103 17 195
14.14299534181217 -2.03329201444783 2.5090319274761574 103 17 195
13.892988060992883 -2.3782797043174475 2.534008621227361 103 17 195
14.776089726387976 -2.201185579097232 2.5674113167119152 103 17 195
13.668346859665666 2.9695637295526964 2.4362071167306705 103 17 195
14.674909901610283 2.794776457873406 2.3590730374915783 103 17 195
8.240672818629434 -2.830808393503885 1.7423206552173474 103 17 195
14.373689209650824 3.0824529674580408 2.4874532139251984 103 17 195
13.417254587681402 -1.4377444980714014 2.3477058201871066 103 17 195
8.123568020770525 -1.9207057062967285 1.3733653579512441 103 17 195
11.050123633283704 -0.5071171519402948 2.4352884129848986 103 17 195
11.758432198138802 -0.2743590725845647 2.657352935939791 103 17 195
12.151545818317453 0.33332573302746477 2.4560941870203647 103 17 195
13.00893597595929 0.40212786830595265 2.3790531136916284 103 17 195
9.161133982768112 -0.9572870874872471 1.6151891652727135 103 17 195
13.024829655766302 -0.07690090414395552 2.6377931505824805 103 17 195
12.108700543087323 -0.8098240569383265 2.604945953394002 103 17 195
9.422797808471786 -1.062323848486224 3.0828686470974587 103 17 195
7.976125506234877 -1.9207057062967285 1.621789935964329 103 17 195
8.986066925087448 -1.7720597211401472 1.8419152143978073 103 17 195
13.485907672614491 -1.4222778617745708 2.4522455727568464 103 17 195
12.88035638040907 -1.4027806793564135 2.511444139739048 103 17 195
13.862730284744488 2.9478334501432153 2.5371547927094946 103 17 195
13.70333956127388 2.6600942001509558 2.554207005631889 103 17 195
14.809578914561962 -2.5540131655732488 2.5639249914903144 103 17 195
12.755622066148478 -1.052335356708968 2.400074240458599 103 17 195
10.663632264042116 0.22398005388495512 2.9215684398683703 103 17 195
9.105124802091384 -1.3094140965151366 1.8382824175354469 103 17 195
14.44074762716626 -2.973332411837755 2.481420627273952 103 17 195
12.407042411725431 0.3817766356957031 2.5658018198779753 103 17 195
11.67672870330034 -0.7049578254364062 2.5074523913473197 103 17 195
11.3357402990212 -0.8052820109055749 2.4062446898796894 103 17 195
9.405871186155426 -0.15865364817734262 1.5076613716917153 103 17 195
11.960156947957074 2.5023169059697583 2.626205338593206 103 17 195
14.538139576943829 -2.66405580194761 2.5932312230683943 103 17 195
