11.650484737121 1.5438198719435996 0.5306568787973428 207 169 67
11.578505698356805 1.2673016282142813 0.6737787127049762 207 169 67
11.274637722027851 1.5506522400880627 0.7758348184924273 207 169 67
10.646081018245381 1.4250152454782574 0.8472440920082717 207 169 67
11.349417885491546 1.5529165923046644 0.9007490969364281 207 169 67
10.575811470428464 1.355950500866153 1.278420082401772 207 169 67
11.086182833335315 1.5561985160128553 1.3849717515854538 207 169 67
13.026195420698599 -0.9149924419591322 2.7325866571376882 207 169 67
12.690374230801057 -1.2956640042664975 2.798731135725511 207 169 67
12.362648840317819 -0.03348974791469662 2.883047279077367 207 169 67
12.15645609513394 -0.21115375641896422 2.692634832585922 207 169 67
12.828737710852348 -0.46869633318619625 2.7696933454144084 207 169 67
12.326408326572485 -0.7729231513676291 2.8944086302656684 207 169 67
12.191072870062367 -1.0676494858243355 2.9431208467233985 207 169 67
12.498110464687372 -0.5419018318838457 2.638866865242422 207 169 67
12.119599031209868 -0.6414287126819811 2.698989149952532 207 169 67
12.191072870062367 -1.0676494858243355 2.9431208467233985 207 169 67
12.413555126336997 -0.7789605093159121 2.651398035570825 207 169 67
12.746375835543402 -0.7769054389215126 2.7866278293792193 207 169 67
12.997660705098403 -1.5396572782119629 2.7376815048525898 207 169 67
13.626103391025842 -1.5511781321321931 2.5043394511774046 207 169 67
13.905485399635207 -1.5484181399311834 2.605084965622367 207 169 67
13.952799314463487 -1.4091088719163047 2.5994099086746267 207 169 67
11.314851538402266 2.069240993180839 1.108324801149151 207 169 67
10.614237342199097 1.879971383975822 1.075137666623037 207 169 67
10.957495288894506 1.9162463080572365 0.8720798446481416 207 169 67
11.422840572402457 1.7999064317050395 0.7889720514186284 207 169 67
11.37942010074725 1.6650676894935745 0.9028363793303638 207 169 67
11.72481861931164 1.9616742000773775 0.6892587094163258 207 169 67
11.406469246712874 1.6921777593893355 0.6546584317659965 207 169 67
11.406469246712874 1.6921777593893355 0.6546584317659965 207 169 67
11.307196693137985 1.8258929166476148 1.4779566066521193 207 169 67
11.2037804985781 2.025826384147052 1.386944612742282 207 169 67
11.840049948229124 2.352813076849288 1.221846056054471 207 169 67
11.459673628545243 2.2736812807744737 0.9083494562917229 207 169 67
13.03298826745305 2.5304920708614485 1.1730473963076493 207 169 67
10.954502561197662 1.8735314475637432 0.5988497891993556 207 169 67
11.461455289047569 2.1483336021631185 0.6608833511264038 207 169 67
10.975892365872603 2.464162184622009 0.6016994372125936 207 169 67
11.64155809087911 2.5205918211233724 0.8074573111512805 207 169 67
12.750746501260435 2.5535749313766076 0.9851099090852591 207 169 67
11.603065571981263 2.787997027628376 0.8042782506738769 207 169 67
11.82964321185095 2.4441626850773934 0.6999423373660063 207 169 67
11.559943299871035 2.351660511854733 0.8006799538314995 207 169 67
11.257777088778107 2.6240959409647813 0.7743070173709921 207 169 67
11.452166987823556 2.5535671663307227 0.6598395253546483 207 169 67
11.623738256126316 2.5835835951390314 0.9193126688314182 207 169 67
12.078891540602143 2.496994900992573 0.9477424700894614 207 169 67
13.45215762931308 2.847146578383807 1.6416062467982149 207 169 67
12.960341815347808 2.7496521703930767 1.7219654768319579 207 169 67
14.191838170892222 -1.9511357228194437 2.572066557695972 207 169 67
13.918205347394881 -1.907901408471734 2.4765089377481395 207 169 67
13.717753835739853 -2.1091683753063126 2.3825061090754023 207 169 67
19.969860976185174 -2.5301398357831775 1.8213714731469064 207 169 67
19.25379867113959 -2.543771962977263 1.940199190725553 207 169 67
21.38353753741105 -2.5847996191814135 1.756668137106488 207 169 67
13.034214510476028 0.6571001356200036 3.029045548654838 207 169 67
13.130898773984708 -0.048980259529268 2.9762178930158676 207 169 67
13.003938561159394 -0.09106002020622966 3.05197182665237 207 169 67
13.17695612840604 -0.4733502400302708 2.956445233941306 207 169 67
13.922739837356207 -1.5396572782119629 2.765913733590834 207 169 67
13.08236081797677 -3.0841667107512025 3.000168739347022 207 169 67
13.08236081797677 -3.0841667107512025 3.000168739347022 207 169 67
13.00978781090046 2.325539315141037 3.0471005454334925 207 169 67
13.08236081797677 -3.0841667107512025 3.000168739347022 207 169 67
12.97945488385235 -3.0164001606225823 3.076243617592139 207 169 67
13.026047722899799 -2.2209665360876047 3.034735911720017 207 169 67
13.128588453030213 -2.6006698702900857 2.9772756329637184 207 169 67
13.612969179101828 -1.7728223172304993 2.8286354638897184 207 169 67
13.289785922436996 2.8366677809474523 2.915564749949987 207 169 67
14.800354959157021 -2.461623991229871 2.8013185747866 207 169 67
15.042013732022326 -2.322875472917388 2.7585153108779377 207 169 67
14.572871763220476 -2.3116826997483773 2.8485806622819165 207 169 67
14.572871763220476 -2.3116826997483773 2.8485806622819165 207 169 67
14.800354959157021 -2.461623991229871 2.8013185747866 207 169 67
15.672460180006794 -2.5288971456897156 2.668598013214051 207 169 67
16.52240415537185 -2.65921279459961 2.5762667484274497 207 169 67
15.270974680723223 -2.7955687773682136 2.7228780154176007 207 169 67
15.270974680723223 -2.7955687773682136 2.7228780154176007 207 169 67
15.345157128933305 -2.2157475495722556 2.712144519502847 207 169 67
14.043023732738469 -1.916847195505616 2.7447623789799924 207 169 67
15.963636123740827 -2.4232479716123683 2.6341101174318293 207 169 67
15.963636123740827 -2.4232479716123683 2.6341101174318293 207 169 67
16.798854403522682 -2.564391916125823 2.550833301729284 207 169 67
14.34350969134769 -1.7076653875904777 2.697426769856697 207 169 67
13.947207608280616 -1.7340359745749736 2.7614905879879723 207 169 67
14.043023732738469 -1.916847195505616 2.7447623789799924 207 169 67
14.597948528657561 -2.006288879424424 2.6621038294128803 207 169 67
15.1150233947846 -2.2411568901280297 2.599981626259789 207 169 67
15.464341166524392 -2.334026702741155 2.5635314439779293 207 169 67
11.706915867132306 1.3766313811131923 0.5388148599058004 207 169 67
11.43432156696042 1.40423459922996 0.6578253176235088 207 169 67
10.292442489391576 1.4412116635680936 1.0581544697928988 207 169 67
10.800792820773363 1.3038265841471575 0.8598280093495311 207 169 67
12.828737710852348 -0.46869633318619625 2.7696933454144084 207 169 67
12.362648840317819 -0.03348974791469662 2.883047279077367 207 169 67
12.540272195754778 -0.5879602905328128 2.834014082274041 207 169 67
12.326408326572485 -0.7729231513676291 2.8944086302656684 207 169 67
12.536028574899625 -0.963328262388985 2.835081525766385 207 169 67
12.402980606308917 -1.2136203297222627 2.871024554937511 207 169 67
11.766959687306416 -0.2598743079436565 2.7671742343260264 207 169 67
12.411557377956882 -0.3367228468268033 2.868544271382874 207 169 67
12.413555126336997 -0.7789605093159121 2.651398035570825 207 169 67
13.905485399635207 -1.5484181399311834 2.605084965622367 207 169 67
11.818338578932932 2.2362021794021794 0.554383331433253 207 169 67
11.422840572402457 1.7999064317050395 0.7889720514186284 207 169 67
11.384695059583533 2.151879696334614 1.207254282550923 207 169 67
11.523430746352483 1.8317391033080654 0.667770032523958 207 169 67
11.271946944489159 2.0790984301342115 0.7755914637286767 207 169 67
12.23814524510075 2.4127094407609313 1.3190684562047787 207 169 67
12.07053709406058 2.284839869469972 1.0459553011737077 207 169 67
11.042612064031651 1.9410928556681348 1.2911203244764913 207 169 67
11.116895488575658 1.6478369560284019 1.3854910958298783 207 169 67
11.369192716719867 2.350729060673849 0.6503749556399764 207 169 67
12.096040864101296 2.4304029816874424 0.8428172907950334 207 169 67
11.166156091200826 2.019936426792509 0.6260845748069298 207 169 67
13.204078923462887 2.5751672411653987 1.3378382888040254 207 169 67
13.929983477708907 -1.688595883608876 2.6021350209995093 207 169 67
13.397568988744945 -2.013306732477945 2.4080432108206833 207 169 67
14.101726340690725 -2.195205729230133 2.3542232001566905 207 169 67
14.025917266939025 -1.8242995435171987 2.5908172745859517 207 169 67
19.710078081649133 -2.573730817639851 1.8775493517956392 207 169 67
12.983553573458964 1.3947704018940479 3.0715855324063637 207 169 67
12.953159212801465 -0.5871616966285637 3.126843749802215 207 169 67
13.122792156656002 -1.4954148803624399 2.9799612259747272 207 169 67
13.112455695804254 2.689445197033207 2.9848696848646035 207 169 67
13.112455695804254 2.689445197033207 2.9848696848646035 207 169 67
12.97945488385235 -3.0164001606225823 3.076243617592139 207 169 67
13.26009351631839 -3.1043565560397064 2.9255179011256685 207 169 67
13.128588453030213 -2.6006698702900857 2.9772756329637184 207 169 67
13.305703673944246 -2.770390084936695 2.9104199650431966 207 169 67
16.071960788393984 -2.6010376858257755 2.6221181445422466 207 169 67
15.270974680723223 -2.7955687773682136 2.7228780154176007 207 169 67
15.270974680723223 -2.7955687773682136 2.7228780154176007 207 169 67
15.625484402137037 -2.329571359091872 2.67450694709531 207 169 67
15.511804956455963 -2.5004235397224615 2.5588580291320113 207 169 67
15.1150233947846 -2.2411568901280297 2.599981626259789 207 169 67
14.825046938715257 -2.132312344810807 2.6334295294585623 207 169 67
11.376538365708234 1.5477313068611298 0.6512231779909164 207 169 67
11.40733846476645 1.4412116635680936 0.9047657644531584 207 169 67
12.783365573464303 -0.6722066701109558 2.5996705219177976 207 169 67
12.540272195754778 -0.5879602905328128 2.834014082274041 207 169 67
12.655163802149552 -0.025441497478392496 2.806612656454842 207 169 67
10.983724513251417 2.1829851467820074 0.8740843159522795 207 169 67
11.496656788782804 1.7748990171007433 0.910856266969039 207 169 67
11.64155809087911 2.5205918211233724 0.8074573111512805 207 169 67
10.679683023893645 2.5535671663307227 0.7172688659152919 207 169 67
11.08829895008509 2.2583989238600233 0.7585522042987918 207 169 67
11.239348790932635 2.68063341807099 0.8929655677503 207 169 67
14.287883966824003 2.9354611730772726 1.4269450154903212 207 169 67
20.55659899215073 -2.558600147412604 1.76423805131597 207 169 67
13.160882660951305 0.39264385852695144 2.963083785431666 207 169 67
13.003938561159394 -0.09106002020622966 3.05197182665237 207 169 67
13.08236081797677 -3.0841667107512025 3.000168739347022 207 169 67
15.327886110097616 -2.4381763795118183 2.7146116174259944 207 169 67
14.818240841090857 -2.1760868218383758 2.7979256073993466 207 169 67
13.612969179101828 -1.7728223172304993 2.8286354638897184 207 169 67
13.26009351631839 -3.1043565560397064 2.9255179011256685 207 169 67
13.67438401293275 -1.4287704172419913 2.4995852604867657 207 169 67
11.257777088778107 2.6240959409647813 0.7743070173709921 207 169 67
11.257777088778107 2.6240959409647813 0.7743070173709921 207 169 67
19.186282389206834 -2.4991654697720165 1.8318390190397302 207 169 67
13.748982675182782 -1.7941230605446663 2.4923631758367044 207 169 67
13.58789955737829 -1.5320800175058118 2.8343882577149833 207 169 67
13.947207608280616 -1.7340359745749736 2.7614905879879723 207 169 67
11.679713613769154 1.7125161684014576 0.5349062207510508 207 169 67
12.255928780516312 2.5835835951390314 0.8543853987209247 207 169 67
12.73865640151846 2.4792917000802395 1.0760653059129148 207 169 67
13.566117012379735 2.5122034414195618 1.4192339858213125 207 169 67
12.953159212801465 -0.5871616966285637 3.126843749802215 207 169 67
13.947207608280616 -1.7340359745749736 2.7614905879879723 207 169 67
13.947207608280616 -1.7340359745749736 2.7614905879879723 207 169 67
11.706652570400955 2.7413627154449642 0.687373541419876 207 169 67
11.236871486036005 1.7382004788714969 1.38749218587821 207 169 67
11.304838400116498 1.6769251013416688 0.7785541272140332 207 169 67
12.999846298687068 -1.4279548682994483 3.055546005205857 207 169 67
11.25826889428035 2.023631462868988 0.8943178104721474 207 169 67
15.672460180006794 -2.5288971456897156 2.668598013214051 207 169 67
12.820440032541955 -1.0866853421815519 2.7713562239633878 207 169 67
