12.726106286668866 0.6064162084198058 2.622807955970054 195 185 65
12.337754418063037 0.5266702616630043 2.5230173828296385 195 185 65
12.084196349184692 0.39743002202943123 2.5531391598153106 195 185 65
11.650568018268284 1.793703468542752 2.819553548116606 195 185 65
10.74112714543279 1.2525267896767511 2.78134139479479 195 185 65
11.997004535428045 1.7463272177862585 2.741948726446779 195 185 65
11.11594328112277 1.3185025023435906 2.700425618710754 195 185 65
10.448896098610984 1.1426535001196731 2.864960240231452 195 185 65
11.711266638714028 2.500112330666996 2.6027198504243145 195 185 65
12.232199806766046 2.38573130665012 2.6986332649388887 195 185 65
12.05595906420727 2.379457028850136 2.556658293639353 195 185 65
12.127060064295698 2.3753810491774785 2.413432148428559 195 185 65
11.032303987650248 -0.5835275533680186 2.0464221538153153 195 185 65
12.137832010962788 -0.7353376273404462 2.000046693710978 195 185 65
10.578474084229203 -0.4936182053240266 2.068648081031543 195 185 65
10.202769066557087 -0.39411007247757296 2.0887738645019787 195 185 65
10.499319105058746 0.06481945341346758 2.072750267301088 195 185 65
11.77546760948271 -0.8634354770775855 1.9220490341690013 195 185 65
11.581400247823842 -1.0179974716770428 2.120612585305859 195 185 65
11.96079274402461 -0.8004067564184955 2.101286348044269 195 185 65
11.83453289359961 -0.918373281893932 1.5751594821880823 195 185 65
11.061655920862059 -1.1520955429249136 1.945801675329975 195 185 65
10.635456470783307 -1.6489889245250582 1.7649185129321607 195 185 65
12.528755517237078 -1.4672694068439331 1.9858109516518887 195 185 65
8.92639012616606 -2.9836694218613635 1.576580975396706 195 185 65
11.296218795582863 -2.4551289571798964 2.034425439493564 195 185 65
11.550881920936948 -2.4429945616105817 1.4886006134138472 195 185 65
11.399962386716075 -2.1761110124824623 2.0298806253168498 195 185 65
9.020025509567356 2.962460215365869 1.6876510865935441 195 185 65
8.835451659880526 3.07406301036531 1.5766405142919018 195 185 65
11.502560798297013 -2.383216949282537 1.930757308453052 195 185 65
10.895803197130002 -2.5133321889745717 1.575535393253132 195 185 65
9.438137295974268 -2.730829301247844 2.0144955349415747 195 185 65
9.90992250951207 -2.678287490621746 1.67711598935683 195 185 65
10.968603476011527 -2.0440325637448704 1.2986490197735214 195 185 65
11.251258834849459 -1.92227780599534 1.39675040020843 195 185 65
10.92716051633787 -1.9562102566149382 1.950651296101217 195 185 65
11.2453077010205 -2.1246237635947884 1.7542676400544885 195 185 65
10.24947451032283 -0.22319428535332583 2.4744061644374424 195 185 65
10.350156903342736 -0.32286034857660706 2.3203431895460582 195 185 65
10.704809302464522 -0.43412471022223315 2.578423054491434 195 185 65
11.396867831175864 -0.2644132578440975 2.6508110681288457 195 185 65
12.307375672210574 0.19260070767262996 2.397148039633744 195 185 65
12.221973375655704 0.11448466573127294 2.7004003078356402 195 185 65
12.21410047938249 -0.07772571190098135 2.7017672221246545 195 185 65
10.84513109806607 -0.8901994881082106 2.2786599334691235 195 185 65
10.99602303987219 -0.8060750550990818 2.392389235844192 195 185 65
11.744861599513175 -0.810888102966213 2.5979547365904088 195 185 65
11.322904965271075 -0.7041241150504195 2.4971077208118624 195 185 65
10.138770355915812 0.46619171810934135 3.0103940431067353 195 185 65
10.181873613927559 -2.0968883807219987 2.9814769939867936 195 185 65
11.281294702275462 0.2663912027285132 2.9394691813161984 195 185 65
9.23615869807636 -0.8697864742696058 2.941366774714577 195 185 65
10.061441611916045 -1.1415290016665358 3.0974393472910364 195 185 65
13.208781622034973 -1.4573999402015014 2.226310435277746 195 185 65
10.532388219181913 -2.6790177422291808 2.838288549063095 195 185 65
10.348361291757966 -2.857916032397319 2.635597683683069 195 185 65
10.260651251238388 -3.0579265317672633 2.651246103821678 195 185 65
10.758899103957202 -3.036142162470937 2.776981470416944 195 185 65
10.767836022335981 2.986577452160317 2.774813105662136 195 185 65
10.455427631098239 2.9328975611950523 2.862768359140973 195 185 65
14.781590296231812 -1.8616696355087907 2.415330972333517 195 185 65
11.054163047645094 1.5306026943333744 2.7124137035352427 195 185 65
10.383147660240207 1.499720741813109 2.888218454880177 195 185 65
12.295884235493142 2.120355649430383 2.6878382535820746 195 185 65
10.932674105085582 -1.0669133838526565 1.7595765467764974 195 185 65
10.187095569112184 -0.0492962169347391 2.2068794739309583 195 185 65
11.191728936035824 -2.2365888806933327 2.1420937996822076 195 185 65
9.291640269532929 -0.15166609297736827 1.5763535811083456 195 185 65
11.38328636612597 -0.6088545671107553 1.752018927789794 195 185 65
11.36894655367405 -0.7279847784607991 2.132105806444099 195 185 65
8.914213423921995 -2.963861725904114 2.0426229695551656 195 185 65
10.6131987879402 -1.7435286595246646 1.6700467316481635 195 185 65
10.852262030010827 -0.5318019791124133 1.760992401959787 195 185 65
11.300216953986599 -1.2737323090185164 1.844242404288213 195 185 65
10.390571391545318 -0.44708512911198944 1.7695540630227704 195 185 65
11.832453627630269 0.14151238446484232 2.7762754377963703 195 185 65
9.978160697433763 -0.5031098406622039 2.3556292357016098 195 185 65
10.978111040432918 -0.3236554242313228 2.72781142948162 195 185 65
10.814659726319347 -0.6465447472522727 2.763703170485198 195 185 65
10.257839336669043 -0.5213901089110787 2.651759851124551 195 185 65
9.161711256683187 -1.439881048992331 2.986422622063195 195 185 65
11.817065458737124 0.09609872036683943 2.587928074524145 195 185 65
13.068026539957847 -1.1520955429249136 2.234619309465595 195 185 65
16.732850007111278 -1.4573999402015014 2.4654633603942777 195 185 65
12.965646499294442 -1.2737323090185164 2.1458391641021306 195 185 65
9.247289554825695 -2.9047197344579803 2.43806127439083 195 185 65
10.44622344554946 -2.9991238516421315 2.8658628307878966 195 185 65
12.480440639048267 0.46422956021872896 2.6584007888740024 195 185 65
10.677178373013021 1.5194434793645495 2.7975924621430623 195 185 65
12.156648055193502 2.587741716662361 2.544266986071019 195 185 65
9.13717998124857 -2.875375095271922 1.5764475252100214 195 185 65
8.812240557430124 -3.0899686649155518 2.0485365865343144 195 185 65
9.419846312012806 -0.04393641205020474 1.7903553766508584 195 185 65
11.611332039608534 -1.3815017951812212 1.5752433542508006 195 185 65
9.914074808083681 -0.28565822860400686 2.10544854415226 195 185 65
11.420686855357363 -2.0911065879172748 2.129259744667827 195 185 65
11.51521449308952 -2.319916753403949 1.488345441369232 195 185 65
12.170313153067752 -2.319916753403949 1.9101857221382115 195 185 65
9.552249353319649 -0.25597369171187007 1.6811129402442142 195 185 65
12.594812097201034 -1.6489889245250582 2.165042308488681 195 185 65
10.07099746722146 1.2701633296429338 3.0795742787590186 195 185 65
10.102243099409401 2.5101171925988375 3.0414556972886526 195 185 65
10.129278437046338 -0.32846765006110135 3.0176976347326447 195 185 65
10.84257936352535 -2.789012583458313 2.7572686009701433 195 185 65
11.464051895357697 -0.9598735827043221 2.233319896440172 195 185 65
10.376209782435517 2.8214995809010732 2.63077508628596 195 185 65
11.797469340909265 -0.678443556601025 1.575173189794873 195 185 65
9.940222244494773 -3.0722633002403725 2.5149580014255974 195 185 65
10.092716827731747 -2.6816544690377095 3.0513359784934666 195 185 65
11.315173997981521 -2.0440325637448704 1.936997420067691 195 185 65
12.473974525606598 -1.5545893739816337 1.9877467546075025 195 185 65
12.562607006009246 2.263605902071621 2.646079237516493 195 185 65
11.040521499163365 2.2349721962140143 2.7151217070543483 195 185 65
11.44466738525993 -1.5545893739816337 1.487836032831683 195 185 65
12.121387721000332 -0.7985974790909084 1.825290908331385 195 185 65
11.808922617296327 -0.06519756779029862 2.589044573177887 195 185 65
9.450924898442643 -2.74961457512988 2.413029488517994 195 185 65
10.824921503375496 -0.7181039170798849 2.2802588031576247 195 185 65
9.32476475848998 3.0654536357816853 2.143306948967357 195 185 65
13.156832354081002 -1.5530318969726657 2.2293501310820676 195 185 65
13.219952726696151 0.3071566402061685 2.434630048943552 195 185 65
11.824321383286037 -0.0961954599814035 2.7780778069983767 195 185 65
