10.365179416527502 1.217609824576217 1.1107841270726944 109 55 173
9.92909325656727 1.4325450789802543 1.0889029790707612 109 55 173
9.857071937345886 1.5464147825353973 1.0850776663189217 109 55 173
10.422887425774134 1.0709848274278473 1.0033934734991077 109 55 173
10.391821833872347 1.2914907428746858 0.8824254841419362 109 55 173
10.225699746586935 1.4148966776271579 0.8689872038485333 109 55 173
10.184050464729264 1.6725239932419362 0.8655247912741659 109 55 173
9.699815873137656 1.7984859091856953 0.9551242050172492 109 55 173
12.329545524042459 0.8312979699265265 0.6781150006702191 109 55 173
11.941217153617027 0.9355546169582922 0.6366669598537443 109 55 173
12.03919655227029 0.9726463627816009 0.4936696611149996 109 55 173
11.997435617746435 0.7226436840790452 0.48716166799074867 109 55 173
11.496253701446115 0.8415617873769856 0.5822930111080555 109 55 173
10.180019158534742 0.9106636977594194 0.9881139477149278 109 55 173
11.665856255972002 1.3190593478796273 0.4304416177429996 109 55 173
11.665856255972002 1.3190593478796273 0.4304416177429996 109 55 173
10.979206606904098 1.3921380581002953 0.670590124058273 109 55 173
11.39046160919924 1.2013890744432474 0.5680326027298452 109 55 173
11.629365878920714 1.736306629413635 0.42355613421316984 109 55 173
11.298822250269145 1.2552671238645452 0.3531073665350088 109 55 173
11.298822250269145 1.2552671238645452 0.3531073665350088 109 55 173
11.374898113142969 2.019315958553301 0.3708289696633236 109 55 173
11.665856255972002 1.3190593478796273 0.4304416177429996 109 55 173
11.739553868278277 1.9332038996254615 0.44391661120475295 109 55 173
11.629365878920714 1.736306629413635 0.42355613421316984 109 55 173
10.298760623614461 1.8309784865596639 0.7405176608528833 109 55 173
10.5824637405317 -0.980361464625451 2.344945517286856 109 55 173
9.5493999364241 -1.7832743481295135 2.0494474783622834 109 55 173
9.148306076570297 -1.405881675473998 2.201961357372852 109 55 173
9.070087009010175 -1.5416356699316374 2.208279163288037 109 55 173
13.179853286697206 0.0773927874172945 2.3646774566226387 109 55 173
13.564411557143462 -0.3425817911679205 2.3362489532530377 109 55 173
13.357472771201563 -0.24318621348514963 2.351243900190962 109 55 173
13.253348966267357 -0.034761101126566 2.472811412896209 109 55 173
13.44595191639521 -0.2714371024959466 2.454888007722046 109 55 173
13.312491910977299 -0.15528032507946796 2.467209549247018 109 55 173
11.757287848246055 0.31775759748867777 2.656028656603771 109 55 173
11.241884801272983 0.167993703507369 2.751724589833311 109 55 173
10.886970663305316 -0.08866648455827891 2.840836606199971 109 55 173
11.222796262218631 -0.0676922988772706 2.755885039143522 109 55 173
11.241884801272983 0.167993703507369 2.751724589833311 109 55 173
11.349396099657307 0.3865091975176682 2.729281678906353 109 55 173
11.349396099657307 0.3865091975176682 2.729281678906353 109 55 173
10.958891927647 -0.38066358789337545 2.8203524226825474 109 55 173
11.292578890645151 -0.2962058383799495 2.740940739680793 109 55 173
11.690367920548798 -0.662401349962457 2.6669904180639055 109 55 173
11.449607856150378 -0.4971223590356844 2.7097074713652853 109 55 173
11.690367920548798 -0.662401349962457 2.6669904180639055 109 55 173
11.854051871795498 -0.41323405296005983 2.6407795706760835 109 55 173
10.493088045294332 0.5324382669575402 3.007067898944659 109 55 173
10.768414014501891 0.6592285996001662 2.878646022414144 109 55 173
11.46615230182704 -0.23132031721716662 3.0327369563451985 109 55 173
11.534462738544416 -0.8146432778248791 2.987777997416888 109 55 173
11.688242499411345 -1.0830451493269906 2.9183847547217834 109 55 173
11.534462738544416 -0.8146432778248791 2.987777997416888 109 55 173
11.429024331477198 -2.793683197959909 3.0682332761976836 109 55 173
10.574961918016783 2.761368868999766 2.958541648388617 109 55 173
11.447769001483293 2.404813418587191 3.0485795952512165 109 55 173
10.795525264758226 -2.2345069554020647 2.869472577703398 109 55 173
11.47252391356286 -1.4069741426705835 3.027768076468722 109 55 173
11.497555358756651 -2.1203917687570035 3.0100897919724243 109 55 173
11.050545135883983 -2.0690508462667614 2.796295271532734 109 55 173
10.907089402741912 -1.5062060451957928 2.8349454991523593 109 55 173
10.907089402741912 -1.5062060451957928 2.8349454991523593 109 55 173
11.47252391356286 -1.4069741426705835 3.027768076468722 109 55 173
11.627122903171175 -1.4780834962137548 2.942865227739227 109 55 173
11.497555358756651 -2.1203917687570035 3.0100897919724243 109 55 173
11.57629026976819 -0.8978992709519149 2.518120930426334 109 55 173
10.563581916781729 -1.0942192978019005 2.667456199086129 109 55 173
10.400203709204932 -1.2950747406481113 2.699044904454131 109 55 173
11.248812439434703 -1.521249151383921 2.7502285198725342 109 55 173
11.387964254351395 -1.9659500855596894 2.721605725383517 109 55 173
10.720776893709298 -1.2323430316586397 2.4708581344827647 109 55 173
10.817314298482586 -0.927546213981823 2.6236077871534818 109 55 173
11.569975802539588 -0.6881160192370516 2.518880217796304 109 55 173
10.559831034874245 -1.3802334894199983 2.490306631034071 109 55 173
10.9297914935438 -1.896903533393417 2.6058265505865608 109 55 173
10.641191395999774 -1.8478606070396546 2.48034086440483 109 55 173
9.932844620408362 1.9175333731827229 0.9716244558105508 109 55 173
11.293115753544793 2.3694760699891266 0.35173375170280075 109 55 173
11.580562926877246 2.519760832442321 0.4141096582115251 109 55 173
11.945058056944125 2.625806581021382 0.4788185896746128 109 55 173
11.810367226729687 2.5710035816608268 0.6215267851354639 109 55 173
11.797985478591439 2.1561144161539003 0.6200599715861728 109 55 173
12.211192813381901 2.481746927244613 0.5192400793445157 109 55 173
11.85488319829376 2.3659354752456947 0.4639520981185108 109 55 173
12.161973194018916 2.458020563996325 0.66082422296794 109 55 173
12.20520682278722 2.2475981056992995 0.5183813414287379 109 55 173
11.932816067744008 2.1047717517639746 0.476838527298709 109 55 173
11.838031075228576 2.36254798054462 0.7574112300825323 109 55 173
10.518528635836565 1.964294475802595 0.7630989938456917 109 55 173
11.408782181466886 -2.912182048972528 2.0636810929226543 109 55 173
9.970097768282182 -3.0109898538954685 1.7115080749243452 109 55 173
11.947788845236918 -2.7837917486965593 2.2385426313977623 109 55 173
11.1306337608238 -2.6464318642976443 1.6065867376664968 109 55 173
10.775731793415858 -2.728876494902919 1.7009256854175963 109 55 173
10.894208806498211 -2.520679284982219 1.6995025883385435 109 55 173
11.971509851573343 -2.545285833331997 2.236981031967397 109 55 173
11.37911013946293 -2.6464318642976443 1.7831508119413015 109 55 173
11.878201057410791 -2.4625132951847597 2.139639480598071 109 55 173
10.116372260182048 -1.9995532285881685 2.0205780602258563 109 55 173
10.931537893262655 -2.4625132951847597 1.9848767377095882 109 55 173
10.751025106503052 -1.93621570209199 2.3297283290529447 109 55 173
11.433918374794498 -2.152158587782566 2.2745015947003577 109 55 173
10.757152226933847 -2.2420976111182607 2.09651199100365 109 55 173
10.976008878428884 -2.2571304487699217 1.7910759082480268 109 55 173
10.273296727931886 -1.8624319259131437 1.907934955053872 109 55 173
9.828948266406154 2.8907014978692347 2.8444745777368348 109 55 173
11.070273266116127 -3.066331248764457 2.791374667081083 109 55 173
11.451022856797008 -3.08200962427671 2.7094394465724876 109 55 173
10.789105331208297 2.8907014978692347 2.8716132243025383 109 55 173
10.769214265956606 -3.0394942463956975 2.8783701054112183 109 55 173
10.338904789985857 -2.274359307958514 2.7117259839976082 109 55 173
10.652132487760122 -2.4270344079817447 2.65150457364979 109 55 173
10.652132487760122 -2.4270344079817447 2.65150457364979 109 55 173
10.065871556810992 -2.4548068434551493 2.7753464585792473 109 55 173
11.141011275672483 -2.814364160649073 2.77438656353008 109 55 173
12.023249753329491 2.8536010674136225 2.6156440844955315 109 55 173
12.049599552599288 -2.690773393603296 2.4654087349379554 109 55 173
12.049599552599288 -2.690773393603296 2.4654087349379554 109 55 173
12.626093502902778 -2.8167828634787595 2.5384467027555764 109 55 173
12.345624525386215 -2.625257304323039 2.572267208739287 109 55 173
13.010751909475404 3.050110652690223 2.496771156701027 109 55 173
12.99426209171163 -3.1049360151394083 2.498460418640702 109 55 173
12.158646386011005 -3.109104350848873 2.3332879454504103 109 55 173
12.223087334967156 -2.9963252805260026 2.3282640719317724 109 55 173
13.054578865910225 -2.9779840744005797 2.4923203247188646 109 55 173
12.368308132336066 -2.8871345933352712 2.3172183936518813 109 55 173
12.639929733127598 -2.7423451887230246 2.4091441419016366 109 55 173
10.698791254836618 -2.14747543981749 2.643391635680506 109 55 173
11.48754409740098 -2.4014892874788707 2.3906961606921096 109 55 173
10.30721817701196 -2.056103129066792 2.5231743558219337 109 55 173
10.62138036363108 -2.192555643777506 2.4827416567033316 109 55 173
11.48754409740098 -2.4014892874788707 2.3906961606921096 109 55 173
10.01557865222055 1.7731087127901415 1.093413993891319 109 55 173
9.886194488194832 1.6609176461159092 1.0866321099384122 109 55 173
9.857071937345886 1.5464147825353973 1.0850776663189217 109 55 173
10.38547918173144 0.9765760046744573 1.1117523435271546 109 55 173
10.64964725925436 1.1762067115971502 0.902181219718781 109 55 173
10.391821833872347 1.2914907428746858 0.8824254841419362 109 55 173
10.155782076617745 1.5432557687561037 0.863152708176115 109 55 173
11.60461875571116 1.525749514590418 0.41880097675521366 109 55 173
10.298760623614461 1.8309784865596639 0.7405176608528833 109 55 173
12.34371416324093 0.8415617873769856 0.5377259871239223 109 55 173
10.914117096562999 1.5391566184469323 0.663035574444445 109 55 173
11.261142606502297 1.779711631260243 0.34391388084747726 109 55 173
11.235584476278001 1.5136455283083166 0.337505051008588 109 55 173
11.449384697999058 1.0335764961531617 0.38721647044471214 109 55 173
11.626161937210389 1.058651790923684 0.599050379266801 109 55 173
11.696925017964348 1.0104845000257172 0.744565227709481 109 55 173
11.168653609473955 0.9726463627816009 0.5361101265050572 109 55 173
11.811741103859287 1.1320018614620357 0.45659860578371136 109 55 173
9.638005085294786 -1.3098534599834668 2.0446829644218205 109 55 173
13.163575301453596 -0.030990414864756285 2.365936015465836 109 55 173
11.292578890645151 -0.2962058383799495 2.740940739680793 109 55 173
11.222796262218631 -0.0676922988772706 2.755885039143522 109 55 173
13.253348966267357 -0.034761101126566 2.472811412896209 109 55 173
11.449607856150378 -0.4971223590356844 2.7097074713652853 109 55 173
11.120633720252753 -0.6183793399737372 2.7791802585199856 109 55 173
11.017430104489822 0.49021630714449904 2.804750670152922 109 55 173
11.349396099657307 0.3865091975176682 2.729281678906353 109 55 173
10.906646971709252 0.2188223670544544 2.835073638902839 109 55 173
11.627122903171175 -1.4780834962137548 2.942865227739227 109 55 173
10.795525264758226 -2.2345069554020647 2.869472577703398 109 55 173
11.47252391356286 -1.4069741426705835 3.027768076468722 109 55 173
10.768414014501891 0.6592285996001662 2.878646022414144 109 55 173
11.681988545896946 -0.5263726532978134 2.9207556110470203 109 55 173
11.429024331477198 -2.793683197959909 3.0682332761976836 109 55 173
11.833851378340166 -0.8016431729681128 2.8694351421487783 109 55 173
10.628837362753142 -2.518085506842185 2.9329297912733354 109 55 173
11.681988545896946 -0.5263726532978134 2.9207556110470203 109 55 173
11.127203183127406 -0.9781475267398054 2.777626323010348 109 55 173
10.972220602913652 -1.2172615157655273 2.8167217161166067 109 55 173
11.569975802539588 -0.6881160192370516 2.518880217796304 109 55 173
11.155237081826352 -0.7939973013906209 2.5727032907370924 109 55 173
10.49214018994673 -1.5369996733142814 2.49881827563021 109 55 173
11.27434058284488 -1.7525213982980727 2.74477736139853 109 55 173
10.258478275727715 2.0271880016869694 0.993145872719692 109 55 173
12.877669064880104 2.761160691123619 0.6036599753987129 109 55 173
11.85488319829376 2.3659354752456947 0.4639520981185108 109 55 173
11.515966614776735 2.0246361679665505 0.5848876256046805 109 55 173
11.57425079064669 2.2145869110280296 0.4128671096694561 109 55 173
12.668408197261279 2.5345179006487872 0.7106685365605401 109 55 173
12.551575513353447 2.36388524239882 0.564881320002329 109 55 173
10.44011442262693 -3.0109898538954685 1.9023396067571798 109 55 173
11.355751338689528 -2.7837917486965593 2.1693401411296596 109 55 173
10.418503425418516 -2.81771989471697 1.705414235250145 109 55 173
11.107740832769416 -2.8871345933352712 2.1846481764581727 109 55 173
10.14761211158967 -2.912182048972528 1.7090306310206471 109 55 173
12.260539969697245 -2.687839483281075 2.2185823806980527 109 55 173
11.15806044678301 -2.6000778348933515 1.9759718279380918 109 55 173
10.85006490662061 -2.545285833331997 2.091550870202311 109 55 173
11.326574871241082 -2.320815162334424 2.0675834134581077 109 55 173
10.98592618858056 -2.0468319894734854 1.885285523971734 109 55 173
11.030521694503157 -2.128155036891938 1.6979033869009337 109 55 173
9.828948266406154 2.8907014978692347 2.8444745777368348 109 55 173
13.103758361315348 2.924900052367366 2.487391901014551 109 55 173
12.226327961644866 3.050110652690223 2.4475905559369115 109 55 173
11.070273266116127 -3.066331248764457 2.791374667081083 109 55 173
10.841916710815449 -2.7094633585189696 2.8545374566468436 109 55 173
11.141011275672483 -2.814364160649073 2.77438656353008 109 55 173
11.00537777736118 -2.4548068434551493 2.807892033315307 109 55 173
12.639929733127598 -2.7423451887230246 2.4091441419016366 109 55 173
12.844820715067211 -2.690773393603296 2.514149705848343 109 55 173
12.022422537497766 -2.4799590950220374 2.3441679487988427 109 55 173
11.137114364715147 -2.056103129066792 2.575253310168489 109 55 173
11.152797984680968 -2.1131008874287796 2.423436790926612 109 55 173
10.100094980603277 1.3221586046266836 1.0977377749323005 109 55 173
11.739553868278277 1.9332038996254615 0.44391661120475295 109 55 173
11.899112357130315 0.7352631370599746 0.6318655831676894 109 55 173
11.665856255972002 1.3190593478796273 0.4304416177429996 109 55 173
9.72820756643463 -1.6784666171376765 2.288563528445681 109 55 173
10.225630205521334 -1.098314850680953 2.3796612211459434 109 55 173
13.312491910977299 -0.15528032507946796 2.467209549247018 109 55 173
11.447769001483293 2.404813418587191 3.0485795952512165 109 55 173
11.422628455435277 1.2816653028939626 3.0762944808689365 109 55 173
10.655042113755192 0.31232667106620976 2.9216169494530058 109 55 173
11.757287848246055 0.31775759748867777 2.656028656603771 109 55 173
11.497555358756651 -2.1203917687570035 3.0100897919724243 109 55 173
11.017430104489822 0.49021630714449904 2.804750670152922 109 55 173
13.44595191639521 -0.2714371024959466 2.454888007722046 109 55 173
13.651549545607926 -0.38056787607187226 2.436717803579265 109 55 173
11.368362960347394 -0.7966437651818271 2.7254836642761555 109 55 173
9.932844620408362 1.9175333731827229 0.9716244558105508 109 55 173
11.580562926877246 2.519760832442321 0.4141096582115251 109 55 173
12.15596296611077 2.2681602887120897 0.6601879843280409 109 55 173
12.15596296611077 2.2681602887120897 0.6601879843280409 109 55 173
12.704548106986962 2.8941837058025586 0.5836044927942933 109 55 173
11.355751338689528 -2.7837917486965593 2.1693401411296596 109 55 173
11.845389647626263 -2.3945672237341213 2.2453782104261086 109 55 173
11.302136153121204 -2.3149604693038475 2.284438775222342 109 55 173
10.813783777071025 -2.152158587782566 2.2039358149015693 109 55 173
11.017653793314164 -2.3067857110442027 2.4375894135952736 109 55 173
11.001777519790638 -2.294573228087235 2.59490564129328 109 55 173
11.587092134732822 -2.14747543981749 2.6846428445074126 109 55 173
12.99426209171163 -3.1049360151394083 2.498460418640702 109 55 173
12.048357536126685 2.1531363025314882 0.27313787243806825 109 55 173
11.811741103859287 1.1320018614620357 0.45659860578371136 109 55 173
11.60461875571116 1.525749514590418 0.41880097675521366 109 55 173
11.403842461604583 -0.9310716132682806 3.1103715175331987 109 55 173
11.614545808093034 -0.12837012930927638 2.9483161468292 109 55 173
10.554667291093603 -2.983159362491371 2.969237482303873 109 55 173
12.550488180026791 -0.48647337779054267 2.5472492891847893 109 55 173
12.086758367626711 -0.5624212708590118 2.6066617644557315 109 55 173
11.651822230271529 -1.9026025044015764 2.9326006447804045 109 55 173
10.817314298482586 -0.927546213981823 2.6236077871534818 109 55 173
11.311976264878687 -1.2950747406481113 2.736911454805786 109 55 173
10.519504743375398 -1.6954314363130145 2.4953526106726898 109 55 173
10.641191395999774 -1.8478606070396546 2.48034086440483 109 55 173
10.338904789985857 -2.274359307958514 2.7117259839976082 109 55 173
11.00537777736118 -2.4548068434551493 2.807892033315307 109 55 173
11.683896425524015 0.8577276318225779 0.43379213716091203 109 55 173
10.38547918173144 0.9765760046744573 1.1117523435271546 109 55 173
10.689183201223992 2.377059633446211 2.9077610599725467 109 55 173
11.650385955938642 -2.81771989471697 2.0525757069056256 109 55 173
10.225630205521334 -1.098314850680953 2.3796612211459434 109 55 173
10.9404262384009 1.687546130963371 0.6661086932185021 109 55 173
12.20520682278722 2.2475981056992995 0.5183813414287379 109 55 173
13.054578865910225 -2.9779840744005797 2.4923203247188646 109 55 173
12.535290539566276 2.8941837058025586 2.549045510382274 109 55 173
11.970909530211491 -2.728876494902919 2.038626052151604 109 55 173
10.933415455373817 -1.80603775878853 2.8274301022564003 109 55 173
12.3797975049743 2.7030401726584743 0.5425937576359754 109 55 173
11.255644010033867 -2.274359307958514 2.7487602830184725 109 55 173
