14.045605769803503 0.6098581007978067 1.9635243921682697 220 205 43
13.543067204454719 0.5438657363438754 1.9789456188421903 220 205 43
13.642538730953122 0.640113684123236 2.2318105353830195 220 205 43
14.230479086448305 0.6569378498230092 2.1156368236984404 220 205 43
14.304548706938357 0.7188164963210063 2.032741416841509 220 205 43
7.787737108609601 1.6271642308688905 2.1673945337799467 220 205 43
13.04727075230266 0.20603780561076662 1.9954376192759562 220 205 43
13.563186143256067 0.36390582114863823 1.9783042591830293 220 205 43
13.563186143256067 0.36390582114863823 1.9783042591830293 220 205 43
13.380053425868581 0.03418660213018316 1.9039330613971308 220 205 43
13.84912762920439 0.031681453620805364 1.7431682400878439 220 205 43
13.380053425868581 0.03418660213018316 1.9039330613971308 220 205 43
13.27010347436119 0.28680463614978424 1.987857975633774 220 205 43
13.916274940743046 0.10463813869908298 1.7423282546404206 220 205 43
14.25755497340777 0.17649559775006007 1.8098099752286 220 205 43
13.916274940743046 0.10463813869908298 1.7423282546404206 220 205 43
13.922082836018964 0.43673753837508295 1.967202591579919 220 205 43
13.449542810648175 0.11285082354047692 1.9021457718569943 220 205 43
13.535110204764042 -0.3468493645109914 1.450477417178869 220 205 43
12.507066076590979 -0.37404452259422355 1.6008156066206418 220 205 43
12.058399101470695 -0.40561269745225287 1.8545079374546096 220 205 43
13.202876988087176 -0.27516774869801947 1.6751596896745737 220 205 43
13.202876988087176 -0.27516774869801947 1.6751596896745737 220 205 43
12.375612402922958 -0.40561269745225287 1.9321597364680867 220 205 43
13.617368074265164 -0.20046800089094055 1.8979088585767452 220 205 43
14.135783857795177 -0.1144647170613107 1.811909594818662 220 205 43
14.060041159636167 -0.04161356553254756 1.8132344799295996 220 205 43
13.305827342398878 -0.2974925733894092 1.986668767690837 220 205 43
13.38512075189227 -0.04490228484399283 1.9038020633788681 220 205 43
12.91409251703156 -0.13391972231274502 2.000105427640839 220 205 43
14.354420319708051 0.16432376550212757 2.485638712048973 220 205 43
12.637562036087749 0.22478810209510075 2.0995758802886133 220 205 43
13.022841300447345 0.13383645712293682 2.1728583487230844 220 205 43
14.037517019832212 0.4721594642267441 2.12398862744102 220 205 43
13.929369459187201 0.3782453644589183 2.4111177232537075 220 205 43
12.40883676833753 0.04060793346849042 2.1103798797417577 220 205 43
13.87626150656088 0.3421386912669286 2.3126326482993176 220 205 43
13.52116448852473 0.14753275179024253 2.3369749864874776 220 205 43
14.20886011145502 0.47412002388733326 2.3894199268584995 220 205 43
13.663318091228891 0.2472162576415584 2.327010983961412 220 205 43
13.169537519924049 0.3947977917233806 2.0761326942534883 220 205 43
14.488400700257014 0.2744910925974155 2.4737155568633606 220 205 43
15.159161460050443 0.16432376550212757 2.5258836927886383 220 205 43
13.196094383990863 -0.23687105350805618 2.163864109071606 220 205 43
12.863824441418252 -0.1612732513266827 2.279804638950526 220 205 43
12.904330335116327 -0.3236219470995953 2.087539251927172 220 205 43
13.281150218706294 -0.04875497795926598 2.0714892009918833 220 205 43
13.457085303029826 -0.05885187142761258 2.3415672859216015 220 205 43
12.414300536352618 -0.05333017141234302 2.110116329325785 220 205 43
12.54890997903608 -0.3917333828339322 2.3015354888456994 220 205 43
13.0384538626156 -0.14633821387700868 2.172035749155262 220 205 43
12.425106677066628 -0.44261972365521285 2.1095958887524517 220 205 43
15.102034031850073 -0.06564721069256661 2.5312511149478567 220 205 43
12.915554043509754 -0.4462642824715685 1.52241690843257 220 205 43
12.140928765653433 -0.5982134609052187 1.8525264720129904 220 205 43
12.57675068145846 -0.5531495923522194 1.680375754074868 220 205 43
12.62534410204303 -0.7813741635170861 1.8414391023356014 220 205 43
12.481465687141045 -0.6657028410954063 1.7622782330671656 220 205 43
12.23886527816029 -0.48222020401029514 1.7661223338775514 220 205 43
11.168850592657481 -0.5726002773434836 1.9733291289661692 220 205 43
12.093172060099363 -0.5726002773434836 2.126086364113129 220 205 43
7.762807305899618 1.8166249610893117 2.335683020644522 220 205 43
15.408196006268616 0.05653043794595981 2.6220981924430733 220 205 43
12.335090133482682 -0.5642761531859493 2.570162893047829 220 205 43
12.607610471220358 -0.4370419965636631 2.409279665286062 220 205 43
11.557935920552694 -0.5390305597774532 2.262855599033362 220 205 43
12.361770760401093 -0.6027828093137231 2.431679662186413 220 205 43
12.791839145846687 -0.6558114507334916 2.666542620115886 220 205 43
13.105982473544486 -0.7778769821162652 2.6218650988747836 220 205 43
15.412596537612721 -0.07421338877663117 2.6215991622654693 220 205 43
13.688752397141494 -0.6558114507334916 2.699961888480554 220 205 43
7.774557292763807 1.7189324135354342 2.8197624168703306 220 205 43
7.935356234226115 1.2169845384854159 2.5038076504031146 220 205 43
7.521925881189366 1.8189969512277329 2.9438865677454715 220 205 43
7.773139128701904 1.6525043722824264 2.532527181346249 220 205 43
7.773139128701904 1.6525043722824264 2.532527181346249 220 205 43
7.512716120071929 2.834526833480901 2.9501026161497075 220 205 43
7.249642734493619 1.67615465020043 2.6454144212047015 220 205 43
8.534298489063511 1.2780917754744758 2.4143830231542722 220 205 43
12.020448386830598 -0.7808448659980665 2.034414989670669 220 205 43
12.698852240800147 -0.8971527871901389 1.8398334202418714 220 205 43
11.935805588262212 -1.0383798495627954 1.9461240007058853 220 205 43
12.698852240800147 -0.8971527871901389 1.8398334202418714 220 205 43
11.417335571700555 -0.7102675301335105 2.0610050993327973 220 205 43
12.825300847262026 -0.9643213686705654 2.003277056864777 220 205 43
12.342001036277452 -1.1573039943266592 1.9331892481415514 220 205 43
11.377496090189812 -0.6980141417663214 2.276072678092498 220 205 43
11.976835128054748 -0.9305857373330246 2.23420377877271 220 205 43
12.010926362488219 -1.0650646490712226 2.46637724701063 220 205 43
12.543278622551412 -0.7801552382032896 2.3019379363556576 220 205 43
12.323859690799233 -0.9921558747887307 2.5715817124642877 220 205 43
12.203330685377665 -1.0210671522025743 2.327214175350912 220 205 43
11.371409403454201 -0.861512848836551 2.276528461231273 220 205 43
12.274970911223766 -0.7792194297088734 2.439947915983205 220 205 43
12.049822021063868 -0.6980141417663214 2.3393051544632577 220 205 43
12.044075110941392 -0.861512848836551 2.3397665625055284 220 205 43
12.573921719820424 -0.9117057187053332 2.10253565047584 220 205 43
12.07598501536063 -0.9888645745794827 2.1269695960306607 220 205 43
11.746840373485849 -1.188988419794699 2.4949659238991875 220 205 43
12.066624397632872 -1.1284718158748783 2.605757472856345 220 205 43
11.746840373485849 -1.188988419794699 2.4949659238991875 220 205 43
18.54198478507949 -1.3639713579310822 2.3765565225883902 220 205 43
5.535371394927371 3.0137793813671148 2.4823285515983367 220 205 43
5.180985143430742 2.633037577170363 1.8394878286647478 220 205 43
5.360211374078369 2.346006276078809 2.0299097971099593 220 205 43
8.191102247988221 -2.0481919608830776 2.4628010267404106 220 205 43
8.43829942101183 -2.1141509878669447 2.2614273130940674 220 205 43
13.738840619674258 0.6569378498230092 2.053348946018063 220 205 43
14.296606462741897 0.5885403558401392 2.196701509181045 220 205 43
14.0552171647052 0.031681453620805364 1.8133193593098293 220 205 43
13.557933016379172 -0.27516774869801947 1.8224036684654181 220 205 43
13.14588809660646 -0.27516774869801947 1.5232652270765645 220 205 43
14.121384552634494 0.10463813869908298 1.8121603389706131 220 205 43
12.8258539603089 0.037121749315390716 2.0032571493621862 220 205 43
13.073232706644905 -0.21717837304626128 1.9945398807794463 220 205 43
13.592445473564295 0.19013974316740528 1.8985310554299613 220 205 43
12.7251046659065 -0.37404452259422355 1.75856791006909 220 205 43
13.717987115338776 -0.04161356553254756 1.6712273574088712 220 205 43
13.875466990849459 0.5132834671830281 2.2188199721003716 220 205 43
13.515332481215268 0.4310654786956062 2.239151561011275 220 205 43
13.391159016655655 0.3121171111681346 2.15407817323275 220 205 43
13.169537519924049 0.3947977917233806 2.0761326942534883 220 205 43
12.500019426805881 -0.14633821387700868 2.1060170934370284 220 205 43
13.717250504170893 0.2744910925974155 2.428551169732579 220 205 43
13.966887028482377 0.3121171111681346 2.213873689021323 220 205 43
11.666584016391788 -0.4864704616422745 2.148935465734703 220 205 43
12.664363921419975 -0.23687105350805618 2.0983398037215513 220 205 43
13.452045085762306 0.04481629030144508 2.341931226825378 220 205 43
13.023578890737719 -0.2604023124260632 2.2693291904487576 220 205 43
14.354420319708051 0.16432376550212757 2.485638712048973 220 205 43
12.649049036582845 -0.35457218344573027 2.193310000326067 220 205 43
12.483733499222332 0.13383645712293682 2.10679081903658 220 205 43
15.097542980085144 0.04999693923925682 2.5316765480558594 220 205 43
12.973554762087515 -0.4462642824715685 1.6770113373150934 220 205 43
12.395504033235659 -0.7813741635170861 1.7636227887129492 220 205 43
11.69952355545921 -0.6501388902061175 1.954093872735445 220 205 43
11.69952355545921 -0.6501388902061175 1.954093872735445 220 205 43
7.762807305899618 1.8166249610893117 2.335683020644522 220 205 43
7.650834633782501 1.637512500643156 2.3498264426669775 220 205 43
15.408196006268616 0.05653043794595981 2.6220981924430733 220 205 43
13.688752397141494 -0.6558114507334916 2.699961888480554 220 205 43
13.839089841877781 -0.42743875159604133 2.6775151902125454 220 205 43
8.40000936758254 1.4540569307493976 2.4325337133217704 220 205 43
7.367715144659081 1.9488083230344584 2.6165754362037874 220 205 43
8.75903373786758 1.2169845384854159 2.5718376269017442 220 205 43
6.958365779152337 2.081575419100876 2.7293395992411176 220 205 43
15.437594190291346 -1.3917168392954362 1.8581597801152303 220 205 43
12.283159765592346 -0.8427726609810097 1.9350060947464502 220 205 43
12.439354821121102 -0.9643213686705654 1.9302236792680756 220 205 43
12.443805263961654 -1.0807742284250061 1.8454890251679046 220 205 43
15.184482899561837 -1.3917168392954362 1.7949615040466287 220 205 43
12.350564578596066 -0.9560375809120444 2.432736124576717 220 205 43
12.655102172778516 -0.8763547294406354 2.5319606716922483 220 205 43
12.765148028767506 -0.6980141417663214 2.3956561316056435 220 205 43
12.759723301664074 -0.861512848836551 2.396116341976961 220 205 43
11.915027467552571 -0.8508291904023975 2.135389213945426 220 205 43
11.400470040757554 -0.6299598792111608 2.164243694617286 220 205 43
11.898867389206588 -0.7801552382032896 2.239335417554792 220 205 43
12.632505988450815 -0.9888645745794827 2.194250204178495 220 205 43
11.988390659602388 -0.6299598792111608 2.233450641171519 220 205 43
11.888201336980776 -1.284835088996443 2.63159856481027 220 205 43
12.559420855166389 -1.188988419794699 2.542956105558528 220 205 43
5.701290083493443 2.7389840478253347 2.44563450693457 220 205 43
8.788047786660993 -1.9721545658665494 2.382502071125484 220 205 43
8.788047786660993 -1.9721545658665494 2.382502071125484 220 205 43
14.328291000815655 0.031681453620805364 1.8811208370221266 220 205 43
12.898329424678684 0.12245548499874269 2.0006649600253015 220 205 43
12.44069724496068 -0.3236219470995953 2.0175960467884377 220 205 43
13.550514555578596 -0.05333017141234302 2.23710317725622 220 205 43
13.391159016655655 0.3121171111681346 2.15407817323275 220 205 43
14.354420319708051 0.16432376550212757 2.485638712048973 220 205 43
13.0384538626156 -0.14633821387700868 2.172035749155262 220 205 43
12.863824441418252 -0.1612732513266827 2.279804638950526 220 205 43
11.597155557210424 -0.5726002773434836 2.0527485733474657 220 205 43
11.958984776562879 -0.5238993171070727 1.9453604455055407 220 205 43
11.969280923737783 -0.7195114453054444 1.8566795862371288 220 205 43
12.359939738651397 -0.5238993171070727 2.020728843876216 220 205 43
11.882804733605361 -0.4370419965636631 2.3529844791660595 220 205 43
7.635789129955665 2.33143058124824 2.8796874335748397 220 205 43
11.621642864744906 -0.6027828093137231 2.375567980281831 220 205 43
12.337513870218048 -1.0383798495627954 2.0216069268981753 220 205 43
12.804883519769087 -1.0383798495627954 2.0919579862777233 220 205 43
5.349606274808445 2.515446139816813 2.2535885299471365 220 205 43
8.8099159080689 -1.9161551449024903 2.2270500314249118 220 205 43
7.805315022327566 1.472077804583699 2.165865841064301 220 205 43
12.949095806862601 -0.37404452259422355 1.8345089318588605 220 205 43
14.461751137262217 0.2465601902797835 1.8063708308145014 220 205 43
13.464660612372546 -0.12343417508916245 1.901759525040831 220 205 43
12.956297745263349 -0.05333017141234302 2.17639194270053 220 205 43
13.681648729072037 0.3947977917233806 2.1401315082783787 220 205 43
13.170374621589074 0.22478810209510075 2.165180929939473 220 205 43
12.951062635949091 0.04060793346849042 2.176671846556096 220 205 43
13.367795538961984 -0.513822800314091 1.598882190698611 220 205 43
12.952591022437694 -0.42743875159604133 2.642951668613657 220 205 43
12.822969310034987 -0.49324257246356534 2.513459447044436 220 205 43
11.609722303011411 -0.9560375809120444 2.3766359228939122 220 205 43
12.066624397632872 -1.1284718158748783 2.605757472856345 220 205 43
12.559420855166389 -1.188988419794699 2.542956105558528 220 205 43
12.617264883548948 -0.9305857373330246 2.2966904952509797 220 205 43
14.453935665362547 0.5438657363438754 2.1062939884304597 220 205 43
12.359939738651397 -0.5238993171070727 2.020728843876216 220 205 43
12.010926362488219 -1.0650646490712226 2.46637724701063 220 205 43
13.53887331446187 0.4721594642267441 2.0611021037372668 220 205 43
12.831140154904825 -0.04875497795926598 2.0030669858090677 220 205 43
13.112251002629321 -0.20046800089094055 1.7529607196331436 220 205 43
7.773139128701904 1.6525043722824264 2.532527181346249 220 205 43
13.663318091228891 0.2472162576415584 2.327010983961412 220 205 43
7.790749979245511 1.4280420849238218 2.5292939680917628 220 205 43
13.795607937319769 -0.1144647170613107 1.670660392040998 220 205 43
18.42636986617717 -1.4412685299443802 2.3831142608342195 220 205 43
12.660571727405573 -0.6810022679050377 2.53134234196345 220 205 43
12.288794867210715 -0.7195114453054444 1.9348312913282084 220 205 43
11.942884177595229 -0.44261972365521285 2.0376646984202536 220 205 43
7.396958619983348 2.2693435976180627 3.0652200873764284 220 205 43
