6.460004507434042 1.3299914178474948 1.5641211521760894 70 240 100
6.77050572089394 1.2865687748427381 2.1949722998934513 70 240 100
6.171983867808597 1.12184243622264 1.8934224601139025 70 240 100
5.931241652493248 1.12184243622264 1.7328330240228382 70 240 100
5.784479438326561 1.034431098029676 2.1073471472274257 70 240 100
6.308327140892764 0.7551028513799578 1.7230691126268198 70 240 100
5.656360521784898 0.7462188985311883 2.1208733175836807 70 240 100
5.678736787370825 0.6246399832910684 1.7401060955956371 70 240 100
6.235481857266969 0.7551028513799578 1.563880793626854 70 240 100
6.288191645353398 0.8789164548763644 2.0603445084204615 70 240 100
5.729486877579524 0.9107925480465108 2.3331375870724305 70 240 100
5.57660073378051 1.2865687748427381 1.74323783990982 70 240 100
6.723582766991924 1.2248002538673006 2.399769046252343 70 240 100
6.460710270904795 0.9107925480465108 2.4453141226252733 70 240 100
6.408029206579399 0.22592052611512553 2.050406530854424 70 240 100
5.566119520465322 0.2734392918216029 2.1308456915644878 70 240 100
6.3221008122145195 -0.1303850652708043 2.0574889127975022 70 240 100
5.920743311070388 -0.1303850652708043 1.907642686003832 70 240 100
5.775918269880549 0.5708147790470418 2.325489061399189 70 240 100
5.167311843110802 0.4642080783541775 1.7570505376503294 70 240 100
6.124398871668891 -0.3020789832891564 1.8960210667417683 70 240 100
6.26535109881858 -0.36336084943526725 2.254346262834364 70 240 100
6.6158548687165935 0.04178694977055952 1.7159395694003834 70 240 100
6.28616723418086 0.04931764554586121 2.0605161029056065 70 240 100
6.300477823502073 0.3893805425429577 1.8866122068150286 70 240 100
6.028972053678661 0.060155356756287984 2.286714790377834 70 240 100
6.650007205081472 -0.11062693052905548 1.7151889217711336 70 240 100
6.3221008122145195 -0.1303850652708043 2.0574889127975022 70 240 100
6.4375759146288445 0.4642080783541775 2.2327429603294124 70 240 100
6.761310637145101 -0.15866341112706303 2.3937003575668645 70 240 100
8.384169005458366 -0.2785366411212831 2.820959481897721 70 240 100
6.016131430436769 0.72997027471086 2.5391099721931565 70 240 100
7.525229488606327 -0.15866341112706303 2.484199163748943 70 240 100
7.441809765632954 -0.2785366411212831 2.778595886657938 70 240 100
6.06330658963406 1.657696802320065 2.0802125557178055 70 240 100
6.069994942021725 1.4686445561713042 2.0795971644350058 70 240 100
7.4185674266360335 1.7688171209913575 1.564983670761067 70 240 100
6.139024831611455 2.0071854436210304 1.8952178157796407 70 240 100
6.307056321171951 2.1513816074889243 1.563959274507778 70 240 100
6.242859248357739 2.2513102658556936 2.0642174881874515 70 240 100
6.191939042233778 2.383806232389677 2.2640420587130414 70 240 100
6.369008067510778 1.484840084737469 1.7216071742031631 70 240 100
6.738475424826459 1.9444181203592648 1.5643970110023036 70 240 100
6.511678752171239 1.7993651906331953 1.7182784682276309 70 240 100
5.836054683652904 2.2513102658556936 1.912728980327193 70 240 100
6.379084320077123 2.1513816074889243 1.7213671387068314 70 240 100
6.603519825583366 2.1513816074889243 1.8716532284643348 70 240 100
6.752502671443312 1.840787238178488 2.1968938634449735 70 240 100
6.6088912931079875 1.657696802320065 2.212699010954248 70 240 100
6.705453738247865 1.899885938291728 2.402723955176312 70 240 100
6.705453738247865 1.899885938291728 2.402723955176312 70 240 100
7.345612224741414 1.6778911102104075 2.516559628351737 70 240 100
6.437121525770948 2.601467428409652 1.7199993778393363 70 240 100
6.659601404120403 2.601467428409652 1.8690414045816235 70 240 100
6.479072655428205 2.377484808884611 1.8776184171401902 70 240 100
6.444326893055116 -2.83529719996773 2.0474792033854095 70 240 100
6.337994048073103 2.912429461911676 2.056162481466488 70 240 100
6.229233584115857 2.747002906458304 1.8903515907972657 70 240 100
6.214758944410034 3.091543138891937 2.0666507267086867 70 240 100
6.380596954061891 2.6701259377682387 2.2397205270781155 70 240 100
6.781596142875047 -3.0092918498362553 2.1937949523017073 70 240 100
5.5900603102651285 -3.0092918498362553 1.742818490788781 70 240 100
6.748109813965928 3.091543138891937 2.197364699910185 70 240 100
6.70708247791437 -2.980091424914503 2.402457436315667 70 240 100
7.044556395856494 2.6701259377682387 2.3513130513547424 70 240 100
6.887526083381493 -2.7722002163785175 2.3741510041833545 70 240 100
6.673222248796419 3.080345311730828 2.4080412352651406 70 240 100
10.334888737269978 2.6638130367149957 2.870294721476389 70 240 100
11.435626838211665 -1.338232152712833 1.3014422747800194 70 240 100
6.2488050376687925 -0.45730950364432843 1.7245310454040441 70 240 100
5.951426113650393 -0.6872465219826067 1.7322786355028539 70 240 100
6.2488050376687925 -0.45730950364432843 1.7245310454040441 70 240 100
6.065799803073201 -0.5407731884473741 2.079982973272422 70 240 100
5.646252733162423 -0.5407731884473741 1.9247190607807152 70 240 100
6.191383537664144 -0.6872465219826067 1.8923751495414503 70 240 100
4.916393649609393 -0.9724214129792413 1.9801661729319782 70 240 100
5.0003531921124145 -1.1787853646139763 2.203508329556607 70 240 100
5.500188934408442 -0.8109810603794338 1.9345490418280085 70 240 100
5.393021772822572 -0.9724214129792413 2.1511008617916403 70 240 100
6.673851219732942 -0.6562295424748024 2.407936680627647 70 240 100
5.1739983007422605 -2.319041028186146 1.7568070208157989 70 240 100
4.975949824612414 -1.9440671535864271 2.2071092733531406 70 240 100
5.136198138003002 -1.6676930673612915 1.9616712591259793 70 240 100
5.319716112402616 -1.8702820357574585 1.9474964370345496 70 240 100
5.8819871697005 -2.319041028186146 2.09751633990939 70 240 100
5.986541771010347 -1.8203373974810497 1.731323171985994 70 240 100
6.305357292000366 -1.9764545559299438 1.7231413936507645 70 240 100
5.934923638918891 -2.202623014359516 1.732731609250608 70 240 100
6.005294421136848 -2.5928267064690775 2.085616838458895 70 240 100
6.408482812963542 -2.678411423574717 1.8811102258086947 70 240 100
6.132117411142178 -2.445487091565536 1.8955966635552794 70 240 100
5.811656329790635 -2.445487091565536 1.5633764569477218 70 240 100
6.308327140892764 0.7551028513799578 1.7230691126268198 70 240 100
5.832000777453659 1.2865687748427381 1.9129763912801725 70 240 100
5.853705682390607 1.12184243622264 1.563429757609667 70 240 100
6.239069673632346 1.2865687748427381 2.06454416783454 70 240 100
6.354050652665709 1.034431098029676 2.243027469103505 70 240 100
5.729486877579524 0.9107925480465108 2.3331375870724305 70 240 100
5.929739355524614 0.6246399832910684 1.9071114560736495 70 240 100
5.775918269880549 0.5708147790470418 2.325489061399189 70 240 100
5.882358470194612 0.04931764554586121 1.909928755520125 70 240 100
6.761310637145101 -0.15866341112706303 2.3937003575668645 70 240 100
6.016131430436769 0.72997027471086 2.5391099721931565 70 240 100
7.495066288731261 0.060155356756287984 2.4894303018706063 70 240 100
7.495066288731261 0.060155356756287984 2.4894303018706063 70 240 100
6.016131430436769 0.72997027471086 2.5391099721931565 70 240 100
6.322040866310024 2.0930137013637258 2.2470637280253296 70 240 100
6.219528519400029 1.840787238178488 2.066235948423426 70 240 100
6.6150280362511 1.4686445561713042 2.2120057318072317 70 240 100
6.805939198612405 1.9444181203592648 1.7118583350483942 70 240 100
6.191939042233778 2.383806232389677 2.2640420587130414 70 240 100
5.896937218499389 2.0071854436210304 1.7337840565060043 70 240 100
6.818521169304563 1.4071348853562167 2.633413703406478 70 240 100
7.251979140092539 1.657696802320065 2.323371619858884 70 240 100
6.906359941544139 2.272750086499288 1.5645525719900506 70 240 100
6.251103016335515 -3.0092918498362553 2.0635084010290208 70 240 100
5.805985826102727 3.091543138891937 1.9145728380341056 70 240 100
7.115536922391337 2.747002906458304 2.1604701536029887 70 240 100
5.549388622964427 3.091543138891937 1.744091974150708 70 240 100
6.788139288355616 2.863428019880248 2.389449629627872 70 240 100
6.477755917214975 -0.45730950364432843 1.877682819467495 70 240 100
5.0003531921124145 -1.1787853646139763 2.203508329556607 70 240 100
12.415738417419384 -1.5247304010761171 1.2391026475976026 70 240 100
6.305357292000366 -1.9764545559299438 1.7231413936507645 70 240 100
6.102551705279653 -2.678411423574717 1.563730152049873 70 240 100
5.4133603608172765 -2.0505867823661457 1.7484924210150066 70 240 100
5.136198138003002 -1.6676930673612915 1.9616712591259793 70 240 100
6.610158659164396 -2.5426493412780835 1.5642727853846017 70 240 100
5.448303932445634 -2.319041028186146 1.9381769537973106 70 240 100
5.35527075513375 -2.154153303364803 2.155729462085339 70 240 100
5.729486877579524 0.9107925480465108 2.3331375870724305 70 240 100
6.847095442888338 -0.1303850652708043 2.1869391332471952 70 240 100
5.876106392194636 0.4642080783541775 2.0980984201717967 70 240 100
8.384169005458366 -0.2785366411212831 2.820959481897721 70 240 100
6.650007205081472 -0.11062693052905548 1.7151889217711336 70 240 100
6.513218779030683 -0.3020789832891564 2.0420247504619535 70 240 100
6.94034449546173 -0.36336084943526725 2.366294233588232 70 240 100
6.351930573638347 0.9795281113282717 1.5640075767266153 70 240 100
7.525229488606327 -0.15866341112706303 2.484199163748943 70 240 100
7.8397502756235475 -0.20239158507082888 2.66243858252483 70 240 100
8.384169005458366 -0.2785366411212831 2.820959481897721 70 240 100
5.876106392194636 0.4642080783541775 2.0980984201717967 70 240 100
6.52697351054536 2.0071854436210304 2.0409513142596682 70 240 100
6.58763002087751 1.6438986826496609 1.8724017204802905 70 240 100
7.2880926489593065 1.6338768883925021 1.5648796087228194 70 240 100
7.2880926489593065 1.6338768883925021 1.5648796087228194 70 240 100
6.06330658963406 1.657696802320065 2.0802125557178055 70 240 100
6.752502671443312 1.840787238178488 2.1968938634449735 70 240 100
6.242859248357739 2.2513102658556936 2.0642174881874515 70 240 100
6.566994246100819 1.444968838973247 2.426171356357514 70 240 100
5.6870602164011395 2.912429461911676 1.7398559084628236 70 240 100
5.990792411798137 2.747002906458304 1.731208286071382 70 240 100
5.726087419163033 -2.83529719996773 1.5632655745864095 70 240 100
6.673222248796419 3.080345311730828 2.4080412352651406 70 240 100
5.951426113650393 -0.6872465219826067 1.7322786355028539 70 240 100
6.065799803073201 -0.5407731884473741 2.079982973272422 70 240 100
5.930078889728857 -0.8109810603794338 2.092806768464942 70 240 100
11.861812304432274 -1.613600800797145 1.131662033327799 70 240 100
6.176964840423682 -2.678411423574717 1.726333505474281 70 240 100
4.975949824612414 -1.9440671535864271 2.2071092733531406 70 240 100
6.723582766991924 1.2248002538673006 2.399769046252343 70 240 100
7.8397502756235475 -0.20239158507082888 2.66243858252483 70 240 100
6.813931010826849 0.04931764554586121 2.190389794739271 70 240 100
5.88452180253192 0.8789164548763644 1.909799072607435 70 240 100
5.7650085571434415 0.22592052611512553 1.7375484869382611 70 240 100
5.5900603102651285 -3.0092918498362553 1.742818490788781 70 240 100
6.58763002087751 1.6438986826496609 1.8724017204802905 70 240 100
4.916393649609393 -0.9724214129792413 1.9801661729319782 70 240 100
6.6118914366235355 2.747002906458304 2.03443563660464 70 240 100
6.841725013806284 0.2734392918216029 2.38111541135825 70 240 100
7.345612224741414 1.6778911102104075 2.516559628351737 70 240 100
6.801393776754104 2.508373617238635 2.1917052533778603 70 240 100
5.882358470194612 0.04931764554586121 1.909928755520125 70 240 100
5.676110263224852 -2.0505867823661457 1.9227762129701151 70 240 100
6.611178758374457 -0.5407731884473741 2.212440399354424 70 240 100
6.555708841060294 -2.5928267064690775 2.218776909123478 70 240 100
6.064838289700943 0.3893805425429577 1.7292331504878646 70 240 100
6.250170009695636 2.377484808884611 1.7244972044063638 70 240 100
6.460004507434042 1.3299914178474948 1.5641211521760894 70 240 100
6.4580900125867045 2.5601854036746716 2.4457996208496864 70 240 100
5.989032155198694 0.3893805425429577 1.563596213428409 70 240 100
