8.854614075267905 -0.41319962566665924 1.6196529071580574 23 42 223
9.579740320369362 -0.2733477383967647 1.4064237005228766 23 42 223
8.452357762539812 -0.5700543647222251 1.5035969341317705 23 42 223
7.258937019798882 0.2012926464436787 1.630404264948004 23 42 223
7.263749209075397 -0.07748884885791511 1.7693005317298727 23 42 223
7.464586899385394 0.08776775701788221 2.3858477201005024 23 42 223
7.522609772011941 0.3321298919547348 1.6283126158782362 23 42 223
8.995315630703754 0.1437699645798266 2.7859560924497386 23 42 223
7.764208747822361 0.33967834156387505 2.5471710985612774 23 42 223
8.506046284537726 -0.13365917919837725 2.6337228992221675 23 42 223
8.182195686763036 0.43720991298923084 2.710157878497052 23 42 223
8.102242775534831 0.8619782406892399 2.732118890424402 23 42 223
8.187375804757078 -0.8375430875665049 2.296301478892391 23 42 223
6.983776149005046 -0.7286272362620334 1.7773712161774262 23 42 223
7.875759277986312 -0.46386478722454816 2.3319626848189245 23 42 223
8.782689305887962 -0.9346798156673721 2.237678048131343 23 42 223
6.105505713110789 -1.2091829042678435 1.8076172812850186 23 42 223
7.169017951474627 -0.24903556542552588 2.0700690962219026 23 42 223
8.807225055540444 -0.6410255661110368 2.0981779881637164 23 42 223
8.187375804757078 -0.8375430875665049 2.296301478892391 23 42 223
7.960037401172503 -0.39614481895583864 2.161367852700296 23 42 223
7.391492663436888 -1.1385405842091747 2.3964005537715103 23 42 223
6.983776149005046 -0.7286272362620334 1.7773712161774262 23 42 223
8.045910307049072 -1.2091829042678435 2.312004405778022 23 42 223
8.334548836229963 -0.5272267198468007 2.1315380956631067 23 42 223
8.863286136956898 -0.5566529992054492 2.565438653938049 23 42 223
8.827300927209711 -0.6362842467422901 2.841359442585901 23 42 223
8.863286136956898 -0.5566529992054492 2.565438653938049 23 42 223
8.414005102027629 -0.7138324891489168 2.441048228319254 23 42 223
8.200966582226455 -0.46400488893219677 2.705212507357187 23 42 223
8.801185751571737 -0.8531809680606567 2.576391706053167 23 42 223
7.974710180916096 -0.8531809680606567 2.509180615014827 23 42 223
7.826070483903535 1.5300878948146985 2.823078952726838 23 42 223
8.108726776285094 2.6783270393406697 2.730280336879909 23 42 223
8.55656217522702 1.502059231900427 2.971052439396407 23 42 223
7.625641527578064 2.126807575561919 2.916007775401241 23 42 223
8.521693106228373 -0.4646543152136583 2.9967295021141243 23 42 223
8.451022068921606 -1.391800563729969 3.0752555976927756 23 42 223
7.691290338470995 -2.859248368451358 2.8814147818649882 23 42 223
8.655536168215267 2.909691610804507 2.9140529869384055 23 42 223
8.444955010771986 1.352088185299878 3.0871313198081265 23 42 223
6.127285697180326 -1.7315690518994045 1.9790247469143474 23 42 223
6.061609472921422 -1.5528312047895256 1.98371585505868 23 42 223
9.833063577119642 -1.1638053592548838 2.8551565775314565 23 42 223
9.812756011284327 -1.9100253522577748 2.862268847109891 23 42 223
7.645778922610471 -2.0966370563212497 2.9048043350455672 23 42 223
9.012537544198862 -2.210982801985189 2.7808465379079372 23 42 223
8.567500303227357 -1.3752220827758357 2.420060745377341 23 42 223
8.237865771645527 -1.5427179441847951 2.6957047672611036 23 42 223
8.919976601561565 -1.966318172363043 2.555728710745371 23 42 223
8.732925873361605 -2.2556292593128804 2.5888385927110433 23 42 223
8.453607141153928 -2.0621245863318327 2.6449824742857184 23 42 223
7.826778133184459 -2.4569686887158517 2.8228048697587553 23 42 223
7.3483034986033635 -1.5427179441847951 2.636982767563608 23 42 223
6.9889640346511905 -1.5555729845170432 1.9262751478198021 23 42 223
6.834977920581938 -1.8531095782570282 1.6341064208840523 23 42 223
7.046001624347508 -1.7073590135380161 1.9232715395270856 23 42 223
7.566186629711658 -1.9875655610031917 1.8980962409925046 23 42 223
6.710234866817405 -3.001184813705379 2.514222985673278 23 42 223
7.254216236040643 2.612642696633466 1.9127339284064901 23 42 223
5.9996272698351625 3.0502715003431398 2.1798699205198067 23 42 223
6.905649915151963 2.528328770414369 2.090988866713359 23 42 223
6.544361767973249 2.9008167183446782 1.9516185645438984 23 42 223
6.702592266609603 3.0270410634715703 2.5157972441460226 23 42 223
6.842677415820339 2.7859393195101716 2.4880005038912385 23 42 223
6.835653741572404 2.7482026069717143 1.934614559108321 23 42 223
8.161530532294329 -2.2939877939268563 2.004861607763394 23 42 223
8.104006921330656 -2.183258968776641 2.1495052242586956 23 42 223
8.389241720878601 -2.5585142082259957 1.7423836228842688 23 42 223
8.189685687217834 -2.599791229656693 2.1426854189304034 23 42 223
8.485670515876633 -2.6662897868252977 1.9872258361434108 23 42 223
7.4172755198512785 -2.2939877939268563 1.629130337733495 23 42 223
8.670263002404123 -2.4845575576790058 2.1074030146499685 23 42 223
6.724761973348317 0.23318870608855752 1.9409010194681684 23 42 223
6.779210742398461 -0.10767654112831171 2.2834282368751295 23 42 223
7.858043450448942 0.6039588358462661 2.8109618353494343 23 42 223
7.407061593356747 -0.21511390327879032 1.7654101160358588 23 42 223
7.926659983074853 -0.3449754183840588 1.8826962741687956 23 42 223
8.302677120225583 -0.4638036127903902 1.8681278365269431 23 42 223
6.517413551415056 -1.06153795592501 1.7923910862711054 23 42 223
8.73112833233264 -0.7286272362620334 2.2423352958023477 23 42 223
7.735220952305207 -0.9728858320415025 2.3494174676194586 23 42 223
8.043194202647966 -0.5566529992054492 2.4976521134698526 23 42 223
8.354037556380318 -0.2952900344385203 2.4496046782825034 23 42 223
8.043194202647966 -0.5566529992054492 2.4976521134698526 23 42 223
8.943990230556333 -0.6082787924800442 2.373433085692981 23 42 223
8.414005102027629 -0.7138324891489168 2.441048228319254 23 42 223
9.339337766795605 -0.6886412824415751 2.6972518355242494 23 42 223
7.0775419122216885 -2.953762494228384 2.7113185007036686 23 42 223
7.807107615486223 2.490206955624232 2.830529354064668 23 42 223
7.990867212504535 2.988083974499982 2.7655251084924175 23 42 223
7.877048929115902 1.923100087864051 2.8040027343049663 23 42 223
8.498252445183063 -2.5921578516723915 3.0170539272586923 23 42 223
8.492219129687054 2.679176192951424 3.0228639279039116 23 42 223
4.896448891804265 -1.3337065223669964 1.867684039425246 23 42 223
5.675636745020408 -1.3752220827758357 1.6470615259810355 23 42 223
7.429471293095261 -1.2704859112979683 2.617542664306234 23 42 223
7.593247969135122 -1.5065885540341024 2.935419339649202 23 42 223
8.453607141153928 -2.0621245863318327 2.6449824742857184 23 42 223
8.644175048677422 -0.9540983713845012 2.9198004954409074 23 42 223
9.185124015769503 -2.138152019282048 2.5135543568293817 23 42 223
9.183698435690141 -2.2939877939268563 2.203751574233745 23 42 223
7.660750771369619 2.7859393195101716 2.56745516871972 23 42 223
6.848252102912591 -3.048434250271932 2.0957965071483686 23 42 223
8.99679145877103 -2.719145399159174 1.8445703690637496 23 42 223
8.616136493943234 -2.3931036398688783 2.252987565063822 23 42 223
6.933997670088135 -2.183258968776641 1.778875895440092 23 42 223
6.397748027669352 3.0656835768728405 1.9608105898508337 23 42 223
6.710234866817405 -3.001184813705379 2.514222985673278 23 42 223
7.603292708880323 -2.183258968776641 2.0391753464134252 23 42 223
8.002980740217193 -2.10778642333408 1.8796229851842774 23 42 223
7.6410369947539465 0.1090230723877339 2.571456270433271 23 42 223
8.28631118678926 -1.8190709641585228 2.6836258762786547 23 42 223
6.582167764014275 0.07343569225225634 1.949320035444059 23 42 223
8.77706991188714 -0.5700543647222251 1.8516074506014206 23 42 223
8.362783750427761 -1.06153795592501 2.2778497640374176 23 42 223
7.956101593768377 -1.3337065223669964 2.5123792744992954 23 42 223
8.732925873361605 -2.2556292593128804 2.5888385927110433 23 42 223
9.291668893750943 -0.8277645906762848 2.19525284478535 23 42 223
8.810493275650025 -1.5317218520231342 2.8475839956619646 23 42 223
8.782689305887962 -0.9346798156673721 2.237678048131343 23 42 223
9.001011730434552 -0.17599891834672757 2.784256215049117 23 42 223
8.95036943256842 -2.5585142082259957 1.964375473609254 23 42 223
6.914570892213504 -0.9346798156673721 1.6333767059687256 23 42 223
6.155730541658934 2.8541345245036673 2.1622878778361017 23 42 223
7.070296361809559 2.988083974499982 2.7135568422726752 23 42 223
7.24200659368435 -1.8531095782570282 1.913334052293043 23 42 223
7.622843335835348 -0.6410255661110368 1.627555509541951 23 42 223
8.626368624506252 0.9214979527676689 2.9291481071246803 23 42 223
8.50001850111286 0.1090230723877339 2.6349985146168358 23 42 223
6.702592266609603 3.0270410634715703 2.5157972441460226 23 42 223
9.056696447102253 -0.8821740965525229 2.768135827213267 23 42 223
9.275039277450738 -2.4201272221324928 2.712043167149619 23 42 223
6.797721588267127 -1.9006056854357394 2.100107507370965 23 42 223
8.503039547508607 -0.3051424534244094 1.621674686585079 23 42 223
8.761590150180842 -1.7660802994188705 2.583557913064792 23 42 223
7.0208482046778595 -0.09012859776700274 2.081615088190476 23 42 223
6.764457603206268 2.8541345245036673 2.2853143924919066 23 42 223
8.61091200999196 0.33967834156387505 2.6122542373596813 23 42 223
8.707395292742847 -0.2567407518841699 2.889618439265902 23 42 223
9.193901307299928 -1.8190709641585228 2.7317334081349975 23 42 223
7.641761778691266 -1.0368228681095122 2.5713083603133895 23 42 223
8.458500640076226 -2.3866618894883085 1.862487869239386 23 42 223
