9.893108515180549 1.5252604903847808 1.1613785666402832 78 6 213
8.257462315111686 1.3973635733425611 1.699739831544566 78 6 213
8.997874493536541 1.1704977046624665 1.8019932803049485 78 6 213
10.580905007312142 1.4313235769488597 1.2894085712618164 78 6 213
8.305941406547552 1.5196244375693582 1.335273653051398 78 6 213
8.305941406547552 1.5196244375693582 1.335273653051398 78 6 213
8.958744830084845 1.280102051461084 1.9195921774892077 78 6 213
8.637513739846229 1.5196244375693582 1.933150784588419 78 6 213
8.08762155207227 1.6434279570841266 1.5784374727953683 78 6 213
8.274043359559329 1.7650513108936523 1.4571609400152958 78 6 213
9.548348528529651 1.6354402576172986 1.2580022511115978 78 6 213
13.329792428038244 2.0044285479537516 1.5003542501287062 78 6 213
8.689646981448199 1.8811450575406312 1.3458569620944834 78 6 213
8.647566764342592 1.6434279570841266 1.9327101154475768 78 6 213
7.911357932425152 1.5027984457345331 2.2650526349074553 78 6 213
9.747285855041326 0.8541717148713036 2.381088596400073 78 6 213
8.691341276731826 1.3419237468669476 2.342632880417728 78 6 213
8.423373182157636 1.1208171136717597 1.94280598423294 78 6 213
8.691341276731826 1.3419237468669476 2.342632880417728 78 6 213
9.268389537539328 1.0125199863599827 2.0244383117566427 78 6 213
8.500034076109868 1.2417067893012983 2.0690094974151956 78 6 213
10.302509760579602 0.9418454183696987 2.3260102484693346 78 6 213
8.700841964477325 1.4894305263051466 2.5177202950941533 78 6 213
8.159198800363942 1.4695427118752342 2.61694684686798 78 6 213
8.160766751383683 1.5123979509490835 2.091767384739425 78 6 213
8.805162324061914 1.2987728934837557 2.501443335781847 78 6 213
6.881154027202062 -1.1219401900916752 2.6486148999343113 78 6 213
8.313295757287664 1.9738960497180977 2.2254440442435985 78 6 213
8.313295757287664 1.9738960497180977 2.2254440442435985 78 6 213
9.40211254143081 2.1868858751101565 2.4205022979548416 78 6 213
9.067852717374732 2.0429117217519104 2.4635036433413298 78 6 213
9.827181059666131 2.3065944822156395 2.372581304851466 78 6 213
9.135091208524111 2.3065944822156395 2.2963807968068517 78 6 213
8.303351651348377 1.791709254708941 2.081940764644927 78 6 213
8.123781126561314 1.9217412739842281 1.9572362099400828 78 6 213
8.721279447524491 1.8266627376438627 2.3392973829472545 78 6 213
8.957370291527715 1.9738960497180977 2.314119964698337 78 6 213
6.760015933527051 -1.7682234309452571 2.6830839995816653 78 6 213
6.042324854385967 -1.501289214924762 1.7474402818674988 78 6 213
6.545138402613666 -1.2918559367460605 2.240281612690582 78 6 213
6.288201108443629 -1.1159185041604853 2.079346728228905 78 6 213
7.3986118246817485 -1.9542157479079325 2.5310126263768096 78 6 213
6.437553370899858 -1.718888930385507 2.475581132706039 78 6 213
7.32855193049891 -2.199402464445107 2.1582494655229496 78 6 213
10.114689568594045 0.977925385623144 2.493172006422321 78 6 213
10.114689568594045 0.977925385623144 2.493172006422321 78 6 213
9.625719700078829 1.2987728934837557 2.563537312560378 78 6 213
8.635044610673264 1.4368645510906235 2.77516706321678 78 6 213
10.049927955181854 0.7444909246888957 2.501724878937528 78 6 213
9.34604657487893 1.0351866807268226 2.611161683324246 78 6 213
9.038590667535876 1.4695427118752342 2.672393902090647 78 6 213
10.157080762036548 0.7318848927903312 2.6729132802942486 78 6 213
8.126222500062399 -1.1543319420540143 3.0155889850250333 78 6 213
8.237822818123133 -0.5840038512731447 2.934496522818652 78 6 213
8.072646279100159 0.15857100291562642 3.0897443929114776 78 6 213
9.133637827603257 1.2010982124270326 3.016087798763892 78 6 213
9.303519000505904 1.373445562486069 2.913141530162186 78 6 213
10.288848159140725 0.43785614983894483 2.6482183470226808 78 6 213
9.652760318047699 1.8743534411248444 2.559257397317803 78 6 213
9.048198085419928 1.714143423367913 2.6703037480836276 78 6 213
9.167532706826144 1.9428912790040427 2.6453669507736692 78 6 213
10.216783298604534 2.434319379370192 2.6615000745468174 78 6 213
10.127435901743233 2.416311950168382 2.4915127838101454 78 6 213
8.645100506416776 1.7599214884435392 2.772147873828235 78 6 213
9.004737499866838 2.271630365170344 2.67986478515212 78 6 213
9.768972930506488 2.5523623988887807 2.541432558360076 78 6 213
9.768972930506488 2.5523623988887807 2.541432558360076 78 6 213
9.647630165277121 2.4676640313986353 2.791313925952579 78 6 213
9.42883876562935 2.22576311747774 2.861654571544407 78 6 213
8.153128915462402 2.074034876922774 2.991773352151657 78 6 213
9.261256644823401 2.5500470221601907 2.93367617669743 78 6 213
9.502668377356924 2.7183824830065744 2.5836988880906 78 6 213
9.275583789504614 3.1271910792501654 2.624260833098097 78 6 213
8.873024370046624 -2.8868727841916457 2.7106535656485327 78 6 213
9.502668377356924 2.7183824830065744 2.5836988880906 78 6 213
9.42883876562935 2.22576311747774 2.861654571544407 78 6 213
9.483914907832936 2.7506962630405374 2.842116925096461 78 6 213
9.336411541008141 2.913231328706301 2.612923908149893 78 6 213
11.075115676354205 1.335508623086351 1.2072509306208516 78 6 213
9.661507489000078 1.7440765252500119 1.2617878462929362 78 6 213
8.485983534497308 1.280102051461084 1.6962488888143774 78 6 213
9.831055772859987 1.310657441652434 1.2672886256091251 78 6 213
8.729982882746983 1.7650513108936523 1.227530213019936 78 6 213
7.372307751828926 1.5123979509490835 1.8542445538940746 78 6 213
8.836108417018133 1.1208171136717597 2.0484331763991714 78 6 213
10.302509760579602 0.9418454183696987 2.3260102484693346 78 6 213
9.33720241173013 0.977925385623144 2.4284470268218934 78 6 213
8.836108417018133 1.1208171136717597 2.0484331763991714 78 6 213
9.747285855041326 0.8541717148713036 2.381088596400073 78 6 213
7.922332464159568 1.6672448396575945 2.2638999308987495 78 6 213
8.133944768343405 2.104796733000935 2.0936607123761393 78 6 213
9.29560379304505 2.104796733000935 2.2811665746249354 78 6 213
9.827181059666131 2.3065944822156395 2.372581304851466 78 6 213
9.40211254143081 2.1868858751101565 2.4205022979548416 78 6 213
8.834714798241654 1.8743534411248444 2.496965444904502 78 6 213
8.710821903158156 1.6861283369622142 2.516130302758693 78 6 213
8.17140632377436 1.6536627989528072 2.091020361368864 78 6 213
8.549492796479278 2.137418596759607 2.542753101418171 78 6 213
9.351008595467738 2.416311950168382 2.42674186782883 78 6 213
9.29560379304505 2.104796733000935 2.2811665746249354 78 6 213
9.40211254143081 2.1868858751101565 2.4205022979548416 78 6 213
8.595751733506667 1.6672448396575945 2.3535136550280695 78 6 213
7.32855193049891 -2.199402464445107 2.1582494655229496 78 6 213
6.309283095175463 -1.6693786378690754 1.9036993209518271 78 6 213
6.545138402613666 -1.2918559367460605 2.240281612690582 78 6 213
8.74015034713861 1.1389236464431416 2.7450107001438426 78 6 213
9.530385463464523 1.4894305263051466 2.579055576079187 78 6 213
10.502305243777778 0.8724792813106859 2.611655730619302 78 6 213
9.822459590487274 1.126263617115738 2.5335214980912046 78 6 213
9.139056511343849 1.2363154193648886 2.651153000484846 78 6 213
8.441451431101047 0.9709128373069699 2.8405407830519045 78 6 213
8.072646279100159 0.15857100291562642 3.0897443929114776 78 6 213
9.303519000505904 1.373445562486069 2.913141530162186 78 6 213
8.76992189838529 2.048396170919596 2.736981152770633 78 6 213
9.392413069518254 2.137418596759607 2.6028040444585443 78 6 213
9.910040041943034 2.271630365170344 2.7248339160991275 78 6 213
9.502668377356924 2.7183824830065744 2.5836988880906 78 6 213
9.275583789504614 3.1271910792501654 2.624260833098097 78 6 213
9.42883876562935 2.22576311747774 2.861654571544407 78 6 213
9.42883876562935 2.22576311747774 2.861654571544407 78 6 213
9.261256644823401 2.5500470221601907 2.93367617669743 78 6 213
8.873024370046624 -2.8868727841916457 2.7106535656485327 78 6 213
9.336411541008141 2.913231328706301 2.612923908149893 78 6 213
10.347905438549843 1.4313235769488597 1.3823796897918457 78 6 213
8.742589791835263 1.3973635733425611 1.9285984241362324 78 6 213
8.485983534497308 1.280102051461084 1.6962488888143774 78 6 213
8.07687161169556 1.5196244375693582 1.578447643003559 78 6 213
6.747151108713172 -1.4309098379571796 2.6869621555936547 78 6 213
8.585638038396018 1.5027984457345331 2.3546860180576052 78 6 213
8.058357091269091 1.8266627376438627 2.2499602443629945 78 6 213
9.746090677281675 3.1231768221469527 2.7646327966097397 78 6 213
9.539497597879361 1.6861283369622142 2.57754237695938 78 6 213
8.342999277184337 1.8475649159525698 2.881223278867063 78 6 213
9.341256060040228 2.434319379370192 2.612036739552043 78 6 213
8.126222500062399 -1.1543319420540143 3.0155889850250333 78 6 213
9.502668377356924 2.7183824830065744 2.5836988880906 78 6 213
10.049927955181854 0.7444909246888957 2.501724878937528 78 6 213
9.80399965915677 2.8526961168281293 2.7499834015584153 78 6 213
9.143145372548517 2.074034876922774 3.0080988161765325 78 6 213
8.700841964477325 1.4894305263051466 2.5177202950941533 78 6 213
9.715512884361152 2.293662430805726 2.5495207259870023 78 6 213
9.32224912825073 -2.9407280054803513 2.6155305268343434 78 6 213
9.652710460905578 0.8724792813106859 2.5592652409551504 78 6 213
10.755771897177963 0.36461173704554095 2.5727140808151434 78 6 213
8.3163952519545 1.6434279570841266 1.335575296424581 78 6 213
8.220911732117921 1.7650513108936523 1.5783135803242496 78 6 213
8.025946486067307 1.3419237468669476 2.2532245301225187 78 6 213
7.529837731527641 1.791709254708941 1.8481558761991428 78 6 213
8.271901028950913 1.3734138647366045 2.084074499016419 78 6 213
9.962456280641602 2.619003420591314 2.7131040460277664 78 6 213
9.69717104598986 2.048396170919596 2.777587827024426 78 6 213
9.901220317697396 0.5443296622442099 2.72685068794692 78 6 213
9.048198085419928 1.714143423367913 2.6703037480836276 78 6 213
7.862700074054941 1.791709254708941 1.9707850684802322 78 6 213
6.437553370899858 -1.718888930385507 2.475581132706039 78 6 213
8.136907241590665 -2.131835011271852 3.005615369396632 78 6 213
9.688597735348313 0.6072014709497325 2.553664017400714 78 6 213
