10.671089145543952 0.9551261475047187 1.524690857068641 211 7 146
9.602298123164175 0.980901196637482 1.835067782599586 211 7 146
10.227058461360777 1.0359225840155066 1.718805587679337 211 7 146
9.231683558067493 1.1307143312454178 2.2101292634882634 211 7 146
7.866329058000233 1.2595682612799586 2.0330585728589723 211 7 146
7.566694496352361 1.5475155863416286 2.052888880598947 211 7 146
8.716389551934576 1.6960508007598534 2.2548417974109083 211 7 146
8.676841616906414 1.5475155863416286 2.2585638257789387 211 7 146
9.231683558067493 1.1307143312454178 2.2101292634882634 211 7 146
10.25041743110815 0.7394207140920914 2.392747266716874 211 7 146
11.135286058732477 0.5414742693450247 2.440400526046324 211 7 146
9.671587749092442 1.2093166891006553 2.459591639339619 211 7 146
10.303585630061253 0.9409901698586209 2.387211827295089 211 7 146
9.620832732487584 0.3887859633722107 2.6558950597764643 211 7 146
9.183741512408687 0.8973912605551014 2.7556374173626206 211 7 146
9.183741512408687 0.8973912605551014 2.7556374173626206 211 7 146
10.167119963991382 0.7277427418176554 2.5622682931064444 211 7 146
9.526072701516737 1.0434700626974112 2.675089533877077 211 7 146
10.16192138645909 0.49469168654969126 2.7809419929058867 211 7 146
9.46589714274249 1.7177239930676793 2.486812688877076 211 7 146
8.112099949758468 1.329734769408404 2.501901883025927 211 7 146
8.729897968631429 1.3707765176495108 2.4120878707103395 211 7 146
8.934345136424177 1.329734769408404 2.568766596503641 211 7 146
8.860608861299628 1.5376202864103283 2.5818014504372355 211 7 146
8.694069892467246 1.7177239930676793 2.416709292933472 211 7 146
8.966867195142571 1.8734820484902932 2.820357938224086 211 7 146
9.280182857410336 1.5286692589577962 2.730817433209728 211 7 146
9.280182857410336 1.5286692589577962 2.730817433209728 211 7 146
9.001609552904066 1.166572906743518 2.8089544296571534 211 7 146
9.920739121517055 1.8734820484902932 2.852189405460405 211 7 146
10.20481020347011 1.5286692589577962 2.769958009848544 211 7 146
9.696190580292612 2.0310053780943234 2.9443452360761504 211 7 146
9.660654501283028 1.479381357154351 2.9636889286762185 211 7 146
9.633340693955745 -2.147465627871343 2.9802184555936027 211 7 146
9.495023408010152 0.16744175475144824 2.681625694381162 211 7 146
9.774843205541764 0.3149678412874313 2.9074745529687753 211 7 146
9.571371835923593 2.4474149075731 3.026618014495053 211 7 146
9.514112648979538 -1.0876999281190238 3.1062723090049764 211 7 146
9.582821772384024 -0.2518921529207487 3.016697576573983 211 7 146
9.473674924273944 -0.07146584651698934 2.6861954718324017 211 7 146
9.535370598215689 1.3521803833871002 3.066054016460028 211 7 146
9.550194022828414 -2.8026533234854356 3.047756100764603 211 7 146
8.68384492903682 -0.8429873608544701 2.9401098714169174 211 7 146
9.166974964467189 -0.3900560387495723 2.7601639023959867 211 7 146
9.550194022828414 -2.8026533234854356 3.047756100764603 211 7 146
8.814310873795511 -1.502972241980197 2.8772663739286584 211 7 146
8.479093881883886 -0.9917233878915073 2.658350384701724 211 7 146
9.072835467896436 -0.8171498878898876 2.7869309550373003 211 7 146
8.462394438304646 -0.6292525141688791 2.6621246394759126 211 7 146
8.201875749497246 -1.5235031269517199 2.7273518258213922 211 7 146
7.844572761895152 -1.7647054619550737 2.5492605674062787 211 7 146
7.729183572315917 -1.3559370511113162 2.364060418467119 211 7 146
7.094493012077606 -1.0334983284181032 2.088048010140416 211 7 146
7.210442238806131 -1.546019146840368 2.0789229442380135 211 7 146
8.709309980577801 -1.672156814485836 1.862921721012275 211 7 146
8.091583447513962 -1.105789780579029 2.5053174177914217 211 7 146
8.129060985982123 -0.8021299315465832 2.3152784277854317 211 7 146
7.742150955542628 2.0915096513922977 1.5072283751650986 211 7 146
7.298588388454955 1.9720830750656968 1.6404796934402772 211 7 146
9.129686718254055 1.9720830750656968 2.2184616340553047 211 7 146
8.847300021548978 1.8835410751767652 2.3973657897072598 211 7 146
9.108379880499918 2.033418585991703 2.3667433785041783 211 7 146
10.043568059795941 2.374937197791811 2.581351714055943 211 7 146
9.460313241080495 2.0328642768659972 2.6890880481167003 211 7 146
9.894568184979411 1.9444908492355624 2.6058382955953565 211 7 146
9.304514416213609 2.114718368025598 2.5097479536550473 211 7 146
10.055293685089168 2.1695525162707927 2.8101975796102483 211 7 146
10.599748781068396 2.2749673897267155 2.3579337221372287 211 7 146
10.06935174287528 2.6021778147950463 2.8061637108909148 211 7 146
10.59253276688031 2.2257915192335287 2.6851595991751878 211 7 146
10.043568059795941 2.374937197791811 2.581351714055943 211 7 146
10.337545746182172 -2.8160510061805186 2.7382938736063487 211 7 146
10.008845371880515 -2.7135595059584787 2.8239604325828758 211 7 146
10.260107455687438 -3.0643458610294076 2.7563662088679917 211 7 146
9.928843770855588 -3.0373549152640464 2.849460554337051 211 7 146
9.949215626063275 2.8994312294881284 2.8427273079926154 211 7 146
10.279822855968714 2.960837885032602 2.751663641958582 211 7 146
9.928843770855588 -3.0373549152640464 2.849460554337051 211 7 146
9.954102990936706 -2.2471049551054767 2.8411377679970817 211 7 146
8.1695742106881 -2.118819116008729 2.0146467975604843 211 7 146
9.794490129059934 -2.004624618426838 1.9371128698973268 211 7 146
7.961316942153781 -1.8556372739261486 2.1727579997105493 211 7 146
8.554508201850876 -2.198503885933821 2.2703704757940404 211 7 146
8.014061903483304 -1.9761082159197925 2.5185295816364985 211 7 146
15.474743382090816 -2.5304831509328545 1.9347228925004578 211 7 146
7.65290789340457 1.3999933909638265 2.0470030033266484 211 7 146
8.752126259868739 1.3999933909638265 2.251516959271304 211 7 146
8.939342687943496 1.2595682612799586 2.234670330789971 211 7 146
10.615199573535913 0.6227584383989742 2.5006108912737415 211 7 146
10.25041743110815 0.7394207140920914 2.392747266716874 211 7 146
10.839001825091671 0.135408985384235 2.6408349218397227 211 7 146
9.660654501283028 1.479381357154351 2.9636889286762185 211 7 146
9.232999991481623 0.49469168654969126 2.742712914692124 211 7 146
9.89709617214917 0.6683804053883402 2.8603233384193407 211 7 146
9.620832732487584 0.3887859633722107 2.6558950597764643 211 7 146
10.238457777665678 1.7949049477730115 2.7616150496191345 211 7 146
9.35061107579486 1.2681469765507074 2.7138541347522986 211 7 146
9.800928259016452 0.8648987204786907 2.622156638379906 211 7 146
8.899340187291225 1.7483716758217298 2.5748944401130727 211 7 146
9.886010233709241 1.513110842795228 2.86423091936361 211 7 146
9.317170184297794 1.7949049477730115 2.7217963392394857 211 7 146
8.030817640257215 1.5376202864103283 2.515631727501228 211 7 146
9.557487306974208 -0.30261141865984287 2.6686040923200305 211 7 146
8.872502261220527 -0.5417428362989964 2.8540296814110064 211 7 146
9.514112648979538 -1.0876999281190238 3.1062723090049764 211 7 146
9.079558521591897 -0.09399257359976802 2.7849368099039613 211 7 146
9.754107173139024 -0.13712761895055106 2.9165616470268456 211 7 146
10.565392384733583 2.4474149075731 3.0374764611299376 211 7 146
8.786760875408275 -0.8073137265499041 2.595360087382777 211 7 146
9.818161741282323 -1.9228195308009157 2.889640437746079 211 7 146
9.072835467896436 -0.8171498878898876 2.7869309550373003 211 7 146
9.101321817545802 -1.0530921085338372 1.9665006210131364 211 7 146
9.048117912564308 -1.672156814485836 1.9689582339541225 211 7 146
7.257984820551411 -1.7040129686234036 2.0752787142051075 211 7 146
7.6438305234190915 -1.541344511448204 2.375470117091512 211 7 146
7.282585728742787 -1.1842741617412358 2.238310272541017 211 7 146
7.282585728742787 -1.1842741617412358 2.238310272541017 211 7 146
7.6661267201900465 -0.9373594129006144 2.3724521005623966 211 7 146
7.1132543258971355 -1.240937258488572 1.9311512251680316 211 7 146
7.884262112859837 -1.3080096229222893 2.5418210025778003 211 7 146
8.623352699972815 2.033684925907131 1.6297610153175317 211 7 146
8.40311908595432 2.1966005293946207 1.3923184336120682 211 7 146
8.40603846281676 2.1966005293946207 1.751189223702777 211 7 146
8.86923408177219 1.8392668655605435 2.2408694931682707 211 7 146
10.60587873991516 2.528822772337693 2.682603479583796 211 7 146
9.704915919035985 2.2257915192335287 2.6397289356937574 211 7 146
9.833818085847954 2.396060659111805 2.8835282189727756 211 7 146
10.396139230403783 2.724659087547831 2.7252829421511318 211 7 146
10.337545746182172 -2.8160510061805186 2.7382938736063487 211 7 146
9.771853422049416 -2.5284067365813567 2.908760914147534 211 7 146
10.279822855968714 2.960837885032602 2.751663641958582 211 7 146
10.260107455687438 -3.0643458610294076 2.7563662088679917 211 7 146
9.614756454777746 -2.6028651528424316 2.6570936265282574 211 7 146
8.30138871328512 -2.155394960686888 2.471858531052548 211 7 146
9.886010233709241 1.513110842795228 2.86423091936361 211 7 146
9.94242139582707 1.0653040333979702 2.4267036558587973 211 7 146
9.468539580660972 0.7081285722327508 2.687304193599361 211 7 146
9.597571909062657 -1.4510908664274969 3.0050009834702833 211 7 146
9.603927637644981 0.5460207675941516 3.0002676533928345 211 7 146
8.281479302274194 -1.2335992219218923 2.7060065383866565 211 7 146
10.0428926767506 0.21900959642552797 2.8138051671447277 211 7 146
9.514112648979538 -1.0876999281190238 3.1062723090049764 211 7 146
9.527180314026404 1.986731314232966 1.6241615384082142 211 7 146
9.746006796469185 2.1321808701391323 1.2043689738963872 211 7 146
9.606824402120377 1.8835410751767652 2.4679370693097717 211 7 146
8.847300021548978 1.8835410751767652 2.3973657897072598 211 7 146
10.453621971335917 2.2560737756047486 2.5216257457227247 211 7 146
9.446913279588067 -1.9009931680449996 1.95126658596009 211 7 146
8.223914277156965 -1.9424024812151215 1.880720054543261 211 7 146
8.30429148595508 -1.818295096642293 2.0069470799077056 211 7 146
10.174294219744539 0.8965237628301249 1.8198852983656413 211 7 146
9.785648874150398 0.847001777027868 2.445360813873797 211 7 146
9.514112648979538 -1.0876999281190238 3.1062723090049764 211 7 146
8.654419964325182 1.5434349050802323 2.4218969509131587 211 7 146
10.615199573535913 0.6227584383989742 2.5006108912737415 211 7 146
8.934345136424177 1.329734769408404 2.568766596503641 211 7 146
9.001609552904066 1.166572906743518 2.8089544296571534 211 7 146
7.869363262079987 -1.1062211584060464 2.032866463416984 211 7 146
10.043568059795941 2.374937197791811 2.581351714055943 211 7 146
10.36889020296955 2.0328642768659972 2.731267017215278 211 7 146
10.043568059795941 2.374937197791811 2.581351714055943 211 7 146
10.097015463686144 2.371011197988611 2.4092405031261923 211 7 146
10.18685588051437 -2.462072336187793 2.7745067558371423 211 7 146
10.260107455687438 -3.0643458610294076 2.7563662088679917 211 7 146
10.260107455687438 -3.0643458610294076 2.7563662088679917 211 7 146
10.285757019762292 2.3816931576053997 2.7502622120035243 211 7 146
10.691837195710637 2.7776015090282415 2.9559755603140685 211 7 146
10.675095848677335 -3.0802478313901873 2.669652409586717 211 7 146
7.749456523379234 -1.994976266698528 2.040587359423961 211 7 146
7.612012347423264 1.6960508007598534 2.0497761202797116 211 7 146
8.716389551934576 1.6960508007598534 2.2548417974109083 211 7 146
7.65290789340457 1.3999933909638265 2.0470030033266484 211 7 146
9.728328685697504 0.9742695075265448 2.928446441753943 211 7 146
7.257984820551411 -1.7040129686234036 2.0752787142051075 211 7 146
8.888431234121951 -1.1046083288115425 2.8480311778768646 211 7 146
9.689895368365063 -2.981618773475319 2.94762296400155 211 7 146
8.554508201850876 -2.198503885933821 2.2703704757940404 211 7 146
10.1816898325163 2.1639146390210424 2.400038477052013 211 7 146
7.592362262314862 -0.9055596710995423 2.0511206487461195 211 7 146
10.691837195710637 2.7776015090282415 2.9559755603140685 211 7 146
10.128689251003896 2.114718368025598 2.568094058901418 211 7 146
