11.266480920408988 1.6874892296267157 1.1931853001796529 188 67 128
12.136637583249781 1.5900301980006433 1.22146858471865 188 67 128
12.041751614002802 1.250611611649948 1.641113042002266 188 67 128
12.952686689649143 1.250611611649948 1.9542589677723772 188 67 128
12.696879025948286 1.331579532387261 1.9624005155321358 188 67 128
12.413219809472013 1.502431610446711 1.9718551650100884 188 67 128
12.034724463854628 1.5900301980006433 1.8960809211262268 188 67 128
11.597280530305563 1.4158688082241542 1.471128658872571 188 67 128
11.486320569179492 1.502431610446711 1.4701626033446706 188 67 128
12.9925673348227 1.2748902853452637 1.6359595729666105 188 67 128
12.842800633272013 1.3502236007098598 1.715037112521486 188 67 128
12.454827959789576 1.5079290747956093 1.6387772592430008 188 67 128
11.605262905276579 1.5900301980006433 1.3841117520533293 188 67 128
12.041751614002802 1.250611611649948 1.641113042002266 188 67 128
11.09343564843687 1.7810095371113062 1.2825109458306478 188 67 128
11.959088774772317 1.7630439199680947 1.8110831753629792 188 67 128
13.295652763226444 2.0701643890513903 1.7865235461917515 188 67 128
12.485875754691303 1.9252350931408566 1.8007584712067723 188 67 128
15.944418128894975 1.0342701346716208 2.1589245864032125 188 67 128
15.989601989933309 1.747877632536569 2.2341688217178692 188 67 128
16.38733232820956 1.8987377939877588 2.2153382356685016 188 67 128
16.102522402338547 1.9691566389406345 2.1523912543549706 188 67 128
8.120972539921398 1.7590158180169275 2.210217839275069 188 67 128
8.031908271065225 1.605043939713137 2.218489508974603 188 67 128
8.06677791658197 1.44944347284038 2.215223168149432 188 67 128
8.06677791658197 1.44944347284038 2.215223168149432 188 67 128
8.052282199123017 1.7928123469649275 2.3832985385051013 188 67 128
8.224005194313966 1.2994898610130527 2.2009331640811594 188 67 128
8.496800392898002 1.161009088656737 2.1777122748058737 188 67 128
11.051798291388465 -0.9789107238216401 1.9262344936314415 188 67 128
11.443996035752805 -1.0633655114539324 2.106956714658775 188 67 128
10.324103626417047 -1.7535232269766954 2.4340677225583525 188 67 128
10.232390505425487 -1.0504955929402768 2.3037337715889263 188 67 128
9.540322269901367 -1.4530321536924524 2.3711319638284967 188 67 128
9.540322269901367 -1.4530321536924524 2.3711319638284967 188 67 128
8.82900406596671 -1.4802521314990744 1.7814385815723994 188 67 128
9.230641684857234 -1.3665909665007816 1.8842282111697846 188 67 128
10.569371416927245 -1.15654836660752 2.0471010058593673 188 67 128
9.498039645579349 -1.7116636883375749 1.9876983252932128 188 67 128
10.763007679316633 -1.2580199680273334 2.1449928354287664 188 67 128
8.650288089587555 2.0367614768068822 2.1654441238852478 188 67 128
10.054884033466214 2.1082723424319814 2.465975531481092 188 67 128
9.689372588913606 1.8621128833265927 2.218485832825328 188 67 128
9.887979808921006 -1.798019141019719 1.6564634243201144 188 67 128
9.67736542806711 -1.8233895959451576 1.97950667014875 188 67 128
9.991827311875074 -2.0269804375487874 1.8596323624676843 188 67 128
11.086164767269695 -2.1397105381145654 2.357079745466203 188 67 128
10.745436460549218 -2.024707366754799 2.3893729713840224 188 67 128
12.562043346125854 -0.422448603492281 2.6127620693624283 188 67 128
13.277802328820323 -0.26978120071548617 2.6729199962950156 188 67 128
13.187345552322194 0.0693462271374292 2.6866548184303283 188 67 128
12.148359658198203 2.04060964577363 2.9180321896154133 188 67 128
11.110891963693437 1.6618704228268812 2.9228116566714273 188 67 128
12.089003179153611 1.6618704228268812 2.9407661147336905 188 67 128
12.21747555049255 0.9327691142762111 2.8943785998015237 188 67 128
11.369034446487976 1.6351850687852552 2.837096846464171 188 67 128
11.369034446487976 1.6351850687852552 2.837096846464171 188 67 128
12.248470936854487 0.46685694761781105 2.8845431953526073 188 67 128
13.149680372964394 0.14340243612988282 2.926276178905934 188 67 128
12.248470936854487 0.46685694761781105 2.8845431953526073 188 67 128
13.396844755082205 0.10580447809262386 2.8538446139310865 188 67 128
12.513448596275033 0.354998922892708 2.8135183597285582 188 67 128
12.442384989410911 -0.7515415879327685 2.830734374628105 188 67 128
12.703318452489746 -0.6021565868975428 2.772112765679133 188 67 128
12.182733365622163 -0.21199692306039072 2.9059434404104225 188 67 128
12.449110319155022 -0.15699898792775108 2.829057241063418 188 67 128
12.272569748886363 -0.52172570419918 2.877176234548675 188 67 128
12.537038076113882 -0.40000966695871076 2.808034530691289 188 67 128
11.954176229655975 1.0625753657007295 3.00698458743763 188 67 128
11.878522859055714 0.47503162296431667 3.0676205748680907 188 67 128
11.915393168159078 2.823484480448686 3.033646159937111 188 67 128
11.93067365445151 1.726027093510613 3.0224096944278775 188 67 128
11.219422652944534 -2.009536986079292 2.8828789911043593 188 67 128
11.978867111709004 -1.1164837265799818 2.9925349085067046 188 67 128
11.863175199578645 -1.9220594502011799 3.087836724136284 188 67 128
11.955413075228101 -1.7071510045458764 3.0062228138206244 188 67 128
12.015429510370675 -2.2224374990275377 2.973479514370487 188 67 128
11.955413075228101 -1.7071510045458764 3.0062228138206244 188 67 128
11.923655913152192 -2.6853026007467182 3.027429793523192 188 67 128
11.454044334213977 -1.3571608482487392 2.814305160642188 188 67 128
11.011874746722574 -1.2013458200361138 2.677279172093206 188 67 128
10.61914703656677 -1.2628504947982993 2.5553536095115206 188 67 128
11.21707363433774 -1.0269325592766319 2.641988985511872 188 67 128
11.454044334213977 -1.3571608482487392 2.814305160642188 188 67 128
10.539554892986665 -1.7852423826275599 2.566823946241671 188 67 128
10.471082695830823 -1.6099515710560632 2.5769997738721138 188 67 128
11.400211830065217 2.730993432382342 2.828511880532627 188 67 128
12.35544039713185 2.730993432382342 2.8534420330425214 188 67 128
12.058824108144353 2.9626121233018043 2.9534557421824763 188 67 128
12.282258887945446 3.017513930963533 2.8742781487862654 188 67 128
12.133353324111445 2.578329608077293 2.923538634952056 188 67 128
11.371635290702757 -2.277655531566734 2.836369924615805 188 67 128
12.157680323073063 -2.517398703039603 2.9146848796804528 188 67 128
12.157680323073063 -2.517398703039603 2.9146848796804528 188 67 128
12.379330973739629 -2.68072541664647 2.847000917566917 188 67 128
12.066988640692452 -2.87818701177695 2.94993450842888 188 67 128
12.589261451463448 -3.000688051434143 2.7962625522932054 188 67 128
12.958709365235993 -3.0274235427501406 2.724170971891871 188 67 128
12.589261451463448 -3.000688051434143 2.7962625522932054 188 67 128
12.840695302832243 -2.5895970295647364 2.7454045896545454 188 67 128
13.629407356847212 -2.7458286922414277 2.624283151061373 188 67 128
12.676217096466154 -2.7794513861490433 2.7776734039249376 188 67 128
11.640922006791113 -2.123431947709881 2.769907033218459 188 67 128
11.202452758685855 1.5918788159930601 1.1909172327761928 188 67 128
10.871385626832813 1.5918788159930601 1.2764484444421471 188 67 128
13.34925937289378 1.1015566567111599 1.8630476120961539 188 67 128
12.515965065424119 1.4158688082241542 1.9683767059653734 188 67 128
12.058024232914347 1.502431610446711 1.8954292947541318 188 67 128
12.09434733419925 1.677335304821845 1.894418734416663 188 67 128
11.736709454356095 1.331579532387261 1.557678033445163 188 67 128
12.663971439691558 1.4281855204959568 1.717088502288994 188 67 128
13.317963862038011 1.2028594839437232 1.6343652705554697 188 67 128
12.858294516806634 2.0000967469972486 1.7939833821235263 188 67 128
16.158775210882496 1.8247813473515395 2.226012623054441 188 67 128
8.224005194313966 1.2994898610130527 2.2009331640811594 188 67 128
8.496800392898002 1.161009088656737 2.1777122748058737 188 67 128
8.06677791658197 1.44944347284038 2.215223168149432 188 67 128
10.712986011513722 -1.0092099132066799 2.148016362357942 188 67 128
9.510856614045204 -1.60402235458955 2.374329309685315 188 67 128
9.673629334134347 -1.3072136041348263 2.357035439599785 188 67 128
8.972885170194994 -1.3665909665007816 1.7780113024098672 188 67 128
11.846485616290352 -1.0287249477679925 1.9014448831982513 188 67 128
10.707714742886482 -1.2888160609116002 1.9381896254290176 188 67 128
8.650288089587555 2.0367614768068822 2.1654441238852478 188 67 128
10.489316479559049 -1.8952486399981974 2.4158441736755676 188 67 128
21.15640951147353 -2.858141321741754 1.900319310695234 188 67 128
21.15640951147353 -2.858141321741754 1.900319310695234 188 67 128
12.873953518736108 -0.3226781420453449 2.7392737000555853 188 67 128
12.850982501438018 0.28517145362326785 2.743495282421727 188 67 128
12.850982501438018 0.28517145362326785 2.743495282421727 188 67 128
11.110891963693437 1.6618704228268812 2.9228116566714273 188 67 128
11.175444722614793 2.04060964577363 2.8981924936932986 188 67 128
11.985852526781635 0.2217738268510507 2.9887028640552935 188 67 128
11.923655913152192 -2.6853026007467182 3.027429793523192 188 67 128
12.085305654414874 -0.7315347145470149 2.942274632727471 188 67 128
11.990813916009822 2.2867902078964146 2.9860406760935714 188 67 128
11.990813916009822 2.2867902078964146 2.9860406760935714 188 67 128
12.513448596275033 0.354998922892708 2.8135183597285582 188 67 128
12.060832674833048 0.6668048310903588 2.952583024043549 188 67 128
12.015429510370675 -2.2224374990275377 2.973479514370487 188 67 128
11.955413075228101 -1.7071510045458764 3.0062228138206244 188 67 128
12.537038076113882 -0.40000966695871076 2.808034530691289 188 67 128
11.886811233318479 -0.6540572232251534 3.058743180908755 188 67 128
11.454044334213977 -1.3571608482487392 2.814305160642188 188 67 128
12.676217096466154 -2.7794513861490433 2.7776734039249376 188 67 128
13.042519561337917 2.9626121233018043 2.967796178246769 188 67 128
12.379330973739629 -2.68072541664647 2.847000917566917 188 67 128
12.652887098462118 2.820893790340724 2.7825455539393986 188 67 128
12.958709365235993 -3.0274235427501406 2.724170971891871 188 67 128
12.29027499179543 -2.957786011763433 2.871906867741515 188 67 128
12.547701436551103 -2.462504873079819 2.8055905848445466 188 67 128
13.043202229364239 -2.8443994652416453 2.7097965229155556 188 67 128
12.840695302832243 -2.5895970295647364 2.7454045896545454 188 67 128
11.091256173892663 -2.0204435106941556 2.6631865358881712 188 67 128
12.9925673348227 1.2748902853452637 1.6359595729666105 188 67 128
12.432271877147299 1.5884796059371744 1.6389007890782903 188 67 128
12.952686689649143 1.250611611649948 1.9542589677723772 188 67 128
11.597280530305563 1.4158688082241542 1.471128658872571 188 67 128
13.295652763226444 2.0701643890513903 1.7865235461917515 188 67 128
16.45387104110052 2.035640895335965 2.1384160973301856 188 67 128
8.031908271065225 1.605043939713137 2.218489508974603 188 67 128
9.906586696479929 -1.1719692195764946 2.3337499023791155 188 67 128
11.503985994706504 -2.2400177007104802 2.321328226405371 188 67 128
12.664494454504702 0.5659053528707352 2.780111425309445 188 67 128
11.854870300111283 2.07074885162362 3.102990605514468 188 67 128
11.978867111709004 -1.1164837265799818 2.9925349085067046 188 67 128
12.780638764776327 0.08378977930238735 2.7567933002536607 188 67 128
13.218060293692407 0.46685694761781105 2.9037777679078767 188 67 128
11.955413075228101 -1.7071510045458764 3.0062228138206244 188 67 128
12.182733365622163 -0.21199692306039072 2.9059434404104225 188 67 128
12.11219853479271 1.2564942501843377 2.931566597222172 188 67 128
12.148359658198203 2.04060964577363 2.9180321896154133 188 67 128
11.429513381132669 -1.6316694742831233 2.8206871357701964 188 67 128
11.454044334213977 -1.3571608482487392 2.814305160642188 188 67 128
11.565313964211601 -1.1112847983857896 2.787056324568615 188 67 128
10.86916162710856 -1.6184546407776694 2.7042237226400765 188 67 128
12.581435844523723 3.046718035252762 2.797995718906052 188 67 128
11.565805366982522 2.500676898969316 2.786941566296192 188 67 128
12.589261451463448 -3.000688051434143 2.7962625522932054 188 67 128
11.091256173892663 -2.0204435106941556 2.6631865358881712 188 67 128
11.28707893568276 -2.21663182748005 2.4714473995606667 188 67 128
13.34925937289378 1.1015566567111599 1.8630476120961539 188 67 128
12.784147028954159 1.1015566567111599 1.5587529027624518 188 67 128
11.623070481692698 -1.15654836660752 2.2006225442863636 188 67 128
9.422001517174875 -1.5962978700861612 1.9912751820299164 188 67 128
9.954398331777766 -1.929045798260785 1.9674844527532067 188 67 128
8.329996369357483 1.9045168316536676 2.1916842767329694 188 67 128
10.023184241464797 -1.798019141019719 1.7560306789528761 188 67 128
12.174646453774592 0.14340243612988282 2.908725971171613 188 67 128
10.497853509340672 -1.432245356674965 2.5729861798289515 188 67 128
10.935141471218408 -1.8299889486674465 2.6914922451691234 188 67 128
13.203109496612132 -2.679659091319385 2.684220043003312 188 67 128
11.959088774772317 1.7630439199680947 1.8110831753629792 188 67 128
16.38733232820956 1.8987377939877588 2.2153382356685016 188 67 128
9.510273216235111 1.7340694538822277 2.232811741485053 188 67 128
9.61238620275846 -1.929045798260785 1.8713827269701861 188 67 128
8.06677791658197 1.44944347284038 2.215223168149432 188 67 128
12.703318452489746 -0.6021565868975428 2.772112765679133 188 67 128
12.257715478182277 -0.9700217186759358 2.8816895941572467 188 67 128
11.994066732230355 -0.32423959597514335 2.984320709909258 188 67 128
12.676217096466154 -2.7794513861490433 2.7776734039249376 188 67 128
12.39214014664084 1.1737617476702156 1.6391216874898742 188 67 128
13.035937065896531 -0.49786973652373323 2.711007580869933 188 67 128
12.788342473485006 -0.12454102611148311 2.755308569305538 188 67 128
12.289071848772348 2.3167870114136635 2.872261278916052 188 67 128
