5.070889792927729 1.386093347884463 1.5769828048371122 70 255 93
8.629994401073716 2.1985672255835054 1.574431418068629 70 255 93
8.703493170787867 2.5274157495475897 1.4592732842870109 70 255 93
9.252797134373372 2.286149285747369 1.574186740298668 70 255 93
7.92148221551558 2.742080789933372 1.3196465899997796 70 255 93
18.462452823110866 0.7122288627409982 2.622607337858418 70 255 93
18.110759666366807 0.7898685421332619 2.6576875895058074 70 255 93
17.557748106961427 0.9895824964729607 2.7215347100916585 70 255 93
17.927606887069214 0.7921274454720335 2.824057985986706 70 255 93
18.418217148881332 0.7907701924747788 2.7510496038625707 70 255 93
9.428474696498865 2.3631786130234413 2.0126037211189853 70 255 93
8.662140247456303 2.628302592111241 1.9283208044769755 70 255 93
8.710698959725125 2.5274157495475897 1.6894774932706984 70 255 93
8.86579304718811 2.1985672255835054 1.8019745274177368 70 255 93
9.3190859026149 2.439062623453515 1.6816964630449922 70 255 93
9.3190859026149 2.439062623453515 1.6816964630449922 70 255 93
8.196838297967508 3.0032014523134682 2.084975371653707 70 255 93
7.354834423470196 -3.1394059612087575 1.8506294912956616 70 255 93
8.37599210699164 2.867888860425454 2.0729342962108968 70 255 93
8.196838297967508 3.0032014523134682 2.084975371653707 70 255 93
18.4665003718358 1.5880426991631613 2.924078003953212 70 255 93
17.516033884393025 1.341196075831586 2.905803609461434 70 255 93
17.59755640968087 1.119470302111399 2.887238052609252 70 255 93
17.61317113358971 2.0496760185998983 2.8838501746099943 70 255 93
17.850576385239208 1.2011532172041122 2.8374618590135086 70 255 93
17.491394869664028 1.5880426991631613 2.9117399953854717 70 255 93
17.86596997295353 1.9641905240286153 2.834728606895742 70 255 93
17.745928552202287 1.5845832218590776 2.856850037242827 70 255 93
17.770214650717193 1.386093347884463 2.852217421558912 70 255 93
18.076216817296793 1.4164212013646917 2.7999265891813936 70 255 93
18.288649800663652 1.1153358735728944 2.768634593745332 70 255 93
18.48984003542776 1.341196075831586 2.918438466492336 70 255 93
17.291032612112836 1.5938194776453043 2.968071027473264 70 255 93
17.323892756550244 1.9146572756669706 2.957564387688055 70 255 93
17.315956726263934 1.2683374498762008 2.960043135687359 70 255 93
17.758413465972183 2.227073939705397 2.8544578581966746 70 255 93
18.009173621290387 2.122642600329257 2.810554075034168 70 255 93
17.561098004824835 2.37010060545802 2.895350095922508 70 255 93
18.54650595748215 2.867888860425454 2.734576593516067 70 255 93
11.884364811866824 -0.9059921543884202 2.5756459734915382 70 255 93
12.687128283694841 -0.7019312953269291 2.4827039142319185 70 255 93
11.877279201382503 -0.6833901428010443 2.5765857551639653 70 255 93
11.541503359254216 -0.9919444273212821 2.4694872584302967 70 255 93
11.541503359254216 -0.9919444273212821 2.4694872584302967 70 255 93
12.092857978919499 -1.0600239342773163 2.414086412845171 70 255 93
12.008554738537645 -1.1148084796230775 2.30339535349998 70 255 93
11.240273628296633 -1.11736803008051 2.503919513689656 70 255 93
10.529176397267692 -1.9113996334691 2.8328662259521975 70 255 93
10.330788511737778 -1.584498252776558 2.634621090788007 70 255 93
10.862742806751921 -1.8575502918470863 2.4029010624963236 70 255 93
10.845255507216551 -1.3429029362400542 2.751712885640789 70 255 93
10.891219129812304 -1.4172021075148362 2.5485323227027163 70 255 93
10.8515485337759 -1.582220684402356 2.5539783436376844 70 255 93
11.046764615737164 -1.9020280336369157 2.5279537679688855 70 255 93
10.535658221908209 -1.9620062870688957 2.6006417739096266 70 255 93
10.717356476218201 -1.7219727372064537 2.4179212909537426 70 255 93
10.704523667297273 -1.4388218568953828 2.41927910489728 70 255 93
11.597935893637528 -1.3021619725514542 2.463395396418283 70 255 93
11.380379162231247 -1.2032313511801644 2.6497452332753713 70 255 93
10.372451003834575 -1.3872063354783688 2.627435383510019 70 255 93
10.385694137685629 -1.7807427200029895 2.6251823225887483 70 255 93
11.910997965166162 -1.7564360778215782 1.9160738651917137 70 255 93
11.719336088523074 -1.2202015282750485 2.325824742711453 70 255 93
10.835937813893223 -1.334359190091974 2.2769257590580585 70 255 93
11.397045412955801 -1.7033476265834522 2.352780829439994 70 255 93
10.68850236267131 -2.362783628541184 2.5772891118925383 70 255 93
11.807266221592268 -2.1964693241530617 2.3188396555949473 70 255 93
11.232514091067435 -2.223341489387384 2.674909408477256 70 255 93
11.246650988697787 -2.4509344843136587 2.3661513910976577 70 255 93
11.102927409628094 -2.252351796907611 2.520808318238089 70 255 93
10.827888523327564 -2.165492385592799 2.4064425563803478 70 255 93
11.107724078502066 -2.471624406579291 2.5202046915444223 70 255 93
11.241913596933271 -2.2709884611013686 2.3665813662444024 70 255 93
11.53758471752908 -1.9566743901638473 1.9277398198433133 70 255 93
11.412372978061457 -2.04051333782492 2.23460117150778 70 255 93
11.09526049910875 -1.9364322303525063 2.2571586257914458 70 255 93
11.272665095407604 -1.8988798332911567 2.1353560420266158 70 255 93
11.584922520264229 -1.9947354072366104 2.1183761618395702 70 255 93
17.519129742048598 -1.6335230383044312 1.802989610698941 70 255 93
17.77590077647922 -1.6335230383044312 1.857763251895363 70 255 93
17.768166633635158 -1.5161198017278275 1.8578917111936524 70 255 93
18.28922043506829 -1.400199535141193 1.9068640546237285 70 255 93
9.100801637302691 2.7873092863505655 1.2385215116228436 70 255 93
8.82537998830838 2.7873092863505655 1.345839238933989 70 255 93
8.823576641485696 2.9004247265139833 1.2276593481809683 70 255 93
8.186079772871624 3.02017325543766 1.4521920671637125 70 255 93
8.37296069106876 2.9004247265139833 1.6942887116452845 70 255 93
8.83958697700547 2.7873092863505655 1.8026724177536653 70 255 93
8.37855157752973 3.02017325543766 1.8156856133686916 70 255 93
9.459850517680643 2.286149285747369 1.3611605831083462 70 255 93
8.851628119705344 2.1985672255835054 1.346517746838735 70 255 93
5.432654079564754 1.2011532172041122 1.3915402574524784 70 255 93
8.114459265847252 2.628302592111241 1.5746623670780044 70 255 93
8.747553150653236 2.3631786130234413 1.3438028644176256 70 255 93
17.808342627549685 0.8815904991192455 2.6910636686964318 70 255 93
18.475314884569904 0.9895824964729607 2.7436099216175505 70 255 93
18.176032966262216 0.9029879962211261 2.7848047708394152 70 255 93
8.662140247456303 2.628302592111241 1.9283208044769755 70 255 93
7.741970355163963 2.742080789933372 1.7044116674227412 70 255 93
9.310048136630162 2.286149285747369 1.681804563974091 70 255 93
17.516033884393025 1.341196075831586 2.905803609461434 70 255 93
18.567087361468488 1.119470302111399 2.900790449110258 70 255 93
18.15522412361299 1.2586366751822082 2.787892530608006 70 255 93
17.523879306072995 1.8328464073963922 2.90394737115247 70 255 93
17.777947902589116 1.7820065474969669 2.850759974625427 70 255 93
17.745928552202287 1.5845832218590776 2.856850037242827 70 255 93
17.398416764135202 0.9964679990490475 2.9358203739664064 70 255 93
18.514146028654288 2.5606127067505895 2.7386503575236536 70 255 93
17.77299151599915 2.742080789933372 2.6951933706029516 70 255 93
15.818071930151987 -0.6896452121051573 2.031429117656895 70 255 93
18.272794129281337 -1.2353857264006818 1.737462153747873 70 255 93
18.62142727730058 -1.1839684438098814 1.7343134234958286 70 255 93
10.330788511737778 -1.584498252776558 2.634621090788007 70 255 93
11.805704788178526 -1.175013668487818 2.441838523339246 70 255 93
11.021851146077283 -1.260139433533268 2.531170280200979 70 255 93
10.903832217537019 -1.746624939981642 2.5468182368079653 70 255 93
10.717356476218201 -1.7219727372064537 2.4179212909537426 70 255 93
10.805416163393028 -1.5879099483639116 2.760785794888726 70 255 93
11.347034533201725 -1.5793702656563307 2.3571678088100487 70 255 93
11.042442071657725 -1.7963558867592162 2.1486161433303184 70 255 93
10.861277737714774 -1.823376411851313 2.2749377677417577 70 255 93
11.06603619360418 -2.820947561502814 2.525485584827629 70 255 93
11.29106156855051 -2.6804403634435414 2.497873335088455 70 255 93
11.276899393131387 -2.042523044930562 2.499548922028844 70 255 93
11.29106156855051 -2.6804403634435414 2.497873335088455 70 255 93
11.107724078502066 -2.471624406579291 2.5202046915444223 70 255 93
11.589042728806872 -2.165492385592799 2.464348414158679 70 255 93
11.507060811118327 -2.361476829428746 2.473257941324431 70 255 93
11.224010409245716 -1.8681133448690528 1.9381788221242056 70 255 93
11.412372978061457 -2.04051333782492 2.23460117150778 70 255 93
17.84853758920661 -1.457778818416566 1.8565624674761387 70 255 93
17.74387773199337 -1.5748353220045992 1.8582958945952455 70 255 93
8.37296069106876 2.9004247265139833 1.6942887116452845 70 255 93
8.13438991857803 -3.1396769688904693 1.6979299335651614 70 255 93
18.38438915407421 2.682896801082312 2.6300900303599093 70 255 93
7.5220685144968344 2.5606127067505895 1.3059988433733767 70 255 93
17.60414609942088 0.866766846321094 2.594141518573975 70 255 93
9.046181161463476 2.3631786130234413 1.9125071565455636 70 255 93
17.523879306072995 1.8328464073963922 2.90394737115247 70 255 93
18.54650595748215 2.867888860425454 2.734576593516067 70 255 93
17.86596997295353 1.9641905240286153 2.834728606895742 70 255 93
17.315956726263934 1.2683374498762008 2.960043135687359 70 255 93
17.414210050638484 2.1769078686807894 2.931519656512831 70 255 93
12.38022431829894 -0.7959911636677273 2.670444522349327 70 255 93
12.687128283694841 -0.7019312953269291 2.4827039142319185 70 255 93
10.78659445318558 -2.6049210684269277 2.563080878769236 70 255 93
10.372451003834575 -1.3872063354783688 2.627435383510019 70 255 93
11.598232005415262 -2.5570614569839116 2.463363708729898 70 255 93
10.662666233225618 -1.5793702656563307 2.2908676930029412 70 255 93
11.51000824513448 -1.334359190091974 2.343079875040784 70 255 93
10.857921988641275 -1.830919036164269 2.748883670395818 70 255 93
18.247268005914517 -1.6851261597498672 1.6823522144061367 70 255 93
18.28922043506829 -1.400199535141193 1.9068640546237285 70 255 93
8.553900410379192 2.9004247265139833 1.8105659917180734 70 255 93
17.805351161927117 0.6988844135056581 2.6914111300725883 70 255 93
9.473106027215858 2.286149285747369 1.7869102321681707 70 255 93
18.009173621290387 2.122642600329257 2.810554075034168 70 255 93
17.735178040961298 0.9365352707333541 2.85892840082712 70 255 93
18.324969781065832 2.68453402924297 2.7636014065819374 70 255 93
17.98626214192252 1.0391929589863202 2.8142806742672084 70 255 93
11.240273628296633 -1.11736803008051 2.503919513689656 70 255 93
10.664158588047716 -1.5805923420488595 2.423585199517129 70 255 93
11.151179046677132 -2.1964693241530617 2.253057360949917 70 255 93
10.50953321416534 -1.2032313511801644 2.6047942168075844 70 255 93
17.491394869664028 1.5880426991631613 2.9117399953854717 70 255 93
11.001450875167516 -2.046522421859073 2.718497598753514 70 255 93
10.776713117466123 -2.1198861795918242 2.564486456950316 70 255 93
18.385470654192517 -1.6851261597498672 1.7364312570536176 70 255 93
8.365463988397615 2.9004247265139833 1.454746955706792 70 255 93
8.418094078391933 2.453968809413106 1.9391733280691503 70 255 93
11.413767308835824 -2.096354582517105 2.3513267836546063 70 255 93
11.102927409628094 -2.252351796907611 2.520808318238089 70 255 93
11.805704788178526 -1.175013668487818 2.441838523339246 70 255 93
8.603070087534993 2.7873092863505655 1.5744427945620574 70 255 93
8.19374060126529 3.02017325543766 1.6970041127660707 70 255 93
8.667544604427809 2.742080789933372 2.05455637525689 70 255 93
11.096694676026056 -1.9831425449726714 2.380035584207633 70 255 93
9.122066377286727 3.0334515574698657 1.574235329405658 70 255 93
