13.990963925607868 1.9010114663826074 1.981167853813964 43 254 107
21.21714420386083 -0.5696267471139804 0.8861133746795818 43 254 107
10.908873888071337 0.5799632354706001 2.107918588298608 43 254 107
10.83314424729733 0.5263383938993611 1.9077608202157827 43 254 107
10.91137666690071 0.7384294034959064 1.8096673431888808 43 254 107
11.470615356517412 0.6791459553526474 1.7091281657181578 43 254 107
10.95958624643538 0.664080926607258 2.00209807981277 43 254 107
10.02151865707308 0.12782624691447406 2.045624631788979 43 254 107
10.645614382080291 0.3085366871210583 1.815751249961173 43 254 107
10.439138891453076 0.3409161165314847 2.02516588867062 43 254 107
9.967373653936981 0.013840000665209611 1.7301572846868227 43 254 107
9.445910044821131 -0.45789013095474496 1.959705757179339 43 254 107
10.04113495088615 -0.3502174011088353 2.1602210788223744 43 254 107
9.718552782143345 -0.20779117455941568 1.9482365360979603 43 254 107
10.098491314285747 -0.5029934836054563 1.5293620030546904 43 254 107
9.799329952641834 -0.6421694953728437 1.5280963067325817 43 254 107
12.23430319939819 1.0480860670447683 1.8679067337450688 43 254 107
9.493402557207613 0.01990869851732019 2.336842800842787 43 254 107
9.997093028209376 0.42989939225459156 2.2894354401702164 43 254 107
11.530103924518423 1.0341433981946169 2.1783091491881255 43 254 107
9.729824084441628 0.3027056430511352 2.313721922643689 43 254 107
10.354431964872079 0.543864730351589 2.2596341484193934 43 254 107
9.560182237472683 0.16460438551296216 2.3301443945253224 43 254 107
9.560182237472683 0.16460438551296216 2.3301443945253224 43 254 107
11.308797751490863 1.0836129781296802 1.9879330444948797 43 254 107
10.751541973264473 0.7312034823271975 2.116655997412659 43 254 107
10.358065008581473 0.815065966194425 2.391991393887892 43 254 107
11.481911658037795 0.9748164934555061 2.292036435888186 43 254 107
12.704041437260491 1.3483720466692233 2.425268140485619 43 254 107
12.668925369850536 1.3720440790835304 2.3149935642326875 43 254 107
10.219519657995075 0.6448733814270404 2.7864234542691 43 254 107
10.6855280419261 0.707136822264168 2.503299398145096 43 254 107
10.47430066117256 0.8348969074987963 2.7257627899790657 43 254 107
10.47430066117256 0.8348969074987963 2.7257627899790657 43 254 107
10.6855280419261 0.707136822264168 2.503299398145096 43 254 107
10.815884921777418 0.9690840296208095 2.6592076182103637 43 254 107
10.741364976062197 0.07387956638303943 2.968954975887717 43 254 107
10.94527825352494 0.41563790210225343 2.6370966054350653 43 254 107
11.183537380792274 0.5749373507694184 2.5997655586664155 43 254 107
10.735657010453604 0.028131501043070096 2.673679241561322 43 254 107
10.058140471262847 0.3805497052960255 2.832568854655305 43 254 107
10.442394344056424 0.19214942457937528 2.53538216077546 43 254 107
10.735657010453604 0.028131501043070096 2.673679241561322 43 254 107
10.219519657995075 0.6448733814270404 2.7864234542691 43 254 107
12.588124126192723 1.697073701743643 2.320920347318801 43 254 107
12.754277746142872 1.8302754834623207 2.420755532810876 43 254 107
11.561338659330229 1.9412380942820613 2.286011764498118 43 254 107
12.067195651835805 1.8029418323048079 2.250149281955808 43 254 107
12.623464969223956 1.7123986006911818 2.432631269262348 43 254 107
12.840934670037734 1.780740919549942 2.2023900137902013 43 254 107
13.348989697575421 1.590442599644264 2.4860157352845507 43 254 107
13.482334050447808 2.0463364394114945 2.60416326206129 43 254 107
12.658994320526228 1.586566862627203 2.2129452254997273 43 254 107
13.148472635065843 1.987641800842544 2.5061097459224273 43 254 107
12.535594761314853 1.5882926876857282 2.3248322352562734 43 254 107
12.68583478572003 1.4881008540765248 2.211363789058245 43 254 107
13.653067704926052 1.7319202633158497 2.583534927001988 43 254 107
14.04625418280916 1.7576126740706064 2.6808738480012533 43 254 107
11.782157894391865 3.078618362234157 2.956862979912832 43 254 107
10.827808603151926 1.1960922754931453 2.927974529792982 43 254 107
10.583779454525565 2.435975261094574 3.1217481632193302 43 254 107
10.615868054262286 0.16071435978242588 3.061333944300906 43 254 107
10.675628639382259 0.9340966962466012 3.00883899098853 43 254 107
10.675628639382259 0.9340966962466012 3.00883899098853 43 254 107
9.253499241273568 -0.45591087846634826 2.362093360282844 43 254 107
10.670398868027979 -0.9566104501255411 2.2354901111173704 43 254 107
9.567164144941293 -0.9566104501255411 2.0701952724331414 43 254 107
10.959376156229874 -1.8808164463771124 1.903728553723979 43 254 107
10.6952030024803 -1.8098110205363116 2.119858831669671 43 254 107
10.47965412969517 -1.8388457211836442 2.2498348462889695 43 254 107
10.730465212401928 -1.9528742791419247 2.2311109234678765 43 254 107
10.6952030024803 -1.8098110205363116 2.119858831669671 43 254 107
11.987294400738806 -1.042274893083164 2.652464019350972 43 254 107
10.225731647030365 -0.7878374105005966 2.405999802856308 43 254 107
11.617556513762954 -0.9369246017538101 2.716102661771202 43 254 107
10.546393826104975 -0.3089200920520045 2.5213010641850726 43 254 107
12.878610878633811 -1.042274893083164 2.6889556235622587 43 254 107
12.263906505035395 -0.7895479656631539 2.806477547685135 43 254 107
10.35865204271967 -0.22125837871358975 2.7518172910604024 43 254 107
10.768195319310149 -0.45591087846634826 2.4930225793002583 43 254 107
10.416276447742604 -0.1468435884781074 2.5390083211888506 43 254 107
11.808269030840314 -1.3661030229722264 2.2679872326130393 43 254 107
13.111291273528474 -1.2667164002467197 2.6537316852513233 43 254 107
12.746378915030359 -1.3088633490726198 2.550213677911791 43 254 107
12.238074867266468 -1.3566921128626428 2.812592313592878 43 254 107
12.067047071639749 -2.1469393892870072 2.6401883776591712 43 254 107
12.614973252028275 -1.804893199450435 2.734033843898505 43 254 107
12.589602223911882 -1.3997523235967042 2.738727167648829 43 254 107
12.398777175448066 -2.0805230862775823 2.776525594376839 43 254 107
12.067047071639749 -2.1469393892870072 2.6401883776591712 43 254 107
12.589602223911882 -1.3997523235967042 2.738727167648829 43 254 107
12.56255615521212 -1.6036531134005871 2.7438091971685896 43 254 107
12.614973252028275 -1.804893199450435 2.734033843898505 43 254 107
12.904495064399981 -1.6265615804958755 2.9174521169610643 43 254 107
12.95552877591858 -1.9556133845700236 2.9007816976846392 43 254 107
13.10563177253231 -2.6086800090566316 2.8578773256854917 43 254 107
13.538867798404343 -1.804893199450435 2.7633144252294053 43 254 107
12.90107945718797 -2.4296423754159533 2.9186164378940775 43 254 107
12.930825954694177 -1.2854397793197838 2.908688235509894 43 254 107
13.10563177253231 -2.6086800090566316 2.8578773256854917 43 254 107
13.212620238361588 -1.8624253396987454 2.8313133539679276 43 254 107
11.439322909108961 -1.9237142939763234 2.5636903113284735 43 254 107
13.210507792722023 -1.4643645221269062 2.4997700338998294 43 254 107
11.134924417853867 -1.8388457211836442 2.319778003874036 43 254 107
12.640803314744733 -1.4490015847908226 2.56276812373646 43 254 107
12.42393355698138 -1.4643645221269062 2.4515656330683777 43 254 107
12.396526046631731 -1.5911229375938136 2.4542486400464374 43 254 107
13.210507792722023 -1.4643645221269062 2.4997700338998294 43 254 107
11.669526194983067 -2.0650593836211044 2.53410897524594 43 254 107
11.982725746605942 -1.875661331357838 2.4974679836608846 43 254 107
12.61386702952716 -1.5940833558164702 2.5660441050744396 43 254 107
12.153261567810322 -1.7660766104235615 2.627395183645564 43 254 107
13.00867755983808 -1.4284902966278406 2.6688116752931745 43 254 107
17.61523846461525 -0.7863967460295496 1.2581351437228272 43 254 107
14.716761962551338 -1.4388382869688479 1.887383306954669 43 254 107
14.436747956140145 -1.4388382869688479 1.8215103605789542 43 254 107
13.924392884390532 -1.6542634441357718 1.6125837776299468 43 254 107
13.937080109397817 -1.5823270304030164 1.4688550361248476 43 254 107
14.343619645879055 -1.510271280534857 1.8231735041189165 43 254 107
10.530976992235228 2.496814609338955 1.8184733377917104 43 254 107
12.35189704698214 2.164014487102316 2.0396789004391964 43 254 107
12.479010479300664 2.23550736278277 1.946741818360065 43 254 107
10.675011303837485 2.579802529054421 2.014401185654652 43 254 107
12.83482573985823 2.164014487102316 2.109239144191944 43 254 107
10.675011303837485 2.579802529054421 2.014401185654652 43 254 107
10.285546909317794 2.579802529054421 1.926474388992375 43 254 107
10.285546909317794 2.579802529054421 1.926474388992375 43 254 107
10.71666296707362 2.672444210750652 2.118634137269791 43 254 107
10.942479790369104 2.774655208700711 2.2161501875062752 43 254 107
10.509930721331266 2.6305500914796043 1.5309849357139327 43 254 107
11.040580925882303 2.5513548084301356 1.6235077756854879 43 254 107
11.033178874090408 2.5513548084301356 1.532873917832225 43 254 107
10.641127391528087 2.8421873386499508 1.531476033325879 43 254 107
10.239736260032593 3.0302235896220786 1.6276345951970614 43 254 107
11.37017734508869 2.9524627444076863 1.5339984080818572 43 254 107
11.225352580577411 3.040131345431349 1.533523438283378 43 254 107
11.37017734508869 2.9524627444076863 1.5339984080818572 43 254 107
10.977521781496108 2.7549709437572174 1.5326815546420185 43 254 107
10.544144389261216 3.0302235896220786 1.8181575707940008 43 254 107
10.69819485717478 2.93435309230118 1.8145228391634995 43 254 107
10.937175757269047 2.9124752364567326 2.1063782693504303 43 254 107
10.376725148452874 2.717445195301813 1.8222340760434357 43 254 107
10.304660602446853 3.0181823228116293 2.0315503504791805 43 254 107
10.24273585674883 3.126724957121689 2.03455361946601 43 254 107
10.483634322175522 3.1281881474484425 1.8196154247633691 43 254 107
10.020181261137054 2.8117183031051525 1.8313851977819213 43 254 107
12.713132996445701 2.2188222519236147 2.2097641294069086 43 254 107
12.58001100527129 1.998063163069195 2.217649123139696 43 254 107
12.097576545937798 2.282896059265558 2.2481228168820886 43 254 107
12.09953300672646 2.4330333953760137 2.2479927788425482 43 254 107
12.296138271895556 2.196828838608904 2.343282513359302 43 254 107
12.748127289845577 2.282896059265558 2.3092876528987345 43 254 107
12.296138271895556 2.196828838608904 2.343282513359302 43 254 107
11.911141146214485 2.098565990652132 2.3752853064850594 43 254 107
16.13708545171105 2.6706647437354465 2.69892912167285 43 254 107
12.55257751556441 3.126724957121689 2.3235623699849044 43 254 107
9.517267406089392 -2.6040721899533428 1.6319544629623217 43 254 107
9.390290379219705 -2.699358176156423 1.8493157728310035 43 254 107
11.288386010864032 -1.9698943851365331 1.8936671158694762 43 254 107
11.012005612829551 -1.9698943851365331 1.807442626830659 43 254 107
11.270618139983513 -2.009591418369272 2.0889109303724425 43 254 107
10.780124482183478 -2.3021964219433912 2.115046257651124 43 254 107
9.893649560440732 -2.3021964219433912 1.9412299219296978 43 254 107
11.066282875071416 -2.0573653632377384 2.207753637047595 43 254 107
9.607967308882296 -2.455383841138106 1.842843223309745 43 254 107
11.33024602401258 -2.3021964219433912 2.190625457146069 43 254 107
10.326655704298146 -2.455383841138106 2.0304933530743714 43 254 107
11.35634625492178 -2.455383841138106 2.1889862346890463 43 254 107
10.317389117942373 -2.2352828060574423 1.8237116572856686 43 254 107
10.337873604386376 -2.9601622615303222 1.5303219806811998 43 254 107
9.950231809498376 -2.74241959796778 1.5287442657586507 43 254 107
10.829240792096826 -2.866846888164377 1.3455848906085426 43 254 107
10.345773135611944 -2.9601622615303222 1.6270514245478298 43 254 107
10.634681985355826 -2.838573961733313 2.0162040027290398 43 254 107
10.449804442516188 -2.9601622615303222 1.72274158036489 43 254 107
10.518279151106633 -3.0567754499151643 1.8187786171562632 43 254 107
11.91932329973928 -2.794964858302211 2.6632880285539406 43 254 107
12.634933072239278 -2.538669673216387 2.7303901518760028 43 254 107
12.336381898309982 -2.9368505172925254 2.7899969010133074 43 254 107
12.336381898309982 -2.9368505172925254 2.7899969010133074 43 254 107
12.634933072239278 -2.538669673216387 2.7303901518760028 43 254 107
12.390540073891993 -2.4988480892342615 2.594449099607011 43 254 107
12.00856987014659 -2.393076413448101 2.649145796503738 43 254 107
12.366622741302507 -2.2783420685708835 2.5976322085582133 43 254 107
11.522585079417686 -2.2783420685708835 2.5527027925766506 43 254 107
12.18319713319315 -2.804060990291595 2.3523566404466383 43 254 107
12.911612367042682 -2.8869317605578453 2.5314193630345407 43 254 107
12.27446101548784 -3.0022702218213744 2.610176800120158 43 254 107
13.093408326951291 -2.7611034640611503 2.511834004391461 43 254 107
12.911612367042682 -2.8869317605578453 2.5314193630345407 43 254 107
12.805550601878144 -3.0215276905733783 2.5433677911935115 43 254 107
12.615009635371326 -3.036125403909831 2.4334130652775876 43 254 107
12.805550601878144 -3.0215276905733783 2.5433677911935115 43 254 107
12.27446101548784 -3.0022702218213744 2.610176800120158 43 254 107
11.506623469786842 -2.544884635039226 2.2901496773732797 43 254 107
12.456239403839092 -2.699358176156423 2.3308323353405744 43 254 107
12.028375834083882 -2.5813737824494676 2.4924311555564747 43 254 107
12.385856163603746 -2.4732280974803835 2.455298742198049 43 254 107
12.385856163603746 -2.4732280974803835 2.455298742198049 43 254 107
11.604047418688731 -2.2924241806981565 2.403187943123278 43 254 107
11.749969838180586 -2.1156586841325664 2.389643620474113 43 254 107
12.140079249934262 -2.215416677020873 2.3558873725019134 43 254 107
11.688712836937183 -2.0573653632377384 2.276584505201667 43 254 107
12.581526536305562 -3.04756761484986 2.32140909726663 43 254 107
12.689460890174526 -2.940857989953969 2.31350441642702 43 254 107
20.4053409669318 -0.6550483710343966 0.9165251624303531 43 254 107
10.876700986819529 0.606775056827732 1.7167343282381518 43 254 107
10.03099844769648 0.11495644818146844 1.7291379259871191 43 254 107
11.409081556119936 0.8039273732740841 1.709879080335647 43 254 107
10.645614382080291 0.3085366871210583 1.815751249961173 43 254 107
10.587519881537279 -0.3741607974394845 1.625765631287952 43 254 107
9.57719481266818 -0.09740467058878581 1.9540948800849387 43 254 107
10.779043561461787 0.8849469986783801 2.1151069502697855 43 254 107
10.79289829543746 0.6440712419112316 2.2266263099627692 43 254 107
11.701395573370744 0.9281373151989093 1.7932581260852407 43 254 107
10.513860607635873 0.8065781429886002 1.9184195546350609 43 254 107
12.16180680367105 1.2349468029937614 2.354103518713295 43 254 107
10.713199094192737 0.9287938654494613 2.4998260374362404 43 254 107
11.765475792334422 1.1298137514029205 2.271037268787892 43 254 107
10.425803826323266 0.6162325036364441 2.3850374406329604 43 254 107
10.38491486451019 0.2876673054955112 2.7457064564876585 43 254 107
10.323471530576938 0.035451654843697354 2.7601986092372353 43 254 107
10.597923944682456 0.35066179306494044 2.5145265432730977 43 254 107
10.47430066117256 0.8348969074987963 2.7257627899790657 43 254 107
10.843817788849366 0.4928135590632315 2.4838767840107714 43 254 107
10.794754455132075 0.23057009847311147 2.662959230974643 43 254 107
12.285639743058391 1.9037803210331257 2.235871770552046 43 254 107
13.148472635065843 1.987641800842544 2.5061097459224273 43 254 107
13.604650850307177 1.59319478102617 2.5892622525931475 43 254 107
12.285639743058391 1.9037803210331257 2.235871770552046 43 254 107
13.158034254963868 1.7576126740706064 2.64707877564933 43 254 107
12.535594761314853 1.5882926876857282 2.3248322352562734 43 254 107
12.711013736270061 1.684728962618677 2.209888002848396 43 254 107
12.68583478572003 1.4881008540765248 2.211363789058245 43 254 107
13.774105805889022 1.8646949550656713 2.5696129764580373 43 254 107
14.04625418280916 1.7576126740706064 2.6808738480012533 43 254 107
10.643720206888643 1.7105819391292896 3.0335832521357373 43 254 107
12.00578933868621 3.098517446524912 2.8750066318367677 43 254 107
9.67367083956301 -0.26602246240888755 2.319066547540122 43 254 107
9.372127498978985 -0.708696410272491 1.8498699825670624 43 254 107
9.610143386430732 -0.584483312574215 2.325221124690879 43 254 107
9.562214617136178 -0.618115962086417 2.070477663696198 43 254 107
11.325692775588658 -1.8808164463771124 1.9872720862895386 43 254 107
10.730465212401928 -1.9528742791419247 2.2311109234678765 43 254 107
9.707605231469985 -0.7871254278961506 1.6307538768435732 43 254 107
9.922113239596868 -0.9320093155747917 1.73089048101945 43 254 107
10.76949112751431 -0.17660760151965318 2.6675000953752988 43 254 107
11.901591757153543 -0.7884706537949082 2.6661696518588798 43 254 107
11.615518871511393 -0.6407796202568415 2.716489928599581 43 254 107
12.347094535164466 -1.1263292468849653 2.787639331715442 43 254 107
11.901591757153543 -0.7884706537949082 2.6661696518588798 43 254 107
12.071583813269093 -0.9996771108774153 2.855727548247381 43 254 107
12.531336402465506 -1.340931832368614 2.4412459865697302 43 254 107
12.341871849255078 -2.4053048458130237 2.7887863104272004 43 254 107
12.611479232942614 -2.256304481276647 2.734676040829019 43 254 107
12.745873180991554 -1.988707438381712 2.7108655174936107 43 254 107
11.200456861927025 -2.1469393892870072 2.5972611030655086 43 254 107
12.036053561878964 -2.874745078768339 2.8659491268434296 43 254 107
12.067047071639749 -2.1469393892870072 2.6401883776591712 43 254 107
13.490041077259148 -1.6036531134005871 2.7725288334416285 43 254 107
13.162583354593858 -1.612148158195384 2.8433973352902875 43 254 107
13.490041077259148 -1.6036531134005871 2.7725288334416285 43 254 107
13.212620238361588 -1.8624253396987454 2.8313133539679276 43 254 107
11.982725746605942 -1.875661331357838 2.4974679836608846 43 254 107
12.982504567777582 -1.598052850233087 2.6727686161733857 43 254 107
12.666071783908508 -1.738197930968518 2.5597224173717272 43 254 107
13.463767398164364 -1.5940833558164702 2.606481777366435 43 254 107
12.469264541292771 -1.4858280196651432 2.2243740484785337 43 254 107
13.924392884390532 -1.6542634441357718 1.6125837776299468 43 254 107
13.876922720918163 -1.5823270304030164 1.6127268077905725 43 254 107
12.679909008686383 2.292452139505305 2.116552876719845 43 254 107
10.819651913267311 2.496814609338955 1.9081977165643376 43 254 107
10.749901133931038 2.8421873386499508 1.7184682793111559 43 254 107
10.848211620891073 2.4230186263297013 1.5322270043033022 43 254 107
12.190844981185057 2.292452139505305 2.046382459677224 43 254 107
10.304660602446853 3.0181823228116293 2.0315503504791805 43 254 107
10.177416488212227 3.1281881474484425 1.6279830139225966 43 254 107
9.824463492897953 2.672444210750652 1.9439663118273591 43 254 107
10.067255960785532 2.717445195301813 1.6286094711713663 43 254 107
11.62031089464879 2.196828838608904 2.281611882708234 43 254 107
11.873680330556935 2.0434263939697934 2.263382377741231 43 254 107
10.27819271713836 -3.04756761484986 2.0328290306620005 43 254 107
10.205097890797555 -3.0567754499151643 1.5297950867403294 43 254 107
9.240894344432542 -2.3021964219433912 1.6337859442357754 43 254 107
10.819183978846183 -2.215416677020873 2.2247582517954974 43 254 107
9.604769474196088 -2.6040721899533428 1.4225876527245593 43 254 107
10.297946044629013 -2.3021964219433912 2.0318740359331287 43 254 107
10.231340617738754 -2.74241959796778 1.3321758457962236 43 254 107
10.4263243545838 -2.9601622615303222 1.4343421570337975 43 254 107
9.997917026620692 -2.2352828060574423 1.5289449511667361 43 254 107
10.93704523874472 -2.151485588771502 2.106385351250757 43 254 107
11.102245360418449 -2.838573961733313 2.097577795617209 43 254 107
9.388804220733846 -2.455383841138106 1.7400696822928041 43 254 107
10.010267834421946 -2.940857989953969 1.9367095085672408 43 254 107
9.701346001971284 -2.838573961733313 1.4240737987062133 43 254 107
8.771081099608992 -2.544884635039226 1.408380862281684 43 254 107
12.839206218425435 -2.5813737824494676 2.5395323739722073 43 254 107
11.920138418195908 -2.38572225683314 2.504492546350162 43 254 107
12.336381898309982 -2.9368505172925254 2.7899969010133074 43 254 107
12.385071696209055 -2.8477777920095346 2.595174322684696 43 254 107
11.629533171722743 -2.4732280974803835 2.4007833559667344 43 254 107
11.80434920799109 -2.9757225924518327 2.682428957591177 43 254 107
12.615009635371326 -3.036125403909831 2.4334130652775876 43 254 107
11.455048366611255 -2.215416677020873 2.294100277182357 43 254 107
11.604047418688731 -2.2924241806981565 2.403187943123278 43 254 107
12.89841623764227 -2.393076413448101 2.6858083868895037 43 254 107
12.569867071791332 -2.646732369975989 2.4376170733877847 43 254 107
12.574482439438471 -2.7064062707834333 2.5708895677184853 43 254 107
12.385856163603746 -2.4732280974803835 2.455298742198049 43 254 107
11.825318900106785 -2.646732369975989 2.3828551762570003 43 254 107
12.805550601878144 -3.0215276905733783 2.5433677911935115 43 254 107
14.320153789823337 1.9728053729445283 1.9711879520958704 43 254 107
10.183478212013615 0.2371021685164378 2.037466041833946 43 254 107
10.183478212013615 0.2371021685164378 2.037466041833946 43 254 107
9.95783329312013 0.015405352849381453 2.048915061598164 43 254 107
9.360878273313787 -0.555264810013186 1.740579570346142 43 254 107
11.374182638499214 1.1728956490397597 2.083728029359732 43 254 107
11.147332842735343 1.1298137514029205 2.2023851559292535 43 254 107
10.800431188127064 0.5531539206249562 2.9399929372677063 43 254 107
10.47430066117256 0.8348969074987963 2.7257627899790657 43 254 107
10.615868054262286 0.16071435978242588 3.061333944300906 43 254 107
10.381291217198825 0.02331649916633461 2.5439246484445883 43 254 107
11.120415174111134 0.8224987860981998 2.609271052840208 43 254 107
10.957061127530718 0.047917428923000244 2.8790844569739447 43 254 107
10.381291217198825 0.02331649916633461 2.5439246484445883 43 254 107
9.98790844154464 0.8597172941887863 2.855413772134832 43 254 107
10.788477248625453 0.6848348561480351 2.6640818013193495 43 254 107
10.323471530576938 0.035451654843697354 2.7601986092372353 43 254 107
9.982318377686255 -0.7874205867099107 2.1641664591210015 43 254 107
9.531647276977044 -0.12561967784028236 2.332989902053123 43 254 107
9.372127498978985 -0.708696410272491 1.8498699825670624 43 254 107
10.941073999420466 -1.913242050269819 2.106166843362919 43 254 107
12.95552877591858 -1.9556133845700236 2.9007816976846392 43 254 107
10.895391082706363 -0.36757225901043067 2.6454524219498614 43 254 107
12.33847942864296 -1.588830251041853 2.339943797179667 43 254 107
12.366015591714035 -1.4762961383446083 2.337790500251465 43 254 107
11.434249350159485 -2.0022376554280656 2.4196532249800238 43 254 107
11.110227474927107 -0.5342784219779066 2.6108298286727427 43 254 107
13.881960090911045 -1.598052850233087 2.705322905094276 43 254 107
13.984346068812197 -1.6542634441357718 1.4692007818585084 43 254 107
11.697864645091675 2.4797435470464415 1.4492525587799256 43 254 107
10.398297503703114 2.93435309230118 1.6267669683013342 43 254 107
10.398297503703114 2.93435309230118 1.6267669683013342 43 254 107
12.479010479300664 2.23550736278277 1.946741818360065 43 254 107
11.13812454115312 2.5513548084301356 1.713285350151505 43 254 107
10.814287637520398 2.6305500914796043 1.8118542166931024 43 254 107
12.062657259827702 2.3578502136576946 2.1479318679031554 43 254 107
12.679909008686383 2.292452139505305 2.116552876719845 43 254 107
12.586137628399092 3.1249032255437026 2.436095970126205 43 254 107
12.259853897530164 2.135974471864486 2.2375223746616553 43 254 107
16.011189405530924 2.465871297846776 2.7158180438609802 43 254 107
11.233128466307821 -2.09797082649723 1.9909201503502372 43 254 107
10.576218270913882 -2.09797082649723 1.8173918026119376 43 254 107
9.726576355008374 -2.838573961733313 1.7341375498273415 43 254 107
10.614505487582072 -2.699358176156423 2.1245168599017235 43 254 107
10.46210148302277 -2.151485588771502 2.0240940891988974 43 254 107
10.15226832874581 -2.6040721899533428 1.9313555635737685 43 254 107
12.722659934149746 -2.917033885730303 2.423588808363056 43 254 107
12.581526536305562 -3.04756761484986 2.32140909726663 43 254 107
12.336381898309982 -2.9368505172925254 2.7899969010133074 43 254 107
12.708503111597413 -2.9757225924518327 2.7173102069232695 43 254 107
11.688712836937183 -2.0573653632377384 2.276584505201667 43 254 107
12.805550601878144 -3.0215276905733783 2.5433677911935115 43 254 107
18.46575651669412 -0.5696267471139804 1.097427408402817 43 254 107
20.599286377947816 -0.5696267471139804 0.9237264385318181 43 254 107
10.425803826323266 0.6162325036364441 2.3850374406329604 43 254 107
10.727477751674897 0.8101137791342761 2.2313272170098233 43 254 107
13.248769712572559 -1.585510782474243 2.18005121696423 43 254 107
10.396375425226768 0.4376299595449934 1.922517234233732 43 254 107
12.28908050800166 -1.9237142939763234 2.6081564679560167 43 254 107
10.815884921777418 0.9690840296208095 2.6592076182103637 43 254 107
12.623464969223956 1.7123986006911818 2.432631269262348 43 254 107
13.28358379547227 1.9092409616908708 2.629825252599769 43 254 107
10.541292569870967 0.5076532486533327 2.711597581146074 43 254 107
12.24042248899134 1.9412380942820613 2.3477278895995277 43 254 107
14.625416768725902 -1.510271280534857 1.889430105099982 43 254 107
11.97904731654095 -2.187812730681019 2.497876992949849 43 254 107
11.548250612514527 -2.4988480892342615 2.5493837417847187 43 254 107
10.29930101749079 -2.544884635039226 2.143550770917386 43 254 107
9.264062956862242 -2.455383841138106 1.5256275149972043 43 254 107
10.544144389261216 3.0302235896220786 1.8181575707940008 43 254 107
16.360865477605902 2.5502686103476777 2.670900339930904 43 254 107
9.938293550861195 -2.838573961733313 1.833582954810311 43 254 107
10.711247113786735 2.8117183031051525 2.012794239506536 43 254 107
9.565358343634841 -2.455383841138106 1.315203509578879 43 254 107
12.44644230454864 -2.7203664037490007 2.766633483771514 43 254 107
14.63304771212411 2.8516438971209737 2.605701116344745 43 254 107
11.784354073027332 -1.340931832368614 2.386528986893476 43 254 107
11.37129169390396 -1.9528742791419247 2.3006224371922914 43 254 107
11.013481796739018 0.9482259583485948 1.999847222100436 43 254 107
12.695603615417271 -1.2091075005327385 2.7195651565136045 43 254 107
12.90107945718797 -2.4296423754159533 2.9186164378940775 43 254 107
12.396526046631731 -1.5911229375938136 2.4542486400464374 43 254 107
12.38600091942498 2.084909916728916 2.1310272180199292 43 254 107
10.462237926567743 2.9124752364567326 2.0240877363054404 43 254 107
12.44644230454864 -2.7203664037490007 2.766633483771514 43 254 107
12.299347564118845 -2.7611034640611503 2.4639310548215674 43 254 107
11.844572260433827 -1.988707438381712 2.675607329548562 43 254 107
13.374445519326915 1.4679022340320376 2.4835447812338938 43 254 107
9.396109677202842 -0.20779117455941568 1.8491386784801032 43 254 107
12.695603615417271 -1.2091075005327385 2.7195651565136045 43 254 107
9.521607006625834 -0.3502174011088353 2.072807245619153 43 254 107
16.99512107050559 -0.8705644037394801 1.4280176724839548 43 254 107
9.426085807600707 -0.31328627850096447 1.7393937510434465 43 254 107
12.562698874977997 1.4790976187322005 2.3228079061075073 43 254 107
13.083021778632997 -2.216976823643665 2.8638658294452983 43 254 107
10.255590914196201 -1.0607070000825198 2.2675959184340195 43 254 107
10.788477248625453 0.6848348561480351 2.6640818013193495 43 254 107
12.207315262457604 1.269400701691826 2.2409137859860224 43 254 107
11.28662380026302 -1.2242094776123358 2.3073537323169098 43 254 107
12.790754498814824 1.4536072766817467 2.545067230583382 43 254 107
14.63304771212411 2.8516438971209737 2.605701116344745 43 254 107
12.116017316891536 -2.634907229242969 2.6328634615614144 43 254 107
11.393430492104924 -2.3808128327346454 2.298885462466977 43 254 107
