7.913139551232916 1.0787503757979975 1.775014457623956 36 20 227
8.546166802164096 1.0787503757979975 2.00622910159955 36 20 227
7.43652305888874 1.6289315420512835 2.2385373312673624 36 20 227
7.750654320104533 1.4743508006147938 2.054539237932585 36 20 227
7.837713908361119 1.7644422040412582 2.0487123468228923 36 20 227
6.983612169830351 1.7966208672815696 2.113180540599866 36 20 227
7.317213002432941 1.6204342954946205 1.9347612033845236 36 20 227
7.61214544565602 1.2932643262406556 2.2204713488500083 36 20 227
7.64220020132157 1.6591627419584476 2.614460636607698 36 20 227
8.291001311516922 1.841313013567828 2.492483151410961 36 20 227
7.518717179214339 1.841313013567828 2.4119999623180135 36 20 227
7.406250708775102 1.640933093790482 2.42914756032582 36 20 227
8.208750564368067 1.4348299520160577 2.5058053999192857 36 20 227
8.11212144373751 2.210684923831977 2.031269137512831 36 20 227
8.997446110477446 2.3980658010105036 1.8645050174566102 36 20 227
8.249014803934815 2.1368226964734527 1.7665890003312894 36 20 227
7.461811456611095 2.1757538110466053 2.235867594075539 36 20 227
8.50034352024071 2.1368226964734527 1.8822412478469894 36 20 227
7.788388288018658 1.9524106066800069 2.2033903335937155 36 20 227
9.051762172189422 2.2343414282097833 1.8626905935429816 36 20 227
8.858071725192833 2.1368226964734527 1.9899095348220173 36 20 227
7.759488802800991 2.021867568113583 2.377940715809031 36 20 227
7.985007253386919 2.1191657643508126 2.544813266686199 36 20 227
7.179884825683431 2.1191657643508126 2.4664614699934257 36 20 227
7.657418463914433 1.959068165442735 3.024291363712252 36 20 227
7.810043229704258 -2.4233251716282194 2.9118290681419445 36 20 227
7.93558670559358 2.202718263616495 2.8518439511793594 36 20 227
7.72267170934302 -1.056920593790469 2.9666503612041075 36 20 227
7.93558670559358 2.202718263616495 2.8518439511793594 36 20 227
8.223895471898237 2.0128843414793147 2.7510946340317544 36 20 227
7.614271938982934 -2.6758246814334496 3.0917012485273547 36 20 227
5.9424843402551595 -1.824247308422507 2.0245414330099774 36 20 227
6.337633465354243 -1.4436994893030444 2.175833120928387 36 20 227
6.841672384849758 -1.0955430212147423 2.125731654163263 36 20 227
5.799531159878069 -1.6363201506915503 2.0365981002276587 36 20 227
7.356101063898935 -1.3653430080242654 2.6856959235300386 36 20 227
7.794556173556823 -0.8726050346418431 2.5817906886703392 36 20 227
7.334219885037275 -1.6774005747988279 2.6918185025582244 36 20 227
7.180887779741211 -1.191840190881015 2.4662870411878695 36 20 227
6.9944453836454334 -1.6519689680791707 2.500296787484253 36 20 227
7.080131365488359 -2.1236408793447277 2.7730786485502725 36 20 227
6.9836339561155265 -1.275304176355226 2.8107029240247536 36 20 227
6.9836339561155265 -1.275304176355226 2.8107029240247536 36 20 227
7.923381785936361 2.438652672730917 2.5563591574112787 36 20 227
8.164073420895644 2.4778859421155888 2.769298975530856 36 20 227
7.623716846459693 2.6403933072786607 2.618640881315871 36 20 227
8.111696309328552 2.742601432192588 2.5222002494097477 36 20 227
8.444584962713646 2.2616415896582964 2.6918364607847924 36 20 227
8.393958385975546 2.5637722953023303 2.4764865931828224 36 20 227
7.946112045778093 2.952719462540628 2.552056434872803 36 20 227
7.958282106104633 -3.0688186796311987 2.842427204444909 36 20 227
7.40291954660888 -3.0905661399564255 2.67296327514678 36 20 227
8.794901441779903 2.952719462540628 2.615314284861815 36 20 227
7.999573391816588 2.8008440453483883 2.8261217016604725 36 20 227
7.103924196038971 -2.6776372365725454 2.764500477807798 36 20 227
6.638507996364746 -2.081973802649606 2.3373395693208225 36 20 227
6.851153444134494 -2.206454827433373 2.528862310292659 36 20 227
7.7126763883968525 -2.565215682475242 2.598967585757344 36 20 227
7.890893474508483 1.1426108963928014 2.193900066097314 36 20 227
7.052316184010696 1.2932643262406556 2.1073195668825218 36 20 227
8.16795723973827 1.199292185365613 2.0278810856015546 36 20 227
7.3523197087366965 1.1426108963928014 2.0832232383242717 36 20 227
6.864576947623845 1.6204342954946205 1.6590148074629096 36 20 227
8.243833791149521 1.6204342954946205 2.163462826784687 36 20 227
8.348953669067276 1.2395902880947298 2.4833898186454015 36 20 227
7.4279197021407395 1.4348299520160577 2.4257768758932077 36 20 227
7.663202036831491 1.3999421781891854 2.6097711346414854 36 20 227
8.189147958597047 1.640933093790482 2.509056029270483 36 20 227
8.323189175500254 2.3123339819159603 1.8891007897288632 36 20 227
7.0710728856540195 2.021867568113583 2.2799822905140608 36 20 227
9.051762172189422 2.2343414282097833 1.8626905935429816 36 20 227
9.575256002696957 1.9323672802399654 1.7391894081471986 36 20 227
9.575256002696957 1.9323672802399654 1.7391894081471986 36 20 227
8.11715621018686 2.1757538110466053 2.33295953559159 36 20 227
7.723709964813804 -3.0149372673326273 2.9658914521761153 36 20 227
6.35540950356604 -1.881522618987919 2.3811742555454254 36 20 227
7.017386106308943 -1.4136764255405763 2.4959306211077306 36 20 227
7.356101063898935 -1.3653430080242654 2.6856959235300386 36 20 227
6.960581993827163 -1.7258526058202543 2.820483059978121 36 20 227
7.147907719971535 -0.917689208778657 2.7492562830363143 36 20 227
7.113425664514956 -1.881522618987919 2.478217178733856 36 20 227
7.447774149493076 -1.9704742569687097 2.6612030334981656 36 20 227
7.241719415664501 2.4778859421155888 2.719047639741673 36 20 227
8.111696309328552 2.742601432192588 2.5222002494097477 36 20 227
8.346959500970463 2.8981251705018534 2.716707135948293 36 20 227
8.307395051406086 -3.0905661399564255 2.7273589875586106 36 20 227
7.623716846459693 2.6403933072786607 2.618640881315871 36 20 227
8.042097593888702 -2.6776372365725454 2.8103028675265493 36 20 227
6.244331717162288 -1.9956646932775772 2.001098994903345 36 20 227
7.335313122992991 -2.3935930503095197 2.6915098917730487 36 20 227
7.3391448863742 1.4743508006147938 1.9336230815689124 36 20 227
8.688214590911478 2.3123339819159603 1.9986364477550322 36 20 227
7.458104098603265 1.4579362885565936 2.2362575039365895 36 20 227
8.540155747049395 1.3999421781891854 2.66918487423408 36 20 227
7.582574275380983 1.2395902880947298 2.4026307628863046 36 20 227
7.635350594504603 -0.2525985888647866 3.0521027568964354 36 20 227
7.904541496718513 -3.1023114546715047 2.559965734208906 36 20 227
7.492949849214865 -2.804439813594316 2.6497586514366 36 20 227
7.701832041148922 -1.8529140119555492 2.9826873154095903 36 20 227
6.518208303007576 -1.260015153755249 2.156798951869959 36 20 227
7.475733465383549 -1.002917518487068 2.4184534746752173 36 20 227
7.241719415664501 2.4778859421155888 2.719047639741673 36 20 227
7.751243924484674 1.9072310845129228 2.590771734898125 36 20 227
7.5650052590768455 2.287923192069453 2.4051831086458875 36 20 227
6.970751781771269 1.7644422040412582 1.5140715043315962 36 20 227
6.312222778147106 -1.6363201506915503 2.178619762422677 36 20 227
8.121200543819072 1.690136062269725 2.7830606448339945 36 20 227
7.518717179214339 1.841313013567828 2.4119999623180135 36 20 227
7.5565481845831535 2.2616415896582964 2.6342723235871843 36 20 227
7.829110926676951 1.7541662516731023 2.901638123080291 36 20 227
7.766248514648422 2.587078671946607 2.937331779584528 36 20 227
7.923381785936361 2.438652672730917 2.5563591574112787 36 20 227
7.829110926676951 1.7541662516731023 2.901638123080291 36 20 227
7.54853851186871 1.7966208672815696 2.2268884941141276 36 20 227
7.406250708775102 1.640933093790482 2.42914756032582 36 20 227
7.512234314936796 -1.08829248133895 2.644988284584027 36 20 227
7.242195620002522 1.9524106066800069 2.0917980922478763 36 20 227
