11.760673422744539 -0.13592167209752073 2.1823798777185104 6 96 204
11.760673422744539 -0.13592167209752073 2.1823798777185104 6 96 204
11.91314181980964 -0.23704349115955342 2.173432628874438 6 96 204
11.120295617037883 -0.555830807929713 2.012386281597094 6 96 204
11.259012226640245 -0.6359392600875804 1.910591729733516 6 96 204
11.259012226640245 -0.6359392600875804 1.910591729733516 6 96 204
11.58300917566057 -0.555830807929713 2.0905174263445585 6 96 204
12.146293948416734 -0.33346932293290976 2.1602850573009533 6 96 204
11.971001353214104 -0.76954429727815 2.072068450841421 6 96 204
11.160492502617855 -0.4668922044978826 2.1123172787842703 6 96 204
11.70733615533928 -0.4668922044978826 2.185578414372971 6 96 204
11.924784764905876 -0.6964045689651596 2.172761031030772 6 96 204
11.58300917566057 -0.555830807929713 2.0905174263445585 6 96 204
11.923160707520095 1.2865773155350422 2.278657704740621 6 96 204
11.645665075524068 0.8795276790967729 2.299232904879882 6 96 204
11.906323269967094 1.8464913445566278 2.2798685938261882 6 96 204
12.49939525798051 -0.8405705985967558 2.2398386884220747 6 96 204
12.006441451385477 -0.9219237320065823 2.2727364375425507 6 96 204
12.271084621539947 -1.014696304688652 2.3649451875127028 6 96 204
11.679855598835019 -1.2361402598899975 2.4179103391878014 6 96 204
11.942586535285313 -0.7670763005536293 2.2772664596334087 6 96 204
18.104663880898418 -0.08587409585453298 2.9440506756180005 6 96 204
17.935958540056607 -0.11940548583719163 2.998467069048119 6 96 204
12.182333729954063 -0.8336180934197359 1.9715574794901551 6 96 204
12.205594488339543 -1.1889012389427671 1.632492717023733 6 96 204
11.46094000673342 -1.033760330592188 1.9043701746000807 6 96 204
11.238195432003698 -1.2398856881576268 1.8182431100431924 6 96 204
11.396146502413087 -1.1557992361116534 1.7251946642471583 6 96 204
12.228144549795504 -1.00527320632911 1.632378797824712 6 96 204
11.523982103467263 -1.2398856881576268 1.9024751374413904 6 96 204
11.056616305571069 -0.9824920224546851 2.015110640735153 6 96 204
11.592121551191008 -1.1557992361116534 1.8105375164963082 6 96 204
12.019048529200024 -1.0775014954273454 1.8018637973822076 6 96 204
12.33015190838371 -1.00527320632911 1.713415727976957 6 96 204
12.205594488339543 -1.1889012389427671 1.632492717023733 6 96 204
11.718411700719221 -1.3497721250800159 1.720915939267947 6 96 204
11.611031213222542 -1.3497721250800159 1.6356563182525143 6 96 204
11.217124527488018 -0.9037143800884669 1.9119121254447258 6 96 204
11.031671759607026 -1.207244049398679 2.0161873761892544 6 96 204
11.46094000673342 -1.033760330592188 1.9043701746000807 6 96 204
11.774030330701674 -1.3042979691745453 2.1815845423420623 6 96 204
12.052344918515653 -0.9824920224546851 2.1655076740350827 6 96 204
11.075813540867632 -1.0704982493062776 2.116922369767447 6 96 204
10.704830690038426 -1.1678448537177881 2.138123828928239 6 96 204
11.89973335872021 -1.1678448537177881 2.280343793429153 6 96 204
11.62664063886004 -1.0704982493062776 2.190487406529578 6 96 204
11.641452165385568 -1.2739687262165074 2.2995557944564218 6 96 204
11.920179957734213 -1.6114538957773663 1.891050288068172 6 96 204
11.73652649854291 -1.4353932061641477 1.8075310238519233 6 96 204
11.074370074260536 -1.4224369908886119 1.9164919080833211 6 96 204
11.45193431236847 -1.4224369908886119 1.9987401602617814 6 96 204
11.543003391573395 -1.4353932061641477 1.723214861821741 6 96 204
11.73652649854291 -1.4353932061641477 1.8075310238519233 6 96 204
12.920543841172552 -1.7850531304417603 2.0322230909323746 6 96 204
12.86692654229652 -1.4067635521779014 2.318882665708602 6 96 204
11.814045918238556 -1.5184293405687552 2.0793629521996193 6 96 204
13.127878670808334 -1.8051239026731856 2.202526596667701 6 96 204
12.782695633765917 -1.6201800435376559 2.325015350116836 6 96 204
13.395729920567485 -1.7850531304417603 2.099116520640598 6 96 204
12.903553362342516 -1.6153944125889759 2.2153083409370824 6 96 204
12.415999895338768 -1.4224369908886119 2.145826153369572 6 96 204
12.331942584660945 -1.5184293405687552 2.150250022927858 6 96 204
12.152377887445802 1.9494949216726056 2.262624663603756 6 96 204
13.02877847578469 2.2549087146362354 2.4166540362764257 6 96 204
12.068584521160593 2.802000459056868 1.9755542575144347 6 96 204
12.535219307131316 2.6808832498573096 2.1396745716231753 6 96 204
13.046923870162113 2.634917531237827 2.306154277931945 6 96 204
13.336555184403618 2.3350980400251236 2.508577439026398 6 96 204
12.7767898430494 2.769195938862501 2.2227861497118737 6 96 204
12.39826985997163 2.634917531237827 2.2463045093028304 6 96 204
13.60929562427679 -2.6708952264044954 2.3697266807791943 6 96 204
12.43407889658922 -2.3667004900002815 2.1448841288494567 6 96 204
12.470041551545961 -2.4399179566819487 2.2417013120860534 6 96 204
12.526634178999544 -2.50113614119557 2.1401128369406877 6 96 204
13.092810653469504 -2.50113614119557 2.204487986417689 6 96 204
13.278452812669176 -2.581521531792119 2.290491365926096 6 96 204
12.521561571130576 2.994728961272601 1.960106591072229 6 96 204
13.35360503206469 3.0858516980369273 1.9346745124587927 6 96 204
12.695668376149655 2.9106008811437034 1.9544869378776484 6 96 204
12.934242580558749 2.994728961272601 2.0316965435079433 6 96 204
12.524211246856941 2.864033604717969 2.238272938063801 6 96 204
12.826287399619355 -3.115005761378642 2.0358803929449256 6 96 204
13.084863641475598 -3.0174946799339586 2.204934326313917 6 96 204
13.304840300084749 -3.115005761378642 2.1031083684757252 6 96 204
12.565030981877532 2.9809184702232234 2.138158302270133 6 96 204
13.36518926439902 -3.0282266891373317 2.1004507622809276 6 96 204
12.90658791601863 3.068230396684394 2.3160346355581916 6 96 204
12.841500683143954 3.080999109508497 2.035286004462164 6 96 204
13.028148977599598 -2.943125114917084 2.028120450260447 6 96 204
12.998865449394826 2.9642710639601106 2.3095038259579486 6 96 204
13.084863641475598 -3.0174946799339586 2.204934326313917 6 96 204
14.013076416855132 -2.808941908855802 1.9168116958590578 6 96 204
14.013076416855132 -2.808941908855802 1.9168116958590578 6 96 204
13.87664194860818 -2.7080646627162213 1.9982447062448552 6 96 204
13.241683217966553 -2.8608338364707273 2.0201999120255336 6 96 204
14.288831317932193 -2.6386273966504854 1.985142592106325 6 96 204
13.241683217966553 -2.8608338364707273 2.0201999120255336 6 96 204
13.432522988660965 -2.835571634117427 2.1860292131532604 6 96 204
13.331614180416366 -2.6305232573426727 2.1913887751866437 6 96 204
14.288831317932193 -2.6386273966504854 1.985142592106325 6 96 204
13.17334640667389 -2.751169870218841 2.1089981770115624 6 96 204
14.275997281869657 -1.9884163372462984 1.9101798927039253 6 96 204
13.263463466778697 -2.197400037643478 1.8576385194669793 6 96 204
12.838032615056349 -2.2465897240796133 1.9500142453859497 6 96 204
12.283945901660786 -2.1776565363360123 1.9680553226888349 6 96 204
13.263463466778697 -2.197400037643478 1.8576385194669793 6 96 204
13.003469076372646 -2.0580304571798242 2.0290546839207817 6 96 204
13.102502832015832 -1.9792533816837736 2.11222913719885 6 96 204
13.147631256693494 -1.8677989221867122 2.023653082478701 6 96 204
13.243359526746206 -2.1523839716051136 2.2928164307383105 6 96 204
13.530570043674631 -2.017756708598831 2.274273432622648 6 96 204
13.351440106062947 -1.8947251848606768 2.1903277452770364 6 96 204
11.991286219818383 -2.231886301977293 2.07114174600921 6 96 204
13.902700785294579 -1.9465639606966056 2.077961902792357 6 96 204
13.902700785294579 -1.9465639606966056 2.077961902792357 6 96 204
13.069093278106795 -2.231886301977293 2.2058221037349344 6 96 204
14.487864790748928 -1.9602106062198237 1.6920609961157642 6 96 204
11.998222291022605 -0.3692216715566423 2.2733158492449164 6 96 204
11.762135413365387 -0.2635940913903047 2.2904335684342416 6 96 204
12.045584667421034 -0.6130957583700064 2.269991732050248 6 96 204
12.296709220239665 -0.03193362817031455 2.2529399336878586 6 96 204
11.523877231449879 -0.76954429727815 1.995894379960055 6 96 204
11.924784764905876 -0.6964045689651596 2.172761031030772 6 96 204
12.045584667421034 -0.6130957583700064 2.269991732050248 6 96 204
11.906323269967094 1.8464913445566278 2.2798685938261882 6 96 204
11.905030653555691 -0.8405705985967558 2.173901463993779 6 96 204
17.935958540056607 -0.11940548583719163 2.998467069048119 6 96 204
18.104663880898418 -0.08587409585453298 2.9440506756180005 6 96 204
11.549848535878143 -0.8336180934197359 1.8114322857468554 6 96 204
11.523982103467263 -1.2398856881576268 1.9024751374413904 6 96 204
11.507525251824166 -0.9581403049229466 1.7236884642732224 6 96 204
11.869974360718155 -1.2673162614131557 1.634239476686116 6 96 204
11.718411700719221 -1.3497721250800159 1.720915939267947 6 96 204
11.012397574927288 -1.116846574287684 1.9185194473536895 6 96 204
11.238195432003698 -1.2398856881576268 1.8182431100431924 6 96 204
11.830147953180477 -1.0775014954273454 1.7194874589488864 6 96 204
12.071958082167347 -1.3291144110216804 2.06749167058253 6 96 204
11.230434687720592 -1.3042979691745453 2.1085753970190133 6 96 204
11.641452165385568 -1.2739687262165074 2.2995557944564218 6 96 204
12.034705504141897 -0.9037143800884669 2.069170217239812 6 96 204
11.521887479130537 -0.9824920224546851 2.0935554526024633 6 96 204
11.273798253273542 -1.1678448537177881 2.212999095711664 6 96 204
11.641452165385568 -1.2739687262165074 2.2995557944564218 6 96 204
11.452540408494382 -1.5230542619484029 1.7244283313668953 6 96 204
12.271748741637984 -1.6114538957773663 1.9684723750125745 6 96 204
11.433975701598717 -1.4353932061641477 1.6366621212600225 6 96 204
14.399703201861987 -1.8051239026731856 2.314849236459502 6 96 204
11.814045918238556 -1.5184293405687552 2.0793629521996193 6 96 204
12.903553362342516 -1.6153944125889759 2.2153083409370824 6 96 204
12.208712941654813 -1.4067635521779014 2.2588081081403706 6 96 204
13.395729920567485 -1.7850531304417603 2.099116520640598 6 96 204
13.02877847578469 2.2549087146362354 2.4166540362764257 6 96 204
12.173242474702931 2.4895387686837633 2.2612056185719287 6 96 204
13.793266310928512 2.2549087146362354 2.4647459931380635 6 96 204
13.35360503206469 3.0858516980369273 1.9346745124587927 6 96 204
12.469543385304446 3.075222418294608 2.1430458034438233 6 96 204
12.888877263752722 -3.0282266891373317 2.0334450954959857 6 96 204
13.64932803884273 -3.004532322181642 2.366717933113035 6 96 204
12.998865449394826 2.9642710639601106 2.3095038259579486 6 96 204
13.023215726292891 -3.1124653383888665 2.2084203000938487 6 96 204
12.565030981877532 2.9809184702232234 2.138158302270133 6 96 204
13.64932803884273 -3.004532322181642 2.366717933113035 6 96 204
13.222071138004729 -2.9247157907548433 2.1973234489335227 6 96 204
12.888877263752722 -3.0282266891373317 2.0334450954959857 6 96 204
13.331614180416366 -2.6305232573426727 2.1913887751866437 6 96 204
13.87664194860818 -2.7080646627162213 1.9982447062448552 6 96 204
13.980586899717395 -2.7822636025354837 2.0748690558942102 6 96 204
14.11601675244468 -2.8823304461128676 1.990533337906438 6 96 204
13.705739724586268 -2.8608338364707273 2.085964764523194 6 96 204
13.705739724586268 -2.8608338364707273 2.085964764523194 6 96 204
13.057750019715359 -2.1307486993117495 1.94331763105322 6 96 204
13.614893852509786 -1.8677989221867122 2.0897465719764243 6 96 204
13.003469076372646 -2.0580304571798242 2.0290546839207817 6 96 204
13.644805143940602 -1.9792533816837736 2.1750761716376674 6 96 204
13.445443918752012 -1.9465639606966056 2.012903311131658 6 96 204
12.55829207002003 -2.3026525112077882 2.0466179263115354 6 96 204
14.642518675014468 -1.9602106062198237 1.7599057703236574 6 96 204
11.388387275475237 -0.6964045689651596 2.1003235647870033 6 96 204
12.146293948416734 -0.33346932293290976 2.1602850573009533 6 96 204
11.58300917566057 -0.555830807929713 2.0905174263445585 6 96 204
11.923160707520095 1.2865773155350422 2.278657704740621 6 96 204
11.750809153742258 1.3954920762848195 2.291278643034938 6 96 204
12.271084621539947 -1.014696304688652 2.3649451875127028 6 96 204
11.937305906246852 -1.1195179712823504 2.39382832023887 6 96 204
11.923545433907092 -1.5230542619484029 1.8909566737594867 6 96 204
12.331942584660945 -1.5184293405687552 2.150250022927858 6 96 204
13.127878670808334 -1.8051239026731856 2.202526596667701 6 96 204
11.257083016099488 -1.3291144110216804 1.9106523134697762 6 96 204
11.628716394532997 -1.3291144110216804 1.9918167852967503 6 96 204
12.205594488339543 -1.1889012389427671 1.632492717023733 6 96 204
11.031671759607026 -1.207244049398679 2.0161873761892544 6 96 204
12.23786615223298 2.8894038944852958 2.060158054891767 6 96 204
13.331614180416366 -2.6305232573426727 2.1913887751866437 6 96 204
13.023215726292891 -3.1124653383888665 2.2084203000938487 6 96 204
13.727104682632678 -3.1171386742158917 2.0032127680947625 6 96 204
14.11601675244468 -2.8823304461128676 1.990533337906438 6 96 204
13.499547871527195 -2.943125114917084 2.0946337256583556 6 96 204
13.432522988660965 -2.835571634117427 2.1860292131532604 6 96 204
13.36518926439902 -3.0282266891373317 2.1004507622809276 6 96 204
13.284989772821884 -2.101441202770908 2.193899674587015 6 96 204
16.915007846358794 -2.4047630741776764 1.674592575269171 6 96 204
12.604818308945768 -2.1523839716051136 2.2332426832903587 6 96 204
13.243359526746206 -2.1523839716051136 2.2928164307383105 6 96 204
13.057750019715359 -2.1307486993117495 1.94331763105322 6 96 204
13.644805143940602 -1.9792533816837736 2.1750761716376674 6 96 204
11.645665075524068 0.8795276790967729 2.299232904879882 6 96 204
12.32998521783726 -1.2739687262165074 2.3600957689318216 6 96 204
11.62664063886004 -1.0704982493062776 2.190487406529578 6 96 204
12.052344918515653 -0.9824920224546851 2.1655076740350827 6 96 204
11.82810754748415 -0.8336180934197359 1.8936331944295837 6 96 204
12.785834081325177 -1.5128133550943477 2.3247847607112218 6 96 204
11.396146502413087 -1.1557992361116534 1.7251946642471583 6 96 204
11.810649239926263 -1.6153944125889759 2.079523287104952 6 96 204
11.59003924144773 -0.9037143800884669 1.9933116310522212 6 96 204
12.195951448752382 2.769195938862501 2.1575643549502743 6 96 204
12.841500683143954 3.080999109508497 2.035286004462164 6 96 204
13.587772258400422 -2.7145438326695035 2.270707829508244 6 96 204
12.934242580558749 2.994728961272601 2.0316965435079433 6 96 204
13.278452812669176 -2.581521531792119 2.290491365926096 6 96 204
13.423657837173229 -2.020728791418298 1.9326878238438054 6 96 204
13.147631256693494 -1.8677989221867122 2.023653082478701 6 96 204
13.046678760092663 -2.3026525112077882 2.114804311649862 6 96 204
11.592121551191008 -1.1557992361116534 1.8105375164963082 6 96 204
12.704347833244091 -2.1776565363360123 2.0407026200874014 6 96 204
13.263463466778697 -2.197400037643478 1.8576385194669793 6 96 204
12.841500683143954 3.080999109508497 2.035286004462164 6 96 204
11.570209074556827 -0.7075891449240718 1.8110004849587409 6 96 204
11.377706763301061 -0.3692216715566423 2.2061854339289946 6 96 204
13.487121064876048 -1.6201800435376559 2.3790789020982244 6 96 204
13.445443918752012 -1.9465639606966056 2.012903311131658 6 96 204
13.525963296838588 -2.7822636025354837 2.010087313553605 6 96 204
13.304840300084749 -3.115005761378642 2.1031083684757252 6 96 204
11.701635115422794 -0.9581403049229466 1.8082504598650824 6 96 204
