11.131329379607791 0.5973708246132319 1.3768458959267453 67 81 181
10.557265564278895 0.5177321677544906 1.7473815692145451 67 81 181
11.494705284325791 0.7923620535560255 1.4709833836931085 67 81 181
11.222287771392446 0.39173477960598935 1.8279898193878328 67 81 181
10.886753779846725 0.39173477960598935 1.6493747385849313 67 81 181
10.107845898618725 0.4301684299545365 1.7553213303368804 67 81 181
11.469375943548314 0.7923620535560255 1.6453754900631894 67 81 181
10.956002747294555 0.5973708246132319 1.6488770575688334 67 81 181
10.767692046062892 0.4763311919993403 2.1456566931339944 67 81 181
10.657714749005102 0.4301684299545365 1.9408556661549419 67 81 181
11.418703056449337 0.7269883015586361 1.915127899233564 67 81 181
10.767692046062892 0.4763311919993403 2.1456566931339944 67 81 181
11.470978974617434 0.5177321677544906 2.0077769093819895 67 81 181
11.418703056449337 0.7269883015586361 1.915127899233564 67 81 181
11.68408348856757 0.6530265823521815 2.095635031805679 67 81 181
11.744771899181373 0.5696492536005927 2.1939863752188042 67 81 181
11.190643390052768 0.5696492536005927 2.1213600708764675 67 81 181
10.821250944640356 0.6530265823521815 1.9349996690865376 67 81 181
11.744771899181373 0.5696492536005927 2.1939863752188042 67 81 181
11.076334496522747 2.4107523880755353 1.8314572141767518 67 81 181
19.503001209494794 2.425983241506158 1.250233195213032 67 81 181
18.774838444550237 2.425983241506158 1.4024689520143703 67 81 181
10.504255175697493 2.6208914384359643 1.7482821700167803 67 81 181
10.726068444525064 2.6208914384359643 1.8401776689130118 67 81 181
11.239922231097594 2.541012653006527 1.8275771883836014 67 81 181
10.953996653205152 2.7476643186216396 1.7409223788394452 67 81 181
11.615248243801712 2.4689993380314603 1.731150680672044 67 81 181
20.199621191244272 2.6028100191268333 1.3641053114206847 67 81 181
19.039565590211204 2.575685263411008 1.4578744993487829 67 81 181
20.405502435188787 2.670884174530561 1.4160337740429745 67 81 181
19.90914439114606 2.5323238863248183 1.3610449873216188 67 81 181
20.42830215140984 2.6028100191268333 1.3161771896997878 67 81 181
20.419493025698877 2.5323238863248183 1.2650989244467687 67 81 181
19.95029315636168 2.460026950532298 1.3099360576994212 67 81 181
19.29464242186475 2.647354056459441 1.6151020660095192 67 81 181
18.681057101328573 2.501653378351655 1.6165583027247972 67 81 181
18.681057101328573 2.501653378351655 1.6165583027247972 67 81 181
20.009787097882548 2.763196135322551 1.3107296595947733 67 81 181
20.159068794652722 2.716075762608274 1.3636834849779271 67 81 181
20.592286069906102 2.8283751231543133 1.318249242453979 67 81 181
20.086415946625024 2.876798808392559 1.362923395622414 67 81 181
19.669417011615145 2.9265273802774643 1.4101927385708921 67 81 181
20.054170340012952 2.8283751231543133 1.4636101502181964 67 81 181
20.185652839226837 2.8283751231543133 1.4143343827981016 67 81 181
19.76146647161965 2.716075762608274 1.5128017143574086 67 81 181
19.68734639361634 2.876798808392559 1.512583126327567 67 81 181
19.370809214497516 2.763196135322551 1.511630765502074 67 81 181
19.35578943327808 2.763196135322551 1.614962008212823 67 81 181
19.435087740956824 2.9265273802774643 1.6147816885325446 67 81 181
11.981089628005492 0.9877127222459683 1.9879798715052321 67 81 181
12.486104957190854 1.0677848842339672 2.1519360826916083 67 81 181
13.061852260780427 1.0677848842339672 2.2159705674936183 67 81 181
12.710230440444517 1.1555744705759967 2.2369586335165685 67 81 181
11.607889033715416 0.7933445972865251 2.0994398323014924 67 81 181
11.80344135509079 0.858589418361418 1.9946601933903687 67 81 181
11.428563354271557 0.858589418361418 1.9148185091760077 67 81 181
12.248689534131243 0.858589418361418 2.0691457123059127 67 81 181
12.82133782532936 0.933352419726327 2.2301651555908864 67 81 181
11.729740313025557 0.6315989086385886 2.3045065564752116 67 81 181
12.201398087739886 0.718146264106733 2.270177903611855 67 81 181
12.382434211332162 1.0174033853248505 2.2579414330513434 67 81 181
13.039702622316119 1.0174033853248505 2.317261319743425 67 81 181
13.170258329828652 0.9572147995811771 2.4162095059360653 67 81 181
12.87666741153178 0.869651256865006 2.3290376168653824 67 81 181
13.449072996694015 0.8846391790429955 2.5099994820789404 67 81 181
13.343193721459086 1.169523357509254 2.520928153988793 67 81 181
12.200318216287679 1.3263840592115685 2.3829444388945116 67 81 181
12.406038497922424 1.2144885974373434 2.3656080771211245 67 81 181
12.200318216287679 1.3263840592115685 2.3829444388945116 67 81 181
12.687466959373157 1.1111661103065114 2.3432575172034076 67 81 181
12.835634429349394 1.1124773917038906 2.5785970486931467 67 81 181
13.536520891024214 0.9060819391839648 2.6377797738763373 67 81 181
14.17337428703382 1.0383020921315436 2.7067894538338653 67 81 181
13.505578552994907 1.2515193210301914 2.6419516198501816 67 81 181
13.536520891024214 0.9060819391839648 2.6377797738763373 67 81 181
14.602889167664125 1.1150594435630043 2.820073171225566 67 81 181
13.505578552994907 1.2515193210301914 2.6419516198501816 67 81 181
14.17337428703382 1.0383020921315436 2.7067894538338653 67 81 181
13.99365970885026 1.194730470860669 2.7353209190694963 67 81 181
11.361187018307545 1.444863025809578 2.3341554744712125 67 81 181
12.030116845325168 1.5669880648426626 2.3979902641266024 67 81 181
12.074176491398022 1.444863025809578 2.3940311632241054 67 81 181
12.171506534039223 1.5664549739094737 2.5143411436227416 67 81 181
14.460993007970707 1.5633119327139968 2.850970774771803 67 81 181
12.069038266528285 1.6892262418279107 2.394490513513693 67 81 181
11.4181599741131 1.7056164999921186 2.458275344932046 67 81 181
11.546096767357623 1.8397457297376545 2.444777113702396 67 81 181
11.77854874579926 1.8809447402131103 2.5619440522382018 67 81 181
11.50586269861723 2.094292563761562 2.599214746481042 67 81 181
10.20987749125035 2.662095026937067 2.0663049214294067 67 81 181
9.989193491658003 2.534771823316132 2.3270483120036456 67 81 181
10.460431550180237 2.2508800907890807 2.2853586906203183 67 81 181
10.193356407250832 2.227996207010859 2.450514245357538 67 81 181
10.454668812762419 2.5057655758636224 2.165178571469076 67 81 181
10.454668812762419 2.5057655758636224 2.165178571469076 67 81 181
9.989193491658003 2.534771823316132 2.3270483120036456 67 81 181
10.970806788142513 2.3417752597595247 2.245674442976123 67 81 181
10.775297948309502 2.4848206889510553 1.9366259026626775 67 81 181
10.966510302186945 2.4465181751357354 2.5105628287164192 67 81 181
19.068857649419314 2.9149541996154937 1.828211536980072 67 81 181
19.337776289465797 2.54602836582685 1.9331392253047461 67 81 181
19.212584967789823 2.694142602272845 1.772795305436198 67 81 181
11.502618273765162 -0.07747540129057129 1.2938161255677358 67 81 181
11.440337280250167 0.19193747111771123 1.382148525917486 67 81 181
11.270288134401222 -0.07747540129057129 1.3792671072941143 67 81 181
11.064999076290825 0.013021978865129177 1.6481063757049221 67 81 181
10.423816977216383 0.21053576356583106 1.7496665248712118 67 81 181
10.674421195502362 0.30369861114830826 1.745423424026729 67 81 181
10.647306131363615 0.21053576356583106 1.8422206091720739 67 81 181
11.295595803956095 0.19193747111771123 1.4692179399793306 67 81 181
11.123017218488984 0.1033071319680279 1.647702324117534 67 81 181
10.464377927116184 -0.08516337544443603 1.847088761502059 67 81 181
11.149133467757254 0.1033071319680279 1.46787883927414 67 81 181
10.958806757385396 -0.36702308226310426 1.3737527524489561 67 81 181
10.775410424932982 -0.7066576468726606 1.37035384411 67 81 181
10.975372610690368 -0.5752992911790434 1.3740540640868848 67 81 181
10.31136515850325 -0.40357314490337237 1.2608120841458197 67 81 181
11.539995513820907 -0.6493632211290574 1.3837970156826562 67 81 181
10.975372610690368 -0.5752992911790434 1.3740540640868848 67 81 181
10.648133781569493 -0.2774093257789929 1.3679247519768987 67 81 181
10.643869072396637 -0.49338262916110903 1.842310474837609 67 81 181
10.797513898342457 -0.5752992911790434 1.6500255344251742 67 81 181
9.99350233073163 -0.40357314490337237 1.757457348114616 67 81 181
10.265438519379277 -0.18299044837429873 1.458983623966884 67 81 181
10.721293753443629 -0.7066576468726606 1.7446521657755276 67 81 181
10.43077600138834 -0.2774093257789929 1.5568547973706464 67 81 181
9.857023960297031 -0.40357314490337237 1.657603254096486 67 81 181
10.420306202307728 -0.49338262916110903 1.7497274406023724 67 81 181
10.368545242055996 -0.18299044837429873 1.7506304154785899 67 81 181
10.721293753443629 -0.7066576468726606 1.7446521657755276 67 81 181
21.14089973928423 -0.9584241627924576 0.8377966636324002 67 81 181
21.16282391147795 -0.8248911306390888 0.773225716777461 67 81 181
18.34134470439861 -0.778651070945322 1.5083057020329045 67 81 181
12.362268698597132 -0.8342321306325854 1.3135310199219596 67 81 181
11.29297701324755 -0.7744045164528424 1.4691943030260677 67 81 181
11.267194184120331 -0.7744045164528424 1.6467163142026184 67 81 181
18.649317991014442 -0.8185487505522016 1.234995909810863 67 81 181
10.95784172797919 0.21053576356583106 1.9302521279852103 67 81 181
11.202506653933535 0.11352160208340928 2.0190007256100997 67 81 181
10.8232756676822 0.1259657546461695 2.1423332041789993 67 81 181
11.436210560793832 0.2608407125061112 2.327896967313424 67 81 181
10.974087828294758 0.23305276670575498 2.133519686916485 67 81 181
10.47480005454321 0.23305276670575498 2.0526850003695767 67 81 181
11.212399883504547 0.3349770199516327 2.120169333425046 67 81 181
10.72421296259749 0.3349770199516327 2.0405594259980817 67 81 181
11.234424641335272 0.01788546705849516 2.3450087296014983 67 81 181
11.01658077603161 0.3731046959679942 2.2423539067777636 67 81 181
10.72421296259749 0.3349770199516327 2.0405594259980817 67 81 181
10.559504228010537 0.01788546705849516 2.2772480357041447 67 81 181
11.144902325589916 0.014319981269401216 2.0214875308909197 67 81 181
11.266099126909701 -0.1062285233549322 2.3422631294445493 67 81 181
11.37004171892694 -0.09454015961839612 2.2178817012164718 67 81 181
11.176830515063468 -0.08516337544443603 2.020105641632205 67 81 181
10.62028422528597 0.14145359595678236 2.272374262529092 67 81 181
11.266099126909701 -0.1062285233549322 2.3422631294445493 67 81 181
11.37004171892694 -0.09454015961839612 2.2178817012164718 67 81 181
11.144902325589916 0.014319981269401216 2.0214875308909197 67 81 181
11.061529037094086 -0.5438675345490437 2.1285414149122115 67 81 181
11.433013986972323 -0.5752992911790434 1.9146790461146708 67 81 181
11.29753215874902 -0.18299044837429873 2.014960190852252 67 81 181
10.92160124364485 -0.2027286392034511 2.1365538267624595 67 81 181
11.385854471793934 -0.2271576786947672 2.3320844756507304 67 81 181
10.419798762198624 -0.2027286392034511 2.0554477474529667 67 81 181
10.720471751392342 -0.2271576786947672 2.2645035562954154 67 81 181
11.240725047941968 -0.4476677040554847 2.2266033782054304 67 81 181
10.64353788738643 -0.3063266019573465 2.0444111838022274 67 81 181
11.135262288814715 -0.3063266019573465 2.1244160730914707 67 81 181
12.074055228857635 -0.7066576468726606 2.077033250732738 67 81 181
11.432705662100005 -0.40357314490337237 2.1084135791543392 67 81 181
10.64353788738643 -0.3063266019573465 2.0444111838022274 67 81 181
12.074055228857635 -0.7066576468726606 2.077033250732738 67 81 181
11.621815353848312 -0.5438675345490437 2.2016114294186777 67 81 181
12.2906282202682 -0.34171219614908716 2.375223914339935 67 81 181
12.238722756258106 -0.7744045164528424 1.978669324708499 67 81 181
11.365825781877867 -0.8997887491589471 1.4698477451939653 67 81 181
11.58667323036251 -1.0216790154450548 1.6446191088739799 67 81 181
11.340208581191844 -0.8997887491589471 1.6462265680397237 67 81 181
11.611746706945588 -1.0216790154450548 1.471992758877202 67 81 181
16.607872631216754 -1.321849091228943 1.7435354613841654 67 81 181
16.465487112571243 -1.321849091228943 1.6836704655915378 67 81 181
9.301870970375699 -2.690892185578362 1.8827123300960151 67 81 181
8.835962983571825 -2.365719551317929 1.8997619050250014 67 81 181
9.27781045732759 -2.2871165406359197 1.7720466236385557 67 81 181
10.370630656857662 3.127183586268073 1.849652849872334 67 81 181
10.432511092993938 3.0273708334344978 1.8479549743146366 67 81 181
10.404935018368464 -3.0559019772203437 1.8487090106058326 67 81 181
10.141045939176452 3.127183586268073 1.7547103108562903 67 81 181
10.835677305753102 2.8361194954896285 1.8373859160352075 67 81 181
9.80022662775348 -2.735524519958587 1.6581076232800422 67 81 181
10.308549741429005 -2.95748912295319 1.7516885780024516 67 81 181
9.763978414297094 -2.735524519958587 1.5559026400393916 67 81 181
15.063394802721822 -2.102186054116275 1.150566598559952 67 81 181
10.190976943645271 -2.0820950958416415 1.654751819670081 67 81 181
9.253306443892631 -2.0385912770950765 1.8844050759889597 67 81 181
14.624416582585225 -2.067527684264722 1.5608527741552123 67 81 181
14.648642526236431 -2.067527684264722 1.6291682361833506 67 81 181
15.433733983618472 -2.218426273658638 1.2988626972285948 67 81 181
20.554951320831808 -1.9706456605539593 1.6611448385516727 67 81 181
19.301978020157843 3.02906173044548 1.7192315420343491 67 81 181
20.635587318479903 2.9854473606917953 1.368533277488389 67 81 181
20.084418749022568 3.1343989353253208 1.4637721990567418 67 81 181
20.328534722763262 3.034653034050514 1.4154430627664738 67 81 181
20.002237848088708 3.0843836518806844 1.5635262632227351 67 81 181
10.757550155939784 0.29593282106172286 2.38933213210417 67 81 181
10.132268192478314 0.34151148252586766 2.457835682117136 67 81 181
10.54278285788856 0.02042859992676248 2.4113611015105327 67 81 181
11.000554206131875 0.420450062238213 2.3660155313829057 67 81 181
10.603658702215686 0.16124627620859003 2.4049717032734863 67 81 181
10.132268192478314 0.34151148252586766 2.457835682117136 67 81 181
10.57652886840022 -0.12119862674719024 2.407804517357287 67 81 181
10.774261864289864 0.18740364343544783 2.535407433131229 67 81 181
11.364274959430682 0.16124627620859003 2.4641202738661043 67 81 181
10.747562688876009 -0.1410475867192785 2.5390001430912035 67 81 181
10.747562688876009 -0.1410475867192785 2.5390001430912035 67 81 181
11.307494765378298 0.02042859992676248 2.4703865235292026 67 81 181
10.185056926819456 0.02854588360184168 2.6247224866789898 67 81 181
10.185056926819456 0.02854588360184168 2.6247224866789898 67 81 181
10.714355381253942 0.02381466869478531 2.5435201761677364 67 81 181
11.307494765378298 0.02042859992676248 2.4703865235292026 67 81 181
9.795951482821172 0.2764490941090381 2.699602922480374 67 81 181
11.076115392106024 -0.39901699564732274 2.941253571962251 67 81 181
11.04389603644174 0.0706124884712056 2.9561688027990445 67 81 181
11.04389603644174 0.0706124884712056 2.9561688027990445 67 81 181
9.730023533851329 0.03562205420978064 2.7141454192662673 67 81 181
12.575337689191079 -0.7728214134014109 2.2454183874507994 67 81 181
12.575337689191079 -0.7728214134014109 2.2454183874507994 67 81 181
11.94613778302909 -0.5016728594092693 2.4056658137003155 67 81 181
11.94613778302909 -0.5016728594092693 2.4056658137003155 67 81 181
11.661797263526784 -0.38588231510933596 2.4330042209364438 67 81 181
13.789219237219024 -0.937760545949494 2.477017703469059 67 81 181
13.789219237219024 -0.937760545949494 2.477017703469059 67 81 181
12.71952274436451 -0.8493528756911993 2.3408046211410083 67 81 181
13.447853376751723 -0.6945005602797745 2.393223819643887 67 81 181
13.333386995595484 -0.6779211772873319 2.5219576945640023 67 81 181
13.016658545557014 -0.937760545949494 2.4296203188255845 67 81 181
12.71952274436451 -0.8493528756911993 2.3408046211410083 67 81 181
11.626166343362247 -0.7557387148023511 2.7752229253327134 67 81 181
12.20419858050072 -0.7632565946208777 2.6668576654929907 67 81 181
11.926012345993163 -0.6164695693469051 2.7144673378370694 67 81 181
12.630422685178035 -1.086042802102495 2.7892701366269876 67 81 181
12.564907931377684 -0.7557387148023511 2.803737022265767 67 81 181
10.888355197767172 -1.534596287264295 3.0628117286907686 67 81 181
10.904385036785948 0.13844128852362733 3.045983348740934 67 81 181
10.904385036785948 0.13844128852362733 3.045983348740934 67 81 181
13.220761474813923 -2.860783600711177 2.9056859658072947 67 81 181
13.220761474813923 -2.860783600711177 2.9056859658072947 67 81 181
10.426165717291447 -1.5662730568272731 2.423942416324606 67 81 181
10.426165717291447 -1.5662730568272731 2.423942416324606 67 81 181
11.224155377745452 -1.5599390653846357 2.8842650429812933 67 81 181
10.665994241636836 -1.3965314537583629 2.5502080787728287 67 81 181
10.665994241636836 -1.3965314537583629 2.5502080787728287 67 81 181
10.15139106955868 -1.361600131976228 2.6305872243901085 67 81 181
10.09894618333336 -1.5644102716441672 2.6399273190969472 67 81 181
13.322958623723125 -2.582816650245119 2.8756475144051343 67 81 181
12.81473542606317 -2.226909934926771 2.7520277851702355 67 81 181
13.322958623723125 -2.582816650245119 2.8756475144051343 67 81 181
13.13633332108662 -2.3856318983525915 2.934106623670434 67 81 181
12.81473542606317 -2.226909934926771 2.7520277851702355 67 81 181
13.49866360070332 -2.3755283877434805 2.8314356319621043 67 81 181
12.81473542606317 -2.226909934926771 2.7520277851702355 67 81 181
13.13633332108662 -2.3856318983525915 2.934106623670434 67 81 181
11.585681643526 -1.9794466684747969 2.440704240048098 67 81 181
11.631273393027179 -1.8951374029030028 2.5815809856402545 67 81 181
12.256466418794774 -2.1195285467764653 2.658625768141959 67 81 181
11.841642373847035 -2.0400036723104065 2.553855262479516 67 81 181
11.240643772117322 -1.7111934977443533 2.477910412525249 67 81 181
12.36677753602789 -1.9794466684747969 2.492875435857154 67 81 181
11.240643772117322 -1.7111934977443533 2.477910412525249 67 81 181
13.150290360121817 -2.1195285467764653 2.693948588162677 67 81 181
15.183615471045123 1.560931273866688 2.9330313680186073 67 81 181
15.183615471045123 1.560931273866688 2.9330313680186073 67 81 181
15.039708928527272 1.9953335878314435 2.984529422112598 67 81 181
15.008493305061478 1.5563298332088684 2.998258036861795 67 81 181
15.895808607430398 1.5436852207658627 3.0695570461978843 67 81 181
11.225646555581063 -0.8407799763440986 1.9213022166406781 67 81 181
12.57547784508546 -0.8407799763440986 2.1472753852261706 67 81 181
13.320942152558318 -1.1368411688208817 2.0258407609962568 67 81 181
14.313135044173325 -1.1368411688208817 2.151685557489664 67 81 181
13.971942202517173 -1.0216790154450548 2.167801675989013 67 81 181
13.971942202517173 -1.0216790154450548 2.167801675989013 67 81 181
14.172465724871282 -1.05418668637716 2.339679530196037 67 81 181
12.862228606531145 -1.0012166442095514 2.330101353626379 67 81 181
13.570043927973735 -1.0012166442095514 2.3835765244512133 67 81 181
15.520193616636343 -1.2225135384417263 1.8889268537415567 67 81 181
15.868771480479287 -1.3058427134216974 1.8161544390541169 67 81 181
11.157044891600561 -1.4403088271197115 2.351813480131088 67 81 181
11.10934849934675 -1.566848797687202 2.356078410273855 67 81 181
11.10934849934675 -1.566848797687202 2.356078410273855 67 81 181
11.199158411013906 -1.567294522669907 2.2294622506476705 67 81 181
11.157044891600561 -1.4403088271197115 2.351813480131088 67 81 181
12.467226003410719 -1.5681805761058323 1.885124191384191 67 81 181
12.509746234571375 -1.4840557542734614 1.8840193642260723 67 81 181
11.464060107572235 -1.5676498043955345 2.1067837635045903 67 81 181
11.93692698387349 -1.4761115803310334 1.9896201554763087 67 81 181
11.464060107572235 -1.5676498043955345 2.1067837635045903 67 81 181
11.892358857059216 -1.5679396352776536 1.9912890794794045 67 81 181
11.93692698387349 -1.4761115803310334 1.9896201554763087 67 81 181
11.93692698387349 -1.4761115803310334 1.9896201554763087 67 81 181
10.526952752543782 -1.8942603925737589 2.050095632546332 67 81 181
11.02387870646071 -1.8942603925737589 2.1306733688389503 67 81 181
10.660673290241215 -1.6797744140612951 2.1521740089491517 67 81 181
10.797589007181656 -1.789563158089905 2.1438639380220743 67 81 181
11.151484091666255 -1.6935146385520938 2.3523079111555476 67 81 181
10.610579783073332 -1.8163619293514064 2.273147342866431 67 81 181
11.151484091666255 -1.6935146385520938 2.3523079111555476 67 81 181
11.282445249742329 -1.8163619293514064 2.3408550984047176 67 81 181
11.162054174884469 -1.7679692001898188 2.0207440814968547 67 81 181
11.561012285753948 -1.659815757650543 1.9107169982980485 67 81 181
12.372361942341133 -1.659815757650543 2.0637143523982635 67 81 181
12.044576165114554 -1.668792366283914 2.176208793128225 67 81 181
10.0073645387564 2.843178908667846 2.325336801393294 67 81 181
10.095471218585102 2.79680575596243 2.4623208904250156 67 81 181
9.889465907159336 3.1235680049751986 2.2043369927276166 67 81 181
10.501518819821094 3.120982282609569 2.415760608103393 67 81 181
9.889465907159336 3.1235680049751986 2.2043369927276166 67 81 181
10.573457849437013 2.9990528496793463 2.276122387401997 67 81 181
10.562632484733255 2.9789362958910655 2.4092646396796824 67 81 181
10.268137732619518 2.71783103808514 2.301721290416673 67 81 181
9.617519385439106 2.6568416488920583 2.364162450644125 67 81 181
10.562632484733255 2.9789362958910655 2.4092646396796824 67 81 181
10.629065844348073 2.577507623824039 2.5554016160877553 67 81 181
10.739664758327574 2.952287572358051 2.540069946357791 67 81 181
10.37736639225007 2.734308081523311 2.5929999203181824 67 81 181
11.522250609895899 3.117530610150245 2.596859362351587 67 81 181
11.300608723384762 -3.0193259848775633 2.4711541278203155 67 81 181
10.712879358617462 -2.9990990332370635 2.543722434290975 67 81 181
10.29431582972753 -2.2744066959269236 2.2994436296033895 67 81 181
9.669155951167042 -2.365719551317929 2.0967858636314842 67 81 181
9.539477978834183 -2.7526106893899978 2.2315620726563283 67 81 181
9.301681488552083 -2.797425153879454 1.9980758524779092 67 81 181
9.668973666989862 -2.4586160150344507 2.2211929300933866 67 81 181
9.87401143624184 -2.2871165406359197 1.9718370205345428 67 81 181
10.674084899435845 -2.9127277661338 2.2681228793934984 67 81 181
9.783550360642211 -2.532983151366976 2.0900111281166796 67 81 181
9.75860881452583 -2.797425153879454 2.09147245781177 67 81 181
10.663361691046845 -2.881264938650879 2.3988189615491486 67 81 181
9.87347591975074 -2.567989507386206 2.338162827662554 67 81 181
10.061159026667633 -2.9127277661338 2.191858771276822 67 81 181
12.131053848567213 -2.1664150234141117 2.5189558993539665 67 81 181
12.82352232778622 -2.517789356972962 2.7503621252827712 67 81 181
10.838748851588289 -2.840076230069398 2.5268775880417915 67 81 181
11.681171814562227 -2.2559844149397517 2.5748042725781493 67 81 181
10.255881082975458 2.804470095213191 1.9561008014662273 67 81 181
10.23440444435631 -3.046402613517888 2.0650100914335674 67 81 181
9.828961380489936 3.014765040424438 1.9737812784089166 67 81 181
9.994788106990976 2.9069864711333877 1.9667187035430274 67 81 181
10.571243190183033 -2.0385912770950765 2.1577434651327407 67 81 181
9.608998263349498 -2.0385912770950765 1.9835607813678262 67 81 181
20.40030366037643 -1.893396989668996 1.9660289442764145 67 81 181
21.23944179674601 -1.924809486933754 1.8994076788615923 67 81 181
20.720501168856767 -1.990555032672618 1.907959876036168 67 81 181
20.822295132258443 -2.03627079234287 1.8558083529607592 67 81 181
20.6268452990307 -1.8773671041101347 1.8585857028822121 67 81 181
21.038857531795102 -1.9706456605539593 1.80363826171854 67 81 181
19.69732698747711 3.02906173044548 1.8198211817073013 67 81 181
11.475243479163582 0.47381537006879265 1.3827292414605032 67 81 181
10.777987923317493 0.5177321677544906 1.8388479275087484 67 81 181
10.91343543079215 0.39173477960598935 1.4656479849861241 67 81 181
11.57164503094845 0.6692373180428282 1.4716492294898025 67 81 181
11.546484472912587 0.6692373180428282 1.6448765271008186 67 81 181
11.5157342884743 0.6692373180428282 1.5581683761146632 67 81 181
11.078951379945423 0.5973708246132319 1.7389851928936195 67 81 181
11.470978974617434 0.5177321677544906 2.0077769093819895 67 81 181
11.342502346454015 0.4763311919993403 2.2197175952988335 67 81 181
11.342502346454015 0.4763311919993403 2.2197175952988335 67 81 181
18.968009677836335 2.425983241506158 1.3504703081058498 67 81 181
19.503001209494794 2.425983241506158 1.250233195213032 67 81 181
18.633403502834106 2.425983241506158 1.4554022180899882 67 81 181
10.28402823761928 2.7088061206316616 1.8520647751721349 67 81 181
18.784418861963562 2.501653378351655 1.4563340064382335 67 81 181
21.07740560863906 2.670884174530561 1.274934678092454 67 81 181
19.88574945106928 2.6028100191268333 1.4626988073827307 67 81 181
18.937596476463447 2.575685263411008 1.6159379608325106 67 81 181
20.009787097882548 2.763196135322551 1.3107296595947733 67 81 181
19.534460142458098 2.9265273802774643 1.4607470684171842 67 81 181
20.159068794652722 2.716075762608274 1.3636834849779271 67 81 181
18.631343112604338 2.743129414282625 1.7246162483969238 67 81 181
19.68734639361634 2.876798808392559 1.512583126327567 67 81 181
18.84133537473226 2.694142602272845 1.6161687491539993 67 81 181
19.08057767944625 2.812149164837687 1.6681474869873216 67 81 181
12.429317407482607 1.2507073109736884 2.2548502546879594 67 81 181
12.486104957190854 1.0677848842339672 2.1519360826916083 67 81 181
12.921487671132851 0.9877127222459683 2.1299623889641146 67 81 181
11.58295937207041 0.718146264106733 2.2040636931605895 67 81 181
12.734261768158692 0.7933445972865251 2.2354761549249096 67 81 181
11.137051689679 0.7933445972865251 2.021828671262168 67 81 181
11.495155375122696 1.3263840592115685 2.323062489947005 67 81 181
12.200318216287679 1.3263840592115685 2.3829444388945116 67 81 181
14.17337428703382 1.0383020921315436 2.7067894538338653 67 81 181
12.406038497922424 1.2144885974373434 2.3656080771211245 67 81 181
13.081029950528757 1.194730470860669 2.7051056045552246 67 81 181
13.536520891024214 0.9060819391839648 2.6377797738763373 67 81 181
13.934305578495461 0.9572147995811771 2.4638382213179626 67 81 181
13.343193721459086 1.169523357509254 2.520928153988793 67 81 181
11.77854874579926 1.8809447402131103 2.5619440522382018 67 81 181
14.497666895394927 1.3269309705788845 2.8426292135619544 67 81 181
11.77854874579926 1.8809447402131103 2.5619440522382018 67 81 181
11.546096767357623 1.8397457297376545 2.444777113702396 67 81 181
12.069038266528285 1.6892262418279107 2.394490513513693 67 81 181
12.030116845325168 1.5669880648426626 2.3979902641266024 67 81 181
10.176206598114234 2.4465181751357354 2.4525542206109012 67 81 181
10.55113144839096 2.334667580557696 2.566619744597996 67 81 181
10.000639604548379 2.6051644122550504 2.19619548664098 67 81 181
10.443720318845589 2.430328125542166 2.2867476227532135 67 81 181
10.982426067391044 2.227996207010859 2.5085821855367447 67 81 181
10.698428856265807 2.343818482878948 1.9393797702465467 67 81 181
9.989193491658003 2.534771823316132 2.3270483120036456 67 81 181
10.981229779447872 2.419053349998526 2.1331095140852527 67 81 181
10.375424526364455 2.3417752597595247 2.1703501103737253 67 81 181
11.141355200175376 2.2508800907890807 2.3532104015392203 67 81 181
18.839112627014806 2.9149541996154937 1.7768568651319803 67 81 181
20.7586322828552 2.6433405740640636 2.1786021971250626 67 81 181
18.97280003416759 2.794221785020853 1.884493766530705 67 81 181
20.565465313721504 2.902089829957571 2.126812150368669 67 81 181
10.202372051421401 -0.18299044837429873 1.5565426627340164 67 81 181
10.430269070642522 0.014319981269401216 1.8480161249192266 67 81 181
10.492469705015601 -0.2774093257789929 1.461412779392948 67 81 181
10.25853914617315 0.21053576356583106 1.556620709000245 67 81 181
11.091251940037216 0.013021978865129177 1.4673398279970942 67 81 181
10.25853914617315 0.21053576356583106 1.556620709000245 67 81 181
10.491797766373864 0.11352160208340928 1.8463478086698886 67 81 181
10.254971788791785 -0.49338262916110903 1.556615777452393 67 81 181
10.317716748798963 -0.49338262916110903 1.4595525158377016 67 81 181
10.764624420035739 -0.5752992911790434 1.5572871993809594 67 81 181
10.464377927116184 -0.08516337544443603 1.847088761502059 67 81 181
11.097157161806406 -0.07747540129057129 1.6478818960065384 67 81 181
11.238625454961587 0.013021978865129177 1.3787207849892598 67 81 181
21.12722181883958 -0.9931847880234188 0.8992429787346938 67 81 181
11.386783227195632 -0.7744045164528424 1.7343967598466787 67 81 181
10.773938208025124 0.2608407125061112 2.2603837864876795 67 81 181
10.773938208025124 0.2608407125061112 2.2603837864876795 67 81 181
10.773938208025124 0.2608407125061112 2.2603837864876795 67 81 181
11.234424641335272 0.01788546705849516 2.3450087296014983 67 81 181
10.423813338426609 0.3731046959679942 2.167180718265523 67 81 181
10.310168581874658 0.3349770199516327 1.9539661878915313 67 81 181
10.763641980954029 0.01590537220130083 2.1459004796460106 67 81 181
10.796697699281495 -0.09454015961839612 2.143917211286699 67 81 181
10.8232756676822 0.1259657546461695 2.1423332041789993 67 81 181
10.747077759394447 0.014319981269401216 1.9376319882250141 67 81 181
10.593196970550807 -0.1062285233549322 2.2745369139795564 67 81 181
11.061688373549549 -0.6300663491113846 2.025131052732645 67 81 181
11.345055477663347 -0.49338262916110903 2.012967731169823 67 81 181
11.345055477663347 -0.49338262916110903 2.012967731169823 67 81 181
11.241195430583302 -0.7066576468726606 1.920796561073875 67 81 181
10.92160124364485 -0.2027286392034511 2.1365538267624595 67 81 181
10.938062309564504 -0.34171219614908716 2.248072320977567 67 81 181
10.92160124364485 -0.2027286392034511 2.1365538267624595 67 81 181
10.720471751392342 -0.2271576786947672 2.2645035562954154 67 81 181
12.560741799924376 -0.4476677040554847 2.353136492829888 67 81 181
11.45903565512412 -0.8997887491589471 1.7333559997719283 67 81 181
15.65594905520595 -1.3058427134216974 1.7541542269309527 67 81 181
8.961000094759783 -2.532983151366976 1.8950024619882546 67 81 181
9.777392560795919 -2.364341703271241 1.5559230750212163 67 81 181
9.593612035372134 -2.9375004907213356 1.872922205537106 67 81 181
9.479055123316028 -2.1347568816854188 1.7677172533587453 67 81 181
14.627641286821301 -2.0371940127931523 1.137214887343481 67 81 181
20.002325963911247 3.1343989353253208 1.5135008306429716 67 81 181
19.09371311520371 3.081374832787259 1.668080302530045 67 81 181
20.19798236099488 3.034653034050514 1.464376233142427 67 81 181
11.000554206131875 0.420450062238213 2.3660155313829057 67 81 181
11.000554206131875 0.420450062238213 2.3660155313829057 67 81 181
10.757550155939784 0.29593282106172286 2.38933213210417 67 81 181
10.57652886840022 -0.12119862674719024 2.407804517357287 67 81 181
10.248057966611947 0.22352226884301063 2.6140078841039385 67 81 181
10.774261864289864 0.18740364343544783 2.535407433131229 67 81 181
10.747562688876009 -0.1410475867192785 2.5390001430912035 67 81 181
10.714355381253942 0.02381466869478531 2.5435201761677364 67 81 181
11.04389603644174 0.0706124884712056 2.9561688027990445 67 81 181
11.04389603644174 0.0706124884712056 2.9561688027990445 67 81 181
9.730023533851329 0.03562205420978064 2.7141454192662673 67 81 181
11.076115392106024 -0.39901699564732274 2.941253571962251 67 81 181
10.311183191880414 0.04735918691671577 2.842886459254632 67 81 181
9.730023533851329 0.03562205420978064 2.7141454192662673 67 81 181
12.20419858050072 -0.7632565946208777 2.6668576654929907 67 81 181
12.564907931377684 -0.7557387148023511 2.803737022265767 67 81 181
12.20419858050072 -0.7632565946208777 2.6668576654929907 67 81 181
11.91135745240833 -0.904662454144061 2.7171785680605467 67 81 181
13.447853376751723 -0.6945005602797745 2.393223819643887 67 81 181
12.20419858050072 -0.7632565946208777 2.6668576654929907 67 81 181
10.937015385652325 -0.6931152987313203 3.0187396668068125 67 81 181
11.519303644721175 -1.5627543497597527 2.8002173595584 67 81 181
11.01221918726002 -1.5540912365759911 2.972188543473508 67 81 181
10.09894618333336 -1.5644102716441672 2.6399273190969472 67 81 181
11.246160486056764 -1.4215410420742831 2.477283389994833 67 81 181
13.49866360070332 -2.3755283877434805 2.8314356319621043 67 81 181
11.370578075823042 -1.8504480170780493 2.4634315159036877 67 81 181
11.240643772117322 -1.7111934977443533 2.477910412525249 67 81 181
11.370578075823042 -1.8504480170780493 2.4634315159036877 67 81 181
11.370578075823042 -1.8504480170780493 2.4634315159036877 67 81 181
11.841642373847035 -2.0400036723104065 2.553855262479516 67 81 181
15.21854807154129 1.253883616085083 2.922449875358014 67 81 181
15.21854807154129 1.253883616085083 2.922449875358014 67 81 181
15.214471799550207 1.8697916866930715 2.9236560932337707 67 81 181
11.946875453705182 -0.8997887491589471 1.8993175296796678 67 81 181
12.059580239451392 -0.8407799763440986 2.0776988484997596 67 81 181
12.57547784508546 -0.8407799763440986 2.1472753852261706 67 81 181
13.570043927973735 -1.0012166442095514 2.3835765244512133 67 81 181
13.570043927973735 -1.0012166442095514 2.3835765244512133 67 81 181
15.520193616636343 -1.2225135384417263 1.8889268537415567 67 81 181
11.93692698387349 -1.4761115803310334 1.9896201554763087 67 81 181
12.509746234571375 -1.4840557542734614 1.8840193642260723 67 81 181
10.237832251958588 -1.9321152144860807 2.179564976610296 67 81 181
10.426334763447274 -1.566848797687202 2.2881991181596373 67 81 181
10.797589007181656 -1.789563158089905 2.1438639380220743 67 81 181
10.477140985627779 -1.4403088271197115 2.2839760010299157 67 81 181
11.892358857059216 -1.5679396352776536 1.9912890794794045 67 81 181
12.054216935104916 -1.7502133807140585 1.98529278900032 67 81 181
11.499197545054217 -1.9321152144860807 2.3227335769521797 67 81 181
11.282445249742329 -1.8163619293514064 2.3408550984047176 67 81 181
11.510286737665636 -1.466571359666604 2.1043999237524154 67 81 181
10.535397004316971 -3.0193259848775633 2.4121444490546806 67 81 181
10.118110045746588 2.878813536898041 2.18783718757277 67 81 181
9.846537000481687 2.765848737398372 2.086359016173301 67 81 181
9.617519385439106 2.6568416488920583 2.364162450644125 67 81 181
11.269031236247656 3.120982282609569 2.474695789402041 67 81 181
10.739664758327574 2.952287572358051 2.540069946357791 67 81 181
9.657316962889334 -2.2744066959269236 2.2221115989682145 67 81 181
8.848502566154298 -2.6361747903975163 2.021523158767724 67 81 181
9.327655929745047 -2.6361747903975163 2.1181748458727028 67 81 181
13.580839438568812 -2.704106707980042 2.813080754379088 67 81 181
11.681171814562227 -2.2559844149397517 2.5748042725781493 67 81 181
13.167410461361772 -2.619882566373678 2.6912483153661073 67 81 181
10.255881082975458 2.804470095213191 1.9561008014662273 67 81 181
9.79968707919755 -3.046402613517888 1.9750551458137375 67 81 181
9.763256338674973 3.125577303682502 1.976652074040181 67 81 181
10.442487258338794 -1.9921121473612928 1.948863748157418 67 81 181
20.469156929291326 -1.924809486933754 1.7602392335496033 67 81 181
21.022538109950823 -1.8284567957900155 1.953712251332469 67 81 181
21.018962402106165 -2.0799805303069583 1.8038627313359026 67 81 181
20.680801553044887 -1.924809486933754 1.8077460388038136 67 81 181
20.6268452990307 -1.8773671041101347 1.8585857028822121 67 81 181
10.90726567616412 0.7269883015586361 1.7416584261473083 67 81 181
11.273843526811245 0.47381537006879265 1.5578974168591277 67 81 181
10.777987923317493 0.5177321677544906 1.8388479275087484 67 81 181
10.91343543079215 0.39173477960598935 1.4656479849861241 67 81 181
11.68408348856757 0.6530265823521815 2.095635031805679 67 81 181
19.84081371055851 2.425983241506158 1.2023813062440087 67 81 181
19.7762672712283 2.763196135322551 1.3596144073789724 67 81 181
20.702810468842806 2.6028100191268333 1.26941483873427 67 81 181
19.95064463381598 2.647354056459441 1.3099407605225182 67 81 181
19.309709765469947 2.647354056459441 1.5114433350628331 67 81 181
19.647333713759163 2.501653378351655 1.2526712432770761 67 81 181
20.086415946625024 2.876798808392559 1.362923395622414 67 81 181
11.729740313025557 0.6315989086385886 2.3045065564752116 67 81 181
12.687466959373157 1.1111661103065114 2.3432575172034076 67 81 181
13.605250652657505 1.057056537553245 2.494472163311574 67 81 181
12.87666741153178 0.869651256865006 2.3290376168653824 67 81 181
13.947211381405983 0.9901263825093242 2.5867073195168366 67 81 181
13.99365970885026 1.194730470860669 2.7353209190694963 67 81 181
13.657789153542147 1.1150594435630043 2.796933500343261 67 81 181
11.355726185429768 1.6892262418279107 2.3346157210642344 67 81 181
11.653164256562318 1.7272292397691567 2.5785918763614015 67 81 181
12.074176491398022 1.444863025809578 2.3940311632241054 67 81 181
12.069038266528285 1.6892262418279107 2.394490513513693 67 81 181
9.774069311493129 2.662095026937067 1.9761767346899775 67 81 181
10.622734497858321 2.3389240558335693 2.402993786555238 67 81 181
10.193356407250832 2.227996207010859 2.450514245357538 67 81 181
11.097997453281815 2.343818482878948 2.0235337463819687 67 81 181
19.401802839314065 2.513527612322267 2.044718222190876 67 81 181
10.238151121679996 2.5684163652588317 1.9568032604674357 67 81 181
19.68508265905583 2.6433405740640636 2.0951016382119354 67 81 181
10.93870683527528 -0.7066576468726606 1.8348146353834234 67 81 181
10.513083890945254 0.30369861114830826 1.5569639538613365 67 81 181
12.073909252369704 -0.6300663491113846 2.1745283103776414 67 81 181
10.549332860199076 -0.40357314490337237 1.9448442981047247 67 81 181
11.621815353848312 -0.5438675345490437 2.2016114294186777 67 81 181
11.291572277868426 0.14145359595678236 2.3400715166449864 67 81 181
10.8232756676822 0.1259657546461695 2.1423332041789993 67 81 181
11.061529037094086 -0.5438675345490437 2.1285414149122115 67 81 181
10.8232756676822 0.1259657546461695 2.1423332041789993 67 81 181
11.535602158274617 -0.6300663491113846 2.1031039514203664 67 81 181
11.975572079250503 -1.0216790154450548 1.3050259313238015 67 81 181
11.66270404434043 -0.8997887491589471 1.8180702777254412 67 81 181
9.514637596070791 -2.594285854013219 1.766971202406999 67 81 181
9.371187817139033 -2.594285854013219 1.6621158776990121 67 81 181
9.142968897073954 -2.442731165034687 1.6644019164902026 67 81 181
11.56030745960901 2.862479191290401 1.731919418369119 67 81 181
10.432511092993938 3.0273708334344978 1.8479549743146366 67 81 181
11.56030745960901 2.862479191290401 1.731919418369119 67 81 181
9.593795751436586 -2.8332789074485376 1.7653317461859461 67 81 181
14.836732831858576 -1.91511843113497 1.696123623754201 67 81 181
9.867731473680973 -2.2205185872548405 1.5560592492907135 67 81 181
19.2282646261626 2.9773593867509316 1.5632336242437437 67 81 181
20.85948936331232 2.9854473606917953 1.3215534642497846 67 81 181
20.247344675784397 2.9854473606917953 1.5141949252104518 67 81 181
10.757550155939784 0.29593282106172286 2.38933213210417 67 81 181
11.338965137285324 -0.12119862674719024 2.466899646476663 67 81 181
10.714355381253942 0.02381466869478531 2.5435201761677364 67 81 181
10.714355381253942 0.02381466869478531 2.5435201761677364 67 81 181
11.976224384868582 -0.7728214134014109 2.1801643022986563 67 81 181
11.661797263526784 -0.38588231510933596 2.4330042209364438 67 81 181
13.789219237219024 -0.937760545949494 2.477017703469059 67 81 181
13.43485862690318 -0.8493528756911993 2.3942660684670853 67 81 181
13.333386995595484 -0.6779211772873319 2.5219576945640023 67 81 181
13.7292352769493 -0.7707057088418797 2.48261434186799 67 81 181
12.361831769230056 -0.9526907567635109 2.854130870208661 67 81 181
12.953097460042535 -0.7707057088418797 2.4353254459480222 67 81 181
10.47697275923135 -1.4215410420742831 2.4184045701560954 67 81 181
13.322958623723125 -2.582816650245119 2.8756475144051343 67 81 181
11.224155377745452 -1.5599390653846357 2.8842650429812933 67 81 181
12.81473542606317 -2.226909934926771 2.7520277851702355 67 81 181
11.841642373847035 -2.0400036723104065 2.553855262479516 67 81 181
13.322958623723125 -2.582816650245119 2.8756475144051343 67 81 181
11.01221918726002 -1.5540912365759911 2.972188543473508 67 81 181
15.039708928527272 1.9953335878314435 2.984529422112598 67 81 181
11.892358857059216 -1.5679396352776536 1.9912890794794045 67 81 181
12.049724821079948 -1.466571359666604 2.1759130948561305 67 81 181
15.868771480479287 -1.3058427134216974 1.8161544390541169 67 81 181
11.240957364999264 -1.6797744140612951 2.2265874769315355 67 81 181
11.10934849934675 -1.566848797687202 2.356078410273855 67 81 181
10.23440444435631 -3.046402613517888 2.0650100914335674 67 81 181
9.828961380489936 3.014765040424438 1.9737812784089166 67 81 181
10.255881082975458 2.804470095213191 1.9561008014662273 67 81 181
9.954337919387328 2.9990528496793463 2.1995583182072247 67 81 181
9.574287619315042 2.878813536898041 2.1025479280326063 67 81 181
9.937130338568867 -2.9375004907213356 1.9691452499892421 67 81 181
12.536304975621475 -2.2559844149397517 2.617647015788603 67 81 181
10.29448704099551 -2.1979262632000776 2.175733724113769 67 81 181
10.35402562338754 2.6568416488920583 2.431960995419088 67 81 181
13.580839438568812 -2.704106707980042 2.813080754379088 67 81 181
10.183850332223615 -2.7526106893899978 2.3091668609499254 67 81 181
9.303662100285402 -2.1979262632000776 1.997978921091159 67 81 181
13.082638014053057 -2.370587826278447 2.704842191491999 67 81 181
10.535397004316971 -3.0193259848775633 2.4121444490546806 67 81 181
10.421370197057438 2.9069864711333877 2.055368352723421 67 81 181
21.038857531795102 -1.9706456605539593 1.80363826171854 67 81 181
20.93265187382176 -1.8773671041101347 1.9044092960190573 67 81 181
20.40030366037643 -1.893396989668996 1.9660289442764145 67 81 181
19.727499069224475 3.0228563919960014 1.9802999643161354 67 81 181
11.788338283888118 0.7923620535560255 1.8153808060698164 67 81 181
11.330947903267187 0.47381537006879265 1.4695359498209088 67 81 181
11.21644504677612 0.6530265823521815 2.018403280700297 67 81 181
11.058754502729032 0.4301684299545365 2.0252606319346143 67 81 181
19.30934662143302 2.460026950532298 1.5114422175195268 67 81 181
19.009452309335842 2.812149164837687 1.615767209868832 67 81 181
19.97741780481176 2.716075762608274 1.412689844553987 67 81 181
12.734261768158692 0.7933445972865251 2.2354761549249096 67 81 181
13.691701088044843 1.1124773917038906 2.61758834064303 67 81 181
18.788976628191232 2.7209484340850714 1.9442351858669369 67 81 181
12.234277099639058 0.933352419726327 2.1655164741442787 67 81 181
12.382434211332162 1.0174033853248505 2.2579414330513434 67 81 181
9.929296677211253 2.5057655758636224 2.081642043368242 67 81 181
13.536520891024214 0.9060819391839648 2.6377797738763373 67 81 181
14.460993007970707 1.5633119327139968 2.850970774771803 67 81 181
12.687466959373157 1.1111661103065114 2.3432575172034076 67 81 181
10.813352414147298 -0.2774093257789929 1.8379497720078608 67 81 181
10.226399968454553 -0.40357314490337237 1.8536933400127613 67 81 181
10.892769865349164 0.30369861114830826 1.8359548416764864 67 81 181
11.064999076290825 0.013021978865129177 1.6481063757049221 67 81 181
10.341306238216898 -0.6300663491113846 1.8504648409033866 67 81 181
11.23567965466292 -0.7744045164528424 1.5578536011036412 67 81 181
11.119251679542735 -0.2774093257789929 1.9248027359289168 67 81 181
12.2906282202682 -0.34171219614908716 2.375223914339935 67 81 181
10.763641980954029 0.01590537220130083 2.1459004796460106 67 81 181
9.142968897073954 -2.442731165034687 1.6644019164902026 67 81 181
9.90359994734959 -2.2205185872548405 1.6571939854930051 67 81 181
10.311183191880414 0.04735918691671577 2.842886459254632 67 81 181
10.426165717291447 -1.5662730568272731 2.423942416324606 67 81 181
13.220761474813923 -2.860783600711177 2.9056859658072947 67 81 181
10.937015385652325 -0.6931152987313203 3.0187396668068125 67 81 181
12.8428555219332 -0.6164695693469051 2.7467286960179216 67 81 181
10.904385036785948 0.13844128852362733 3.045983348740934 67 81 181
10.311183191880414 0.04735918691671577 2.842886459254632 67 81 181
11.282445249742329 -1.8163619293514064 2.3408550984047176 67 81 181
12.504786986864994 -1.652342350213358 1.8841478157604845 67 81 181
10.37736639225007 2.734308081523311 2.5929999203181824 67 81 181
12.183852015117278 -2.370587826278447 2.67011735920375 67 81 181
9.62940730344168 2.71783103808514 2.224322845147215 67 81 181
10.305252022799449 -2.4586160150344507 2.298496902462011 67 81 181
20.356846399230086 -1.9428959887446322 1.9142290086985454 67 81 181
11.370019796065232 2.665254332356474 1.734640144896761 67 81 181
12.010938779492502 1.1111661103065114 2.2835935489987738 67 81 181
10.997124241672033 2.2668501781557517 2.132198962643918 67 81 181
11.314351233354373 1.5669880648426626 2.338123967305005 67 81 181
12.710230440444517 1.1555744705759967 2.2369586335165685 67 81 181
11.33974565058424 -0.6493632211290574 1.5579723843516422 67 81 181
10.95784172797919 0.21053576356583106 1.9302521279852103 67 81 181
10.796697699281495 -0.09454015961839612 2.143917211286699 67 81 181
15.216556863171446 -1.6359278265258614 1.3625850735348768 67 81 181
12.575337689191079 -0.7728214134014109 2.2454183874507994 67 81 181
11.338965137285324 -0.12119862674719024 2.466899646476663 67 81 181
12.829247984177101 -0.904662454144061 2.7492815923991007 67 81 181
10.54278285788856 0.02042859992676248 2.4113611015105327 67 81 181
11.157044891600561 -1.4403088271197115 2.351813480131088 67 81 181
20.54126538335185 -1.8422053425176215 2.016467074439786 67 81 181
13.449072996694015 0.8846391790429955 2.5099994820789404 67 81 181
12.171506534039223 1.5664549739094737 2.5143411436227416 67 81 181
10.700147386566755 2.534771823316132 2.395082371058664 67 81 181
10.62028422528597 0.14145359595678236 2.272374262529092 67 81 181
10.593196970550807 -0.1062285233549322 2.2745369139795564 67 81 181
11.432705662100005 -0.40357314490337237 2.1084135791543392 67 81 181
13.789730501800019 -1.1368411688208817 2.091025350700992 67 81 181
11.240957364999264 -1.6797744140612951 2.2265874769315355 67 81 181
10.757550155939784 0.29593282106172286 2.38933213210417 67 81 181
11.666747398516865 -0.7744045164528424 1.2978132561149889 67 81 181
11.240725047941968 -0.4476677040554847 2.2266033782054304 67 81 181
10.905276951893498 -0.18299044837429873 1.9320640597454652 67 81 181
12.71952274436451 -0.8493528756911993 2.3408046211410083 67 81 181
11.585681643526 -1.9794466684747969 2.440704240048098 67 81 181
11.365825781877867 -0.8997887491589471 1.4698477451939653 67 81 181
10.237068083982507 -0.18299044837429873 1.654372935793865 67 81 181
11.198843647667031 -1.5662730568272731 2.482698019499941 67 81 181
12.536304975621475 -2.2559844149397517 2.617647015788603 67 81 181
12.334397701774641 -1.5679396352776536 2.065368366532803 67 81 181
