6.632939647169474 1.374598386490833 1.4617133208701385 46 207 129
6.730430843697608 1.680856536289659 1.3120500641071506 46 207 129
6.51231691546266 1.680856536289659 1.6134812075789602 46 207 129
6.599369249845412 1.374598386490833 1.6129178154996828 46 207 129
6.479272571177504 1.526700926600768 1.613699034151568 46 207 129
7.631552969599007 0.6802285965301342 2.3344821019750004 46 207 129
7.811422327778378 1.2906225824689992 2.504252175809099 46 207 129
6.978494098570858 1.700779419967455 2.2306622375068037 46 207 129
6.947667329973445 1.5186487007919756 2.2341094752331614 46 207 129
7.679986045596469 1.0296858226419807 2.1615875863695195 46 207 129
6.951340141420068 1.7294355189814914 2.4329757028959738 46 207 129
7.7102280990073515 1.5070035395749504 2.5221966083836755 46 207 129
5.929461110620031 1.5186487007919756 1.9650998787568619 46 207 129
7.032960447073627 1.2906225824689992 2.4195407038184906 46 207 129
7.655320733874328 0.9366604876263408 2.331513556300938 46 207 129
7.524549876894015 0.8061515532673219 2.175507850701878 46 207 129
7.502776096987905 0.6440862550563256 2.5621038558305727 46 207 129
7.888325894409781 0.8122959226572396 2.491199916295389 46 207 129
7.7413380207069045 0.3298285112284727 2.5165823733515356 46 207 129
6.348221164289996 1.1748482959609918 1.9378038354053004 46 207 129
7.232327735446771 0.5223499741849624 2.3887731639602334 46 207 129
7.105599228558041 -0.16082866900431383 2.6541073126493044 46 207 129
7.754108948563585 -0.34354112480714194 2.5143032430825825 46 207 129
7.615397435194009 0.10855174952008599 2.5398818387906603 46 207 129
7.524723774805225 -0.6568017076564249 2.5576620500628335 46 207 129
8.01200158083553 -0.5338343000649232 2.4711732235416486 46 207 129
7.317515202843932 -1.2218678279670014 2.6020172236609334 46 207 129
7.619727150041311 -0.1237375810011482 2.539054806983617 46 207 129
7.150639516814121 -0.8217006399334661 2.401047479261094 46 207 129
7.6617456851304935 -0.6894622041018668 2.330715688429458 46 207 129
8.163336858224353 1.215768607755334 2.671517139196823 46 207 129
8.411722822329507 1.378684469078151 2.9629741898736004 46 207 129
8.437202107067664 2.0241064518802268 2.9469573066329238 46 207 129
7.717812482664848 1.8527598442401367 2.8023274861504426 46 207 129
8.017277209262101 0.8236062654100487 2.7087478400968164 46 207 129
8.09312459884686 1.7740771257747108 2.6888908584057107 46 207 129
7.458591908845431 2.0241064518802268 2.921023395216431 46 207 129
8.732801299627397 1.0904792753793713 2.817399645972291 46 207 129
8.11870673441668 0.419967184216509 2.6824550511028646 46 207 129
7.739150356671156 -1.8457860693072758 2.7945994602302675 46 207 129
7.99871007004129 0.14120563369328606 2.713799111126248 46 207 129
7.4430629409026325 -1.3867615802877433 2.9305302001054385 46 207 129
7.7807833044380725 -0.5908492122858181 2.7800935006393095 46 207 129
8.295965560729883 1.0223237013023667 3.0755735764782792 46 207 129
7.327793461050312 2.5627659846693946 3.0248237670103344 46 207 129
7.812544472292455 -1.101209926953187 2.7694902101606926 46 207 129
8.002832406698088 -0.16082866900431383 2.712670764473209 46 207 129
8.299940260624378 -1.079242719054554 3.068688820939539 46 207 129
7.33229300784747 -2.5007881682662334 3.019704026632755 46 207 129
8.121601565472199 -1.770382605874505 2.6817345931773082 46 207 129
7.642555942902079 0.20157754906566447 2.8314341985881413 46 207 129
7.423367982494553 -1.104841899904802 1.7438027325479482 46 207 129
7.286389839429791 -1.234284190749094 1.888749520633577 46 207 129
6.4706409997205725 -1.69924686261743 2.102009082052807 46 207 129
6.999691602082866 -1.5192692939539223 2.228314707945392 46 207 129
7.037099931644685 -1.376529694827974 1.9004313259357133 46 207 129
7.748631559493406 -1.5079293873220636 2.5152789517310596 46 207 129
6.638608413480668 -1.103825804583268 2.271029557120202 46 207 129
7.776283791155333 -1.7271647247212685 2.510380450679324 46 207 129
7.123933486321016 1.937300187399973 2.405157835040745 46 207 129
6.16580134078055 1.8747150565815494 1.949202540293788 46 207 129
7.893428561172795 1.937300187399973 2.49035072622428 46 207 129
7.668212096131898 2.235080482487588 2.5299233516864836 46 207 129
7.453722358352515 2.031680338120644 2.18208967917515 46 207 129
7.873622296845671 2.178178289562776 2.7500949339765706 46 207 129
7.619704181823759 2.433868524343418 2.840932380182575 46 207 129
7.619704181823759 2.433868524343418 2.840932380182575 46 207 129
8.241842289698834 2.0300826565771937 2.6531016366612445 46 207 129
7.785956451492957 -2.947723175130614 2.7783403747262367 46 207 129
7.63267862901708 -2.412074689087962 2.8354976386364363 46 207 129
8.170253689744229 -2.39079960589622 2.669853551729679 46 207 129
7.491719132723788 2.875673659723726 2.9020995663190385 46 207 129
8.533405480808723 -2.2259530824176568 2.5922556662049163 46 207 129
7.930944972472896 -1.9324226975875745 2.4841692528077672 46 207 129
6.864573980954481 1.2311086217595582 1.6112895934515814 46 207 129
6.599369249845412 1.374598386490833 1.6129178154996828 46 207 129
8.376140022187945 0.9366604876263408 2.4180984938702252 46 207 129
7.308316099920996 1.1748482959609918 2.1961029771549407 46 207 129
7.059800476796238 1.3398801101487108 2.2217571058365087 46 207 129
7.171220225857242 1.0296858226419807 2.0455169728017424 46 207 129
6.060462895402247 1.3398801101487108 1.9561223069104754 46 207 129
5.965551744655584 1.700779419967455 1.9625838874915933 46 207 129
7.9913922820573084 0.5223499741849624 2.474432312583031 46 207 129
7.738017568765947 1.7294355189814914 2.5171773641411965 46 207 129
7.619727150041311 -0.1237375810011482 2.539054806983617 46 207 129
7.01046081301388 -0.6894622041018668 2.22712912329204 46 207 129
7.619727150041311 -0.1237375810011482 2.539054806983617 46 207 129
7.754108948563585 -0.34354112480714194 2.5143032430825825 46 207 129
7.23910394009286 -1.770382605874505 2.6203873008772676 46 207 129
7.646870280415712 -0.22912128555872827 2.8296786543793058 46 207 129
7.458591908845431 2.0241064518802268 2.921023395216431 46 207 129
7.99871007004129 0.14120563369328606 2.713799111126248 46 207 129
7.711364969144913 -1.4586152206355176 2.8047046670074556 46 207 129
8.037820138304877 -0.8367465226308235 2.7032493509118285 46 207 129
8.095128994183634 -1.490203597342549 2.6883820592148773 46 207 129
8.09312459884686 1.7740771257747108 2.6888908584057107 46 207 129
8.64240227567439 1.4556418013462755 2.8501249867348486 46 207 129
7.768056230182085 0.5706758872442232 2.78445166239187 46 207 129
7.327793461050312 2.5627659846693946 3.0248237670103344 46 207 129
7.717812482664848 1.8527598442401367 2.8023274861504426 46 207 129
7.0456953604118 -0.94364159175829 2.2232829200800173 46 207 129
6.515090538878119 2.031680338120644 1.9279760747014083 46 207 129
8.169180681448193 2.1168652892503985 2.447266471619693 46 207 129
7.905010460101265 2.6461435737079846 2.7405856114933282 46 207 129
7.496120283769255 -2.840220657512705 2.8997068110825954 46 207 129
7.781719226458097 2.9712240930129887 2.77977555181204 46 207 129
8.20543641205031 -2.1103816766122057 2.4419766041234308 46 207 129
6.696235521786031 1.829970568004872 1.6123081424811367 46 207 129
7.2358560590057515 0.419967184216509 2.621169596096514 46 207 129
7.631552969599007 0.6802285965301342 2.3344821019750004 46 207 129
6.920392417046163 1.5070035395749504 2.438209089733247 46 207 129
5.929461110620031 1.5186487007919756 1.9650998787568619 46 207 129
7.526950509484157 0.988002423165131 2.5572145100835852 46 207 129
7.888325894409781 0.8122959226572396 2.491199916295389 46 207 129
7.738017568765947 1.7294355189814914 2.5171773641411965 46 207 129
7.255093603703439 -0.5338343000649232 2.385429787370094 46 207 129
8.325761639978735 -2.5007881682662334 3.034308259287758 46 207 129
7.405265687076719 0.3485083994297625 2.955851906192006 46 207 129
7.791407601066797 1.0904792753793713 2.7765042443577075 46 207 129
7.689949997351699 1.4556418013462755 2.812748252430353 46 207 129
7.471846123820143 -2.0070258072076546 2.9132467094590986 46 207 129
7.547839915262525 -0.8730375130615842 2.8733389473289694 46 207 129
7.642555942902079 0.20157754906566447 2.8314341985881413 46 207 129
7.739150356671156 -1.8457860693072758 2.7945994602302675 46 207 129
6.999691602082866 -1.5192692939539223 2.228314707945392 46 207 129
7.748631559493406 -1.5079293873220636 2.5152789517310596 46 207 129
7.150432045659635 1.8747150565815494 2.2121373979398626 46 207 129
8.150044578356196 2.4039480162011926 2.6747374889889777 46 207 129
7.894539049176413 -2.165870118428676 2.743725716721088 46 207 129
6.655711344632728 -1.8713071662012528 2.085748555337325 46 207 129
7.524549876894015 0.8061515532673219 2.175507850701878 46 207 129
8.036729448420335 1.0979075386236807 2.4673023328484947 46 207 129
6.920392417046163 1.5070035395749504 2.438209089733247 46 207 129
7.502776096987905 0.6440862550563256 2.5621038558305727 46 207 129
8.06655857331069 1.4886770545296424 2.695709698473569 46 207 129
7.99871007004129 0.14120563369328606 2.713799111126248 46 207 129
8.504574197682746 0.8513065824765105 2.910191357928807 46 207 129
7.409718189061782 -0.39307897931425634 2.9526807923567886 46 207 129
6.558246551910728 -1.342537902850773 2.0941785148010617 46 207 129
7.917517389286997 -2.6275281222031293 2.7368760656605264 46 207 129
8.269807164867172 -2.022636275226289 2.646776352813743 46 207 129
7.557561126980326 -0.9966304448008712 2.551119090831128 46 207 129
7.905010460101265 2.6461435737079846 2.7405856114933282 46 207 129
7.249517510979735 -0.43658171880764135 2.6178909111386535 46 207 129
6.593743091862287 1.0979075386236807 2.276777342959965 46 207 129
7.471846123820143 -2.0070258072076546 2.9132467094590986 46 207 129
7.075041085121469 -1.2944939113637677 2.4128129423412594 46 207 129
6.947667329973445 1.5186487007919756 2.2341094752331614 46 207 129
8.437202107067664 2.0241064518802268 2.9469573066329238 46 207 129
