9.240911390306616 -0.42785875784740607 0.9274095967302046 4 7 15
9.019950962347929 0.52899407878863 1.0428746988488966 20 27 39
10.316680059239566 -0.29820905622054694 0.7506963499643506 5 9 17
9.027187565661466 -0.13730764189016742 1.0433420974690546 43 45 52
9.027187565661466 -0.13730764189016742 1.0433420974690546 43 45 52
8.71713031700262 -0.010060819937096878 0.881551156862254 26 28 37
9.012180300702566 0.12007849717130939 1.042371828398977 35 38 45
9.430821948849273 0.13771843988849694 0.8039561467067922 7 12 24
9.169734619155596 0.24505114815961204 1.0523736866483733 29 32 41
10.51785298856093 0.2179054210566258 1.0156409280738166 56 59 66
8.92847351960819 0.2797213859838297 0.9009043071150736 24 28 39
10.026855391151223 0.2179054210566258 1.10049696994806 67 70 77
9.196862432575246 0.41107479164775423 0.9238134236533192 5 11 24
8.6471884038262 0.3627057065608728 1.2722144538410842 22 27 38
9.643229216795572 -0.23264195056444398 1.1944975273004839 4 4 9
9.035402951979261 0.4707526357816765 1.2854122216134043 21 26 37
8.748604098845826 -0.261469027337797 1.1537529162702442 44 47 53
9.296006845096608 0.5681283677231977 1.4039627973667466 25 28 39
9.905918963644439 -0.33802841970847153 1.2049542866045242 4 4 10
9.863081794117507 0.6547641457199382 1.4136371072213465 25 28 38
8.907931622714033 0.32541614490860227 0.7457301805753911 38 43 56
12.836860751125547 -0.024814459714036813 0.21412510032447016 64 71 91
9.22106554190472 -0.49176837827420766 0.7817993095270261 48 51 60
9.531250212262963 -0.18431658618952737 0.6575855374803119 40 43 54
9.517037828836303 0.16138087392408093 0.6556493116877407 32 38 51
9.139272145312 -0.4123505122746078 0.5998576652060023 9 15 25
8.93827102640504 -0.34648230891166154 0.7493978018109736 48 52 60
9.139272145312 -0.4123505122746078 0.5998576652060023 9 15 25
14.16035907220983 1.8839003365417193 0.2962025497361113 123 132 146
14.890887558989485 1.980401672217128 0.21636323015864514 133 142 154
14.674048150746144 1.7112001385959412 0.13338666855106385 136 144 157
14.846551688246697 2.4370518713794613 0.20232863454886266 27 32 47
14.576112304625232 1.8557519504857334 0.0666993170961656 140 147 161
14.745010553662608 -2.1226909589660434 0.16543208811663115 136 142 151
14.692485571779182 -1.7021175231495276 0.14243383068651713 153 160 167
14.629055125596095 2.509502294870608 0.10807616520781733 136 142 156
14.866219864631702 -1.659587810104804 0.20867980900122102 154 161 170
14.546422608451808 -2.8986659021576795 0.019343648050567604 148 153 167
9.8435866281313 -0.4845683200936974 1.091009583251943 46 49 56
9.619241347950958 -0.5438600710392423 0.9565854986861314 8 13 22
9.368529827587189 -0.580476198167809 1.405266251301554 27 28 33
10.2597559084474 -0.4361686233819113 1.2181332605448185 4 4 8
9.600177629332354 -0.6175896183648403 0.8208179582510484 49 53 64
14.84328713491526 -1.6157752580419917 0.42157345095501747 185 192 199
15.104299184344868 -1.6378352040831528 0.27330208154800684 158 165 172
15.3298642429362 -1.7490152791222173 0.487546789756868 112 119 125
15.76686064322262 -1.6046347681438071 0.5374870570270268 181 188 196
15.480369920499685 -1.6009053989146438 0.6261371476660779 185 195 203
15.81581798369862 -1.727308431793372 0.542658219087962 113 120 128
15.927532842350912 -1.8454308583033183 0.5541792340339458 34 43 53
16.08655381559836 -1.5979162796174946 0.6765089727081276 186 195 205
16.134541134250593 -1.696583039005111 0.6802047774088381 100 107 115
10.390303765530826 2.545675958754564 1.0080090859152968 14 15 27
10.390303765530826 2.545675958754564 1.0080090859152968 14 15 27
10.72371675793894 2.912139588844926 0.9144728074997437 55 62 71
10.544248459731808 2.6459438245980156 0.9012958535123473 10 11 22
10.70700598100688 2.697888308869949 1.0265611649682802 49 54 64
10.427638711590056 2.4573804555660104 1.11994011325261 38 39 52
9.527346556964595 2.704327921808919 0.8136729097389164 155 162 169
10.381490156232289 2.8009677224112473 1.0074734297091144 47 54 63
9.999654776893934 2.8427829345071887 0.7160625844396477 153 162 170
11.38537228471962 2.8819114090825027 0.7221136350825036 78 84 94
9.268532419058364 2.8427829345071887 0.7869442898596096 152 161 167
8.439453365538938 -2.9730083626449644 0.8541241055148715 132 142 149
8.439453365538938 -2.9730083626449644 0.8541241055148715 132 142 149
9.00036751005184 -3.1334120601752753 1.1661121105904384 30 37 47
8.666171702742497 -2.896681692285973 1.3917110585964798 25 36 43
8.160623269821077 -2.995835227311553 1.121597541502391 47 54 63
16.615142237661768 -2.0501791627532784 0.9589280305080535 171 173 180
14.515502819506668 -1.9721905091470442 0.8533225556134085 3 4 11
14.840688193402228 -2.0532749448939827 0.8722871470928021 163 166 173
15.536453483353885 -2.015420120515087 0.9093256930983205 164 167 174
16.47791713398549 -2.113193346754678 1.02570755029296 33 35 42
15.177020218712444 -1.9827540136729127 1.0506033660058325 165 167 174
8.631041429039263 0.41107479164775423 1.0163917063310435 21 26 39
8.677962944699454 -0.42785875784740607 1.0197361502090907 24 26 33
9.609707851479644 -0.29820905622054694 0.8217414119687392 6 9 16
10.163588276690497 -0.15740509872268563 0.7344072099166198 8 10 20
9.882974745575805 0.10642919863451777 1.0930822562089013 10 12 18
9.562788182171719 0.52899407878863 0.9524162343358501 5 11 26
9.169734619155596 0.24505114815961204 1.0523736866483733 29 32 41
9.38486885457266 -0.010060819937096878 0.7992272941377507 8 11 22
8.766584293610336 0.13771843988849694 0.8861910274780752 25 29 38
9.06293286539235 0.6326773974964209 1.1690671631646943 19 24 35
9.037335584395038 -0.3779288874657176 1.167863561460476 45 47 54
9.54361169692518 0.6017034113823724 0.8152822315151834 35 40 53
9.517037828836303 0.16138087392408093 0.6556493116877407 32 38 51
9.694332952575621 -0.34648230891166154 0.6790721959791958 41 45 54
14.864775147250091 -2.4034828408461504 0.20822035020268906 29 31 41
14.692485571779182 -1.7021175231495276 0.14243383068651713 153 160 167
14.720421821572995 -3.1118269832844616 0.15510789070646314 29 32 46
14.638305074051125 -2.4437278991788567 0.11375177240552992 136 141 153
14.576112304625232 1.8557519504857334 0.0666993170961656 140 147 161
14.918133161165056 -1.9641705517194123 0.22452090032546498 137 144 151
9.079779824214219 -0.5438600710392423 1.0467127879623386 26 29 37
9.584192902081666 -0.580476198167809 1.3021714430455908 41 44 51
16.970510763557527 -1.0902615434003857 0.6467064431458679 145 155 169
15.76686064322262 -1.6046347681438071 0.5374870570270268 181 188 196
15.403740280751029 -1.624635170232961 0.3357396758455417 160 167 174
15.530230417678732 -1.7102845193652023 0.630562887907402 98 106 114
14.895280357221313 -1.777613161635735 0.42929059936072056 113 119 125
15.279349912747323 -1.6094180749150675 0.4812746545288351 181 188 196
15.155396985921659 -1.8741182887726155 0.28508261845322963 137 144 151
15.81581798369862 -1.727308431793372 0.542658219087962 113 120 128
11.38537228471962 2.8819114090825027 0.7221136350825036 78 84 94
9.659789382783902 2.634085797945608 0.6746294089220638 152 164 183
10.083137157994427 2.9665945406179115 0.5598671009799376 147 160 178
10.224201394744584 2.7903403020606423 0.5815083843608817 146 159 178
10.040170104811905 -3.12875833377357 0.5530014967021598 149 162 182
9.881041019542138 2.581661173620755 0.84698112150627 160 164 168
8.017002646988182 -2.8231963663703183 0.9682307133593359 103 113 120
9.182880551437405 -2.786507742967807 1.2901208908712996 11 17 25
8.720927338804387 -3.0132476250319833 1.27481584482166 25 34 43
10.493190560658388 2.5195078231829475 1.3259425456104097 20 22 30
15.552753668398681 -2.0501791627532784 1.0643878903231565 160 162 169
15.698068198766627 -1.9827540136729127 0.9952993783771363 165 167 175
8.92847351960819 0.2797213859838297 0.9009043071150736 24 28 39
10.18159713667146 -0.13730764189016742 0.8727804294404736 28 30 39
9.896661628799416 -0.1217386435281845 1.0937981044342573 0 1 5
8.501020650785435 -0.008758839878402955 1.1408126423764693 42 45 52
9.32276723307282 0.7227136087993434 1.2944438937349028 19 24 35
9.471503039229413 -0.011817434574990125 0.649373242300149 35 40 51
14.58539582905821 -1.8212169406673988 0.07563090847154291 148 155 167
15.236448912345661 2.094924435611224 0.302705308250849 29 36 49
8.887807478099722 0.6017034113823724 0.8972749383624221 39 45 60
14.726638892873641 2.15336539842397 0.15778486718175913 137 144 157
14.846551688246697 2.4370518713794613 0.20232863454886266 27 32 47
14.745010553662608 -2.1226909589660434 0.16543208811663115 136 142 151
14.749761280048286 2.75236444304105 0.16735022915649433 27 32 47
16.088363920664158 -1.095399741809548 1.1519190689824736 12 16 29
9.619241347950958 -0.5438600710392423 0.9565854986861314 8 13 22
10.228255304012073 -0.5438600710392423 0.8766011310470048 7 11 19
17.525227426845355 -1.1318351165431 0.6875365916311799 143 153 169
17.539436763494596 -1.1808356271897105 0.5931213886675255 116 126 141
10.77935297669633 2.5195078231829475 1.2358177117978875 30 32 41
10.213546708523312 2.75835377853393 0.8754017678831193 9 13 26
10.263031296008155 2.60398121147158 1.2182507188439122 27 30 39
9.581494760436202 0.2797213859838297 0.8189999852182724 7 12 24
14.59947309509354 -3.0884808498229632 0.08743641741907646 135 141 154
9.17692132516771 0.4732219084986439 0.7769423098733799 37 43 57
9.430821948849273 0.13771843988849694 0.8039561467067922 7 12 24
14.838878944980499 1.6636635628054481 0.1997923243853332 136 143 157
14.864775147250091 -2.4034828408461504 0.20822035020268906 29 31 41
9.423841852005134 -0.4845683200936974 1.1852820397025945 45 48 55
17.539436763494596 -1.1808356271897105 0.5931213886675255 116 126 141
14.463326456348486 -1.624635170232961 0.3585211665928535 184 191 197
7.977702080464918 -2.8646089801509294 1.2462789730174233 63 71 79
8.64194275645627 -2.995835227311553 1.0171725810566703 32 38 47
9.065120781125724 -3.130804088743128 0.7643175219122714 150 159 168
14.629055125596095 2.509502294870608 0.10807616520781733 136 142 156
15.036518911135476 -2.208502156349646 0.25673071846091144 27 31 40
10.646595406741211 -0.4361686233819113 1.1298725803434735 0 1 6
15.927532842350912 -1.8454308583033183 0.5541792340339458 34 43 53
8.958743357015413 -0.29820905622054694 0.9035777574136424 28 31 38
17.282355172641687 -1.2162542395325275 0.6702406614222347 128 138 154
9.06293286539235 0.6326773974964209 1.1690671631646943 19 24 35
15.00948820730241 2.2302244784833043 0.2497786356972526 28 35 49
8.782011258831146 -0.15740509872268563 0.8876241591408172 26 29 37
