17.589710512455813 0.9941569774133521 2.2448786596556265 157 149 102
18.038375656774257 0.9355513466766057 2.2251612783165617 157 149 102
18.50391429380389 0.832054451071178 2.140401685280896 157 149 102
12.74047607295017 0.7161289513710056 2.247573799209403 157 149 102
12.894346114168624 0.5763895823411854 2.2380238539615505 157 149 102
12.894346114168624 0.5763895823411854 2.2380238539615505 157 149 102
10.62779845303764 1.7131177858350777 1.5688351003646446 157 149 102
10.532577100657596 1.6189951021611404 1.5688173695781595 157 149 102
11.831552879102162 1.1672038117396317 1.31261666987348 157 149 102
11.791617790608797 1.2502640235137619 1.2228247314340934 157 149 102
11.360989801684834 1.429864778496926 1.2090408285984016 157 149 102
10.72397476813713 1.5240125220158545 1.3812212000990207 157 149 102
11.92052250149351 1.3381597879320786 1.1360357749606722 157 149 102
12.131380089442288 1.5240125220158545 1.0514609428576884 157 149 102
11.668059626171376 1.6189951021611404 1.125963881418329 157 149 102
11.260201066121748 1.2502640235137619 1.7474797932541155 157 149 102
10.670691365389267 1.429864778496926 1.6626868893179665 157 149 102
11.52381323558338 1.8047752285464924 1.9233532553270505 157 149 102
12.635005789443293 1.6189951021611404 2.155997034089272 157 149 102
15.280430060357691 1.7131177858350777 2.3724553581948906 157 149 102
13.226363771797702 2.6260810905709304 1.5692204201552173 157 149 102
13.493350003260863 2.3555183816460796 1.4950686638779287 157 149 102
13.078448009860175 2.5203987693598005 1.4156576895542203 157 149 102
12.92561534496021 2.410896184929262 1.4138081999588865 157 149 102
12.165081000873128 2.4723685801677 1.4867816435243302 157 149 102
12.560876303383854 2.1703851764252584 1.9783907807695094 157 149 102
12.403555031126546 2.3554389692826674 1.8133534687952189 157 149 102
12.518746219973421 2.0952531924289826 2.068735799850678 157 149 102
12.805163048941234 2.300069948967604 1.6473367972103197 157 149 102
12.282676203606773 2.4723685801677 1.7326358660587646 157 149 102
13.443329809798925 2.3554389692826674 2.031711006905126 157 149 102
13.07502364806682 2.1906014445618 1.7227496622599463 157 149 102
18.5549384388563 0.8367092716392867 2.2726112502614226 157 149 102
17.214252792410843 1.0178672598649816 2.3404491301268644 157 149 102
17.214252792410843 1.0178672598649816 2.3404491301268644 157 149 102
19.085880144563795 0.7867204205349941 2.249320736018375 157 149 102
18.5549384388563 0.8367092716392867 2.2726112502614226 157 149 102
17.61577644113174 0.9519314918091896 2.318592138709773 157 149 102
17.214252792410843 1.0178672598649816 2.3404491301268644 157 149 102
16.98281211132743 1.2764399089509662 2.3537405127349036 157 149 102
16.98281211132743 1.2764399089509662 2.3537405127349036 157 149 102
17.36142214590177 1.5280683265149813 2.4152163243308085 157 149 102
16.71461425375592 1.5240125220158545 2.459912998634828 157 149 102
16.627555007186704 1.6148169576565052 2.375232950221336 157 149 102
16.775224851132265 1.7131177858350777 2.4554724480477534 157 149 102
16.71506055116023 1.6189951021611404 2.459880094575465 157 149 102
15.917182835148148 1.9613121292391376 2.524247150622795 157 149 102
15.951613249846984 2.0129845703369047 2.420323613217927 157 149 102
16.474142122850665 1.923784103207029 2.4781068313626546 157 149 102
16.506304090486868 2.2930840973244497 2.3828944137417216 157 149 102
16.262499342037998 2.0952531924289826 2.398843820509057 157 149 102
11.537542598846162 2.994318745961604 2.8292056556577396 157 149 102
11.960288886334926 -2.8244036895653957 2.7337219499305734 157 149 102
10.77203726537907 -1.337289807755167 1.5688613614440958 157 149 102
12.9549751841185 -2.0092821625146016 2.4501004284145482 157 149 102
11.085393751497943 -1.7467316021103074 2.2518104944698742 157 149 102
10.387386701345216 -1.5127767221282487 2.1841548266808064 157 149 102
9.9460831445303 -1.3965671174616088 2.095105166012938 157 149 102
10.905160976974253 -1.1282353598683676 1.847501621048447 157 149 102
11.173142817655664 -1.3444033174808796 2.504178775237856 157 149 102
11.48671566137609 -1.8056498559270735 1.9245417809209753 157 149 102
12.490684552360507 -1.9449478604875534 1.729917559938805 157 149 102
11.217184966916113 -1.2491281870943742 2.362189608103462 157 149 102
10.906033420347844 -1.5238313200299136 1.8474789029008951 157 149 102
10.390878999611058 -1.7284960914236118 1.9637807666102747 157 149 102
10.997436017087429 -1.8293832528500442 2.0406503396104907 157 149 102
11.225645866311456 -2.014641711928326 1.933143700913934 157 149 102
13.228645087312458 -2.6505555918039985 2.5498201331976964 157 149 102
12.411234340620387 -2.6505555918039985 2.5048591745559436 157 149 102
12.249723788952515 -2.5110818332066187 2.280190744358523 157 149 102
12.369281560253123 -2.441725928260366 2.3831730152569275 157 149 102
11.879160595418197 -2.0546644026737306 1.6533163533330908 157 149 102
12.247540141715428 -2.2253523953934047 2.0808137342267585 157 149 102
13.633092869019528 -2.205486780538735 2.392020413495966 157 149 102
12.375667243113478 -2.357830104537999 1.8139110722750664 157 149 102
21.596676490948933 -2.8804886657533206 1.7561036029184358 157 149 102
18.80969563339095 0.035887514104891785 2.261215912657893 157 149 102
18.80969563339095 0.035887514104891785 2.261215912657893 157 149 102
18.965302581075875 -0.1694591814813001 2.2544572017906495 157 149 102
18.965302581075875 -0.1694591814813001 2.2544572017906495 157 149 102
18.808615061839582 -0.033086009151847236 2.2612633704163554 157 149 102
18.965302581075875 -0.1694591814813001 2.2544572017906495 157 149 102
18.78021788567653 -0.10922968709368931 2.333817116969863 157 149 102
13.710020266720768 0.23002036103879994 2.6336600902700944 157 149 102
14.89201864940808 -0.2840853994816727 2.505463038852289 157 149 102
14.994223906971223 -0.06393314163233292 2.6171645114179767 157 149 102
14.994223906971223 -0.06393314163233292 2.6171645114179767 157 149 102
15.059419022526718 -0.19497754565907044 2.609728202085946 157 149 102
15.059419022526718 -0.19497754565907044 2.609728202085946 157 149 102
15.190307831630397 -0.31960632995944005 2.59526200167627 157 149 102
14.722784098015708 -0.3648296431463507 2.6499729717411307 157 149 102
14.551511596911942 -0.4347795658942272 2.5378634252759955 157 149 102
12.492597139850941 0.7909407309790533 2.8538975082413156 157 149 102
12.88388508440211 0.326313394632755 2.7646064047627843 157 149 102
12.329814841361735 0.5477034952749115 2.9025290324705493 157 149 102
13.075049419076397 0.33544206623724915 3.0204066687642444 157 149 102
12.246782628344324 0.20579733115101495 2.9321513562262806 157 149 102
13.522047907192515 -0.4007413652709454 2.8572682802819234 157 149 102
13.814154336307272 -0.31817277552183526 2.7921243777766085 157 149 102
13.449402547353442 -0.136488907066829 2.8763766882395347 157 149 102
13.667667333091687 -0.6174005257288571 2.822832959354246 157 149 102
13.449402547353442 -0.136488907066829 2.8763766882395347 157 149 102
13.667667333091687 -0.6174005257288571 2.822832959354246 157 149 102
13.449402547353442 -0.136488907066829 2.8763766882395347 157 149 102
13.449402547353442 -0.136488907066829 2.8763766882395347 157 149 102
12.954002009550276 -0.7835530060163349 2.75116296091419 157 149 102
13.257658872783113 -0.9085930483276657 2.698814846820218 157 149 102
14.16861184007175 -0.6590258535649657 2.7289144376098946 157 149 102
13.072510789274066 -1.2494624204208478 3.0220118588114837 157 149 102
12.997353100229088 -0.7721664283945 3.088670998563014 157 149 102
13.298898419850493 -0.5357310300378503 2.9218669047302837 157 149 102
12.997353100229088 -0.7721664283945 3.088670998563014 157 149 102
12.997353100229088 -0.7721664283945 3.088670998563014 157 149 102
14.205921372710055 -1.3747175308897197 2.962677305400417 157 149 102
13.44653263049591 -1.4301827136596899 2.877163617652994 157 149 102
13.811360212866472 -1.2491833820375229 2.7926799377171245 157 149 102
13.029982285643264 -1.0630444454939298 2.7372297658930447 157 149 102
13.520144977251492 -1.165600906429231 2.85775029127712 157 149 102
13.223645814843632 -1.7726567810787288 2.9489995409450507 157 149 102
14.277186039335806 -2.117023590697142 2.936909673767919 157 149 102
12.997927034305398 -2.384333588475071 3.0878438732162974 157 149 102
13.07308142377991 -1.901179867114718 3.0216491262208423 157 149 102
13.301702788250994 -2.6084774639396433 2.9209248785321034 157 149 102
13.521800136711686 -1.9796074841246296 2.857330987686337 157 149 102
13.812980477102991 -1.895404000113876 2.7923576474252534 157 149 102
13.409488691717213 -1.9999464276840322 2.6755072565015254 157 149 102
13.182736734802333 -1.663140578346692 2.7109562674835432 157 149 102
13.739851166724328 -1.683595950686953 2.807279458029324 157 149 102
12.808101830841906 -3.0355735553514713 2.779844630660052 157 149 102
13.671487386810147 -2.526202899762891 2.8219873572353413 157 149 102
12.491299089050878 -3.0056771867428664 2.854248899216189 157 149 102
12.884363516793059 -2.8244036895653957 2.764512627807266 157 149 102
13.631922335106823 -2.140170047383039 2.6440492832663987 157 149 102
14.45140783425981 -2.3592860580541766 2.6862809889254207 157 149 102
14.171389092640613 -2.235067676728262 2.7284670474146377 157 149 102
13.887725447003954 -2.360170981225526 2.777866087849079 157 149 102
14.171389092640613 -2.235067676728262 2.7284670474146377 157 149 102
13.887725447003954 -2.360170981225526 2.777866087849079 157 149 102
14.692653445911725 -2.441725928260366 2.5240711897444648 157 149 102
14.277925119027946 -2.3587232993053546 2.566236226161532 157 149 102
13.415703244094685 -2.718539664416459 2.674587257104324 157 149 102
13.353082452689465 0.654777767364336 2.2112405015684535 157 149 102
17.187577941324108 1.0575923864247165 2.263713579783373 157 149 102
18.47464500076722 0.7867204205349941 2.2071694366711334 157 149 102
10.676693634740484 1.7131177858350777 1.4750358401851136 157 149 102
11.047995629627362 1.3147312643608848 1.099033330444001 157 149 102
11.52381323558338 1.8047752285464924 1.9233532553270505 157 149 102
14.042633490398309 2.3555183816460796 1.2804008585065307 157 149 102
13.267390855344567 2.0849826095880117 1.6446652247484794 157 149 102
12.399592082389432 2.2930840973244497 1.9840138186806908 157 149 102
12.958423565830039 2.5203987693598005 1.6464298052133823 157 149 102
12.758556372066966 2.4723685801677 1.8879688919922282 157 149 102
16.71506055116023 1.6189951021611404 2.459880094575465 157 149 102
17.61577644113174 0.9519314918091896 2.318592138709773 157 149 102
15.917182835148148 1.9613121292391376 2.524247150622795 157 149 102
17.214252792410843 1.0178672598649816 2.3404491301268644 157 149 102
17.042513447419093 2.4723685801677 2.350260599058009 157 149 102
17.042513447419093 2.4723685801677 2.350260599058009 157 149 102
12.498940452519474 0.4891291299340384 2.263196708691882 157 149 102
10.998700110464375 -1.7136623649532177 1.8450872310040232 157 149 102
10.532685104512263 -1.2178033163604007 1.8575591417129527 157 149 102
9.9460831445303 -1.3965671174616088 2.095105166012938 157 149 102
10.9941363939446 -1.6305692863730294 2.258555244491788 157 149 102
11.265028815002744 -1.85830565886341 2.238955204127754 157 149 102
11.480867519700608 -1.133946867572631 2.3392106027936093 157 149 102
13.260705169719243 -2.1131457421458353 2.4227006821158885 157 149 102
12.530873095891259 -2.718539664416459 2.638651111397168 157 149 102
12.369281560253123 -2.441725928260366 2.3831730152569275 157 149 102
12.453978113792864 -2.24061142363966 1.8123518150911322 157 149 102
13.376016887105155 -2.286798263977172 2.306741164666973 157 149 102
12.843616197958818 -2.3583338676616052 2.3449544292368447 157 149 102
12.126696608763663 -2.4295433621843543 2.1840362007642407 157 149 102
18.965302581075875 -0.1694591814813001 2.2544572017906495 157 149 102
18.86062966255663 -0.10174653786389767 2.2589871972517237 157 149 102
13.265729353902358 0.2700371109098552 2.6975335780181267 157 149 102
14.170954112205166 -0.2631499767930021 2.728537077074442 157 149 102
13.918896494797993 -0.6841765971693932 2.6073211420218567 157 149 102
14.587701013975165 -0.2240767098721948 2.667555879303041 157 149 102
14.758484635309475 -0.17250074428606896 2.5178177325043847 157 149 102
14.994223906971223 -0.06393314163233292 2.6171645114179767 157 149 102
15.190307831630397 -0.31960632995944005 2.59526200167627 157 149 102
14.30997173910126 -0.4240693897637949 2.706903155784528 157 149 102
14.758484635309475 -0.17250074428606896 2.5178177325043847 157 149 102
13.629979050213088 -0.5647079740815446 2.6443118579940563 157 149 102
14.994223906971223 -0.06393314163233292 2.6171645114179767 157 149 102
12.570179570919885 0.4105676611199477 2.8337257734560324 157 149 102
12.570179570919885 0.4105676611199477 2.8337257734560324 157 149 102
13.039752457175979 0.5112508860022081 2.7354825004776213 157 149 102
12.997353100229088 -0.7721664283945 3.088670998563014 157 149 102
13.555463813901476 -0.7839643101082399 2.65453599381843 157 149 102
14.414144191427825 -1.4301827136596899 2.895296675863012 157 149 102
13.225027351875298 -0.1901200999312932 2.948464590742875 157 149 102
13.88396488945841 -0.7835530060163349 2.778578291377057 157 149 102
13.225027351875298 -0.1901200999312932 2.948464590742875 157 149 102
13.95672636225878 -0.5043421345704282 2.7650924183001715 157 149 102
13.4497080931378 -2.3617656524780086 2.8762930617756464 157 149 102
13.922795198072718 -2.259153460021701 2.60684805493666 157 149 102
12.491299089050878 -3.0056771867428664 2.854248899216189 157 149 102
13.631922335106823 -2.140170047383039 2.6440492832663987 157 149 102
13.669454945763881 -2.1952155026738382 2.822436927533855 157 149 102
13.447087393189788 -1.7156108318587144 2.8770112976547915 157 149 102
13.92479066201417 -2.458744320106266 2.6066061644615925 157 149 102
13.63599810271565 -2.5781103075991494 2.643499224267494 157 149 102
18.530193651384586 0.8816023079709143 2.2049561521361154 157 149 102
19.060366951537972 0.741261056363022 2.1846479835487407 157 149 102
10.724670363453333 1.6189951021611404 1.381233645252892 157 149 102
11.791617790608797 1.2502640235137619 1.2228247314340934 157 149 102
12.98976237262219 2.1703851764252584 2.049126724451903 157 149 102
17.503887226969464 1.125905171463789 2.324537297760487 157 149 102
16.805678408970646 1.3577203891992373 2.364284529929887 157 149 102
16.2905628848972 1.8283274250351509 2.492658772729264 157 149 102
15.917182835148148 1.9613121292391376 2.524247150622795 157 149 102
11.745618598541128 -1.8937688633590954 1.9164140552959341 157 149 102
10.76885938251449 -1.4293253746039996 1.7556321495775713 157 149 102
10.390878999611058 -1.7284960914236118 1.9637807666102747 157 149 102
10.293466219280345 -1.6242766280145893 1.967707068900806 157 149 102
11.663191874136684 -2.097109809123354 1.9189599320657147 157 149 102
13.235259754758067 -2.08649766371198 1.4935890462059345 157 149 102
12.770035519738723 -2.0181191530026794 1.6475477568618857 157 149 102
12.006502487273345 -2.4203943597866884 1.908601161931097 157 149 102
18.86062966255663 -0.10174653786389767 2.2589871972517237 157 149 102
12.99891675826807 0.8128228101517461 3.086446805458771 157 149 102
13.450913655105555 0.14789392357521167 2.8759633928915935 157 149 102
12.16713826663265 0.794619831316277 2.9655818241718506 157 149 102
13.522047907192515 -0.4007413652709454 2.8572682802819234 157 149 102
13.148217322458372 -0.7810698201224375 2.9810577367181996 157 149 102
13.072510789274066 -1.2494624204208478 3.0220118588114837 157 149 102
13.666726039136305 -0.949205068233942 2.823041728602765 157 149 102
13.739308225185264 -1.46128622338309 2.807393244457007 157 149 102
13.073494866903118 -0.3109559503524581 3.0213870150117117 157 149 102
13.073494866903118 -0.3109559503524581 3.0213870150117117 157 149 102
13.671487386810147 -2.526202899762891 2.8219873572353413 157 149 102
14.206446481253247 -1.7726567810787288 2.962473036674159 157 149 102
14.137846033896148 -2.3654955844192083 2.9916225853247083 157 149 102
14.45140783425981 -2.3592860580541766 2.6862809889254207 157 149 102
12.997927034305398 -2.384333588475071 3.0878438732162974 157 149 102
13.258939150482565 -1.8392556905537152 2.6986112549763175 157 149 102
11.791617790608797 1.2502640235137619 1.2228247314340934 157 149 102
14.141898925276404 2.6610389225055777 1.4985477439105253 157 149 102
12.92561534496021 2.410896184929262 1.4138081999588865 157 149 102
10.855815705800307 1.3381597879320786 1.6611155661997472 157 149 102
10.855815705800307 1.3381597879320786 1.6611155661997472 157 149 102
10.577266839429056 1.5240125220158545 1.663500842599071 157 149 102
10.62779845303764 1.7131177858350777 1.5688351003646446 157 149 102
16.627555007186704 1.6148169576565052 2.375232950221336 157 149 102
17.21630005638718 1.1989693657659954 2.3403339092245314 157 149 102
11.26758707652283 -1.925174381344016 2.0285128839108006 157 149 102
12.167900738269156 -2.358048373180038 2.084478674217099 157 149 102
14.551511596911942 -0.4347795658942272 2.5378634252759955 157 149 102
14.171389092640613 -2.235067676728262 2.7284670474146377 157 149 102
13.739308225185264 -1.46128622338309 2.807393244457007 157 149 102
13.257658872783113 -0.9085930483276657 2.698814846820218 157 149 102
18.808615061839582 -0.033086009151847236 2.2612633704163554 157 149 102
13.297931022615758 -1.028973949074342 2.9221928824429932 157 149 102
14.277925119027946 -2.3587232993053546 2.566236226161532 157 149 102
17.589710512455813 0.9941569774133521 2.2448786596556265 157 149 102
13.73952603889738 2.1247517563678313 2.021033673049596 157 149 102
13.479326373579376 2.1703851764252584 2.115035636689929 157 149 102
12.206536174226994 1.2764399089509662 1.4044763728580825 157 149 102
16.138921134786447 1.8047752285464924 2.4072219728191353 157 149 102
16.474142122850665 1.923784103207029 2.4781068313626546 157 149 102
16.32420579911774 1.8926054731286595 2.3947359281804994 157 149 102
12.963551112055958 -2.7075725483336908 2.4493017036018774 157 149 102
13.446934591391233 -0.7828108216519345 2.877053242314989 157 149 102
12.492926086728886 2.994318745961604 2.8538085379764873 157 149 102
12.08021321970859 2.3554389692826674 1.651939913361408 157 149 102
12.919163440370118 2.410896184929262 1.7245973709775229 157 149 102
16.16686486396474 1.7278337935263695 2.5028140637600673 157 149 102
19.085880144563795 0.7867204205349941 2.249320736018375 157 149 102
15.917182835148148 1.9613121292391376 2.524247150622795 157 149 102
13.957555274399628 -2.0810877685224085 2.7649422343147254 157 149 102
12.99891675826807 0.8128228101517461 3.086446805458771 157 149 102
11.746167113373621 -1.7013647911112308 1.7400977627607441 157 149 102
10.244626644632149 -1.3136809071457671 1.8658611380509726 157 149 102
12.76668155874632 2.410896184929262 1.5691636773845274 157 149 102
14.691954192925243 -0.05642201688626205 2.524138210695071 157 149 102
