13.262549756029955 0.006399332204311301 1.5458850571169584 213 186 56
13.306574132001485 0.08164276555736576 1.5459674922263429 213 186 56
12.571094996166881 0.4242322350849028 1.3843439933960053 213 186 56
11.677826855681575 0.26744518808674655 1.5425036603089157 213 186 56
12.222203730957611 0.5353830135416873 1.7909975704556573 213 186 56
12.854485650485103 0.3480621736504177 1.9425714541184504 213 186 56
12.02297256818575 0.4601917568320756 1.8809653810997022 213 186 56
12.365210193925767 0.18311077358528402 1.9580468681243735 213 186 56
12.02327445858124 0.18311077358528402 1.8809573333795546 213 186 56
12.41211848873051 0.2005066950471948 2.138087639147116 213 186 56
12.977187933941634 0.26744518808674655 2.0229383998824346 213 186 56
12.022667186583607 0.5814487266643953 1.9696948728138488 213 186 56
11.548802413240661 0.502250479735846 1.9870538433758378 213 186 56
11.67069971534528 0.5814487266643953 1.8906550935468092 213 186 56
11.72038796644891 0.6350174829146839 2.0757218761248457 213 186 56
11.233779639319957 0.5519094673443787 2.099826485441982 213 186 56
11.770178393652042 0.5519094673443787 2.1732385309129407 213 186 56
11.373979528692345 0.45935301475372664 2.197397752134023 213 186 56
11.770178393652042 0.5519094673443787 2.1732385309129407 213 186 56
11.599329399339698 0.4155247111890176 2.081499650858954 213 186 56
11.98808289984963 0.502250479735846 2.063421198134788 213 186 56
11.770178393652042 0.5519094673443787 2.1732385309129407 213 186 56
11.820069705746205 0.3216329347021359 2.1703385883597357 213 186 56
11.054307812786456 0.3574996440122038 2.2184950152411878 213 186 56
11.68490546189508 0.3574996440122038 2.2867963633513497 213 186 56
11.68490546189508 0.3574996440122038 2.2867963633513497 213 186 56
12.201788933718369 0.2214951515174407 2.2505062459720944 213 186 56
11.599325788571434 0.2214951515174407 2.18340415116709 213 186 56
12.201788933718369 0.2214951515174407 2.2505062459720944 213 186 56
12.424927188411804 -0.1549822032910784 1.6247179169060733 213 186 56
12.324280219760396 0.08826979334167338 1.6251587033206125 213 186 56
12.37164048416742 0.006921362738146108 1.7061670228598156 213 186 56
12.813713093294728 -0.23347644242060714 1.3879146213558091 213 186 56
11.705306960605476 -0.25337214442801403 1.4568963979213683 213 186 56
12.518710399674903 -0.1549822032910784 1.7045670742639425 213 186 56
11.1061279757903 -0.36459886518008444 1.7217041219627884 213 186 56
12.82834315246505 -0.07451857519326213 1.8609064712106533 213 186 56
12.545787448505735 0.006921362738146108 1.7852281718760161 213 186 56
12.841564010507389 0.08826979334167338 1.8605991349683177 213 186 56
12.638380049504642 -0.081109828302048 2.0360007756586453 213 186 56
12.605488462372167 0.007536126548070793 2.037310942054616 213 186 56
12.638380049504642 -0.081109828302048 2.0360007756586453 213 186 56
12.65179941645767 0.0960641065257535 2.0354684467064077 213 186 56
12.236065837503658 0.008270741304197131 2.1472820738700054 213 186 56
12.65179941645767 0.0960641065257535 2.0354684467064077 213 186 56
12.28376962821287 0.10536264167461577 2.144759266652586 213 186 56
12.938187621847044 -0.1549822032910784 1.8583729008026406 213 186 56
12.337733452415089 -0.1684995939036317 1.9589553264075108 213 186 56
11.576902326694281 -0.36459886518008444 1.8933399756573028 213 186 56
12.022656735699076 0.009164039526482395 2.262607258812648 213 186 56
11.410739702177796 0.009164039526482395 2.195067569554669 213 186 56
11.083665246052217 -0.40007942327073226 2.0056844449669815 213 186 56
11.083665246052217 -0.40007942327073226 2.0056844449669815 213 186 56
10.755026875432344 -0.4427098283708268 2.1260542993079814 213 186 56
11.43191017096536 -0.22788221800512698 2.3062156119621378 213 186 56
11.31414590346376 -0.4427098283708268 2.201231465380788 213 186 56
11.64125770944619 -0.33934748388314345 2.2900630495570904 213 186 56
11.776922911058477 -0.30504624682702147 2.1728447297374185 213 186 56
11.240846001054384 -0.30504624682702147 2.099459016905907 213 186 56
11.240846001054384 -0.30504624682702147 2.099459016905907 213 186 56
17.544895490374785 -0.5382124748091711 1.0760571999147461 213 186 56
18.771385425530397 -0.5287861359739018 1.2268189015173934 213 186 56
18.34418953596353 -0.558791113266347 1.1597150040855486 213 186 56
18.6054423401281 -0.732098244529009 1.280230605061503 213 186 56
18.471269442936872 -0.6533710313036187 1.3341567280483615 213 186 56
17.724631686915227 -0.6421255270504325 1.205581423497081 213 186 56
18.4845582870045 -0.607633395614868 1.2212548104322865 213 186 56
16.801994855948088 -0.5733498514047387 1.0520457684258995 213 186 56
17.295587357474307 -0.6288030939018767 1.0682642179751598 213 186 56
16.83676443006847 -0.6288030939018767 1.1203384748098015 213 186 56
20.138958622994846 -0.9355418312148119 1.0321742207396458 213 186 56
18.600203471354188 -0.7712095925397322 1.1657071981565705 213 186 56
18.841055403336345 -0.848622232919268 1.3931022661261179 213 186 56
18.58699730843266 -0.8114909894602138 1.2799338468533668 213 186 56
19.256112797667537 -0.8114909894602138 1.1802683808621677 213 186 56
11.443604331354091 -0.7641930875710669 1.5419244194482569 213 186 56
11.112622273217191 -0.5685412519113033 1.7216152553256312 213 186 56
11.631973237036814 -0.6415303282415216 1.456175165040976 213 186 56
12.503421068245425 -0.41164294604979834 1.3833228748684618 213 186 56
11.230903616932514 -0.5685412519113033 1.3617831215106782 213 186 56
11.84601669545011 -0.5230577276603592 1.542905464758045 213 186 56
11.458419372940575 -0.7641930875710669 1.6292711450534976 213 186 56
11.394608158324592 -0.44682546497151326 1.6295989881647546 213 186 56
11.157997759095991 -0.5368733717945818 2.1038016499869103 213 186 56
11.697871961411824 -0.5368733717945818 2.177495733980319 213 186 56
11.10579361205993 -0.4880606578110408 1.9075516239685024 213 186 56
11.860015983189724 -0.6415303282415216 1.797838328230031 213 186 56
11.10579361205993 -0.4880606578110408 1.9075516239685024 213 186 56
11.633194956361313 -0.6215686398047249 2.079869348588837 213 186 56
18.55646912658668 -0.848622232919268 1.6068911593401953 213 186 56
12.008228582513567 -0.11036795139378726 2.3774495598421406 213 186 56
12.716388529089947 0.01027366029573556 2.4347378807856375 213 186 56
11.973606089611295 0.01027366029573556 2.380471506298433 213 186 56
12.008228582513567 -0.11036795139378726 2.3774495598421406 213 186 56
12.762297062913527 0.13061838451746077 2.4305363922633454 213 186 56
12.022351346074423 0.13061838451746077 2.3762246040910235 213 186 56
12.15346127602085 0.24729132047460334 2.3650603147738085 213 186 56
18.08092858321032 -1.0921537315318555 1.4415522366075173 213 186 56
19.121953452951807 -0.9982597215295735 1.710865526144131 213 186 56
18.604643969396136 -1.0439264970968782 1.7147869716349113 213 186 56
19.17774897983164 -1.1166243971127305 1.7633329049445323 213 186 56
14.010686118805419 1.0929691708740914 1.330798098055124 213 186 56
16.674066722942673 1.6168838952942917 1.3080787309731479 213 186 56
17.422212391485154 1.6141898151037781 1.3784570447870983 213 186 56
13.023285556861051 1.2320244718768474 1.3908900188189075 213 186 56
12.298451215701846 1.386067571133188 1.5439317633672864 213 186 56
12.536855511569133 0.9469643008151558 1.7043723016572347 213 186 56
12.429567862591758 0.9469643008151558 1.5442152185738915 213 186 56
11.495220435477801 1.0901814700173562 1.7165590242718076 213 186 56
12.798758740112007 1.0568362988740476 1.4666643458254278 213 186 56
12.340660381791812 1.1278735092883 1.4627840274440613 213 186 56
12.754383669541824 1.015402480525847 1.9456334453930715 213 186 56
11.825872112456693 0.8392261133169197 1.9767194623713038 213 186 56
11.97934112088784 0.9675877602684904 1.9712197996414953 213 186 56
11.69077495399288 0.9120731356912554 2.077122459915365 213 186 56
11.619847527162042 0.7733149008625096 2.0805105875679115 213 186 56
13.000237319468752 1.0461228673437641 2.2018082189381505 213 186 56
12.403382930643884 0.9675877602684904 2.0455337325623106 213 186 56
12.322194660985812 0.9941590485983818 2.242634097935523 213 186 56
12.322194660985812 0.9941590485983818 2.242634097935523 213 186 56
12.122529338754344 1.2849180197083587 1.8783342537824026 213 186 56
12.170979819399651 1.2040342354874518 1.791939704682704 213 186 56
12.328055157474514 1.1712709160624066 2.0486765899793813 213 186 56
11.787632956111207 1.350513393578552 2.0725715346053946 213 186 56
12.522136869179327 1.2583063143017812 2.1324995828519135 213 186 56
12.628928843478397 1.1324920359354786 2.223463844598821 213 186 56
12.628928843478397 1.1324920359354786 2.223463844598821 213 186 56
12.222777149344457 1.4670592143037153 1.4617381673459087 213 186 56
11.114550522585922 1.6376201913132438 1.541069398794476 213 186 56
11.470996899905046 1.4577769924843056 1.8056803386297515 213 186 56
11.470996899905046 1.4577769924843056 1.8056803386297515 213 186 56
10.734852052221148 1.5452027797161185 1.9196749788179754 213 186 56
11.572192421933888 1.5452027797161185 2.0828140065745826 213 186 56
9.857945281020767 1.8639067653257406 1.8450324983817321 213 186 56
10.467513190378199 1.6751237106523211 2.3930912998987184 213 186 56
9.479324357031947 1.9400460453063242 2.2119328796559294 213 186 56
9.27372466721748 2.0567068592653888 2.0984820842373133 213 186 56
11.322118976756904 0.5126121172896705 2.315023986738188 213 186 56
10.166931200402892 1.9941498843356098 2.4254931039142185 213 186 56
9.943983943198687 1.8495987833667813 2.4516541479665324 213 186 56
9.037123383074803 -2.181732743268379 2.5842853517463897 213 186 56
11.584060682196323 0.6976886701856301 2.1843305904830332 213 186 56
9.870754608903804 1.366899706059221 2.4606937516100795 213 186 56
12.187278462495247 0.6976886701856301 2.25146886143808 213 186 56
10.98517798034876 0.771357228096747 2.2232648017326317 213 186 56
9.870754608903804 1.366899706059221 2.4606937516100795 213 186 56
11.262009826384988 -0.49467950956600704 2.3199501852457862 213 186 56
9.43542238588883 1.9941498843356098 2.355864211276112 213 186 56
9.818306538882393 1.6921131019731628 2.4673145343190663 213 186 56
11.531572334342046 -0.7572285953846973 2.2984238705077935 213 186 56
11.495833710411638 -0.6838000932794068 2.1897454012146236 213 186 56
11.495833710411638 -0.6838000932794068 2.1897454012146236 213 186 56
11.531572334342046 -0.7572285953846973 2.2984238705077935 213 186 56
10.736880579070728 -0.9017791142446697 1.9196062545594181 213 186 56
11.059200456225046 -0.7612019304411003 2.006712353755081 213 186 56
11.348873565164679 -0.8286703062328966 1.9000628342600963 213 186 56
11.851169136567881 -0.9587500660065165 1.9758022248999296 213 186 56
10.675514989796723 -0.7612019304411003 1.921697579502224 213 186 56
11.059200456225046 -0.7612019304411003 2.006712353755081 213 186 56
10.952253208377755 -0.9206834536875489 2.225563888527298 213 186 56
11.609571966318999 -0.9844229697978353 2.1827840142735457 213 186 56
11.588405618289972 -0.9206834536875489 2.2940642654175196 213 186 56
11.609571966318999 -0.9844229697978353 2.1827840142735457 213 186 56
10.914617837363549 -0.8352298151420494 2.117008752663611 213 186 56
11.065390495032077 -0.9844229697978353 2.1087463214575726 213 186 56
11.801405751361377 -1.0379102012596144 2.071931393609466 213 186 56
11.920408781287312 -1.1252027257027708 2.1645968114039915 213 186 56
11.19222205874564 -1.0772314725300964 2.209204710082047 213 186 56
11.17026490935408 -1.0188599726223881 2.327616112539376 213 186 56
10.59401629952199 -1.2928832960425545 2.2517926073473036 213 186 56
11.815461440242876 -1.0772314725300964 2.2772227722835856 213 186 56
11.815461440242876 -1.0772314725300964 2.2772227722835856 213 186 56
12.155829637478094 -1.0831912561769004 1.965082019529728 213 186 56
12.155829637478094 -1.0831912561769004 1.965082019529728 213 186 56
12.285814029630455 -1.0077713993895674 1.8741158039695005 213 186 56
9.689127965351581 -1.5271796231562516 2.4841743800194687 213 186 56
9.195934778863233 -1.320200866559647 2.557161085132037 213 186 56
9.195934778863233 -1.320200866559647 2.557161085132037 213 186 56
10.066291315194274 -2.0048425306790976 2.4370593351727186 213 186 56
8.945589956313494 -1.6955578294759075 2.412200108436304 213 186 56
9.274493871392874 -1.9113685136125327 2.5444778262185466 213 186 56
9.139615046563584 -1.7205941485602432 2.5665428857951493 213 186 56
9.083350320098273 -1.8571721707379918 2.3953895716092983 213 186 56
9.083350320098273 -1.8571721707379918 2.3953895716092983 213 186 56
9.841064346462893 -1.8571721707379918 2.4644263356057423 213 186 56
9.71405549191946 -1.6955578294759075 2.480857396083474 213 186 56
9.76409565389179 -1.8175500536332827 2.3227663064130746 213 186 56
9.110338605384259 -1.8175500536332827 2.242513615480563 213 186 56
10.114951990820643 -1.904263453624482 2.1658116162932197 213 186 56
9.353178223250497 -1.9482790203104692 2.222036639587449 213 186 56
15.672696437260411 -1.7653437359057256 2.010375158189425 213 186 56
15.126481607095183 -1.6953241278309756 1.95499461674188 213 186 56
15.984024357994967 -1.6953241278309756 2.0712596056875725 213 186 56
15.9061422508993 -1.6240573263610516 2.0739394092747867 213 186 56
15.44882088938344 -1.6240573263610516 2.017200996236142 213 186 56
8.439321044325911 2.7624109663550493 1.4124986279059755 213 186 56
8.057669558757777 2.596849929129743 1.7795207456303297 213 186 56
8.024446711363662 2.8785372336071124 1.5296163948262649 213 186 56
9.933804623887944 2.2051993839692927 2.452896812500253 213 186 56
7.689009718371982 2.7932979701858947 2.2234722759106065 213 186 56
8.12104358317783 2.416802858099579 1.9057570107161481 213 186 56
9.017535887104062 2.2327788047131927 2.1151212705279647 213 186 56
8.272541235076341 2.7124635409292366 2.0304008508707305 213 186 56
9.255002991834605 2.7273620726032073 2.54758236479974 213 186 56
9.933804623887944 2.2051993839692927 2.452896812500253 213 186 56
9.530203013480266 2.56482456068106 2.506088767930479 213 186 56
9.146319704877774 2.4304900092400317 2.387972579559065 213 186 56
8.542637709842076 2.2327788047131927 2.0148111057063915 213 186 56
7.972987264751211 -2.615466268812075 1.781770941861729 213 186 56
7.920287601605191 3.130633864792142 1.7831961385836508 213 186 56
7.993787887567555 3.0023716235194353 1.7812137056576662 213 186 56
7.993787887567555 3.0023716235194353 1.7812137056576662 213 186 56
7.457332173865949 -2.9835383190066365 2.2474429582076905 213 186 56
9.063443776017202 -2.950940702871023 2.5796428154521056 213 186 56
8.582676721739695 -2.9017274275834417 2.6761422251289417 213 186 56
9.082146843097542 2.916681845084465 2.576380776078264 213 186 56
8.372737655840753 -2.5431420405968668 2.1624332636468715 213 186 56
7.644744211031223 -2.8196524680924133 2.227906129400294 213 186 56
8.579727232634399 -2.6718005794512254 2.2927058401732356 213 186 56
8.687194049223807 -2.590381060385694 2.4461282385996 213 186 56
8.40458384146118 -2.7577418600488404 2.487454396333525 213 186 56
9.388997412506296 -2.3335629959567625 2.5267705283399255 213 186 56
8.968948114864277 -2.5431420405968668 2.2551106008349326 213 186 56
9.071805297160465 -2.4513986992152828 2.396767111617125 213 186 56
8.293455762569012 -2.8196524680924133 2.3235199058415894 213 186 56
9.388997412506296 -2.3335629959567625 2.5267705283399255 213 186 56
8.40458384146118 -2.7577418600488404 2.487454396333525 213 186 56
8.74600769554953 -2.6685319992277683 2.6402357544176867 213 186 56
9.090890433790042 -2.2214811313466503 2.3944928857757786 213 186 56
9.848024335508573 -2.2214811313466503 2.4635477701278554 213 186 56
9.007513827150126 -2.134831207439095 2.2516226110821567 213 186 56
9.466730096365547 -2.2465376498385923 2.2129261194771237 213 186 56
8.87629809192515 -2.3382489273735496 2.2636559695233918 213 186 56
9.493015236506865 -2.012401786582045 1.9676981522667139 213 186 56
9.693586345982578 -2.0667860089016044 2.1955363737379923 213 186 56
9.693586345982578 -2.0667860089016044 2.1955363737379923 213 186 56
15.878195331511943 -1.8334860628056535 2.0042975244938295 213 186 56
17.674588394182525 -2.0785093820893676 2.0196537246340656 213 186 56
18.054894478331438 -2.4332568576636806 1.9491696813171924 213 186 56
18.6003191243508 -2.516562307721807 1.9958169277865858 213 186 56
17.77174261816056 -2.3926651158182053 2.0170223325286307 213 186 56
19.39037065026628 -2.271689533332499 1.921934739787584 213 186 56
18.470611959271455 -2.2281995342174628 1.8827882741455575 213 186 56
17.95786505358569 -2.2281995342174628 1.7765935578623409 213 186 56
18.009049174047743 -2.348868298302213 1.950181864312413 213 186 56
17.781492434993496 -2.304454542949882 2.0167600313494187 213 186 56
19.39037065026628 -2.271689533332499 1.921934739787584 213 186 56
18.637554068225707 -2.1815815100608242 1.9949128720569582 213 186 56
18.07408337047432 -2.264583711296694 1.9487476694044936 213 186 56
18.68572083313857 -2.3086447184569527 1.935784430285049 213 186 56
18.77399499293679 -2.4703363476950533 1.933988395501088 213 186 56
18.068690439176862 -2.3086447184569527 1.8322018785420595 213 186 56
18.07408337047432 -2.264583711296694 1.9487476694044936 213 186 56
12.369562910529222 0.9323248952779712 2.3474345184000125 213 186 56
12.369562910529222 0.9323248952779712 2.3474345184000125 213 186 56
12.397554664397063 0.61110777243431 2.3452182997770255 213 186 56
11.825244077745682 0.8581497866370621 2.3937348934724607 213 186 56
11.740371107136749 0.6604696210209835 2.5385673798252197 213 186 56
12.590565096985905 0.6823249148373164 2.446520360183671 213 186 56
11.825244077745682 0.8581497866370621 2.3937348934724607 213 186 56
11.839891681423692 0.6823249148373164 2.392402154913642 213 186 56
12.220991791264685 0.5782867854489938 2.4836183669475824 213 186 56
12.576788467923166 0.6604696210209835 2.583676601304094 213 186 56
12.269050036268684 0.279710892862419 2.4785666544175453 213 186 56
11.924049281300292 0.4579766714981815 2.5165472203311623 213 186 56
11.720067553480726 0.40188525098351496 2.4034604872159804 213 186 56
11.924049281300292 0.4579766714981815 2.5165472203311623 213 186 56
12.748421302124893 0.4579766714981815 2.56246190626008 213 186 56
13.166062946120151 0.5305657259729256 2.6601827149067887 213 186 56
12.968250629977707 0.3774826715651562 2.690251343631239 213 186 56
12.54402473678966 0.32157654762393995 2.587876143301082 213 186 56
12.595999276478612 0.4553021007875377 2.7556835934843145 213 186 56
12.139188592866649 0.14836710639062398 2.4923874437204736 213 186 56
12.949872359478201 0.14836710639062398 2.5390885453786014 213 186 56
13.286164304700728 0.17164299837993396 2.6431555705065954 213 186 56
13.742954539002536 0.011689001989612511 2.5851449856135056 213 186 56
13.242072074725426 0.013556589642236435 2.6493080786699412 213 186 56
12.79984946018333 0.016134376634680474 2.718203926293584 213 186 56
12.79984946018333 0.016134376634680474 2.718203926293584 213 186 56
12.832242871145896 -0.1723186019042837 2.712636569753159 213 186 56
12.832242871145896 -0.1723186019042837 2.712636569753159 213 186 56
13.242072074725426 0.013556589642236435 2.6493080786699412 213 186 56
13.242072074725426 0.013556589642236435 2.6493080786699412 213 186 56
13.286164304700728 0.17164299837993396 2.6431555705065954 213 186 56
13.286164304700728 0.17164299837993396 2.6431555705065954 213 186 56
13.773130013247155 -0.12542450574231429 2.5816326240494663 213 186 56
12.9046311465108 0.011689001989612511 2.544204590597219 213 186 56
11.676551240090827 -0.3819177966782676 2.4075666486862692 213 186 56
12.437087412093733 -0.3819177966782676 2.461452946202985 213 186 56
12.165324803222973 -0.5590362273949823 2.489561925911422 213 186 56
11.965456939172268 -0.49467950956600704 2.381186728837068 213 186 56
11.965456939172268 -0.49467950956600704 2.381186728837068 213 186 56
12.97437559196996 -0.5590362273949823 2.536348240660904 213 186 56
13.379577520746357 -0.29697525985150586 2.630475272693843 213 186 56
12.708426775206547 -0.43592876592301194 2.5672923646498287 213 186 56
13.379577520746357 -0.29697525985150586 2.630475272693843 213 186 56
13.045693804046413 -0.2579823560808254 2.528491214422995 213 186 56
12.708426775206547 -0.43592876592301194 2.5672923646498287 213 186 56
12.708426775206547 -0.43592876592301194 2.5672923646498287 213 186 56
12.469543242387383 0.24946130973789926 2.7814654875498817 213 186 56
12.469543242387383 0.24946130973789926 2.7814654875498817 213 186 56
9.421264019128712 -0.9117182211106513 2.739441680694912 213 186 56
10.5721808165497 1.2720093637911232 2.725391270686022 213 186 56
10.129235009787688 1.3282341975258944 2.5980916808577303 213 186 56
10.500222882822728 1.5076799933321263 2.7411774704264853 213 186 56
10.129235009787688 1.3282341975258944 2.5980916808577303 213 186 56
9.895216136618357 1.4475949083314268 2.9276632595750294 213 186 56
10.153077931823097 1.487303256774492 2.8317639024707106 213 186 56
10.153077931823097 1.487303256774492 2.8317639024707106 213 186 56
10.200608903242305 1.9008229008807225 2.5866196709338842 213 186 56
10.523229255323033 1.7504454711702697 2.7360436019874745 213 186 56
10.849225811197387 2.1619458534270475 2.670946175699828 213 186 56
9.968269973709473 2.1619458534270475 2.6254398726265884 213 186 56
10.617835830575574 1.6921131019731628 2.526148925722408 213 186 56
10.078132199260617 1.7156659892449846 2.606543269934568 213 186 56
10.078132199260617 1.7156659892449846 2.606543269934568 213 186 56
10.200608903242305 1.9008229008807225 2.5866196709338842 213 186 56
10.418065817033348 2.06532348115887 2.553813743735845 213 186 56
9.6019121621413 2.2973938726390735 2.6972848423383424 213 186 56
10.298171596547528 2.08481241101174 2.7904124844701936 213 186 56
9.328827797220622 2.491479811349156 2.763415975165634 213 186 56
10.044035500368237 2.2667975417368598 2.867700031691318 213 186 56
8.947607575655692 1.91264967037252 2.8916826068838555 213 186 56
10.044035500368237 2.2667975417368598 2.867700031691318 213 186 56
10.26480991074798 2.491479811349156 2.799393871473881 213 186 56
10.513610778560844 2.2973938726390735 2.7381797204979623 213 186 56
9.73373583425765 1.3371691762109383 3.026776168152739 213 186 56
9.73373583425765 1.3371691762109383 3.026776168152739 213 186 56
9.73373583425765 1.3371691762109383 3.026776168152739 213 186 56
9.716287104267236 -1.2958434208977714 3.0435720319520065 213 186 56
9.794006418285484 -0.6288626082256717 2.982065587251308 213 186 56
9.67346495273698 0.3175267696452906 3.1134968670886107 213 186 56
9.751525563761708 0.06733330077999757 3.0119142677064965 213 186 56
9.716287104267236 -1.2958434208977714 3.0435720319520065 213 186 56
9.751525563761708 0.06733330077999757 3.0119142677064965 213 186 56
9.860859292844056 -1.4368038398109477 2.9443414926985843 213 186 56
9.150276632998281 -1.4824677358203995 2.8160389632817333 213 186 56
9.516190065415545 -1.5049521668837715 2.716600166173157 213 186 56
9.232761726009278 -1.1633538688113148 2.790533757941249 213 186 56
8.967361829910883 -0.9895501389742433 2.8831931655556127 213 186 56
9.59553020890357 -1.2598627538370242 2.698684002421226 213 186 56
9.516190065415545 -1.5049521668837715 2.716600166173157 213 186 56
10.102814305627325 -1.4824677358203995 2.8477021098310824 213 186 56
10.102814305627325 -1.4824677358203995 2.8477021098310824 213 186 56
9.516190065415545 -1.5049521668837715 2.716600166173157 213 186 56
10.051216061016111 3.1106581035980976 2.865168672618288 213 186 56
9.867805320070662 -2.6578346262835835 2.940849803505984 213 186 56
9.758549413834212 2.1705794150033704 3.0065071106578274 213 186 56
9.884986597531459 2.5845650690852477 2.93248002556344 213 186 56
9.093274980535588 3.1106581035980976 2.835151090744675 213 186 56
9.82564353791118 3.0929213035908307 2.963162626482548 213 186 56
9.698432737456253 3.0277165328679745 3.0645273773466966 213 186 56
9.741145131024501 -2.251975046728429 3.020359145870761 213 186 56
10.092435543809403 -2.819445009362122 2.851119240571683 213 186 56
9.867805320070662 -2.6578346262835835 2.940849803505984 213 186 56
9.698432737456253 3.0277165328679745 3.0645273773466966 213 186 56
10.092435543809403 -2.819445009362122 2.851119240571683 213 186 56
10.109235055359484 2.7648302668045965 2.8456107806030912 213 186 56
10.811224045763248 3.0929213035908307 2.9795800754210227 213 186 56
9.88535378043707 -1.9403507467001906 2.932305066958253 213 186 56
9.548747696624513 -2.3255660995988583 2.709127936467813 213 186 56
9.311010106463177 -2.109383477376523 2.7682620987684854 213 186 56
9.047905741216598 -2.3088361243513895 2.8514175990680517 213 186 56
9.311010106463177 -2.109383477376523 2.7682620987684854 213 186 56
9.670843815478491 -1.9893975984584071 2.6825400138919493 213 186 56
9.548747696624513 -2.3255660995988583 2.709127936467813 213 186 56
9.670843815478491 -1.9893975984584071 2.6825400138919493 213 186 56
11.879146121617532 -1.0188599726223881 2.388856026593097 213 186 56
11.326243935127907 -0.9468566283521187 2.442533077178722 213 186 56
11.326243935127907 -0.9468566283521187 2.442533077178722 213 186 56
11.738829937727575 -0.844130626331588 2.4017051497194815 213 186 56
11.768013597673887 -0.6657742913094359 2.3989926036257163 213 186 56
12.054422916082038 -0.751694513307005 2.5017101444698855 213 186 56
15.572872080599598 -1.6281725202722344 2.1612220536178963 213 186 56
16.227671202099355 -1.7048550729385117 2.209149839237326 213 186 56
15.572872080599598 -1.6281725202722344 2.1612220536178963 213 186 56
16.227671202099355 -1.7048550729385117 2.209149839237326 213 186 56
15.79498944542172 -1.779986588065318 2.1518271778928817 213 186 56
16.396980891868633 -1.5522457830088954 2.1279050842676357 213 186 56
9.93380040772964 2.452137888540551 2.6315880079124576 213 186 56
9.93380040772964 2.452137888540551 2.6315880079124576 213 186 56
9.670093145431885 2.6332602135452774 2.6826970949111866 213 186 56
9.443056880203944 3.118921965182109 2.7340498941983613 213 186 56
9.443056880203944 3.118921965182109 2.7340498941983613 213 186 56
18.629805789942072 -2.0785093820893676 2.116525819548733 213 186 56
18.130923013938517 -2.0785093820893676 2.06936518644752 213 186 56
17.646632874355504 -1.1429196750788393 1.4383529507282664 213 186 56
19.041715765083474 -1.6626241739446923 1.5008741907133385 213 186 56
19.137597676945628 -1.6626241739446923 1.4487250782158858 213 186 56
19.931705176462167 -1.6080289690658687 1.5542213319767706 213 186 56
16.23124099723881 -1.6798076108144337 1.7360229312094797 213 186 56
16.36877691464999 -1.7414000000436987 1.734622032543953 213 186 56
15.6027510783981 -1.752595515047337 1.808212760139432 213 186 56
15.64665423998951 -1.620492481879216 1.8738580754306275 213 186 56
15.973637135586106 -1.620492481879216 1.9336438341339763 213 186 56
16.332558966380986 -1.8786119784594852 1.8607525995293899 213 186 56
18.472178696745296 -2.049574147250152 1.9989588821461175 213 186 56
18.41659168375013 -2.149382908699416 1.8271515096691413 213 186 56
16.971467233583578 -1.9170404054475965 1.4923282153402198 213 186 56
17.287384645033132 -1.9714899850227305 1.5516856921201345 213 186 56
18.07469277666525 -2.02354068674071 1.7752444521858124 213 186 56
18.850001890702988 -2.1200731843483442 1.7128999370080447 213 186 56
16.769249603243278 -1.8603664870276049 1.4313792858518808 213 186 56
15.809159199197964 -1.816598164312193 1.8050546117044435 213 186 56
13.760326348035486 0.6674658213542154 1.2506574260141796 213 186 56
12.734580833665703 0.717847391856161 1.306199229401071 213 186 56
12.125521985277775 0.7747934895763937 1.8782558656193449 213 186 56
12.29553127009786 0.8330286547864584 1.6252859371905266 213 186 56
11.776940692635494 0.6531922707899295 1.7130481757120615 213 186 56
12.269359526208419 0.7090741753892906 2.05115586985588 213 186 56
13.241295065530934 0.8846555191145452 1.3938836273728745 213 186 56
12.79426179851961 0.4242322350849028 1.3074629049192825 213 186 56
13.325011504594526 0.006399332204311301 1.470790944725065 213 186 56
13.36315138350074 0.006399332204311301 1.6960678384349837 213 186 56
12.371350480179327 0.4242322350849028 1.6249516636369254 213 186 56
12.092142822417628 0.3480621736504177 1.7093159142631942 213 186 56
12.049980694464407 0.3480621736504177 1.4601679103510454 213 186 56
11.599329399339698 0.4155247111890176 2.081499650858954 213 186 56
12.364916651920497 0.4601917568320756 1.9580565503353768 213 186 56
11.4615586441873 0.24729132047460334 2.303877763123342 213 186 56
12.270257229224656 0.3480621736504177 1.79012107730751 213 186 56
12.236372738914618 0.26744518808674655 1.8753806444947902 213 186 56
12.411822681713307 0.3216329347021359 2.2369044769557522 213 186 56
12.41211848873051 0.2005066950471948 2.138087639147116 213 186 56
12.776451681650876 0.18311077358528402 2.030583703294171 213 186 56
12.411265898519018 -0.1549822032910784 1.5441760121501213 213 186 56
12.617809894670865 -0.23347644242060714 1.6238928606224479 213 186 56
12.592317967807391 0.08826979334167338 1.7844235121165624 213 186 56
11.00816000175082 -0.33934748388314345 2.2216705266020007 213 186 56
12.808614351807062 0.008270741304197131 2.212783552704889 213 186 56
12.795939869219367 0.006921362738146108 1.8616625339834685 213 186 56
12.022656735699076 0.009164039526482395 2.262607258812648 213 186 56
12.337733452415089 -0.1684995939036317 1.9589553264075108 213 186 56
11.931018060436399 -0.4427098283708268 2.268986744006136 213 186 56
11.540664180199487 -0.40007942327073226 2.084350041853382 213 186 56
11.931637017417735 -0.36459886518008444 1.9729127807260194 213 186 56
11.307442648817727 -0.11036795139378726 2.316219877735056 213 186 56
11.00816000175082 -0.33934748388314345 2.2216705266020007 213 186 56
11.64125770944619 -0.33934748388314345 2.2900630495570904 213 186 56
11.540664180199487 -0.40007942327073226 2.084350041853382 213 186 56
13.117467160595856 -0.081109828302048 2.104186406749781 213 186 56
12.82834315246505 -0.07451857519326213 1.8609064712106533 213 186 56
17.544895490374785 -0.5382124748091711 1.0760571999147461 213 186 56
18.018148314099665 -0.5919803712044509 1.0901738315579848 213 186 56
17.967987760596557 -0.558791113266347 1.2107550762482207 213 186 56
17.1852337061816 -0.5919803712044509 1.193551959690358 213 186 56
18.30281069501399 -0.6887746166578651 1.2176328235387421 213 186 56
18.6054423401281 -0.732098244529009 1.280230605061503 213 186 56
18.30281069501399 -0.6887746166578651 1.2176328235387421 213 186 56
18.806152834637338 -0.772293664412854 1.3927689561581724 213 186 56
19.079258521606455 -0.6961172001453045 1.341834554611771 213 186 56
17.295587357474307 -0.6288030939018767 1.0682642179751598 213 186 56
17.798821522966946 -0.6288030939018767 1.0190070087185392 213 186 56
17.386976372398337 -0.6801209423767929 1.1355870225707574 213 186 56
18.985551316249445 -0.8905567627279419 1.230856862214166 213 186 56
11.394608158324592 -0.44682546497151326 1.6295989881647546 213 186 56
11.739771776309611 -0.6971170735844359 1.979873736842321 213 186 56
11.37905738302791 -0.6971170735844359 1.899156574483538 213 186 56
11.583132678787303 -0.5685412519113033 1.893160213127563 213 186 56
11.475101140611567 -0.4880606578110408 1.9898950560163855 213 186 56
10.81662411846124 -0.4880606578110408 1.8201829974773236 213 186 56
12.151975943290212 -0.6215686398047249 2.151787681231433 213 186 56
11.097010971097047 -0.6971170735844359 1.813753028999021 213 186 56
11.973606089611295 0.01027366029573556 2.380471506298433 213 186 56
12.15346127602085 0.24729132047460334 2.3650603147738085 213 186 56
18.761551778875067 -0.9242215768733947 1.6599072380412152 213 186 56
18.94651722585626 -0.9982597215295735 1.60614776939723 213 186 56
12.207109136011727 0.9120731356912554 2.148825098053209 213 186 56
11.950677040545191 1.0901814700173562 1.882904931617247 213 186 56
12.522136869179327 1.2583063143017812 2.1324995828519135 213 186 56
10.458557621422536 1.644223634584146 1.8289125132258384 213 186 56
12.287004823223336 1.1278735092883 1.6253237872298132 213 186 56
11.467866269999279 0.8392261133169197 1.8965193722631528 213 186 56
8.91730317036633 1.9400460453063242 2.121939385063405 213 186 56
12.43651381734103 1.0461228673437641 2.136838302505211 213 186 56
11.56908917586947 0.8472752091961477 2.185242175701336 213 186 56
12.173048870057734 0.8472752091961477 2.2524158041302327 213 186 56
9.8849993084613 1.8118689904373901 2.3113871461535207 213 186 56
8.93347937297126 2.1606149404961363 1.8742692426384686 213 186 56
9.793644363582343 1.528394491356044 2.470471489736575 213 186 56
11.584060682196323 0.6976886701856301 2.1843305904830332 213 186 56
9.818306538882393 1.6921131019731628 2.4673145343190663 213 186 56
9.943983943198687 1.8495987833667813 2.4516541479665324 213 186 56
11.61952794624347 0.771357228096747 2.291702012935404 213 186 56
11.720071127050366 0.61110777243431 2.28418886630332 213 186 56
9.43542238588883 1.9941498843356098 2.355864211276112 213 186 56
9.943983943198687 1.8495987833667813 2.4516541479665324 213 186 56
9.818306538882393 1.6921131019731628 2.4673145343190663 213 186 56
9.870754608903804 1.366899706059221 2.4606937516100795 213 186 56
11.574074193490109 -0.9017791142446697 2.0827226343786522 213 186 56
11.465957307145718 -0.8352298151420494 2.191602705181845 213 186 56
11.574074193490109 -0.9017791142446697 2.0827226343786522 213 186 56
11.495833710411638 -0.6838000932794068 2.1897454012146236 213 186 56
11.118448587946968 -0.9017791142446697 2.004231618391278 213 186 56
11.066057869200753 -0.8286703062328966 1.8144463627351477 213 186 56
11.17026490935408 -1.0188599726223881 2.327616112539376 213 186 56
10.59401629952199 -1.2928832960425545 2.2517926073473036 213 186 56
11.354905692020152 -1.0379102012596144 1.9946157178659212 213 186 56
11.391086474932841 -1.1252027257027708 2.0917720375833024 213 186 56
11.807832135569893 -1.0831912561769004 1.8868107005327808 213 186 56
12.612619809034223 -1.1988406421946898 1.950059500000134 213 186 56
12.573920971955587 -1.0831912561769004 2.0385756315921686 213 186 56
9.689127965351581 -1.5271796231562516 2.4841743800194687 213 186 56
9.326892644860983 -2.0048425306790976 2.367561376427537 213 186 56
9.841064346462893 -1.8571721707379918 2.4644263356057423 213 186 56
9.139615046563584 -1.7205941485602432 2.5665428857951493 213 186 56
8.945589956313494 -1.6955578294759075 2.412200108436304 213 186 56
9.513144061856549 -2.0796335800693893 2.508523986428689 213 186 56
9.353178223250497 -1.9482790203104692 2.222036639587449 213 186 56
9.890833150219144 -1.7874071842796186 2.1812294441683235 213 186 56
9.890833150219144 -1.7874071842796186 2.1812294441683235 213 186 56
9.353178223250497 -1.9482790203104692 2.222036639587449 213 186 56
9.76409565389179 -1.8175500536332827 2.3227663064130746 213 186 56
8.972992596320486 -1.6776645542708326 2.2547429328698714 213 186 56
16.123669186885127 -1.7653437359057256 2.0665290472422715 213 186 56
15.9061422508993 -1.6240573263610516 2.0739394092747867 213 186 56
11.706183614614798 2.475465873942393 0.999444108550583 213 186 56
7.544929088676964 2.8416806389337954 1.9324627117451316 213 186 56
8.971374410285334 2.321302887499582 2.254889982811124 213 186 56
8.638857215054164 2.648585196688208 2.286695319199546 213 186 56
8.453416389116324 2.523244800649355 2.15603414005262 213 186 56
8.485392474033832 2.2051993839692927 2.302536804702832 213 186 56
9.255002991834605 2.7273620726032073 2.54758236479974 213 186 56
8.453416389116324 2.523244800649355 2.15603414005262 213 186 56
8.163171234760553 2.2327788047131927 1.9039612509464814 213 186 56
9.017924456954091 -2.479744378658542 2.587710944174449 213 186 56
9.388997412506296 -2.3335629959567625 2.5267705283399255 213 186 56
8.293455762569012 -2.8196524680924133 2.3235199058415894 213 186 56
9.063443776017202 -2.950940702871023 2.5796428154521056 213 186 56
9.388997412506296 -2.3335629959567625 2.5267705283399255 213 186 56
9.01752195341413 3.123701801868807 2.58778312087971 213 186 56
7.40145203663829 3.1268171766953476 2.253521374986233 213 186 56
8.210773647492259 -2.7334727142535895 2.034127728875597 213 186 56
9.01752195341413 3.123701801868807 2.58778312087971 213 186 56
7.676318856600204 3.129008535212554 2.0692270555326404 213 186 56
7.730212292616227 -3.006674542125945 2.065436442737815 213 186 56
8.293455762569012 -2.8196524680924133 2.3235199058415894 213 186 56
7.9543965800565015 -2.6718005794512254 2.198209240078261 213 186 56
8.968948114864277 -2.5431420405968668 2.2551106008349326 213 186 56
9.017924456954091 -2.479744378658542 2.587710944174449 213 186 56
9.017924456954091 -2.479744378658542 2.587710944174449 213 186 56
9.017924456954091 -2.479744378658542 2.587710944174449 213 186 56
9.144742851137265 -2.0667860089016044 2.10672222937957 213 186 56
9.493015236506865 -2.012401786582045 1.9676981522667139 213 186 56
9.66822629958021 -2.134831207439095 2.3320812068472256 213 186 56
17.907535642261028 -2.1815815100608242 1.8929464247652006 213 186 56
18.188573658107114 -2.2281995342174628 1.830438987787777 213 186 56
17.90329887884681 -2.2170405490189173 2.013509852617443 213 186 56
18.68572083313857 -2.3086447184569527 1.935784430285049 213 186 56
17.90329887884681 -2.2170405490189173 2.013509852617443 213 186 56
18.134904142975337 -2.131710772131734 2.0074636389776632 213 186 56
12.369562910529222 0.9323248952779712 2.3474345184000125 213 186 56
12.596009251661954 1.0860296143659678 2.329918965941923 213 186 56
12.596009251661954 1.0860296143659678 2.329918965941923 213 186 56
12.54402473678966 0.32157654762393995 2.587876143301082 213 186 56
12.269050036268684 0.279710892862419 2.4785666544175453 213 186 56
11.825244077745682 0.8581497866370621 2.3937348934724607 213 186 56
12.022049432498294 0.5126121172896705 2.3762507445153274 213 186 56
12.220991791264685 0.5782867854489938 2.4836183669475824 213 186 56
11.839891681423692 0.6823249148373164 2.392402154913642 213 186 56
12.477951670516498 0.40188525098351496 2.457414373492673 213 186 56
11.720067553480726 0.40188525098351496 2.4034604872159804 213 186 56
12.124603203097916 0.7686426366538031 2.493974130247974 213 186 56
12.968250629977707 0.3774826715651562 2.690251343631239 213 186 56
12.9046311465108 0.011689001989612511 2.544204590597219 213 186 56
12.79984946018333 0.016134376634680474 2.718203926293584 213 186 56
12.417039401480132 0.17164299837993396 2.604646266786709 213 186 56
13.717705370686062 0.016134376634680474 2.748158919035022 213 186 56
13.273386294873744 -0.14520467302035145 2.6449271915601886 213 186 56
13.273386294873744 -0.14520467302035145 2.6449271915601886 213 186 56
12.84545971550401 0.20346143699209818 2.710392388792971 213 186 56
11.676551240090827 -0.3819177966782676 2.4075666486862692 213 186 56
12.437087412093733 -0.3819177966782676 2.461452946202985 213 186 56
12.516940528742138 -0.29697525985150586 2.5913861103905287 213 186 56
13.045693804046413 -0.2579823560808254 2.528491214422995 213 186 56
12.708426775206547 -0.43592876592301194 2.5672923646498287 213 186 56
10.044035500368237 2.2667975417368598 2.867700031691318 213 186 56
10.26480991074798 2.491479811349156 2.799393871473881 213 186 56
10.044035500368237 2.2667975417368598 2.867700031691318 213 186 56
9.58725123042889 1.5076799933321263 2.7005080246769744 213 186 56
10.418065817033348 2.06532348115887 2.553813743735845 213 186 56
10.200608903242305 1.9008229008807225 2.5866196709338842 213 186 56
10.513610778560844 2.2973938726390735 2.7381797204979623 213 186 56
10.129235009787688 1.3282341975258944 2.5980916808577303 213 186 56
10.078132199260617 1.7156659892449846 2.606543269934568 213 186 56
10.054107382291136 1.520068751711505 2.6105885884157756 213 186 56
9.67346495273698 0.3175267696452906 3.1134968670886107 213 186 56
9.67346495273698 0.3175267696452906 3.1134968670886107 213 186 56
9.751525563761708 0.06733330077999757 3.0119142677064965 213 186 56
9.716287104267236 -1.2958434208977714 3.0435720319520065 213 186 56
9.232761726009278 -1.1633538688113148 2.790533757941249 213 186 56
9.860859292844056 -1.4368038398109477 2.9443414926985843 213 186 56
10.17758240069102 -1.1633538688113148 2.82432938546259 213 186 56
9.150276632998281 -1.4824677358203995 2.8160389632817333 213 186 56
10.051216061016111 3.1106581035980976 2.865168672618288 213 186 56
9.15736528543638 2.7648302668045965 2.8137535267385525 213 186 56
9.884986597531459 2.5845650690852477 2.93248002556344 213 186 56
9.741145131024501 -2.251975046728429 3.020359145870761 213 186 56
9.867805320070662 -2.6578346262835835 2.940849803505984 213 186 56
9.82564353791118 3.0929213035908307 2.963162626482548 213 186 56
9.292377073336661 -2.531878393613251 2.773415234472556 213 186 56
9.541569406143102 -1.7580546250742535 2.710760602021695 213 186 56
9.311010106463177 -2.109383477376523 2.7682620987684854 213 186 56
9.311010106463177 -2.109383477376523 2.7682620987684854 213 186 56
15.79498944542172 -1.779986588065318 2.1518271778928817 213 186 56
15.65241253640636 -1.7048550729385117 2.1578203269921996 213 186 56
12.522996385395599 -0.6657742913094359 2.4530159936648257 213 186 56
11.738829937727575 -0.844130626331588 2.4017051497194815 213 186 56
12.108802422684724 -0.9468566283521187 2.4957011265238442 213 186 56
12.108802422684724 -0.9468566283521187 2.4957011265238442 213 186 56
9.486919107038185 -2.9017274275834417 2.72346980865144 213 186 56
18.236940269678644 -2.0219639567367227 2.1296600178714966 213 186 56
18.629805789942072 -2.0785093820893676 2.116525819548733 213 186 56
17.664571726430054 -2.2561775046103762 2.0837959450710337 213 186 56
17.84331056188225 -2.1658271838561935 2.0781621680760582 213 186 56
19.15908694717368 -1.7147481740131723 1.5013032362860235 213 186 56
15.86773883223589 -1.752595515047337 1.8695042696124313 213 186 56
16.075235237990086 -1.8786119784594852 1.8011065171431797 213 186 56
16.971467233583578 -1.9170404054475965 1.4923282153402198 213 186 56
17.898469893743464 -2.02354068674071 1.7205100382366156 213 186 56
12.221903327429867 0.6531922707899295 1.875752842095369 213 186 56
13.319317158324777 0.08164276555736576 1.6210939241243896 213 186 56
12.866289789038898 0.49550705109930326 1.4672128697915128 213 186 56
11.945864354405112 0.5353830135416873 1.6268825510081582 213 186 56
11.69234512426278 0.26744518808674655 1.6280999590077645 213 186 56
11.599329399339698 0.4155247111890176 2.081499650858954 213 186 56
11.820069705746205 0.3216329347021359 2.1703385883597357 213 186 56
11.599325788571434 0.2214951515174407 2.18340415116709 213 186 56
12.854485650485103 0.3480621736504177 1.9425714541184504 213 186 56
11.68490546189508 0.3574996440122038 2.2867963633513497 213 186 56
11.373979528692345 0.45935301475372664 2.197397752134023 213 186 56
12.035879911477158 -0.3346791951517463 1.7099676409529558 213 186 56
12.405152122010008 -0.07451857519326213 1.7057990874384557 213 186 56
12.145173012729147 -0.3346791951517463 1.3777242295201817 213 186 56
12.057138378784973 -0.0985284126365321 2.2602405168996595 213 186 56
12.236369316128249 0.0960641065257535 1.96234498159039 213 186 56
11.57003035226334 -0.203984148943801 2.185184782570567 213 186 56
11.931018060436399 -0.4427098283708268 2.268986744006136 213 186 56
12.638380049504642 -0.081109828302048 2.0360007756586453 213 186 56
11.576902326694281 -0.36459886518008444 1.8933399756573028 213 186 56
12.854193506890997 0.10536264167461577 2.210135155495946 213 186 56
12.236065837503658 0.008270741304197131 2.1472820738700054 213 186 56
11.179979000835223 -0.6215686398047249 2.0016861173642604 213 186 56
10.991441439593594 -0.5685412519113033 1.5407363440770347 213 186 56
12.125504714881561 -0.22788221800512698 2.367409975437579 213 186 56
12.008228582513567 -0.11036795139378726 2.3774495598421406 213 186 56
12.716388529089947 0.01027366029573556 2.4347378807856375 213 186 56
18.415072465977612 -1.0439264970968782 1.5528561039018967 213 186 56
13.661843325454786 0.9910663425455167 1.3245447011467064 213 186 56
12.298451215701846 1.386067571133188 1.5439317633672864 213 186 56
12.52071199788038 1.3074504683405455 1.5444087600162026 213 186 56
12.43651381734103 1.0461228673437641 2.136838302505211 213 186 56
13.000237319468752 1.0461228673437641 2.2018082189381505 213 186 56
12.628928843478397 1.1324920359354786 2.223463844598821 213 186 56
12.42316418454982 1.015402480525847 1.8706574025428286 213 186 56
12.322194660985812 0.9941590485983818 2.242634097935523 213 186 56
11.787632956111207 1.350513393578552 2.0725715346053946 213 186 56
12.708157639666005 1.0901814700173562 2.0332465965252093 213 186 56
11.930731387985997 0.8967075959198759 1.7964692191408504 213 186 56
11.825872112456693 0.8392261133169197 1.9767194623713038 213 186 56
12.628928843478397 1.1324920359354786 2.223463844598821 213 186 56
12.428678296497472 1.2040342354874518 1.8705202327478556 213 186 56
11.69077495399288 0.9120731356912554 2.077122459915365 213 186 56
11.212856407498045 1.5475107812517428 1.7202568761858021 213 186 56
9.793644363582343 1.528394491356044 2.470471489736575 213 186 56
9.870754608903804 1.366899706059221 2.4606937516100795 213 186 56
10.868226273449874 -0.8286703062328966 1.725033596457757 213 186 56
11.588405618289972 -0.9206834536875489 2.2940642654175196 213 186 56
11.609571966318999 -0.9844229697978353 2.1827840142735457 213 186 56
10.914617837363549 -0.8352298151420494 2.117008752663611 213 186 56
11.066057869200753 -0.8286703062328966 1.8144463627351477 213 186 56
9.113116362048656 -1.518320610543441 2.5710450055965124 213 186 56
9.274493871392874 -1.9113685136125327 2.5444778262185466 213 186 56
15.528996755855886 -1.6953241278309756 2.014731305240634 213 186 56
15.984024357994967 -1.6953241278309756 2.0712596056875725 213 186 56
15.890930996474415 -1.5522457830088954 2.074466335403593 213 186 56
8.372737655840753 -2.5431420405968668 2.1624332636468715 213 186 56
7.730212292616227 -3.006674542125945 2.065436442737815 213 186 56
7.880078936942488 2.7124635409292366 1.916420838757806 213 186 56
7.752132628346648 2.9820479753434617 2.0639119372635504 213 186 56
7.911162556137636 -2.864813581453671 2.053140172648971 213 186 56
7.599759839550912 2.7124635409292366 1.7923005730519963 213 186 56
9.461013962905703 2.312397061269101 2.516071457829352 213 186 56
7.480052229091581 2.954857012128499 2.245005897886388 213 186 56
7.815210135163327 -2.7334727142535895 1.9194112173231899 213 186 56
18.05909567661722 -2.3897091901338947 1.8323440178883232 213 186 56
9.090890433790042 -2.2214811313466503 2.3944928857757786 213 186 56
15.878195331511943 -1.8334860628056535 2.0042975244938295 213 186 56
17.498251807301315 -2.2170405490189173 1.9618478572691427 213 186 56
17.907535642261028 -2.1815815100608242 1.8929464247652006 213 186 56
18.44244001105119 -2.4703363476950533 1.8832809902417775 213 186 56
12.220991791264685 0.5782867854489938 2.4836183669475824 213 186 56
12.30254949704031 0.771357228096747 2.3528012037800847 213 186 56
12.748421302124893 0.4579766714981815 2.56246190626008 213 186 56
12.477951670516498 0.40188525098351496 2.457414373492673 213 186 56
12.165324803222973 -0.5590362273949823 2.489561925911422 213 186 56
12.708715678493226 -0.49467950956600704 2.4354450758117623 213 186 56
11.386651533015241 -0.5590362273949823 2.43624604454393 213 186 56
12.949872359478201 0.14836710639062398 2.5390885453786014 213 186 56
12.84545971550401 0.20346143699209818 2.710392388792971 213 186 56
13.379577520746357 -0.29697525985150586 2.630475272693843 213 186 56
10.153077931823097 1.487303256774492 2.8317639024707106 213 186 56
10.200608903242305 1.9008229008807225 2.5866196709338842 213 186 56
8.947607575655692 1.91264967037252 2.8916826068838555 213 186 56
10.5721808165497 1.2720093637911232 2.725391270686022 213 186 56
10.640583975103016 1.973864404154534 2.7110791218257315 213 186 56
10.298171596547528 2.08481241101174 2.7904124844701936 213 186 56
10.298171596547528 2.08481241101174 2.7904124844701936 213 186 56
10.298171596547528 2.08481241101174 2.7904124844701936 213 186 56
