17.498978873876467 -0.8023355803195095 1.3278834610364618 185 31 147
17.18704633469392 -0.6732094612343718 1.2628735087035015 185 31 147
18.448434654089887 -0.724239512979811 1.613683205780721 185 31 147
19.192466780816446 -0.7634465006390877 1.6642477172613814 185 31 147
8.670675036423647 -0.9401649987505886 2.302150366535451 185 31 147
8.039108529939238 -0.8259885813037955 2.0618597183047744 185 31 147
7.8044931452268616 -0.731610240903017 1.5440076893404062 185 31 147
9.37563463976401 -1.6081467127957751 2.5516611074251863 185 31 147
8.893192055016115 -1.3819017401925486 2.6384221586691683 185 31 147
9.408134689637196 -1.417513502249154 2.546520719667499 185 31 147
9.784372499980703 -1.077042495547171 2.491892109810397 185 31 147
13.004842311260928 2.0920523203072943 1.8665942468594443 185 31 147
10.396806436581825 2.6615036842721294 1.6469464624881835 185 31 147
9.892819142736387 2.612821544687441 1.8567985483402092 185 31 147
10.402789226504629 2.4641352383910218 2.0494054939404496 185 31 147
10.631635982388687 2.612821544687441 2.0382692730847882 185 31 147
10.413632276009103 2.526653284065878 1.842122766140767 185 31 147
9.351526638155985 2.5115480526164817 2.3835551106953026 185 31 147
8.780913283456778 -2.354531792756031 2.147913046140793 185 31 147
9.36423215464221 2.86060853951595 2.3821230251756065 185 31 147
9.287554602184791 2.5927794760669034 2.24403024106745 185 31 147
10.053773938478184 2.898021720779952 2.312388865292791 185 31 147
10.220362864055994 2.708608107045745 2.0586889950104132 185 31 147
11.432658936043936 -3.1185328848218288 2.2068133253057245 185 31 147
10.192447715364844 2.92677900714557 2.175065957574144 185 31 147
10.521103100667197 2.94953807021943 2.0435796607109706 185 31 147
9.74399259181221 -2.5751051635985887 1.6520591624366119 185 31 147
8.933314363442578 -2.611951508484286 1.2033617698005576 185 31 147
10.42160341027332 -3.02325702086183 1.743503697663615 185 31 147
11.329410278020477 -3.02325702086183 2.007414752453387 185 31 147
10.385031745767506 -2.666811893315639 2.0502928759909542 185 31 147
10.870346388677005 -2.8779398931565954 2.2455728141042104 185 31 147
11.089276380100106 -2.905500304553023 2.120238992218127 185 31 147
11.11703935500708 -2.768031465899216 2.2279425219846907 185 31 147
11.494773758489476 -3.0105269238421792 2.202829205834438 185 31 147
10.093735245763275 -2.5146614301876586 2.065358371512133 185 31 147
10.854228554330057 -2.8055090203370607 2.0279440231211523 185 31 147
9.027275184773314 2.7386807793517223 2.612065369559061 185 31 147
9.277260579000197 2.555006704095166 2.567693147333455 185 31 147
10.241448323754328 2.991061661113571 2.6028805505258754 185 31 147
9.742785567746797 -3.0910805507949934 2.6958805011929523 185 31 147
9.625145736024887 2.4071144150613715 2.513989770241129 185 31 147
10.036170785448217 -3.0452677264531394 2.9200818138858984 185 31 147
10.256425832226071 -2.4880985232438864 2.60044223429412 185 31 147
9.141496098017662 -2.637020604818035 2.8637655802982454 185 31 147
10.447950229637838 -2.739022350631742 2.5706734519557752 185 31 147
10.106871793272006 -2.637020604818035 2.890905567141119 185 31 147
8.954184739555247 -2.3490053129422166 2.950358310082031 185 31 147
10.269402667063703 -2.2484679650073973 2.4320453903289603 185 31 147
8.511391462999743 -1.9268999378089406 2.72718752020076 185 31 147
9.6271271944604 -1.9693528128204834 2.5137061115672923 185 31 147
9.61328340016969 -2.1702171956799168 2.7249652920892626 185 31 147
10.267717579254416 -2.4602832228447364 2.432236522757025 185 31 147
9.415252050123462 -2.2197018168058578 2.545404915866868 185 31 147
8.936885254235834 -1.8471887764855999 2.6296102193280113 185 31 147
8.186553073514633 -2.066016128017678 2.829447161568989 185 31 147
11.309202903984099 -3.115720108187911 2.330772033777187 185 31 147
9.98473253485306 3.015078543682967 2.4659203062661144 185 31 147
11.424297952610152 -2.9746946354153225 2.448848171900298 185 31 147
10.979489540091445 -2.798618643347172 2.499209861779245 185 31 147
12.06625890519901 -2.666811893315639 2.2727110017633585 185 31 147
11.410743946268635 -2.611951508484286 2.322348262085884 185 31 147
11.371992074145822 -2.9947498154585994 2.32553747555385 185 31 147
10.459035205809627 -2.663244391660778 2.4111838412511255 185 31 147
8.809048394321753 -1.199839505904936 1.0726369044216368 185 31 147
9.205691270824298 -1.6021384728314554 2.4004398500800157 185 31 147
9.665319393023404 -1.199839505904936 2.21323240603805 185 31 147
8.596768741674671 -1.3544107237762835 1.7806621355908883 185 31 147
7.946185669191791 -0.9124036154831581 1.4180486866124469 185 31 147
8.67556294734676 -1.5945086007328315 1.898323713513 185 31 147
10.41459612157242 -1.4836068567242098 2.04881737642968 185 31 147
8.289273359122475 -1.4730534815692533 1.666360608294838 185 31 147
8.618767475832652 -1.0852969852975527 1.900563528674222 185 31 147
10.080753220870127 -1.4730534815692533 2.182736214443744 185 31 147
9.423795707099258 -1.3255279684204142 2.2325524999430977 185 31 147
9.966276050225373 -1.6021384728314554 2.468234100376279 185 31 147
10.126579145462683 -1.2879840346963116 2.448630124238803 185 31 147
10.769017531802644 -1.3255279684204142 2.379597385033059 185 31 147
10.647124736766298 -1.4596055228504115 2.39167128080566 185 31 147
9.46170200829147 -1.9104137229240299 2.371334049259765 185 31 147
9.47211441432787 -2.1647249339677055 2.2285852151256194 185 31 147
9.556996993144008 -2.354799821748934 1.978680350290631 185 31 147
8.953902973331422 -2.354799821748934 1.7721739299646218 185 31 147
8.386136945644484 -1.7152713961205104 1.4261200752574146 185 31 147
9.742347327707778 -2.045805315693063 2.3420784814690565 185 31 147
9.58220914426806 -1.7152713961205104 2.094376869614732 185 31 147
8.438140713330414 -1.8662100646520332 2.036737730532152 185 31 147
7.537334993238123 -2.1647249339677055 1.6759279378792078 185 31 147
8.100557932927511 -2.267246105317772 1.544987000552618 185 31 147
7.58000653636056 -1.8662100646520332 1.675333929353884 185 31 147
7.3264024345928735 -2.045805315693063 1.2645113298696873 185 31 147
9.326119515055906 -1.7349670463589844 2.2407366478188453 185 31 147
8.93219599166574 -1.8662100646520332 2.1369253401911927 185 31 147
8.399829665355568 -2.1647249339677055 2.0390326148331352 185 31 147
8.876254716382128 -1.7301213023703697 3.0028446517628673 185 31 147
8.858803050491067 -1.61700277721332 2.6455205250949216 185 31 147
10.403079526640125 2.5544156771738016 2.1611532851057027 185 31 147
9.696436309627872 2.3022374083762474 2.210833062404749 185 31 147
10.64500651892319 -3.115720108187911 2.262626084811933 185 31 147
9.225669474731255 3.015078543682967 2.3980767619360046 185 31 147
8.83740185137882 -1.9693528128204834 2.4471855235445528 185 31 147
10.13165654957291 -2.8055090203370607 1.8498734572493454 185 31 147
9.773625603491286 2.8471945966201937 1.7550811264831851 185 31 147
8.708542493842147 -2.4421321451370135 1.1934076936932 185 31 147
10.599219657818196 3.064457954047008 1.8372551235121704 185 31 147
10.414502245402467 2.8136666981681464 2.1604185241563014 185 31 147
8.804272728159892 -2.768031465899216 1.547050313246863 185 31 147
8.848548924381035 -2.2484679650073973 2.28425435889509 185 31 147
8.835243284944275 2.4071144150613715 2.4474789485482065 185 31 147
9.449447150935915 -1.7961335024199454 2.5400926727694966 185 31 147
11.521559666355436 -2.8779398931565954 2.3133974507731265 185 31 147
9.431674160511493 -2.7789772867058447 2.770873669742309 185 31 147
10.87897256070473 -2.6563129798161587 2.6905401073503765 185 31 147
9.799821310990426 -2.3541362350500927 2.489819941945893 185 31 147
9.53316441805197 2.8101121257828368 2.527414496981206 185 31 147
9.988500259848886 -2.6563129798161587 2.6468847502435544 185 31 147
10.822433051307105 -2.948373737596169 2.5188638869066704 185 31 147
9.35587216987851 -3.0753104173472603 2.7923109941817867 185 31 147
9.32690111028444 -2.352268008658989 2.800941802932271 185 31 147
9.124551748297884 -2.051154083945064 2.5941242880778845 185 31 147
9.522818765323699 2.6313746225796164 2.7469815047197335 185 31 147
10.126579145462683 -1.2879840346963116 2.448630124238803 185 31 147
9.99685609325791 -1.4418904924195586 2.4644087007744275 185 31 147
9.223244866583833 -1.3544107237762835 1.9943707899670122 185 31 147
9.306166718806043 -1.0211958272515085 2.2424362093149868 185 31 147
9.280855474239363 -1.76080558195832 2.391632903585892 185 31 147
9.073666564191662 -2.045805315693063 2.262974201418728 185 31 147
9.40896229679664 -2.267246105317772 2.105040173969335 185 31 147
10.233558427397172 -2.4293618488959563 1.9502825682186296 185 31 147
8.21703552667752 -1.5945086007328315 1.5453529307898521 185 31 147
9.251323075599432 -1.5977949615767 2.247157567710998 185 31 147
9.228957243021421 -1.9877926973645503 2.116619508912218 185 31 147
9.620975956393698 -2.097599876604957 2.092052147235024 185 31 147
7.6368352689176975 -1.7349670463589844 1.2773404706059612 185 31 147
8.565323019677095 -2.267246105317772 1.9026999173346197 185 31 147
8.398864593915347 -1.9104137229240299 0.9017879285363489 185 31 147
10.432762452011803 -1.2416248885152714 2.15924803291831 185 31 147
17.719086352901737 -0.8415732767681866 1.5589982251405763 185 31 147
17.921352855422946 -0.6821119674389381 1.447218640469913 185 31 147
7.429881058616538 -0.7197114922799388 2.106249317029404 185 31 147
9.36141894223317 -1.6313570606863406 2.7906877840425772 185 31 147
9.067085044326483 -1.6586157106189816 2.8941652882138573 185 31 147
10.378120172455697 -1.2373704612819139 2.5812368335006 185 31 147
10.251580603688385 -1.417513502249154 2.6012291666733 185 31 147
9.199529909005227 2.1979359455649354 2.2516847723358064 185 31 147
9.738302576815473 2.483595831040261 2.2076357238644655 185 31 147
10.931863409211896 2.579777182315254 1.4599711912245883 185 31 147
11.099448820689425 -2.927924094374813 1.9193558218015991 185 31 147
11.291911725912934 3.064457954047008 2.0089650005290896 185 31 147
10.798882237877153 -2.927924094374813 1.8322119597783184 185 31 147
9.627308621285003 -2.666811893315639 1.8649182958718198 185 31 147
10.71168974526756 -2.9947498154585994 2.25747990758883 185 31 147
11.266383795910869 -3.1207941200449856 2.0100269179067434 185 31 147
10.112900196363071 2.86060853951595 2.4502607478067677 185 31 147
10.213295118573797 -3.1007921384467267 2.6075105398113454 185 31 147
11.754593593839873 -2.768031465899216 2.29534924308776 185 31 147
9.77021445059724 2.6490322561617625 2.4938018987640294 185 31 147
10.209410313044303 -1.3544107237762835 2.173919295880106 185 31 147
9.115745321881903 -1.2416248885152714 1.8819618667636582 185 31 147
8.489582585604484 -1.7152713961205104 1.7833521916641832 185 31 147
8.596620622225114 -2.1647249339677055 1.0591465289718334 185 31 147
8.860863741072121 -1.2416248885152714 1.77431792336029 185 31 147
19.213652466506307 -0.8374226204075248 1.6641443737779607 185 31 147
10.32896754319379 2.8471945966201937 1.9466013712571193 185 31 147
10.5359696983814 -2.768031465899216 2.152725356074265 185 31 147
9.982394354489907 2.656982408035022 2.1896682327798582 185 31 147
9.903085608955779 -2.120687274816165 2.4762734435271936 185 31 147
9.772294367657079 2.9559188131570933 2.689601541902114 185 31 147
11.080656298087822 -2.7216989269491965 2.350562233430783 185 31 147
10.704382159281419 -2.58780569721955 2.5343913316747404 185 31 147
9.238789163832164 -1.4418904924195586 2.3965337633107184 185 31 147
10.035745356937069 -1.76080558195832 2.45960338364053 185 31 147
9.284258295046 -1.4596055228504115 2.2443134306842136 185 31 147
9.046949706334239 -1.5945086007328315 2.003174277893147 185 31 147
7.980113569375223 -1.9877926973645503 1.4187031671128123 185 31 147
8.751670998041025 -1.9877926973645503 2.0188022160136576 185 31 147
8.91940945743064 -2.5146614301876586 1.6595907250904485 185 31 147
10.57201923785767 -3.1207941200449856 1.8379574539503871 185 31 147
8.18762067325726 -2.267246105317772 1.4225866708919996 185 31 147
8.896012867715099 -2.1647249339677055 2.1395123495423354 185 31 147
7.8012190964949655 -1.0211958272515085 1.936662855948423 185 31 147
9.509427192239622 -1.5945086007328315 2.098801192903661 185 31 147
8.99306309747096 2.6490322561617625 2.4266523748716633 185 31 147
11.57318958286632 -2.8433104235798754 2.4334886870005192 185 31 147
8.367188220805554 -1.9877926973645503 1.9108728976694889 185 31 147
9.38659739459162 2.8997856570584895 2.7834318050078757 185 31 147
17.680128440893547 -0.6368920483245416 1.3304216736229348 185 31 147
10.933797017655538 -3.0105269238421792 2.1289699406317606 185 31 147
9.05326276028307 -1.1368785615309411 1.5477035127547911 185 31 147
