12.758684780964526 0.9446082624552044 1.3707694682843903 183 38 145
11.97999983002955 0.8945339368107309 1.357573719055897 183 38 145
11.044274208668051 0.8373272543970918 1.7038276617600376 183 38 145
9.842052272242725 1.0816724310017245 1.9305578619533024 183 38 145
10.320975370509508 0.9907483624534638 1.9131603566900854 183 38 145
10.856167115555063 1.0426095887424176 1.7998449626340773 183 38 145
10.711004251244754 1.0816724310017245 2.106229972346237 183 38 145
10.554230442243902 1.0253220325235253 2.230068308209161 183 38 145
8.252693209571257 1.408883957059515 1.6271598701853098 183 38 145
7.575608464091142 1.6647070291232082 1.902203376607286 183 38 145
7.5529056177285225 1.5247998959145865 1.9032378646476666 183 38 145
9.048514873627452 1.134159168343692 2.086837399018421 183 38 145
10.847352217439735 1.134159168343692 2.329770597389385 183 38 145
9.009954068259551 1.6647070291232082 2.2224987555861833 183 38 145
8.990873816334682 1.5247998959145865 2.2241187560437488 183 38 145
9.082530024743011 1.3866605024581191 2.2164167542248605 183 38 145
8.004796328639344 1.9292347260432727 1.8838112753847518 183 38 145
8.314885820261539 1.7735503435938451 1.6267378474331842 183 38 145
8.314885820261539 1.7735503435938451 1.6267378474331842 183 38 145
8.154165501360623 2.046243513040746 1.7514280941117266 183 38 145
8.916388290056535 1.5173119252800906 2.3819159328322645 183 38 145
9.904441320295383 1.5069158433458694 2.5956870761449737 183 38 145
9.683762184206307 1.6799094724779589 2.4509993941497354 183 38 145
8.943647274301048 -1.456839844328044 2.812918751222192 183 38 145
7.649974227609235 -1.240027850622195 2.577526895910764 183 38 145
8.694591900170737 -1.9159659455614773 2.911226087142932 183 38 145
7.327950861332302 -1.6682894964193857 1.9138562323347605 183 38 145
7.6595354189022435 -1.2439600800644666 1.8984354671500823 183 38 145
8.020288180765307 -1.1195503224028382 1.8831861720121745 183 38 145
8.891646702946307 -1.1706176828122445 1.8516914294375924 183 38 145
8.198476848526898 -1.5230369145428968 2.146710515474663 183 38 145
8.198476848526898 -1.5230369145428968 2.146710515474663 183 38 145
7.404196403340039 -1.6847701863635505 2.218082251416863 183 38 145
8.04000833572184 -0.9711085390249693 2.318168723182244 183 38 145
7.3809663356730795 -1.5149139082335736 2.2204635325317077 183 38 145
8.623516219263784 -1.6559628259871777 1.9842749343320718 183 38 145
7.182524898323112 -1.0548645287124825 1.9210976217242473 183 38 145
9.566673252309572 1.9552609859920687 2.656931011369932 183 38 145
9.065809439914666 1.8369596395978178 2.3647184807631345 183 38 145
10.02308189640555 1.9817080927350972 2.410988545231319 183 38 145
10.02308189640555 1.9817080927350972 2.410988545231319 183 38 145
10.039167222880748 1.8857133966583655 2.573982012755778 183 38 145
9.557508830803389 -2.261071133662082 1.9417798350890256 183 38 145
9.557508830803389 -2.261071133662082 1.9417798350890256 183 38 145
10.628220598258405 -2.1397971034797822 1.7090681236351317 183 38 145
9.942943923235989 -2.168109197103706 2.152713331050077 183 38 145
10.181781910736216 -2.1066074435175945 2.024746436688157 183 38 145
8.729030055098375 -2.2431622676110368 2.107726640984711 183 38 145
11.604047833144687 0.8701358994930978 2.5246575499300725 183 38 145
11.197780347077815 0.7621816469442729 2.5778259764635125 183 38 145
12.054878442842742 0.7621816469442729 2.6221689305892397 183 38 145
11.381088262296862 0.2557678388773498 2.737601627862644 183 38 145
11.325437237549977 0.030446339316372438 2.749254851740445 183 38 145
10.787549664700569 1.7009514504594871 2.6411943542438845 183 38 145
10.762118399245663 1.0135873284686614 2.9060307564022025 183 38 145
11.18643248661491 0.5696814302733376 2.7804671615586063 183 38 145
10.930678483446842 0.7413806185028691 2.8486158243706625 183 38 145
10.771618608059192 1.5069158433458694 2.6439057818079217 183 38 145
11.269311711227274 0.9954373396071412 2.567864189520452 183 38 145
9.974992963028674 1.466360113711369 2.820411816430407 183 38 145
10.684879632933463 1.4180107133029716 2.938326715765277 183 38 145
10.33267274353443 1.4915136659213293 2.7288324477679518 183 38 145
10.412524463072586 1.2597575511080077 2.711656399354371 183 38 145
11.733011318609087 0.8926977575522528 2.672369345656054 183 38 145
9.738522332419766 -0.952727905869458 2.9039838321744322 183 38 145
9.471513098494258 0.3818522423546765 3.104235318901658 183 38 145
11.039593759060416 0.3277947840507036 2.8175089930898753 183 38 145
9.489627005622644 2.947814535962163 3.0693941005400394 183 38 145
11.039593759060416 0.3277947840507036 2.8175089930898753 183 38 145
9.53798730275188 1.2885048142731301 3.0177212454757036 183 38 145
9.555975204988256 2.106419163154096 3.003423316491436 183 38 145
9.555975204988256 2.106419163154096 3.003423316491436 183 38 145
9.51030593421897 -1.2092992912304064 3.043841002772389 183 38 145
11.782397379580484 2.5119981320799845 2.5036268478383596 183 38 145
10.667450820962907 2.1447938704073426 2.6621878098931635 183 38 145
10.461885426956648 1.9552609859920687 2.7014796867514375 183 38 145
11.880555367374688 2.551025717238614 2.6484364250948524 183 38 145
11.238220730406105 2.7820613946406296 2.5721594457038766 183 38 145
11.880555367374688 2.551025717238614 2.6484364250948524 183 38 145
11.524067663215154 2.4353855429774964 2.709499610010874 183 38 145
11.238220730406105 2.7820613946406296 2.5721594457038766 183 38 145
11.65692731489511 2.713492483242547 2.6854113759324005 183 38 145
11.29338275690032 2.615557122865911 2.7561720952609403 183 38 145
11.524067663215154 2.4353855429774964 2.709499610010874 183 38 145
10.108778624258232 2.0611080262478336 2.782754488306902 183 38 145
9.650535716955257 -2.662601056088096 2.9451376585224667 183 38 145
11.147952847108105 2.842581884415558 2.7897197022277616 183 38 145
11.95674593453981 2.9446252535064272 2.636707786300441 183 38 145
10.719122128439635 -2.7611809013626525 2.6529961937021644 183 38 145
11.400850763113723 -2.6733975062159403 2.550249855732881 183 38 145
13.025002648941108 2.995117903817141 2.5038594573823687 183 38 145
8.990873816334682 1.5247998959145865 2.2241187560437488 183 38 145
10.956558913542965 0.8373272543970918 1.6132407117365526 183 38 145
11.048051588962572 1.128183278943624 1.9868293388645764 183 38 145
7.575608464091142 1.6647070291232082 1.902203376607286 183 38 145
9.959352426562113 0.9291460113967244 2.0356732183933595 183 38 145
8.572093474460058 1.88823799363196 1.6250576342156244 183 38 145
8.576186621370141 1.88823799363196 1.508362633694126 183 38 145
9.987717333619344 1.317524371835758 2.582113143229143 183 38 145
8.935627592393923 1.6799094724779589 2.3796518174884476 183 38 145
9.443398582372826 1.7319611628033829 2.6823383527018385 183 38 145
8.962828063619588 -1.8008508711477185 2.806700437691271 183 38 145
8.29888922115106 -1.379759958562406 2.1388736360679568 183 38 145
8.516343227820434 -1.2439600800644666 2.122659680653997 183 38 145
7.304478317799742 -1.5230369145428968 1.9150042574130142 183 38 145
7.4170036513616635 -1.379759958562406 1.909570950396598 183 38 145
9.065809439914666 1.8369596395978178 2.3647184807631345 183 38 145
9.80401501279748 1.8369596395978178 2.436286365235841 183 38 145
10.253211148701535 2.0508037861192934 2.542035754503931 183 38 145
9.430393644504083 -2.168109197103706 2.0640100247383044 183 38 145
10.322084204493901 -2.0556510003228152 1.8119253476787847 183 38 145
9.809317738647882 -2.1953750332604978 1.7206951499850132 183 38 145
11.381088262296862 0.2557678388773498 2.737601627862644 183 38 145
10.34927950902253 1.7319611628033829 2.7251834075742822 183 38 145
11.18643248661491 0.5696814302733376 2.7804671615586063 183 38 145
11.733011318609087 0.8926977575522528 2.672369345656054 183 38 145
10.762118399245663 1.0135873284686614 2.9060307564022025 183 38 145
9.707566286148337 1.4180107133029716 2.9175301898282857 183 38 145
10.057684837057547 1.169670732172412 2.7965528127807664 183 38 145
9.992194200643112 1.7820806776239786 2.8152771888098633 183 38 145
10.780356705414714 0.4524828347860004 2.8990825903370516 183 38 145
11.47001510887572 2.6370766381750284 2.5413291053532188 183 38 145
11.009894925336164 2.551025717238614 2.605424717318839 183 38 145
10.937821437191984 -2.5909834722257066 2.616619290759538 183 38 145
9.791281745089423 -2.300755832566372 2.8826707518772494 183 38 145
7.634614302770012 1.9292347260432727 1.5006507687714363 183 38 145
10.594775254693094 0.9094834744791075 1.805600834486769 183 38 145
7.728732362561383 1.8010437845744327 1.8953939365484707 183 38 145
9.987717333619344 1.317524371835758 2.582113143229143 183 38 145
10.969558709765833 1.0735081332590455 2.4522626459626644 183 38 145
9.035782546975014 -1.1370974048786273 2.784223404427737 183 38 145
8.219396751996209 -1.6682894964193857 2.1450586975864088 183 38 145
7.492343005859048 -1.3481960991948938 2.2092183892197195 183 38 145
7.404196403340039 -1.6847701863635505 2.218082251416863 183 38 145
11.523576330579806 0.45765711121355157 2.7095920762747134 183 38 145
9.974992963028674 1.466360113711369 2.820411816430407 183 38 145
11.197780347077815 0.7621816469442729 2.5778259764635125 183 38 145
11.325437237549977 0.030446339316372438 2.749254851740445 183 38 145
10.848239816052777 1.317524371835758 2.631057221599085 183 38 145
9.471513098494258 0.3818522423546765 3.104235318901658 183 38 145
9.653096785484584 -1.3968555837420322 2.943809021456219 183 38 145
10.780356705414714 0.4524828347860004 2.8990825903370516 183 38 145
11.381088262296862 0.2557678388773498 2.737601627862644 183 38 145
11.269311711227274 0.9954373396071412 2.567864189520452 183 38 145
9.471513098494258 0.3818522423546765 3.104235318901658 183 38 145
12.295053816118061 2.5871007456679673 2.4493460426169675 183 38 145
10.859714192852932 2.740884358952874 2.8711195083713923 183 38 145
12.09245280146431 2.7820613946406296 2.6167602872805804 183 38 145
12.308170301395322 2.6370766381750284 2.5872383206345133 183 38 145
11.008952437128574 2.4681227156552104 2.825899313810221 183 38 145
11.808903653507405 0.8945339368107309 1.4404326645161054 183 38 145
7.201523020600449 -1.1930845476930552 2.0727452875092647 183 38 145
8.769778084348886 -0.952727905869458 2.8771407839590553 183 38 145
9.302656934107858 -2.3391726794548657 2.071405635218114 183 38 145
7.649974227609235 -1.240027850622195 2.577526895910764 183 38 145
10.982212388793888 0.039585685685087704 2.8334412281557175 183 38 145
11.039593759060416 0.3277947840507036 2.8175089930898753 183 38 145
9.72524053845755 1.876045331658034 2.909690209735843 183 38 145
9.66601208924186 1.5173119252800906 2.4532246669469697 183 38 145
9.92176487314978 1.7009514504594871 2.592819672984349 183 38 145
9.53798730275188 1.2885048142731301 3.0177212454757036 183 38 145
11.749742672042094 0.6263724335457197 2.6695683877877197 183 38 145
13.149689555933653 2.8705508663647255 2.4911718074318396 183 38 145
9.528346094330058 -2.2293080002652426 3.0261321184396683 183 38 145
10.34927950902253 1.7319611628033829 2.7251834075742822 183 38 145
11.015482139956402 1.1448757564140666 2.6045717667150425 183 38 145
11.17257282531337 2.242647071604478 2.1878573056082367 183 38 145
7.507265527004365 -1.9015788782424423 2.3861217834453545 183 38 145
11.516089310709603 2.903902282897725 2.7110043758871165 183 38 145
9.53798730275188 1.2885048142731301 3.0177212454757036 183 38 145
11.092067605853373 2.9446252535064272 2.5930856110425813 183 38 145
