13.063086419865183 1.7065635311616172 1.1352223890673445 170 118 111
12.081782452534648 1.6269124568934847 1.0970751850315175 170 118 111
18.29137165211178 1.0716843007381747 2.3223047071917042 170 118 111
19.083035874602906 0.9496840723500621 2.2842089209407135 170 118 111
12.1894449085661 1.975889434151091 1.8610259793367119 170 118 111
12.589773555664987 2.166822119785217 1.9353176848618903 170 118 111
12.237233219329944 1.3692972019987568 1.3640749643517636 170 118 111
12.081220394745754 1.4523025106275416 1.3613659734755723 170 118 111
11.14528705124597 1.8086966538045406 1.7047309809463753 170 118 111
11.69086468910525 1.975889434151091 1.5270115167165164 170 118 111
11.69086468910525 1.975889434151091 1.5270115167165164 170 118 111
12.076369434826875 1.4523025106275416 1.7783283121563882 170 118 111
11.759999679027109 1.6221390465491252 1.612328781552789 170 118 111
12.114309149721029 1.7890888981376947 1.4456823067899518 170 118 111
12.690211223745054 2.122264482602782 1.6883447408290342 170 118 111
12.367800755880696 1.8687056547231047 1.4482597052778585 170 118 111
18.55412746018828 1.5396313281993457 2.384694298795053 170 118 111
18.653939730006574 1.6221390465491252 2.460186022171885 170 118 111
19.35572853274218 1.696017808045719 2.416633917669651 170 118 111
18.653939730006574 1.6221390465491252 2.460186022171885 170 118 111
18.825022873160464 1.7890888981376947 2.4490560280008244 170 118 111
18.33199426742145 2.0930735632945012 2.482139855402598 170 118 111
18.459691517012544 2.122264482602782 2.3901259709433123 170 118 111
18.88202224448209 2.051863809262021 2.4454252520594375 170 118 111
18.388005474135024 1.8946314076376656 2.478220494661093 170 118 111
14.391679063589725 2.3494009944072394 1.887953106806831 170 118 111
13.83667155162548 2.2464173725300625 1.6785654542915245 170 118 111
13.682623150162648 2.3494009944072394 1.606490136552687 170 118 111
14.472976909796936 2.3988795343949545 1.4661543335644835 170 118 111
14.48205101115551 2.300621672256404 1.4662201398361463 170 118 111
13.076112931877667 2.294575100688482 1.684860299727843 170 118 111
13.960822340076236 2.4525284081324075 1.74998687761463 170 118 111
13.754662437492488 2.3494009944072394 1.6792105254615988 170 118 111
18.289271993304432 2.2338732606974467 2.400152761773679 170 118 111
14.670134845229851 0.7040884607708601 2.737445558230025 170 118 111
16.761835542911243 0.08723493202470003 2.614675118123195 170 118 111
17.633368744162375 0.08723493202470003 2.643197153068873 170 118 111
12.060544162300678 1.8433812456504501 2.6252605099899755 170 118 111
11.745165525063854 1.8044807721824836 2.511284090763084 170 118 111
11.029075255110836 1.270268624268739 2.31713904532703 170 118 111
10.842524244236282 1.5119138925040243 2.470060778835697 170 118 111
10.352378990481107 1.2288446088876959 2.379422402292747 170 118 111
11.96012988083775 1.501675825296256 2.640247921316487 170 118 111
11.65087566876413 1.6600994649082539 2.522462447531459 170 118 111
11.029075255110836 1.270268624268739 2.31713904532703 170 118 111
15.342601742839301 0.8326721660830231 2.806309271094017 170 118 111
15.342601742839301 0.8326721660830231 2.806309271094017 170 118 111
14.981920030446314 0.47206108591241625 2.884176599879999 170 118 111
15.689861358230461 0.2972934563780028 2.981122097303929 170 118 111
15.647571984911442 0.8927260398870301 2.9987835512949417 170 118 111
14.899301244633754 0.21290731160245963 2.906159836209511 170 118 111
14.937626564524248 0.8510521449538506 2.895692361011482 170 118 111
15.130323130027065 0.677745475904623 2.8492310023051393 170 118 111
14.883562320829023 -0.07803528447148189 2.9106094234793627 170 118 111
14.739663717324298 -0.48579959197419936 2.956641145711663 170 118 111
15.553424336212856 -0.1878972032278538 3.050036434425561 170 118 111
14.883562320829023 -0.07803528447148189 2.9106094234793627 170 118 111
15.510762978164237 1.0752069281748928 3.0877451301781003 170 118 111
15.517402409132103 2.2582789055207244 3.080318438344307 170 118 111
15.59014170510114 1.3457746455042374 3.0272180723851894 170 118 111
15.510762978164237 1.0752069281748928 3.0877451301781003 170 118 111
15.517402409132103 2.2582789055207244 3.080318438344307 170 118 111
15.54497564244162 -1.2668410436899369 3.0561603513952385 170 118 111
15.551600467033987 -2.0154255884799945 3.051322810966169 170 118 111
15.495645128372255 -0.5896771878546484 3.110762146307237 170 118 111
12.233672173675139 1.9969136024334881 2.6008545154146256 170 118 111
12.058191986975425 2.2213197695880575 2.6256042252179306 170 118 111
11.922873922561495 1.9396326704637266 2.49113191263521 170 118 111
13.292041205633781 2.1795322030963082 2.792053789575321 170 118 111
13.523474730054211 2.3382921329422843 2.7477781599891915 170 118 111
13.606877291745151 2.07349331237965 2.7332793789173535 170 118 111
14.068526249530466 2.6929605476790113 2.853388329580565 170 118 111
14.2264605947534 2.4924101741749816 2.8180410814201102 170 118 111
13.846206031674498 2.553845777285932 2.913723522353312 170 118 111
14.2264605947534 2.4924101741749816 2.8180410814201102 170 118 111
13.422104071116278 2.781251884850417 2.7663712232958795 170 118 111
13.312226607716273 -3.0839497344085562 2.7879173563295705 170 118 111
13.746004379345806 -2.919437683302787 2.7104830735035415 170 118 111
9.602132755870175 -1.5279764783273941 1.832926342330586 170 118 111
10.31310272534427 -1.6357844444856933 2.02105877169622 170 118 111
10.61942119645889 -1.8446684786746264 2.007161880682077 170 118 111
9.695098973151666 -1.4211516084601492 1.8303544661290307 170 118 111
9.413969868323273 -1.5228035281290428 2.0677707748861214 170 118 111
10.890505759128237 -1.9083418192740629 1.6156468600246754 170 118 111
11.24767562374917 -2.3084524482307915 2.0805337158161317 170 118 111
11.292313198933881 -1.624271371210373 1.6140499566715238 170 118 111
10.683829929632367 -1.72569805169796 1.8058566142133683 170 118 111
10.929796298844995 -2.11467097047247 1.7073880055537844 170 118 111
10.471526894032255 -2.078910353892016 2.01375852931731 170 118 111
9.872017150832901 -1.7879461373307695 2.28794674458098 170 118 111
13.08613727408832 -0.9978545936714741 2.642249007170386 170 118 111
13.34769836702084 -0.7656831857800669 2.780788065823842 170 118 111
14.676749107547904 -1.8309198430033438 2.9811630361072714 170 118 111
15.658145404349767 -1.3973318417047715 2.9941615543270377 170 118 111
10.08279385827596 -1.914813357973366 2.2698587911784864 170 118 111
11.974030018242328 -2.4684030806459774 2.3587208485613087 170 118 111
13.00478798426256 -2.3872261384161964 2.5089940505520274 170 118 111
11.257267554574527 -2.3004228410153162 2.29855164991673 170 118 111
12.01213793703916 -2.6823012879601893 2.4814277790955948 170 118 111
14.119974163215087 -2.243761807168899 2.8413422494630254 170 118 111
14.621412007537387 -2.5245491685392136 2.745309304116777 170 118 111
13.442965931623831 -2.8110598489053977 2.5955652977132457 170 118 111
13.976422159258604 -2.3942180854959867 2.675931519544932 170 118 111
14.893588657211032 -2.4253805519530367 2.90776415941379 170 118 111
14.119974163215087 -2.243761807168899 2.8413422494630254 170 118 111
13.45096121656434 -2.1187026521700605 2.760961643325565 170 118 111
14.649059510868835 2.5536474120127157 1.8821914796379873 170 118 111
15.253813885613331 2.6819006203023905 1.471529064063048 170 118 111
14.50848945255093 2.650846635140348 1.3967990681688085 170 118 111
14.164809195784342 2.5536474120127157 1.7473789956992913 170 118 111
14.379932007939978 2.5536474120127157 1.3240917029075243 170 118 111
19.548773879474595 2.5113729658862 2.4055557743870906 170 118 111
19.70011624247615 -3.077119335815056 1.6464151994738674 170 118 111
18.67688601040364 3.10213698480056 1.6505666278314253 170 118 111
12.073253822736675 1.533829622903311 1.0967130076015692 170 118 111
18.66462610269839 1.008344920713189 2.3037775627728982 170 118 111
12.199813586326494 2.051863809262021 1.6930930844881324 170 118 111
12.001862692456086 1.5369774013557145 1.7796356572641183 170 118 111
11.939450440152854 1.7065635311616172 1.4438401191552144 170 118 111
12.119501909778162 2.051863809262021 1.5285610170200667 170 118 111
18.653939730006574 1.6221390465491252 2.460186022171885 170 118 111
18.653939730006574 1.6221390465491252 2.460186022171885 170 118 111
18.989141516592138 1.8687056547231047 2.4387025800441577 170 118 111
17.61085411945768 1.8946314076376656 2.4432475807581215 170 118 111
19.29332030286422 1.5396313281993457 2.4202928890314603 170 118 111
18.661940498858137 2.166822119785217 2.459657555383373 170 118 111
18.388005474135024 1.8946314076376656 2.478220494661093 170 118 111
13.441544314141261 2.4035284474605536 1.833316203261261 170 118 111
13.745960694370245 2.4525284081324075 1.6063256000561754 170 118 111
13.83667155162548 2.2464173725300625 1.6785654542915245 170 118 111
13.387458039725594 2.1870615627555523 1.7577500795427006 170 118 111
13.76591277858326 2.2464173725300625 1.5336148712369908 170 118 111
19.038750813671307 2.2338732606974467 2.4356326231036514 170 118 111
15.594531697913443 0.7040884607708601 2.7626644236287867 170 118 111
11.568192289422173 1.3921013477057387 2.3946366576105897 170 118 111
11.65087566876413 1.6600994649082539 2.522462447531459 170 118 111
10.167485437644014 1.3662549075912993 2.398667402833346 170 118 111
11.968739120252245 1.6755674070347248 2.638936997799853 170 118 111
13.132872878777054 1.9762667122208217 2.8269844738721575 170 118 111
15.152604977413093 1.000155374873155 2.844384416516834 170 118 111
15.130323130027065 0.677745475904623 2.8492310023051393 170 118 111
15.510762978164237 1.0752069281748928 3.0877451301781003 170 118 111
14.631531838751545 -2.4732667736486613 3.001545825672722 170 118 111
15.568486079341236 0.48398138870114876 3.040042942972464 170 118 111
15.59014170510114 1.3457746455042374 3.0272180723851894 170 118 111
14.981920030446314 0.47206108591241625 2.884176599879999 170 118 111
14.934914701385404 -0.3566401990501036 2.8964168873805214 170 118 111
15.568486079341236 0.48398138870114876 3.040042942972464 170 118 111
15.502291034121223 -2.726665111265578 3.0990753720658306 170 118 111
15.495645128372255 -0.5896771878546484 3.110762146307237 170 118 111
15.67491624284321 -0.11036547558028768 2.987123851487402 170 118 111
11.922873922561495 1.9396326704637266 2.49113191263521 170 118 111
11.922873922561495 1.9396326704637266 2.49113191263521 170 118 111
12.484740454454865 2.1317772597969427 2.5682418459199727 170 118 111
12.393788902386017 2.342126115015282 2.579708960998191 170 118 111
12.233672173675139 1.9969136024334881 2.6008545154146256 170 118 111
13.823544340601048 2.460004926497852 2.698445304602226 170 118 111
13.250757180512622 2.342126115015282 2.619927408414063 170 118 111
13.329820984376822 2.9833834535926815 2.7843593870054923 170 118 111
13.369615814781126 -2.8732671203997255 2.7764680875606054 170 118 111
14.35720864917259 2.781251884850417 2.7918997491178414 170 118 111
13.282154138319253 2.4924101741749816 2.7941017253326765 170 118 111
14.00664741085185 2.3315861776478304 2.8686855829339812 170 118 111
14.2264605947534 2.4924101741749816 2.8180410814201102 170 118 111
13.587554155042758 2.605566034248313 2.7365791407506435 170 118 111
9.28623968339185 -1.288542911075188 1.9558833664149733 170 118 111
9.424905200788332 -1.6436206231712973 2.067141580334471 170 118 111
10.555729658829481 -1.9818649393368286 2.117569845239225 170 118 111
10.419505611383483 -1.742106170932554 2.016128413859888 170 118 111
9.782624928537372 -2.078910353892016 1.8279793287836283 170 118 111
10.554169650745363 -1.3414089333363401 1.5222923259878687 170 118 111
9.759647189534594 -1.6536007487245383 2.2980316823220246 170 118 111
12.321635751721923 -2.568025563973077 2.44971656407315 170 118 111
13.922730356873435 -2.4253805519530367 2.8911212876069263 170 118 111
14.751710874608975 -2.1865602142293437 2.9523258177985636 170 118 111
13.45096121656434 -2.1187026521700605 2.760961643325565 170 118 111
14.366715567407242 2.650846635140348 1.67457481828216 170 118 111
19.138626082487416 -3.127315022375992 1.8075152179439087 170 118 111
21.81529463397349 -3.077119335815056 2.0207647628201086 170 118 111
21.89608023703624 -3.026527785252434 2.018983439840814 170 118 111
12.780370031418316 1.2122793578101254 1.3729792764331863 170 118 111
11.33447430703425 1.8946314076376656 1.5256338665099998 170 118 111
11.759999679027109 1.6221390465491252 1.612328781552789 170 118 111
12.695215827204812 1.9446183462857367 1.4514352747622103 170 118 111
11.941775608299128 1.975889434151091 1.78070213669721 170 118 111
11.598154284920492 1.8946314076376656 1.352504876216992 170 118 111
18.609802650188637 1.975889434151091 2.46311578086685 170 118 111
19.45295095991925 2.4035284474605536 2.4110100867714084 170 118 111
14.102871317828095 2.294575100688482 1.9705164641318336 170 118 111
15.54497564244162 -1.2668410436899369 3.0561603513952385 170 118 111
15.602572171342608 -0.7360993617555028 3.0204803605460993 170 118 111
15.689861358230461 0.2972934563780028 2.981122097303929 170 118 111
13.451434877754172 1.8972689971186911 2.760873653085823 170 118 111
11.745165525063854 1.8044807721824836 2.511284090763084 170 118 111
11.642031372868377 1.5119138925040243 2.5235293285519984 170 118 111
15.510762978164237 1.0752069281748928 3.0877451301781003 170 118 111
12.247679155954204 1.519512646139277 2.457037390546234 170 118 111
10.352378990481107 1.2288446088876959 2.379422402292747 170 118 111
14.00664741085185 2.3315861776478304 2.8686855829339812 170 118 111
10.177569718499086 -1.2193896325704516 1.8177867017848752 170 118 111
10.694562582333923 -1.819127597169227 1.7104118848305885 170 118 111
14.504450306536322 2.650846635140348 1.7432021002040698 170 118 111
13.953928910990506 2.5536474120127157 1.5341160828925051 170 118 111
21.89608023703624 -3.026527785252434 2.018983439840814 170 118 111
12.83479041687358 2.2338732606974467 1.8460418904156846 170 118 111
12.327989443799048 1.4523025106275416 1.2819386880510053 170 118 111
12.346387703003101 1.7065635311616172 1.8572316258189343 170 118 111
14.173253787016295 2.4525284081324075 1.8194684856577357 170 118 111
17.155608359452643 2.166822119785217 2.3861113321103833 170 118 111
14.670134845229851 0.7040884607708601 2.737445558230025 170 118 111
15.768338519350634 0.6263650884183297 2.952841184265366 170 118 111
13.292041205633781 2.1795322030963082 2.792053789575321 170 118 111
11.945820829699246 -2.3004228410153162 2.361097077592009 170 118 111
13.679706393474477 -2.2721823334491025 2.721143373454843 170 118 111
12.599078162262467 -2.8110598489053977 2.5543366080921 170 118 111
14.795090534198334 2.5911656002160712 1.603805244928764 170 118 111
13.22729344602358 2.294575100688482 1.7600410825698536 170 118 111
11.796674489854048 -2.452329243171299 2.153171758241937 170 118 111
13.606877291745151 2.07349331237965 2.7332793789173535 170 118 111
12.471722715893096 1.289008534973595 1.368016384690382 170 118 111
10.284895635883304 -1.5321432888910165 1.618289746157944 170 118 111
13.380619544480565 -0.8750530351681787 2.6032823351200607 170 118 111
10.535727474168493 -1.9416600640105754 1.9082555480076495 170 118 111
14.338050067286348 -2.405273982856255 2.7955823958116905 170 118 111
