12.122952328814051 1.9577019212895146 1.5754559377534223 217 46 124
11.518203913403827 1.7961957374175894 1.5757005865192586 217 46 124
12.539355144821071 1.778307643507621 1.655150106006815 217 46 124
11.70021254247925 1.7961957374175894 1.7474791544639943 217 46 124
15.13951381587418 1.4444752839806103 2.297292197203336 217 46 124
13.891685514458196 1.4444752839806103 2.18946408408104 217 46 124
13.824883446907648 1.5328904818860214 2.19290822430996 217 46 124
13.907708441599137 1.7101104757990901 2.1886441510336905 217 46 124
10.106720879028854 -0.9920245586925033 2.2133646586003666 217 46 124
9.612846738750026 1.48951696338273 2.5645798346263873 217 46 124
9.620566423588082 1.6802233921673002 2.5633482360456443 217 46 124
9.905042687780313 1.1362720352670463 2.52072217397447 217 46 124
8.69679827621868 1.5025259177398176 2.341171230329392 217 46 124
8.80013194426377 1.6802233921673002 2.5012006905505464 217 46 124
11.525575503175185 1.4396051202261981 2.8553102273811746 217 46 124
11.532014852893889 1.7469161141549754 2.853419395250579 217 46 124
12.49805924912677 0.7426412080674806 2.8749797734360274 217 46 124
12.49805924912677 0.7426412080674806 2.8749797734360274 217 46 124
12.730004285416003 0.5763689935998596 2.8148480628089203 217 46 124
12.267780433747173 1.3818703158724819 2.955726955566312 217 46 124
11.286516765433488 1.3818703158724819 2.939352935823259 217 46 124
11.286516765433488 1.3818703158724819 2.939352935823259 217 46 124
12.273830398803927 1.8231829399616424 2.953123583937567 217 46 124
13.091966956262915 -2.209541668999491 3.0679556913668735 217 46 124
13.086295231879292 -1.0675011833331112 3.074085520877106 217 46 124
12.378662563287142 -1.4184630404550738 2.9129431851940124 217 46 124
12.378662563287142 -1.4184630404550738 2.9129431851940124 217 46 124
13.302412229365014 -0.30859609375282554 2.9490079557325704 217 46 124
12.535794715164588 0.06608307066067104 2.8641716248375118 217 46 124
12.142615077350316 0.15769294894652577 3.0224175104033804 217 46 124
13.071076037069815 2.7655682419581096 3.094343111543873 217 46 124
12.836894452779706 -0.6805298757188728 2.791106731083535 217 46 124
12.132332120232395 2.0086083101716623 3.0297183845245304 217 46 124
12.202316620202735 0.7104965950120783 2.98683624267873 217 46 124
12.088761178122759 -1.0675011833331112 3.0685054436960084 217 46 124
12.094900690359609 -2.209541668999491 3.0618728893964886 217 46 124
12.359128408253655 0.4681995417895481 2.9198369837207996 217 46 124
12.193634275256382 -1.3351587537293126 2.9914692981887634 217 46 124
8.82786792114534 1.8184273202742756 2.326862360474091 217 46 124
12.361043181972011 2.186190006271355 2.9191509811966836 217 46 124
11.56853008641683 2.42845470152553 2.842955551447415 217 46 124
12.471096127914072 -2.0870846278153756 2.8830142988734844 217 46 124
12.877313011945471 -2.4817146491409736 2.7826194814740064 217 46 124
12.389125653231929 2.6968924778576286 2.909342039457786 217 46 124
12.160942750486715 2.9985603901201126 3.0104310412611346 217 46 124
12.287459811313893 -2.2968034182187074 2.9473940719990757 217 46 124
12.699551975979343 -2.681046207979512 2.8219993028281536 217 46 124
12.330328643981424 3.0537485842520278 2.9304462694436917 217 46 124
12.287459811313893 -2.2968034182187074 2.9473940719990757 217 46 124
12.699551975979343 -2.681046207979512 2.8219993028281536 217 46 124
12.352472403758208 -2.849774652925434 2.922239708133834 217 46 124
12.598890839021564 -2.9285268650893004 2.847096016651771 217 46 124
10.142403577371818 -1.6361561110152445 2.092720767831084 217 46 124
10.558689311217242 -1.8283421161612416 1.8644757688317883 217 46 124
10.693422174587491 -2.051403303130634 1.9598837791838388 217 46 124
11.07671258836196 -1.8053448758988335 1.5758960602681218 217 46 124
11.11590735078686 -1.7305001842698515 2.0430422842182505 217 46 124
9.938169246555699 -2.001778638507291 2.104580493721052 217 46 124
11.517329326315279 -1.301041539928549 2.2302490332674516 217 46 124
11.146611620995014 -1.6905234116753975 2.6956427126209537 217 46 124
11.846860047388095 -1.1730237037598594 2.584647239534587 217 46 124
10.432681957751347 -1.1556950251747242 2.1901761555633694 217 46 124
9.863380784270202 -1.5160785266841146 2.23196254626502 217 46 124
9.798018291505864 -1.6553739054671512 2.374880302790685 217 46 124
10.077486530716046 -1.2268912317472398 2.346506159540901 217 46 124
9.790438527089076 -1.5080199020374185 2.3756843266910517 217 46 124
11.690375562766457 -1.4584356627911679 2.8107747004241004 217 46 124
11.76929925316515 -1.2095232677125174 2.7917734539558734 217 46 124
12.863938164372492 -0.9994440634171469 2.785400662250715 217 46 124
10.11425302316638 -1.933993603267881 2.3429470100320824 217 46 124
11.425581053287743 -2.0653883346857023 2.6470228965584077 217 46 124
11.425581053287743 -2.0653883346857023 2.6470228965584077 217 46 124
9.979139856293099 -1.7706128291546563 2.2229692904778613 217 46 124
11.78820735203084 -1.9660470890773747 2.7874030160314374 217 46 124
9.708673778365592 1.3044918641529475 2.5495880828716615 217 46 124
12.730004285416003 0.5763689935998596 2.8148480628089203 217 46 124
12.730004285416003 0.5763689935998596 2.8148480628089203 217 46 124
12.3430126339827 1.0012714700225624 2.925704362093264 217 46 124
11.293092427868666 1.8231829399616424 2.936532566824523 217 46 124
12.300188007860768 0.09319063628909015 2.9422012061612146 217 46 124
13.091966956262915 -2.209541668999491 3.0679556913668735 217 46 124
12.384658362009828 -1.7749715761558194 2.9108720769478134 217 46 124
12.378662563287142 -1.4184630404550738 2.9129431851940124 217 46 124
13.614413878276428 -0.4776537231689216 2.8543174329034557 217 46 124
8.82786792114534 1.8184273202742756 2.326862360474091 217 46 124
11.387818600256944 2.186190006271355 2.8997771571720357 217 46 124
12.577180938372564 3.078247215579004 2.8528413293652357 217 46 124
12.598890839021564 -2.9285268650893004 2.847096016651771 217 46 124
12.699551975979343 -2.681046207979512 2.8219993028281536 217 46 124
13.173764635511501 -2.6849999030252265 3.008059704738878 217 46 124
13.330286964646591 -2.849774652925434 2.9385640216173687 217 46 124
12.455125230306896 -2.538383588837893 2.887907503723034 217 46 124
12.699551975979343 -2.681046207979512 2.8219993028281536 217 46 124
12.877313011945471 -2.4817146491409736 2.7826194814740064 217 46 124
10.45984912464559 -1.9214020712281246 1.6719729952702675 217 46 124
9.884544029176901 -1.3633273406376967 2.3658355941908633 217 46 124
11.962872082507918 -2.1694944342904736 2.749819766228226 217 46 124
11.696724186134361 -1.721822652064913 2.809197924356921 217 46 124
11.76929925316515 -1.2095232677125174 2.7917734539558734 217 46 124
12.174541187847982 -0.8336341839103061 2.7096749837083776 217 46 124
9.863380784270202 -1.5160785266841146 2.23196254626502 217 46 124
9.870904537249059 -1.644535648328155 2.2313696983987104 217 46 124
10.363747338139325 -1.1025389476701997 2.31976243077738 217 46 124
12.091303366239178 -1.0352573864575687 2.5529813435148023 217 46 124
11.139949494559108 -1.481834891959477 2.6968952995563233 217 46 124
13.979289062554962 1.1952852025563125 2.0999252865234848 217 46 124
12.782171307564457 1.8552018320540287 1.6535439785849186 217 46 124
9.708673778365592 1.3044918641529475 2.5495880828716615 217 46 124
11.525575503175185 1.4396051202261981 2.8553102273811746 217 46 124
12.267780433747173 1.3818703158724819 2.955726955566312 217 46 124
12.126211559578255 1.2367297069887302 3.0343048387758427 217 46 124
13.091966956262915 -2.209541668999491 3.0679556913668735 217 46 124
12.606916160575503 -0.8521424621669377 2.8450044912539045 217 46 124
12.07228448524313 2.7655682419581096 3.090430671968263 217 46 124
12.199721010198578 -1.8839671156675013 2.9882060685881577 217 46 124
9.731586417365044 1.8633451477589773 2.546095892705872 217 46 124
11.624794297334413 2.024698063506246 2.827614848438898 217 46 124
11.41829489798502 2.6968924778576286 2.889182822667295 217 46 124
12.220554756785639 2.4796367545223683 2.9775461913243717 217 46 124
12.636325198397149 -2.318989373706556 2.837481420219659 217 46 124
10.313725994837874 -1.8283421161612416 1.7715350934639078 217 46 124
10.305377330111988 -1.9576658510610563 1.975371524629188 217 46 124
9.623862638525765 -1.8905938831733082 2.123994994462284 217 46 124
10.247771768255674 -1.7483423345127842 2.086817337753967 217 46 124
11.242572059687877 -1.8893651327272745 2.6781093352838443 217 46 124
9.90704993066336 -1.7991606555472996 2.363522382714309 217 46 124
10.106720879028854 -0.9920245586925033 2.2133646586003666 217 46 124
8.79169189340017 1.48951696338273 2.502490136227755 217 46 124
13.156847913080599 -0.4969633663733034 3.0179991679962814 217 46 124
12.577180938372564 3.078247215579004 2.8528413293652357 217 46 124
12.165100531179943 -0.4969633663733034 3.0078651637595537 217 46 124
13.302412229365014 -0.30859609375282554 2.9490079557325704 217 46 124
12.3430126339827 1.0012714700225624 2.925704362093264 217 46 124
12.126211559578255 1.2367297069887302 3.0343048387758427 217 46 124
9.798018291505864 -1.6553739054671512 2.374880302790685 217 46 124
11.962872082507918 -2.1694944342904736 2.749819766228226 217 46 124
13.627722819294492 2.1005519176823957 1.873041553918867 217 46 124
10.887841194525338 -1.7158936491404069 1.5759845261375915 217 46 124
12.066133465392657 0.48930226817829814 3.1016054873363634 217 46 124
12.569863681856406 2.031652447738362 1.4956642304736 217 46 124
12.502195862701651 1.9577019212895146 1.817775683386126 217 46 124
