7.245162250797123 1.360199076005267 1.3610646750974706 236 133 71
6.966577614385949 1.645497421676682 1.6414170305379598 236 133 71
7.241673195340865 1.360199076005267 1.7782523623596171 236 133 71
6.900941476193101 1.658035679268023 2.1012867702348172 236 133 71
7.0390673193340225 1.325990557494434 2.0898148828996623 236 133 71
7.04700330095745 1.8215080375252959 2.089171677372847 236 133 71
7.382378122422696 1.645497421676682 1.915059458169841 236 133 71
8.096421065948897 1.4897964579275493 2.316204786478924 236 133 71
7.592325537428312 1.8215080375252959 2.20383107647878 236 133 71
7.853704179057745 1.9724458842527237 2.17962305061017 236 133 71
8.161574207223396 2.0406256916389625 1.8810301165475796 236 133 71
12.367129539996258 0.14249012311341405 2.5836452693102516 236 133 71
10.417775044611538 0.9559320700762479 2.523705959598998 236 133 71
11.12922588545556 0.33851885822889183 2.592218334279031 236 133 71
11.873632777078422 0.16803547767653185 2.6542980353365837 236 133 71
11.221289804821945 0.5061626743615618 2.7789724282612442 236 133 71
11.4936102461021 -0.010825605944083045 2.542439105983018 236 133 71
9.699651664089384 1.8333372409004614 2.934088280576679 236 133 71
9.36921334214116 1.4489125523250057 2.705307004424612 236 133 71
9.804106520766434 2.2375129627118113 2.8884193826205675 236 133 71
9.551103463867827 2.0795841401646706 3.0298874076990225 236 133 71
9.947004947813983 1.7459987069078375 2.837818808995515 236 133 71
9.473378298405112 1.210313042326619 2.682290173708739 236 133 71
10.95237906345758 0.661012772300337 2.8504853377559445 236 133 71
9.479276511542528 1.9395557184013539 2.6810336889316604 236 133 71
9.551103463867827 2.0795841401646706 3.0298874076990225 236 133 71
9.680270353602216 1.0075947849166806 2.640804445996362 236 133 71
9.830657337010576 1.4734608270977854 2.613530597151988 236 133 71
10.384596030894162 1.9395557184013539 2.7238456284531525 236 133 71
9.947004947813983 1.7459987069078375 2.837818808995515 236 133 71
9.665905171863324 -0.6256136723991643 2.9513823903480834 236 133 71
10.090697673338312 -2.030147661645138 2.7952670621765843 236 133 71
9.150259078001309 -1.1212430254214625 2.75984450175621 236 133 71
9.150259078001309 -1.1212430254214625 2.75984450175621 236 133 71
9.538310278291975 -1.9279113418831468 2.668711961256787 236 133 71
9.827006551554254 -0.9496908439867231 2.8795638883868175 236 133 71
9.726629428026607 -1.3423296731529186 2.9213021295686943 236 133 71
9.428936230203512 -1.4530755744746073 2.6919139943914234 236 133 71
9.728544716246935 -1.8162701479931709 2.920424654816774 236 133 71
9.563837360459301 -1.148102879733676 3.018586598412878 236 133 71
8.900517136310377 -1.4916611774874615 2.388165005120471 236 133 71
8.90261015430967 -1.6560286784326705 2.387914402400629 236 133 71
8.553451304558168 -1.182743154954681 2.2679399713249713 236 133 71
9.692792944549604 -0.9690946597313544 2.454197788889803 236 133 71
9.380165101519992 -1.115660021773211 2.4958638476584487 236 133 71
9.172597581668208 -1.8618153327642541 2.52652493982574 236 133 71
9.359919694419975 -1.7567995475122018 2.0713066461022227 236 133 71
8.266532592757502 -1.2332636476868077 2.0068601224919926 236 133 71
7.641313488557063 -1.3642601938911219 1.9029359137178006 236 133 71
7.511786345222226 -1.5028167301667466 1.908889534455384 236 133 71
10.247801323384536 2.280866224030744 2.755018423921103 236 133 71
10.566612342024856 -2.9090429673059797 2.6865925899712066 236 133 71
10.78988361497245 -3.113740483982512 2.9059007615536983 236 133 71
11.423489526251462 -3.1260654186257772 2.734867460030894 236 133 71
10.714178986719798 -2.7119898238846107 2.6592037132541284 236 133 71
11.473292811098865 -2.9090429673059797 2.7249050349623274 236 133 71
11.257864834691613 -2.6097874130905545 2.7705036765767477 236 133 71
9.747647163845915 -2.124926828504423 2.628317693132954 236 133 71
10.951436724571993 -2.5447946744560306 2.6193383470508995 236 133 71
10.57812384435166 -2.424154227022106 2.6843732663508715 236 133 71
9.368587345797504 -2.081222137211929 1.730687043366143 236 133 71
10.242595561119906 -2.032991742554821 1.7169407865251511 236 133 71
9.146704729533637 -1.8733090469015736 1.962464134861424 236 133 71
9.883451887762538 -1.9819510266907603 2.0425556657753288 236 133 71
8.746715039317209 -1.9130136246180223 2.1100733238892877 236 133 71
9.085278545255552 -2.0325805660902487 2.0879172153339645 236 133 71
9.088255991562017 -2.1394795239227564 1.9651217355347046 236 133 71
9.883451887762538 -1.9819510266907603 2.0425556657753288 236 133 71
6.9651123356927656 1.5014444521645507 1.497735505338927 236 133 71
7.241673195340865 1.360199076005267 1.7782523623596171 236 133 71
7.782932048665927 1.9194006195468272 1.8966665225934793 236 133 71
11.093136610383782 0.26099588992762146 2.8107587662179423 236 133 71
11.446415054102049 0.20458556425742433 2.7302425044287286 236 133 71
11.837376833477386 -0.012800389056905382 2.6601097664682745 236 133 71
9.549152586048933 1.0930937936433998 3.0317237333887714 236 133 71
10.048888978275103 2.0490031455635926 2.8069867969637783 236 133 71
10.95237906345758 0.661012772300337 2.8504853377559445 236 133 71
9.371201679422917 1.7020108861868293 2.7048521594851596 236 133 71
10.286037743417035 1.7020108861868293 2.7459863145724612 236 133 71
9.697730669533412 1.3263489653216742 2.9350312678568367 236 133 71
9.699651664089384 1.8333372409004614 2.934088280576679 236 133 71
9.947004947813983 1.7459987069078375 2.837818808995515 236 133 71
9.36921334214116 1.4489125523250057 2.705307004424612 236 133 71
9.504033358763062 -0.14474712003889068 3.090386112125441 236 133 71
9.4309119760025 -1.6975358889540293 2.6914801419840733 236 133 71
8.879592465813817 -1.0233130018884937 2.5749065612884694 236 133 71
9.563837360459301 -1.148102879733676 3.018586598412878 236 133 71
8.315113673967659 -1.0500742229504867 2.1414355467790296 236 133 71
8.392288093678141 -1.6440200355108485 2.1355440897913027 236 133 71
9.359919694419975 -1.7567995475122018 2.0713066461022227 236 133 71
8.780879975557173 -0.9348505064276486 2.1077464835867348 236 133 71
9.689888825375906 2.140748002065222 2.6389938423478467 236 133 71
9.329216495557434 2.280866224030744 2.7145948403577433 236 133 71
10.035890933431975 -2.4536151936256663 2.8107321247705137 236 133 71
10.842597631448239 -2.7398063340788696 2.8864435235754153 236 133 71
10.910409664136228 -2.283644358495728 2.6259093067182295 236 133 71
9.4709803967243 -1.9819510266907603 1.9483638691821912 236 133 71
7.10486403346196 1.5014444521645507 1.7823071280832727 236 133 71
7.91379441212831 2.0406256916389625 1.7604084183118163 236 133 71
6.898241152060375 1.4897964579275493 2.1015164015318977 236 133 71
6.898241152060375 1.4897964579275493 2.1015164015318977 236 133 71
12.919312318896276 0.1236523258913182 2.5185121080363455 236 133 71
11.12922588545556 0.33851885822889183 2.592218334279031 236 133 71
9.98737478034089 -1.4152733538778883 2.825178898453773 236 133 71
9.364292761799065 -0.8910636224352031 2.706435364291542 236 133 71
9.92998295123697 1.2788894014330434 2.5966269118843357 236 133 71
11.012750506935234 -0.19281184433859586 2.6097449008284825 236 133 71
9.983504988377929 0.8458360667953165 2.587846689789256 236 133 71
10.02660438525562 -0.6952993346091146 2.8134392347161707 236 133 71
11.117517063775974 -2.8463391699982066 2.8044319833556393 236 133 71
10.714178986719798 -2.7119898238846107 2.6592037132541284 236 133 71
11.06611271813702 -3.121653596386765 2.8179441704772703 236 133 71
9.390090982577776 -2.0318445808270233 2.4944622604178095 236 133 71
9.085278545255552 -2.0325805660902487 2.0879172153339645 236 133 71
7.327859018128567 1.9724458842527237 2.0674425816812367 236 133 71
9.044432858188031 -1.7381424722108352 2.7901388572570056 236 133 71
10.02660438525562 -0.6952993346091146 2.8134392347161707 236 133 71
9.726629428026607 -1.3423296731529186 2.9213021295686943 236 133 71
9.172597581668208 -1.8618153327642541 2.52652493982574 236 133 71
8.266532592757502 -1.2332636476868077 2.0068601224919926 236 133 71
8.318581098078614 -1.3314340862576572 2.2918250845006747 236 133 71
10.951436724571993 -2.5447946744560306 2.6193383470508995 236 133 71
10.288801766997855 -2.257826965700321 2.745343541453811 236 133 71
8.512799875079578 -1.7823757934374558 2.1265999666428823 236 133 71
9.945131731956742 1.4079521011408396 2.838420245451414 236 133 71
9.665905171863324 -0.6256136723991643 2.9513823903480834 236 133 71
9.7062387631333 -2.1774754181975107 2.4525121451431646 236 133 71
9.57315825377675 -1.8733090469015736 2.059163225947476 236 133 71
11.570656101446362 0.40663351210555776 2.70628397463697 236 133 71
8.653578717779164 -1.2217415292685436 2.617383301657787 236 133 71
9.945131731956742 1.4079521011408396 2.838420245451414 236 133 71
10.336334197769151 -1.940858358436532 1.9153709460861328 236 133 71
10.007885237971001 2.487789562559207 2.818978131630724 236 133 71
7.456952782499239 1.658035679268023 2.2172180671108546 236 133 71
8.808387075824214 -1.6349732986300185 1.97838008600861 236 133 71
