12.846294862708584 0.7900624347149928 0.7318511144417492 29 77 202
12.407405836329652 0.8799632770117004 0.691556786122542 29 77 202
11.999862195233561 0.8656372138897773 0.8895711756233822 29 77 202
11.127872594528743 1.0531860492038951 0.824270595650545 29 77 202
11.659157545963092 0.8550746068307785 1.1692532134644613 29 77 202
11.073657039257824 0.6488176610261028 1.1466925449929997 29 77 202
11.356303700695536 1.064780824019072 1.1579018773651062 29 77 202
11.486317717810218 0.9846085328845323 1.2559606688917146 29 77 202
12.835394667446709 0.5960436640578489 0.6050388285964374 29 77 202
12.396119721786068 0.6825507320890277 0.5517169926110816 29 77 202
12.633699025722349 0.9323145997966291 0.4158724751762571 29 77 202
13.403889141736466 0.47385917573769804 0.5311963318685187 29 77 202
13.2623808748723 0.9004893407867304 0.5127448007629202 29 77 202
13.18878992002277 0.7009176991628662 0.64276481498374 29 77 202
13.18878992002277 0.7009176991628662 0.64276481498374 29 77 202
10.507718490987543 1.5639444767301038 0.6192051954037243 29 77 202
10.688545441794675 1.8814988513939088 0.6425619431780775 29 77 202
10.420094633742966 1.5656365884222463 0.8902071305852577 29 77 202
10.463976302720353 1.688569976644855 0.8935977692393613 29 77 202
10.469037505822117 1.467996627511047 1.324070509381391 29 77 202
10.417157682690815 1.5666584663940943 1.3228160046988295 29 77 202
10.420116704877453 1.4250733851562936 0.7594454511146387 29 77 202
10.378579739330108 1.3500423225544111 1.1162402602617147 29 77 202
10.228946441025466 1.4567908573852195 1.1090789552716391 29 77 202
10.17584262757152 1.5662036831572506 1.1064805439689633 29 77 202
9.963278467269383 1.7827884074285032 1.2057457886667948 29 77 202
10.257384885980695 1.921021089982615 0.9982882062759169 29 77 202
11.097791292952696 2.0794707424599235 0.8217600568998047 29 77 202
11.364961569809997 1.8004720120491164 0.3793785516166676 29 77 202
12.430880055743115 1.1085980865057539 0.37722801828521063 29 77 202
11.49255321375508 2.0165253133924317 0.40631804190765225 29 77 202
12.795452404883806 1.189880592570601 0.44362840239480167 29 77 202
11.96506629527665 1.5573108613755149 0.26196433957809945 29 77 202
11.723597864175437 1.5626006134097634 0.4499262902076425 29 77 202
11.762617683518961 1.7565727966528026 0.45674675431321254 29 77 202
12.067776918257136 2.5830618068925557 0.5057795766677695 29 77 202
12.067776918257136 2.5830618068925557 0.5057795766677695 29 77 202
12.325262476457352 2.333050799941034 0.3549728091319262 29 77 202
11.228460241898043 2.0965467129239235 0.5526662459183712 29 77 202
12.362364783252213 2.4508470812053345 0.5472644919256721 29 77 202
12.362364783252213 2.4508470812053345 0.5472644919256721 29 77 202
12.394825521802511 2.654123973203837 0.36981683252248826 29 77 202
11.912647698112846 2.342254564085729 0.6397509645706722 29 77 202
9.906125831421017 -2.3602800658925025 1.7169986398408519 29 77 202
10.193349139248676 -2.2168861146705647 1.812832810450708 29 77 202
13.857116179250824 0.12088934647125661 2.4243643153743335 29 77 202
13.784778880067757 0.009799899310457206 2.325456873535938 29 77 202
13.842905122643343 -0.09938500555045988 2.4255421611650965 29 77 202
11.392920237116568 0.47887305551916576 2.7303744625036623 29 77 202
10.33032039116607 0.2653551756593098 2.724126526487725 29 77 202
10.932439623965895 0.34653563627752854 2.8412789363495055 29 77 202
10.566375481313765 -0.8812420716929296 2.496522801584124 29 77 202
10.914421173883198 -0.2881516761621184 2.8466565910083146 29 77 202
11.358315825323796 -0.43975576074467154 2.7374177619031803 29 77 202
10.272229363617553 0.02434374318384413 2.7370657548524706 29 77 202
11.39363748192531 -0.6585914739552028 2.547771315281412 29 77 202
11.06575833640093 -1.0153878884125156 2.593205114352593 29 77 202
11.257483865862756 -0.7618136314391304 2.7588996888802937 29 77 202
11.567822401058297 -0.6226370319139888 2.696975289371151 29 77 202
11.953998795996762 -0.5222159934973757 2.633370363169365 29 77 202
10.830383135222172 2.3216480628360987 2.873376428857707 29 77 202
10.5008342428048 1.5327724073296236 3.036722551570347 29 77 202
10.694894621639373 1.9991564674665143 2.9241887871049776 29 77 202
10.5008342428048 1.5327724073296236 3.036722551570347 29 77 202
10.702705975243015 1.1099814334561915 2.9209090777824835 29 77 202
10.495440372931139 0.09418486032041985 3.0417240079120536 29 77 202
11.778390510721449 -0.7498604083930315 2.9024321830478303 29 77 202
11.624290498512273 0.04816153041041015 2.964821324364979 29 77 202
11.583184026634422 -1.361372180874757 2.69419977021773 29 77 202
11.851163977661113 -1.2260909339643928 2.878427166010833 29 77 202
12.261192293260207 -1.0886658615491498 2.774240394321288 29 77 202
10.487474643460223 3.0392482834691954 3.0496149535714556 29 77 202
10.487474643460223 3.0392482834691954 3.0496149535714556 29 77 202
10.525697179372315 -2.3866321869570135 3.016267112319945 29 77 202
10.625608325406844 3.091379081527896 2.9560046021160526 29 77 202
10.443691708849272 1.169260462584707 3.1313551457406064 29 77 202
10.443691708849272 1.169260462584707 3.1313551457406064 29 77 202
11.600143912836655 -1.5488255715663617 2.976881328214317 29 77 202
11.701257875035536 -1.9508767667731581 2.6736108732511545 29 77 202
11.31884530963543 -2.035964161704988 2.745649895740297 29 77 202
11.844110072136301 -1.8897582529830004 2.8806468969762067 29 77 202
11.805359609649614 -1.5563962249697458 2.8932362063366757 29 77 202
11.844110072136301 -1.8897582529830004 2.8806468969762067 29 77 202
12.127906666671944 -1.8116256399365158 2.803950330083262 29 77 202
13.070929548674998 2.8029699166778497 2.637193968054776 29 77 202
13.556018115735878 2.8486930769884657 2.575750852512168 29 77 202
12.948064565063397 2.959287031387095 2.6546606454883093 29 77 202
11.988702914710323 -2.5278984016863686 2.352174305260703 29 77 202
13.394977180560083 3.1217470552096795 2.762338615304597 29 77 202
12.6152874813534 -2.7753709094987156 2.7071042273390993 29 77 202
11.830009083636586 -2.3633988198578972 2.652516433442332 29 77 202
12.170283446836757 -2.3658575848078756 2.7941686841207836 29 77 202
12.451193800759945 -2.509024866888171 2.7364341750674988 29 77 202
12.8042436306022 -2.61212034716086 2.676320220390907 29 77 202
13.422934004830495 -3.0127387489297868 2.5915590217669324 29 77 202
13.796443076222925 3.1250771850547228 2.6949667695586728 29 77 202
13.52694843683009 -2.8748198428937397 2.57914357739486 29 77 202
13.82552054246366 -2.991413410335589 2.6905950378045884 29 77 202
12.19421414233954 -2.4531861404937323 2.456555419427451 29 77 202
12.880031904754789 -2.746515934822091 2.516315848524018 29 77 202
12.640489337616339 -2.561832885064636 2.543065145918805 29 77 202
12.19421414233954 -2.4531861404937323 2.456555419427451 29 77 202
13.703339400572592 -2.746515934822091 2.559042649775945 29 77 202
10.740944810139746 -1.0948903751973427 2.4752230577231127 29 77 202
10.639627395926537 -1.2033233573193256 2.22129069958199 29 77 202
10.96746293526522 -1.097978700391207 2.198735264835765 29 77 202
10.754010915896256 -0.8638053906935658 2.335228532019461 29 77 202
11.184231759478166 -1.3960700170606786 2.576103511341765 29 77 202
11.176756945786568 -1.7317571226804769 2.5771582140017077 29 77 202
10.485706216232575 -1.8911764627610033 2.506817633840968 29 77 202
10.717577279444855 -2.0354492289801875 2.478000607873745 29 77 202
10.387680525868833 -2.3602800658925025 1.9086514358704219 29 77 202
10.203805125774279 -1.4209786469660122 2.3883108387997614 29 77 202
10.19561154714349 -1.7087540191912467 2.3891682202635205 29 77 202
10.337645897784453 -1.847264021498884 2.374604135451961 29 77 202
11.979252699186455 -2.1937756260661447 2.3529571736806894 29 77 202
11.164512770342117 -2.282967266894244 2.185980971196597 29 77 202
10.47779893536463 -1.6780286906434538 2.1170539605121412 29 77 202
9.792728001074934 -1.813727220766662 2.1601638409745023 29 77 202
9.992224406298556 -1.8916384586664543 1.9225902062561042 29 77 202
9.4268334580139 -2.828353678723405 1.6178224895793003 29 77 202
10.221132152280425 -2.640931447161951 1.6141656299120724 29 77 202
10.74190068513119 -2.559062455437447 1.5189335048678096 29 77 202
10.348926032481932 -2.5895526056058884 2.0145514043175123 29 77 202
10.95763072158963 -2.6857679298202832 2.199386820797232 29 77 202
10.412028836123437 -2.828353678723405 2.0116723221961372 29 77 202
10.412028836123437 -2.828353678723405 2.0116723221961372 29 77 202
13.130198765112425 3.129227237492452 2.490386233806004 29 77 202
13.17569515800721 3.0044368385937887 2.485868692853933 29 77 202
10.80490519938967 1.1659510009443115 0.7962509705170253 29 77 202
10.949066701329626 1.1527512073614474 1.1415488503144398 29 77 202
12.919521683349739 0.6266671826974145 0.7381390593048367 29 77 202
12.76168513332892 0.7909823738479933 0.5966357643464081 29 77 202
12.911000084610167 0.792354342510725 0.46210277811098754 29 77 202
10.688545441794675 1.8814988513939088 0.6425619431780775 29 77 202
10.551235746279941 1.726647263686384 0.6249688152824845 29 77 202
10.220773017185918 1.675726139524877 1.1086809997637108 29 77 202
10.378579739330108 1.3500423225544111 1.1162402602617147 29 77 202
11.097791292952696 2.0794707424599235 0.8217600568998047 29 77 202
10.589162978577642 2.025414986474768 1.0183535907631711 29 77 202
11.704495173168569 2.196000685645013 0.44653507607500736 29 77 202
12.795452404883806 1.189880592570601 0.44362840239480167 29 77 202
12.003301185011539 1.870726487070828 0.273592558640616 29 77 202
11.175059556244763 2.1344176230324985 0.33417864388850627 29 77 202
11.692510930552325 2.4774401168307354 0.4443895521437338 29 77 202
13.857116179250824 0.12088934647125661 2.4243643153743335 29 77 202
13.943787109287436 -0.20729017640384886 2.4172664358486653 29 77 202
13.813864250088752 0.01088366350304889 2.4279616733726326 29 77 202
13.842905122643343 -0.09938500555045988 2.4255421611650965 29 77 202
13.813880898827355 -0.0895435734845374 2.3234776786626927 29 77 202
13.784778880067757 0.009799899310457206 2.325456873535938 29 77 202
11.251746897434435 0.2653551756593098 2.7601683333247267 29 77 202
10.87756465603789 0.03234196144584534 2.8580226696457336 29 77 202
11.234240591743431 -0.2194736525126058 2.7640727487681875 29 77 202
11.953998795996762 -0.5222159934973757 2.633370363169365 29 77 202
10.651964282715028 1.5508857747434397 2.943258233046375 29 77 202
10.68177773455009 2.630400248745282 2.92981964391579 29 77 202
10.69741389399296 0.4935571962494985 2.9231252168917417 29 77 202
11.805359609649614 -1.5563962249697458 2.8932362063366757 29 77 202
11.980553398640577 -0.9576056701384064 2.840939369469439 29 77 202
10.443691708849272 1.169260462584707 3.1313551457406064 29 77 202
10.625608325406844 3.091379081527896 2.9560046021160526 29 77 202
10.79397543605717 -2.370864030293791 2.8859362669049373 29 77 202
12.134795603554167 -1.3098679325601894 2.8023370518929704 29 77 202
11.646755381254781 -1.0696049323582257 2.9543314427905547 29 77 202
13.437589213426063 2.9850263528018313 2.589782892685418 29 77 202
13.796443076222925 3.1250771850547228 2.6949667695586728 29 77 202
13.52694843683009 -2.8748198428937397 2.57914357739486 29 77 202
12.361719529351188 -2.6305587239049855 2.440134760941132 29 77 202
13.392982512622408 3.1274503632730446 2.595217258823122 29 77 202
13.040778585840876 -2.832657231041978 2.6413982808549283 29 77 202
12.451193800759945 -2.509024866888171 2.7364341750674988 29 77 202
11.065779119733678 -0.9703010723742035 2.438731618278016 29 77 202
11.338699158244047 -0.9179980147626923 2.071508226096187 29 77 202
10.838935671406967 -1.0028517580370298 2.09691927466837 29 77 202
10.065554245264718 -1.2033233573193256 2.142147927633916 29 77 202
11.333663463057345 -0.9398758627605843 2.287269261329392 29 77 202
12.189569614064505 -2.269543542840534 2.4570219079554776 29 77 202
11.818171579749153 -2.161588220121134 2.4964865782886236 29 77 202
11.306472646803794 -1.8911764627610033 2.5592892218439562 29 77 202
10.501634315772096 -1.2377141615360858 2.504761005170347 29 77 202
11.774798742739728 -2.4381753291721235 2.25508886437369 29 77 202
11.299099055035217 -1.975735896568625 2.414696243774526 29 77 202
11.601123537969581 -2.091519270278017 2.3858855446305194 29 77 202
9.642670471155954 -1.6914755794151088 2.1706057396545786 29 77 202
10.616036852354796 -1.9290252443461593 2.222982820553451 29 77 202
10.20445339157564 -2.503507343430189 1.812564174307213 29 77 202
13.160748319377019 -3.028783347960451 2.4873464536631937 29 77 202
13.17569515800721 3.0044368385937887 2.485868692853933 29 77 202
10.73375615518124 -2.7308352794542126 1.9975757472281266 29 77 202
11.439092732224411 0.7894027243709222 1.0635437045572393 29 77 202
11.391651785025322 0.713728114191313 0.9574778675276358 29 77 202
11.486317717810218 0.9846085328845323 1.2559606688917146 29 77 202
11.305849969877189 0.8550746068307785 1.25075782174273 29 77 202
12.992581512459816 1.0328699203946383 0.47455426780474674 29 77 202
10.861108982486764 2.180512352743619 0.9226616810478256 29 77 202
10.207024331512484 1.885150510236316 1.214856590421176 29 77 202
10.0148647924678 1.8080446785630893 0.9826007275813958 29 77 202
10.417157682690815 1.5666584663940943 1.3228160046988295 29 77 202
12.430880055743115 1.1085980865057539 0.37722801828521063 29 77 202
11.007356245536482 1.937506420040389 0.5191838343500234 29 77 202
11.532334858632018 2.2309568599532925 0.5940138554016535 29 77 202
12.749436364155907 2.7412312741926828 0.4359717317043471 29 77 202
13.784778880067757 0.009799899310457206 2.325456873535938 29 77 202
10.651964282715028 1.5508857747434397 2.943258233046375 29 77 202
10.443691708849272 1.169260462584707 3.1313551457406064 29 77 202
13.141476271033117 -2.6305587239049855 2.4892610305350056 29 77 202
11.533979670139447 -2.2195296384988614 2.7031742835226273 29 77 202
12.09006584877732 -1.5600867247724708 2.8129815379273033 29 77 202
13.954765785430048 2.8029699166778497 2.6718328694307476 29 77 202
12.692204109329321 -2.8748198428937397 2.5371164713335292 29 77 202
11.583184026634422 -1.361372180874757 2.69419977021773 29 77 202
11.658786656784999 -0.4158201862764378 2.948961332811672 29 77 202
12.170283446836757 -2.3658575848078756 2.7941686841207836 29 77 202
13.040778585840876 -2.832657231041978 2.6413982808549283 29 77 202
12.451193800759945 -2.509024866888171 2.7364341750674988 29 77 202
11.805359609649614 -1.5563962249697458 2.8932362063366757 29 77 202
12.932854650474534 -2.991413410335589 2.656886612036642 29 77 202
10.332520335018105 -1.9892037995438299 1.9105276071348658 29 77 202
10.905061017357742 -1.5647418443499994 2.456311148738493 29 77 202
10.905061017357742 -1.5647418443499994 2.456311148738493 29 77 202
10.624185037566752 -2.4381753291721235 2.1086981579630217 29 77 202
10.62066332758455 1.2481575336143993 1.127349283536676 29 77 202
11.531092476844433 0.9298307079564467 1.067972326483161 29 77 202
11.528795279313869 0.9532112090166843 0.8559827964486689 29 77 202
12.835394667446709 0.5960436640578489 0.6050388285964374 29 77 202
13.883364730360814 0.4145099415355936 0.5873273116250565 29 77 202
11.996317566089205 2.338794705552085 0.49491725822130206 29 77 202
11.234240591743431 -0.2194736525126058 2.7640727487681875 29 77 202
11.992249794568115 -0.5587109089883668 2.8378094673049707 29 77 202
10.914421173883198 -0.2881516761621184 2.8466565910083146 29 77 202
11.555696417991667 -0.9086015950466614 2.699182918775916 29 77 202
10.987784260589914 -0.7677503557287872 2.6049345588778503 29 77 202
10.544379909819066 2.288130989629994 3.0029110261309357 29 77 202
10.663335735105615 -2.710112588802042 2.938020340836877 29 77 202
13.22365618274882 -2.688407414840413 2.6166527271745395 29 77 202
11.715533462337287 -1.1760995038129545 2.6712057372132705 29 77 202
11.533979670139447 -2.2195296384988614 2.7031742835226273 29 77 202
10.641327019409696 0.04816153041041015 2.948295176547907 29 77 202
11.536315706611575 -1.562271530166863 2.702742586672015 29 77 202
12.9838619836971 0.5510468038941538 0.4732453087928056 29 77 202
12.674384802955165 1.3692355959378515 0.42308237597013376 29 77 202
12.306226344741349 1.3218755632753123 0.3507759120837378 29 77 202
11.600143912836655 -1.5488255715663617 2.976881328214317 29 77 202
11.014221825840933 -2.164461180610971 2.8181627648655274 29 77 202
13.943787109287436 -0.20729017640384886 2.4172664358486653 29 77 202
11.995142413972696 0.713728114191313 0.8892521487316324 29 77 202
10.420094633742966 1.5656365884222463 0.8902071305852577 29 77 202
10.532477834507763 2.120171057124689 1.1233684804598725 29 77 202
11.773621014121293 -0.7712994878661743 2.50153192058223 29 77 202
12.201046791429752 -2.474894476417789 2.5981275568184596 29 77 202
11.296734323298129 -2.1937756260661447 2.2901196100650454 29 77 202
10.567043307166486 1.29071733654941 0.7739800428529178 29 77 202
11.805359609649614 -1.5563962249697458 2.8932362063366757 29 77 202
10.552302682691003 0.8118501023465804 2.9976316858284866 29 77 202
12.262121950777528 1.560601009204673 0.34081024793803266 29 77 202
9.526357011203928 -2.828353678723405 1.722871462842277 29 77 202
