8.806839759390186 0.5507026933386496 1.3223353560379199 24 42 54
9.633049773677007 0.2599800775166516 1.6575118212247122 25 44 56
8.344247534508641 0.4447555844213575 1.3082447906260046 23 42 56
9.440066811002032 0.4950237093384372 1.6592891381284547 26 41 56
10.32539524806195 -0.20770386744397393 0.8037814243306941 28 45 55
10.427233039579301 1.401759816203727 0.8131531161299823 35 61 84
11.445732058000317 1.2326193795179412 0.6421710231630571 20 48 66
9.947083543218266 1.275135635394117 0.9022432397905065 30 54 75
9.904944371319987 0.986761585351231 0.8988782369644504 18 40 59
10.80020456320418 1.1032952482199996 1.072081165516896 20 41 60
10.58498382754389 1.0508926245641421 0.9490001369553791 20 40 59
10.66177089843918 1.2326193795179412 0.698376588737359 25 51 71
10.918885680215066 1.1021065334934144 0.7259755832379019 21 45 63
8.823533867701638 0.5815094732831488 0.7971052963737834 24 39 53
11.163311718299143 1.0311619859995282 0.6075366630967154 21 42 58
10.97881264550047 0.9902118849548804 0.3872817379117504 18 40 54
10.911957785526571 1.1765594642096826 0.5735692971259903 21 45 62
9.369433194415976 0.8555504700521029 0.20891359301376394 37 58 74
11.334385150303625 1.0998572951984362 0.45810688814365436 22 42 57
8.258578134745884 0.22967991501426957 0.8950285859854122 21 40 51
9.541222761403159 0.5234550604888086 0.5436334395212724 21 42 56
10.040799252482257 0.6456896008770341 0.42059334790647596 10 32 46
9.84295128496662 0.421207212283884 0.37311747983697896 2 17 30
8.480612612544897 0.43750102632531374 0.7568010315392334 25 40 53
10.477643772937874 1.5384049721050879 0.9416390739881226 40 68 93
10.352704142150163 1.5340706957376422 0.8063209258131161 39 67 91
10.615253525892903 1.7718517356891885 0.9510421185047632 42 71 98
11.3494475247182 1.8315602778390896 0.6307405201228117 33 63 86
11.088787169966952 1.6676729233268557 0.7430721063780673 38 66 91
10.491952699154293 1.7979127645429587 0.818972387134512 40 69 95
10.767071545076655 1.9696744338960916 0.7099465312104768 35 66 91
10.999257239818014 2.0336033168830467 0.8612728267391403 41 70 96
10.419978266637724 1.5283980978884164 0.6702615834386109 35 64 87
8.300972769807846 1.3859132096142708 0.18077076665249833 27 56 74
9.441406725918593 2.4370381088542 0.24225542941572423 34 61 81
11.127541027334843 1.7318365129737245 0.41883543305086096 28 57 77
9.28641871648177 1.3859132096142708 0.16140925896630876 38 62 79
10.696948410304259 1.7027576896516912 0.5416620985374029 30 58 80
9.950280409368638 2.032632582768738 0.3997685293669291 24 54 76
10.810920381073473 1.8765475215580216 0.5589361175973488 31 61 84
8.328111617785288 2.030157812414339 0.19780749129664155 29 58 77
9.853592321584005 1.7027576896516912 0.5940081246610047 33 63 86
10.2220714956553 1.7318365129737245 0.458632082506945 28 57 79
9.614201240601956 1.2017901311918815 1.235261144881597 29 50 71
10.610565832192167 1.1466946893443783 1.365242881511524 29 51 72
9.321167292136277 1.3083763730724658 1.224276971722753 41 66 88
10.421172542681745 1.4369903527371766 1.1595681384806777 46 72 96
9.974301763315655 1.3350238630388693 1.3519238205660409 39 67 93
9.794794018195622 1.4369903527371766 1.3478454104147264 44 72 97
9.550448348342124 0.8005152820175893 1.2329323494580113 24 40 57
10.899605012721944 1.0624943494763082 1.4636414681859913 18 40 58
10.046279964778186 0.9558166987917671 1.1432357920840754 22 41 58
9.706471209493321 1.3083763730724658 1.1272243264554798 39 65 90
10.452400854662638 1.1466946893443783 1.459038082133639 20 43 63
9.737753763585244 1.3350238630388693 1.5537780462323512 42 70 94
9.542424241216072 1.5418244536831338 1.4483294545614445 45 73 99
9.693319802098042 1.7510974452498211 1.450245255785507 44 73 102
9.202680938769255 1.7718517356891885 1.219623952373549 44 73 101
9.592745181308558 1.7718517356891885 1.121583615735442 43 72 101
9.440242143458008 1.5384049721050879 1.1137809957279285 43 71 97
9.441431599815038 1.882235347469099 1.2288727023076396 44 74 102
9.863664250088688 1.7510974452498211 1.349428134750477 45 74 102
9.735592365041382 -0.10071693592636544 0.5758158623709752 30 43 54
9.744215225855994 0.14166213387578344 0.34631151362939644 2 15 31
9.379999972993456 -0.8772772948875175 0.21416225666795438 42 62 79
9.379999972993456 -0.8772772948875175 0.21416225666795438 42 62 79
8.71973107256611 -0.5349672488880693 0.6062661729150096 11 20 34
9.458703131538726 -0.23020655130271347 0.24954796975343627 44 63 80
9.265652635092776 0.35124908275961925 0.14700752251866403 40 63 78
9.732200076481899 0.08830757451325327 0.5752787317792958 24 43 56
9.343398378589493 -0.34436482804623414 0.5075143987476388 0 8 24
10.411364217749318 -0.23963624841234438 0.6692171324522701 28 45 57
9.185295494265736 -1.0954469983237676 0.06531194868857941 39 62 81
9.338426062982917 2.8773110286738444 0.19262553681579053 34 60 80
9.181699894213526 1.039615106645387 0.05902207614619969 37 62 79
9.101183377590788 0.644487090374184 1.552587597553884 24 41 57
8.24541270365731 0.2712780430512382 0.726092049736195 20 40 52
10.441611047649758 1.6825369637464596 0.6728709385978827 37 66 90
10.352704142150163 1.5340706957376422 0.8063209258131161 39 67 91
10.494029392183135 1.3762337679156198 0.6791143444643026 32 59 80
9.83066566651416 1.5206547586508319 0.5905461222439078 31 61 84
10.444889314887705 1.2017901311918815 1.053458189716982 25 49 69
10.477643772937874 1.5384049721050879 0.9416390739881226 40 68 93
9.28641871648177 1.3859132096142708 0.16140925896630876 38 62 79
11.176742858660669 1.292895552395975 0.4286167116910948 28 48 64
10.596032024701286 1.275135635394117 0.828117525606305 29 53 75
10.675833040072884 1.5206547586508319 0.5383658854687906 28 56 78
10.701979519438918 1.920794754305641 0.8371682061730348 41 70 96
10.556483631004932 0.986761585351231 0.8246728617038082 18 40 56
9.64749296940107 2.1811852036577237 0.31736335129222376 30 59 80
10.822887859170523 1.882235347469099 0.9646653711355675 42 71 98
9.614201240601956 1.2017901311918815 1.235261144881597 29 50 71
9.715414764799272 1.5418244536831338 1.3459926174827137 44 72 99
10.086781777736475 1.8511256781527061 1.3544035722718852 43 75 103
9.82201885086348 1.882235347469099 1.1328067033211309 43 73 102
10.465671364436886 1.0136854750916917 1.2634972909259592 22 42 58
10.610565832192167 1.1466946893443783 1.365242881511524 29 51 72
9.521915644129688 1.4214090513102302 1.11799447899362 45 71 97
9.566041741104158 1.647297066700456 1.4486333267785978 45 73 100
10.452400854662638 1.1466946893443783 1.459038082133639 20 43 63
9.999078522623632 1.1032952482199996 1.2486530016719932 23 43 62
9.7386127474748 1.647297066700456 1.3465372869426537 45 73 101
9.77711229592792 1.9853206141345054 1.2410658677572703 44 74 102
9.45521150271123 0.20250975465751095 0.24809487367999442 41 59 75
9.539341741038607 -0.0847487333605443 0.720956530245732 29 44 55
9.841127936767707 -0.28286205311579815 0.5921301719994825 19 34 47
9.475109957232435 0.4950237093384372 1.4474549866875204 26 43 55
9.93627734982075 0.35773964750002674 1.6548591549569975 24 43 55
9.174037416822891 0.644487090374184 1.4433854943349296 24 40 55
9.229039642560574 0.39678030482119325 1.3339247103849075 25 42 54
11.19877203509486 1.7979127645429587 0.7537006498121264 39 67 93
10.499157738875189 1.6562905959151553 0.9431296615338014 41 69 96
9.017663461582769 0.2712780430512382 0.6523973718764283 22 39 50
10.551290197856604 1.4214090513102302 0.9467098463689888 38 64 87
10.810920381073473 1.8765475215580216 0.5589361175973488 31 61 84
10.222190412165325 1.157537610055993 0.9233276316349875 24 47 68
10.558339616795836 1.8315602778390896 0.6866252578473027 35 65 89
10.519810257041549 0.5728591385715965 0.2601949331594419 2 19 34
9.152596254032458 1.2017901311918815 1.4430853862312867 37 61 83
9.623230549360706 1.4369903527371766 1.4493629160335457 44 72 97
9.043602604846647 1.5384049721050879 1.2131719959457907 44 72 96
9.920269299718884 1.8511256781527061 1.4530161214959 42 74 102
7.925064591875163 0.37461738125467753 1.0173319099091858 25 38 49
11.417096620426507 0.9855019432674116 1.4685157884891478 21 41 57
9.706471209493321 1.3083763730724658 1.1272243264554798 39 65 90
9.068519298517703 1.6562905959151553 1.2141985593952223 45 73 100
9.53587963864602 0.07428979895598052 0.7205432827916408 26 43 55
9.269215669288286 -0.3961542219786521 0.14958109126256197 40 63 79
9.185295494265736 -1.0954469983237676 0.06531194868857941 39 62 81
9.22859753818928 0.10881999599650151 0.48467385945647057 18 37 49
11.289644659453863 1.3762337679156198 0.6234501835916122 29 55 73
9.310685623036678 2.030157812414339 0.17669898725176306 31 57 75
10.500436409189629 0.9558166987917671 1.05646579201838 22 41 58
9.332790159019728 0.33060869925373154 0.5054666399195766 20 40 53
10.357997145548138 1.0311619859995282 0.662676282693025 18 44 61
9.464114640066423 1.6562905959151553 1.115020986354387 43 71 99
7.836401263531883 0.5048093911620108 1.1549380471628485 21 40 55
8.75640154665362 0.618696317859102 1.074998795663495 20 40 54
8.90376909089227 0.7167429111125634 1.2072966710178383 22 41 55
9.155131229196307 -0.6584311444608987 0.4692065768128016 47 59 75
9.232174873314035 -0.12406152902182249 0.48540921889178035 6 19 32
9.747603332993272 -0.16137094253236473 0.34727345631369827 25 40 57
9.181699894213526 1.039615106645387 0.05902207614619969 37 62 79
9.206242835196106 2.569775184775612 0.09387002945716445 34 60 80
10.207783963998388 1.0136854750916917 1.3570087322418933 22 42 58
10.748121552453382 1.3417857063830103 0.549523723562827 24 51 68
10.374477203603666 1.6676729233268557 0.8083316683114794 39 68 92
10.854704071290763 1.157537610055993 0.8497804690951402 23 45 66
7.672854042334652 0.22967991501426957 0.9968913175489642 25 39 50
11.39577945062213 1.920794754305641 0.7719443298011944 40 69 95
10.34127844395883 1.939447141495322 0.48145327791460246 30 59 81
10.018610391018289 1.2378047112984905 1.5542551721967093 37 64 86
11.107244263174426 1.5094553928976044 0.4147115557475005 26 53 72
