11.56500088804409 1.5346744201193931 1.5287322079347612 65 72 80
12.914970301413645 2.0211305590861675 1.688269218166725 67 72 81
13.301674140650583 2.088916318041568 1.609423015938374 72 79 87
11.888903278268462 -0.9422549663279473 2.2549151003131462 64 73 81
10.57450705650164 1.6259879199703227 1.5247894796144157 63 68 79
10.851981938245334 1.6259879199703227 1.3396301714626966 59 66 74
10.567976269387955 1.5312530593412386 1.6194219428110639 64 69 79
10.654421693489093 1.4372209875504103 1.6190271078861806 67 72 81
10.951298224213371 1.7197442632959388 1.3417642196855728 64 69 80
10.951298224213371 1.7197442632959388 1.3417642196855728 64 69 80
10.677685331833812 1.7197442632959388 1.6189219454473158 66 71 80
10.869730498191522 1.810941793955418 1.5260398788875635 66 71 80
10.869730498191522 1.810941793955418 1.5260398788875635 66 71 80
10.957538571488532 1.7197442632959388 1.8022587003065489 68 73 82
10.963837311968602 1.810941793955418 1.7092991294611972 66 71 80
12.440123734363853 2.0576126824396503 1.8571400307893873 63 68 77
10.495996819892873 1.8349920644009288 1.91215008373157 68 75 83
11.945273350416443 2.09992443762554 1.958282965042621 63 70 80
11.1578129962154 2.018319567263623 1.8911548483845326 65 72 80
9.446468841430807 1.3206527599547575 2.490454958916459 63 72 91
9.348860592595178 1.4957129275636583 2.5042824865174844 102 112 128
9.241483929391851 1.733613958016442 2.7420657145665466 135 153 177
9.357703521026675 1.6754577196220564 2.5030072124267164 66 75 87
9.348860592595178 1.4957129275636583 2.5042824865174844 102 112 128
9.357703521026675 1.6754577196220564 2.5030072124267164 66 75 87
8.801826419972246 1.698247848545566 2.593748121852241 45 57 75
9.669513538814735 1.698247848545566 2.647639211848807 82 94 113
8.792424439235488 1.479284837814649 2.595503230836873 102 118 140
9.241483929391851 1.733613958016442 2.7420657145665466 135 153 177
9.472699509384377 1.84872704560594 2.4868296164752435 66 73 88
9.154397300894987 2.0873343576553993 2.53355723324686 86 93 106
9.357908207760099 1.9904703625313553 2.7135588664802284 163 179 201
9.577884256584008 2.200127906926323 2.6657097157242258 173 187 205
9.780844180589803 1.9057418826941623 2.6268987862692352 84 94 110
9.154397300894987 2.0873343576553993 2.53355723324686 86 93 106
9.485167934743664 2.2381081118267674 2.4851193453045424 95 103 115
9.590909747554257 -1.6323628503185854 1.7292825643019636 33 46 59
9.172497159762157 -1.6396246733787014 1.9639095414537953 40 53 66
8.304094011190863 -2.188330600591745 1.878323472213207 83 99 116
9.02188246013985 -2.468317195827751 2.228301789899504 63 81 107
8.406589435016222 -2.018903106931209 1.7518415230869686 184 201 218
13.746815733344445 -1.804044955088858 2.957158372764776 169 192 221
10.175989580857552 -3.0158836189737466 2.7788120751798444 164 190 220
10.659348849590383 -2.8346040163002457 2.673696343154765 171 197 227
10.26919164733076 -2.7563593008046476 2.755608845057702 154 181 211
9.974964024353685 -2.6501662108995827 2.593469489404739 167 191 221
10.840998618077132 -2.6501662108995827 2.6415542773408642 131 154 182
10.840998618077132 -2.6501662108995827 2.6415542773408642 131 154 182
13.834747965971477 -2.629205555769094 2.92573031602662 179 204 233
11.077500214795593 2.489924564093153 1.3444192837978035 60 67 75
10.709563229247683 2.358539304498425 1.5253700647821435 67 74 82
10.318654769571374 2.288039292295413 1.327446936715641 62 67 76
11.25223148141088 2.358539304498425 1.2557774948944505 64 69 78
11.525312213511182 2.420302465394742 1.441474088320697 64 70 78
11.25223148141088 2.358539304498425 1.2557774948944505 64 69 78
11.611695109296233 2.358539304498425 1.9700358014540647 65 72 80
11.528870407325691 2.420302465394742 1.7024705252439283 66 73 81
11.083669507829816 2.489924564093153 1.7995774586187971 67 72 81
11.699198377297806 2.2964685614813156 1.7873432408777414 67 72 81
12.684429651503407 2.128760609243547 1.7702867418806532 64 69 78
11.956987094118235 2.420302465394742 1.8690582379814167 63 69 78
11.346063881968568 2.227073507661845 1.885654911066774 63 70 78
10.32685275864253 2.5678041737295025 1.4263662430958701 60 67 75
16.10361348972851 2.4744655916163865 2.2821722032601253 22 32 44
15.664289885727614 2.5875562911384273 2.223514161337656 51 61 73
19.555241521782406 2.851498028169278 1.6996950733298715 66 73 81
19.55616065330635 2.689113966955002 1.5459254805001137 65 70 79
12.914970301413645 2.0211305590861675 1.688269218166725 67 72 81
13.069957981431939 2.0211305590861675 1.7643265485701 65 70 79
10.667373422637972 1.6259879199703227 1.431007474527515 65 70 81
10.671217690029707 1.6259879199703227 1.713122570159217 65 70 79
10.677685331833812 1.7197442632959388 1.6189219454473158 66 71 80
17.95077590907989 1.6259879199703227 2.5124395410317426 188 194 211
17.95077590907989 1.6259879199703227 2.5124395410317426 188 194 211
8.792424439235488 1.479284837814649 2.595503230836873 102 118 140
8.801826419972246 1.698247848545566 2.593748121852241 45 57 75
9.660956022551053 1.479284837814649 2.6492867119844754 103 119 139
9.357703521026675 1.6754577196220564 2.5030072124267164 66 75 87
9.357908207760099 1.9904703625313553 2.7135588664802284 163 179 201
10.283937949301864 1.84872704560594 2.5460800478554826 67 75 90
9.357908207760099 1.9904703625313553 2.7135588664802284 163 179 201
9.780844180589803 1.9057418826941623 2.6268987862692352 84 94 110
8.923988409616937 1.9057418826941623 2.571708396760617 60 66 80
9.154397300894987 2.0873343576553993 2.53355723324686 86 93 106
9.577884256584008 2.200127906926323 2.6657097157242258 173 187 205
9.88342308719096 -1.42197108337831 1.827953371063696 66 75 83
13.746815733344445 -1.804044955088858 2.957158372764776 169 192 221
9.665490513914907 -2.468317195827751 2.3102848586457627 59 77 103
10.983626771756862 2.358539304498425 1.3424503240433014 66 71 80
10.80581780842137 2.489924564093153 1.5257749814440946 63 70 78
11.611695109296233 2.358539304498425 1.9700358014540647 65 72 80
10.325277478285901 2.288039292295413 1.8167159270323332 67 74 82
11.260733526784747 2.358539304498425 1.8881239072311868 66 73 81
11.348214174765069 2.616847806357651 1.349910289036793 60 67 75
15.664289885727614 2.5875562911384273 2.223514161337656 51 61 73
15.583252763093324 2.749673675542959 2.5031427910475403 142 165 194
19.858534393250864 2.689113966955002 1.394323603000002 67 71 80
19.708749699695378 2.851498028169278 1.750034289525094 65 72 80
19.39981400620229 2.851498028169278 1.5972776072778776 67 74 82
13.377663424307416 2.088916318041568 1.6841883621613623 67 72 81
11.690009559824853 2.489924564093153 1.1769159416758272 63 69 77
11.162217009002095 2.1493897340366632 1.9870868289743124 60 67 77
10.963837311968602 1.810941793955418 1.7092991294611972 66 71 80
12.440123734363853 2.0576126824396503 1.8571400307893873 63 68 77
10.50257236589481 1.9297963538638105 1.8124810114419798 66 71 80
10.567976269387955 1.5312530593412386 1.6194219428110639 64 69 79
9.348860592595178 1.4957129275636583 2.5042824865174844 102 112 128
8.896139989456636 1.2686570993626543 2.5766122737767896 79 94 116
9.348860592595178 1.4957129275636583 2.5042824865174844 102 112 128
9.894507953414147 2.3611702209721153 2.606937096460032 173 186 203
9.991513083243868 2.0873343576553993 2.5907625607902838 89 96 110
9.485167934743664 2.2381081118267674 2.4851193453045424 95 103 115
9.026404553572272 2.1267629093525815 2.8029196007293384 130 155 185
10.80708296714689 2.489924564093153 1.618345280384832 66 72 80
12.44347491997066 2.128760609243547 1.6120884802618063 72 77 86
16.10361348972851 2.4744655916163865 2.2821722032601253 22 32 44
12.539998177827181 -1.0008523390129638 2.21326842327121 67 76 86
11.151623819016553 1.9297963538638105 1.9875068582647768 69 74 83
11.511912725890225 2.018319567263623 1.9736955330763233 62 69 78
10.785702112095313 1.9297963538638105 1.9026237118296412 70 75 84
10.858279363600982 1.6259879199703227 1.8044137387781434 65 70 79
11.75958161897416 1.810941793955418 1.9647359959854556 67 72 81
12.195463696648966 2.0576126824396503 1.7783996892071494 64 69 78
9.446468841430807 1.3206527599547575 2.490454958916459 63 72 91
8.304094011190863 -2.188330600591745 1.878323472213207 83 99 116
10.569587728827338 -3.0431133881413417 2.6907922630971823 169 195 226
13.834747965971477 -2.629205555769094 2.92573031602662 179 204 233
10.659348849590383 -2.8346040163002457 2.673696343154765 171 197 227
19.606531456326675 2.689113966955002 1.4949157237730315 66 71 80
11.946852198647926 2.616847806357651 1.1858343829725657 64 70 79
11.229202789853737 1.7197442632959388 1.8890462423205578 68 73 82
10.79665433391547 2.1493897340366632 1.902274200108793 65 72 81
10.204832457870209 1.8349920644009288 1.819679522030819 67 74 82
11.857888133060863 -1.677257379154998 2.660823516596376 167 190 219
10.569587728827338 -3.0431133881413417 2.6907922630971823 169 195 226
9.472699509384377 1.84872704560594 2.4868296164752435 66 73 88
9.660956022551053 1.479284837814649 2.6492867119844754 103 119 139
11.132366077703471 1.6259879199703227 1.891913359994155 68 73 82
