8.692060393689957 -0.38309617336437646 2.3702601105035477 67 62 191
8.486587011936367 -0.22138058473547442 2.3954926021023297 67 62 191
8.50842725703588 -0.45818337507316137 2.0913904103344283 67 62 191
8.512284093041949 -0.5723202850564862 1.9602607056990724 67 62 191
2.8140846540080138 1.3479029030922065 1.6533518186115685 67 62 191
8.613180315659267 0.15779658523438103 2.5674342757775386 67 62 191
9.02281002469445 0.2003513258284888 2.7198094656601888 67 62 191
9.02281002469445 0.2003513258284888 2.7198094656601888 67 62 191
8.67446740168141 -0.2672376320575902 2.5566022633139687 67 62 191
8.585838918035142 -0.05727079614848019 2.572376217550475 67 62 191
9.081333068140372 -0.3361573853262529 2.7056699763355154 67 62 191
8.642972430002134 -0.10075813273991015 2.831995526958456 67 62 191
8.996713595425456 -0.07304155903811486 2.7263211641370444 67 62 191
8.422074243145458 0.426005998925896 2.9287665185332834 67 62 191
8.567472193165704 0.8197151963970316 2.86084967426207 67 62 191
8.560415632075207 -1.3036207951523664 2.8637226659770274 67 62 191
8.259612959522041 -0.40378491600614597 3.059880869917269 67 62 191
8.351704078659099 -1.1150840133508708 2.972118614995486 67 62 191
8.351704078659099 -1.1150840133508708 2.972118614995486 67 62 191
5.88676574069821 2.435500567465123 1.7816474327178138 67 62 191
5.88676574069821 2.435500567465123 1.7816474327178138 67 62 191
6.077643131206181 2.8296145269105812 1.9468540735098023 67 62 191
5.841964375776235 -2.743135001396583 1.6105287514300208 67 62 191
5.960453871934366 -2.910681411648318 1.9546292588775385 67 62 191
5.830716558286023 -3.0923991943476534 1.9636319879579522 67 62 191
9.562212655641567 2.842020558415228 2.8780478290847955 67 62 191
9.690518876475354 2.5116511045836774 2.832761124809565 67 62 191
9.918487854453348 2.2868918534482034 2.7673712649092206 67 62 191
8.863468086300575 -2.380986536859334 2.7618558412630696 67 62 191
9.326048820864997 -1.86268479835446 2.9994963554265 67 62 191
9.537592235365187 -3.0307584451685794 2.8877910148653294 67 62 191
9.338391121624461 -2.9519666784521656 2.990538144364267 67 62 191
9.309801799318805 2.4612707752232317 2.6556502240188777 67 62 191
9.309801799318805 2.4612707752232317 2.6556502240188777 67 62 191
9.858804581660774 2.9274395101428574 2.78310170984767 67 62 191
8.988405233863565 -2.783508092745494 2.728422601207545 67 62 191
9.182656664851 -2.551237264929811 2.6825531789514585 67 62 191
9.834926667533521 -3.0633877426147293 2.789638609627318 67 62 191
9.834926667533521 -3.0633877426147293 2.789638609627318 67 62 191
7.894163031327319 2.61195002847388 1.2125505342785146 67 62 191
6.5083722926024885 -2.945875706005471 1.6064586286181892 67 62 191
6.426460950347605 3.026876604743777 1.6069133749929163 67 62 191
6.615863176483932 2.8760546178464432 1.605878967473027 67 62 191
5.38699191818935 -1.4264475729996209 2.2142647626258816 67 62 191
5.7519847026066815 -1.453585629141142 1.9693105506003832 67 62 191
5.943501586721211 -1.2723009915939123 1.9557814436161496 67 62 191
5.958141330256435 -1.0199237617283154 2.144159162932368 67 62 191
5.958141330256435 -1.0199237617283154 2.144159162932368 67 62 191
7.074646888448439 -2.5961531121313977 2.0452474544370234 67 62 191
6.915219914431935 -2.3695172323106535 2.0571242484606502 67 62 191
7.0420099640428555 -2.141528036403462 2.0476291450013853 67 62 191
6.33006086213643 -1.8271542377379726 2.10666506336291 67 62 191
7.805300816298737 -2.3735264155636475 2.495493896172579 67 62 191
7.157391285771227 -2.0798067448273416 2.390582862676411 67 62 191
9.013032502381682 -0.5102595234370024 1.8210476180889341 67 62 191
6.59438476474618 2.534734047226994 1.4540770068586837 67 62 191
7.7290404706583296 2.2230239371720413 1.2045397553493078 67 62 191
9.256636264059807 -0.40378491600614597 3.0686985376215383 67 62 191
8.613180315659267 0.15779658523438103 2.5674342757775386 67 62 191
8.613180315659267 0.15779658523438103 2.5674342757775386 67 62 191
8.484741841083162 -0.6629338552246398 2.89692795126014 67 62 191
9.15867599412383 0.44696991005498227 2.6878795052082665 67 62 191
6.039848829722957 2.671262286043704 1.60922634006948 67 62 191
5.830716558286023 -3.0923991943476534 1.9636319879579522 67 62 191
7.371309830818159 2.671262286043704 2.1823315745240675 67 62 191
7.371309830818159 2.671262286043704 2.1823315745240675 67 62 191
7.210061199729811 -2.743135001396583 2.198101474795942 67 62 191
9.494526801671658 2.24270559078315 2.9059109833250485 67 62 191
9.537592235365187 -3.0307584451685794 2.8877910148653294 67 62 191
7.61047543925249 -2.910681411648318 2.328810399426756 67 62 191
9.363535334693195 2.652148024850019 2.9738142485247114 67 62 191
9.26907099208892 2.0479513270831924 3.052192124641108 67 62 191
8.988405233863565 -2.783508092745494 2.728422601207545 67 62 191
6.38976956726369 -3.10010003012595 1.6071208575829574 67 62 191
5.591025399600117 -1.2077951764693153 2.1871688201453567 67 62 191
6.508160860101213 -2.3695172323106535 1.9208650683798016 67 62 191
6.33006086213643 -1.8271542377379726 2.10666506336291 67 62 191
6.910471790881728 -2.501044719609069 2.2299041328060003 67 62 191
6.620406892783489 -1.995364865243032 2.0808174992034076 67 62 191
7.5490639767654395 -2.240967950366828 2.336539965573758 67 62 191
7.157391285771227 -2.0798067448273416 2.390582862676411 67 62 191
8.736571884663183 -0.32964611783154546 2.212883329592689 67 62 191
9.983299705157052 2.667329289529251 2.751173952857437 67 62 191
8.12077533599619 0.2003513258284888 2.6693756586952953 67 62 191
8.091770315209805 -0.07304155903811486 2.676442623791137 67 62 191
9.338391121624461 -2.9519666784521656 2.990538144364267 67 62 191
9.41994180007611 -2.399714766346362 2.9415307958957313 67 62 191
7.189504453033479 -2.6643679741395756 2.3858100988568927 67 62 191
8.670133658104147 0.27355332473903127 2.8223475076218616 67 62 191
7.72703752840555 0.27355332473903127 2.7817192208441233 67 62 191
6.189471189906911 -1.6428588490345177 2.120208334706358 67 62 191
7.063669975189883 -1.9338603504365022 1.892297050115558 67 62 191
6.159860596629476 2.671262286043704 1.772167870991485 67 62 191
8.731020971350576 -0.44978376392528796 2.8018824970427927 67 62 191
9.24366982495431 -2.5329243093122624 3.0914558192013115 67 62 191
8.271471288793636 0.44696991005498227 2.634864583260279 67 62 191
8.87559234525899 -0.455808686787693 2.5232235439581725 67 62 191
8.690258850357326 -0.9499121252853824 2.8154142035822844 67 62 191
8.394110395595277 -0.16207621123715496 2.9447761647477475 67 62 191
7.203187666397421 -2.2647113355946176 1.8858530028827072 67 62 191
8.005485944247916 -0.38309617336437646 2.283072996160067 67 62 191
9.309801799318805 2.4612707752232317 2.6556502240188777 67 62 191
9.5242056564753 -0.2672376320575902 2.6146124760768137 67 62 191
9.326048820864997 -1.86268479835446 2.9994963554265 67 62 191
8.988405233863565 -2.783508092745494 2.728422601207545 67 62 191
10.364670275057119 2.7644170508513306 2.6697305009637238 67 62 191
9.309801799318805 2.4612707752232317 2.6556502240188777 67 62 191
