22.50657558976513 1.2741219265312669 1.8084508926334026 120 236 77
17.43300305304573 1.0582502246310805 1.7611588008688326 120 236 77
17.935967766629016 1.0087974679569367 1.7557579646525243 120 236 77
12.30293504090737 0.5621676012051743 2.016038348084138 120 236 77
20.30733731971589 1.5008911064180868 1.3875017509854115 120 236 77
19.061605744071525 1.549937530059751 1.6916775516067708 120 236 77
17.783477880415557 1.4885470361944295 1.8733404580766213 120 236 77
18.272781367360746 1.4931182685858593 1.7523103408047318 120 236 77
23.378428067911837 1.7691000200675624 1.583568395538298 120 236 77
19.27078852904793 1.6554489431416013 1.74281349988999 120 236 77
11.395205453410613 1.9194462000180676 1.957596922541751 120 236 77
11.17439179362543 2.005496404350032 1.7779762261559942 120 236 77
10.919000805078582 2.047466193409393 1.9754268355706432 120 236 77
14.19283524788947 -0.6608550896549319 1.953390136428913 120 236 77
11.285852516468285 0.08812338284527657 1.961546787545883 120 236 77
12.496305811905632 0.07396057158426762 1.674901605187455 120 236 77
11.072943869837927 0.18250178527991856 1.8732838763927722 120 236 77
11.038555379472857 0.2737118923486946 1.780563527354174 120 236 77
11.344006758274086 0.3604893184375322 1.7748344195205696 120 236 77
11.854342080212946 0.4822938887599084 2.034176084939055 120 236 77
13.960640586446775 -0.49026127713609235 1.9600923688911143 120 236 77
12.938695412682916 -0.2641245612456968 1.992718104364131 120 236 77
13.250317058819487 -0.3181192466810271 1.7451521809867723 120 236 77
12.737606660917935 -0.18069008108499848 1.999815938126684 120 236 77
12.048652700103208 0.6140855991122801 2.12088452042148 120 236 77
22.465725388619543 1.7151841412850564 2.2042722687533454 120 236 77
17.674811920502748 1.421481666291292 1.9964727567977167 120 236 77
21.441358738745286 1.6142601570247666 2.4343355268255316 120 236 77
21.42853562907702 1.6779911454240064 2.365898362754178 120 236 77
13.717711350123006 1.7488911395094064 2.4199942405993307 120 236 77
13.717711350123006 1.7488911395094064 2.4199942405993307 120 236 77
13.379078839150917 1.9549676536754632 2.339229011797456 120 236 77
14.628172338067783 1.8550171777681348 2.453384146496231 120 236 77
13.870337429465813 1.8550171777681348 2.4075758399464653 120 236 77
13.682485384832779 2.047466193409393 2.3180101378660476 120 236 77
14.380805674618296 2.047466193409393 2.369043698991729 120 236 77
14.380805674618296 2.047466193409393 2.369043698991729 120 236 77
13.842899960931167 1.8276697064443619 2.307327402102685 120 236 77
14.06543760607166 1.9194462000180676 2.293072833214151 120 236 77
21.59355436051495 1.5402546457322888 2.499926071134807 120 236 77
21.598431555149116 1.6176199099555588 2.4996238954350796 120 236 77
22.40735172186647 1.6176199099555588 2.5263492625120794 120 236 77
13.379349929168947 -0.2641245612456968 2.0609584958101865 120 236 77
13.644420840075043 -0.3439639990570143 2.050620616742615 120 236 77
12.162664714880393 0.5299832404223295 2.2143985627771343 120 236 77
12.525293321059223 0.3951489131351617 2.192852656189365 120 236 77
12.162664714880393 0.5299832404223295 2.2143985627771343 120 236 77
12.525293321059223 0.3951489131351617 2.192852656189365 120 236 77
12.249334198742876 0.30119248914472063 2.2091013613909225 120 236 77
12.050286463251103 0.20143075890792136 2.2214128787453964 120 236 77
12.154761792545111 0.5869355607183792 2.322307033420769 120 236 77
13.639194766293137 -0.35181870132696036 2.4265612285078713 120 236 77
13.639194766293137 -0.35181870132696036 2.4265612285078713 120 236 77
13.572759947997318 -0.316957824531224 2.3255256565846953 120 236 77
13.834125492414804 -0.4098558555157805 2.307902668846987 120 236 77
13.572759947997318 -0.316957824531224 2.3255256565846953 120 236 77
13.899311112670263 -0.4525581715525961 2.4052682227024853 120 236 77
14.106688862866333 -0.5043513798573807 2.499656465109541 120 236 77
13.679958218573368 -0.45470126525458177 2.133557705514596 120 236 77
14.397065992648399 -0.6459221538484609 2.185122360745963 120 236 77
14.397065992648399 -0.6459221538484609 2.185122360745963 120 236 77
13.679958218573368 -0.45470126525458177 2.133557705514596 120 236 77
14.082062078965356 -0.5293690009259199 2.115645779973741 120 236 77
14.612230509906457 -0.6269544285272532 2.352926192266046 120 236 77
13.925520275008397 -0.6269544285272532 2.301960682153726 120 236 77
13.925520275008397 -0.6269544285272532 2.301960682153726 120 236 77
13.518761015557192 -0.5443347114395766 2.329288907643674 120 236 77
13.518761015557192 -0.5443347114395766 2.329288907643674 120 236 77
14.390390212346256 -0.7007572003791216 2.273346579920732 120 236 77
14.427816404696797 -0.6020826003803222 2.4704491792894814 120 236 77
13.562396245447728 -0.7603106619494407 2.4331073219304113 120 236 77
13.562396245447728 -0.7603106619494407 2.4331073219304113 120 236 77
14.061576590005398 -0.6882695311074772 2.392624397742415 120 236 77
8.732850763418927 0.4115933127522559 2.560314968918931 120 236 77
14.013958003306897 -0.8577615989868969 2.641619088964982 120 236 77
12.873045390638191 -0.9197945296701375 2.3779615333590454 120 236 77
14.358981969363382 -0.7555238916528537 2.5992618238542513 120 236 77
14.358981969363382 -0.7555238916528537 2.5992618238542513 120 236 77
14.013958003306897 -0.8577615989868969 2.641619088964982 120 236 77
13.563077412866125 -0.9450519971522086 2.555376231019888 120 236 77
13.228548074023644 2.6699993082758846 1.7454420527785979 120 236 77
12.58495109127481 2.6325836352009544 1.8359994869511935 120 236 77
12.969250317726683 2.517394359067875 1.991660817265096 120 236 77
12.969250317726683 2.517394359067875 1.991660817265096 120 236 77
11.217193507786412 2.336030383954744 1.7771742437861964 120 236 77
23.70560874009392 1.810665182150058 1.6679125824352121 120 236 77
12.711725438620757 2.4644380071614127 2.0891997074899513 120 236 77
13.212556111323565 2.4034567668486035 2.2498836215844182 120 236 77
12.711725438620757 2.4644380071614127 2.0891997074899513 120 236 77
13.235751930730995 2.4644380071614127 2.1548730523545148 120 236 77
13.212556111323565 2.4034567668486035 2.2498836215844182 120 236 77
13.28249781076425 2.397743263274028 2.064853383598548 120 236 77
13.183749766890356 2.336030383954744 2.157482605783699 120 236 77
13.236229362586837 2.2660313436322608 2.248440852584891 120 236 77
14.050660554867497 2.131918049941751 2.2939998668953305 120 236 77
22.50657558976513 1.2741219265312669 1.8084508926334026 120 236 77
17.271723420160786 1.0582502246310805 1.7042759163033445 120 236 77
18.327332551646382 0.9622421614954497 1.696545769362294 120 236 77
11.906512716820792 0.5621676012051743 1.9401661800512817 120 236 77
20.30733731971589 1.5008911064180868 1.3875017509854115 120 236 77
19.06713059860784 1.6027822061006447 1.691642353766583 120 236 77
11.3499667015493 2.047466193409393 2.0565068865990863 120 236 77
11.808804887473167 1.9194462000180676 2.036103826979621 120 236 77
11.660423672044871 0.08042454237290567 1.7692227401768401 120 236 77
11.660423672044871 0.08042454237290567 1.7692227401768401 120 236 77
11.505142965935418 0.08042454237290567 1.6839071275848303 120 236 77
11.344006758274086 0.3604893184375322 1.7748344195205696 120 236 77
13.648199765529984 -0.5980465177371678 1.969501892397231 120 236 77
12.048652700103208 0.6140855991122801 2.12088452042148 120 236 77
19.357285773660113 1.6045659715570322 1.9574009044878171 120 236 77
22.465725388619543 1.7151841412850564 2.2042722687533454 120 236 77
21.436445807120688 1.5424477645576868 2.4346036945482807 120 236 77
21.441358738745286 1.6142601570247666 2.4343355268255316 120 236 77
14.838938023799352 1.9549676536754632 2.436288651982566 120 236 77
13.870337429465813 1.8550171777681348 2.4075758399464653 120 236 77
13.870337429465813 1.8550171777681348 2.4075758399464653 120 236 77
13.842899960931167 1.8276697064443619 2.307327402102685 120 236 77
13.717711350123006 1.7488911395094064 2.4199942405993307 120 236 77
21.598431555149116 1.6176199099555588 2.4996238954350796 120 236 77
12.437475388739015 0.43671309801450364 2.3012720493164767 120 236 77
12.154761792545111 0.5869355607183792 2.322307033420769 120 236 77
12.050286463251103 0.20143075890792136 2.2214128787453964 120 236 77
13.899311112670263 -0.4525581715525961 2.4052682227024853 120 236 77
13.639194766293137 -0.35181870132696036 2.4265612285078713 120 236 77
13.340841102718827 -0.37416580441451147 2.1496750107477256 120 236 77
14.06664574035985 -0.5980465177371678 2.0350629958644246 120 236 77
13.925520275008397 -0.6269544285272532 2.301960682153726 120 236 77
13.941755338894195 -0.6714780398306004 2.5156534140659996 120 236 77
14.225120911286487 -0.5443347114395766 2.3803386710325083 120 236 77
14.390390212346256 -0.7007572003791216 2.273346579920732 120 236 77
15.05591232734045 -0.7007572003791216 2.3240591499985808 120 236 77
13.932418801584742 -0.5745075533286287 2.208847496777422 120 236 77
7.9161554375325 0.4115933127522559 2.490895729682571 120 236 77
8.732850763418927 0.4115933127522559 2.560314968918931 120 236 77
14.013958003306897 -0.8577615989868969 2.641619088964982 120 236 77
11.171799566726984 2.2660313436322608 1.9657558690848185 120 236 77
12.360575570126493 2.6325836352009544 1.7578459760711596 120 236 77
12.969250317726683 2.517394359067875 1.991660817265096 120 236 77
11.038028300302654 2.131918049941751 1.8742711514945256 120 236 77
12.838519484270213 2.397743263274028 1.9962233701621763 120 236 77
13.212556111323565 2.4034567668486035 2.2498836215844182 120 236 77
13.183749766890356 2.336030383954744 2.157482605783699 120 236 77
13.236229362586837 2.2660313436322608 2.248440852584891 120 236 77
14.050660554867497 2.131918049941751 2.2939998668953305 120 236 77
12.633313191480482 2.2660313436322608 2.1867352447377058 120 236 77
19.061605744071525 1.549937530059751 1.6916775516067708 120 236 77
18.689556594827366 1.5487737966718407 1.8582434335251372 120 236 77
10.944098934060415 0.08812338284527657 1.8769599235661163 120 236 77
12.60028560917075 0.6140855991122801 2.188591723834568 120 236 77
21.57918851692155 1.6653996357507932 2.234792507992161 120 236 77
17.674811920502748 1.421481666291292 1.9964727567977167 120 236 77
13.717711350123006 1.7488911395094064 2.4199942405993307 120 236 77
14.09244180861454 1.9549676536754632 2.390271489856656 120 236 77
21.59355436051495 1.5402546457322888 2.499926071134807 120 236 77
12.159523410866468 0.33457809495350493 2.3219411801195697 120 236 77
13.639194766293137 -0.35181870132696036 2.4265612285078713 120 236 77
13.913130735853928 -0.37416580441451147 2.209875872513885 120 236 77
13.653277677504484 -0.2882062208367923 2.2240946277088804 120 236 77
14.225120911286487 -0.5443347114395766 2.3803386710325083 120 236 77
14.061576590005398 -0.6882695311074772 2.392624397742415 120 236 77
14.161435085251853 -0.495832249546975 2.2871156104475876 120 236 77
13.976173853919933 -0.4194920964223291 2.0383072948915455 120 236 77
14.013958003306897 -0.8577615989868969 2.641619088964982 120 236 77
14.406742673219732 -0.9450519971522086 2.593785271660498 120 236 77
12.969250317726683 2.517394359067875 1.991660817265096 120 236 77
12.608507978738107 2.4034567668486035 2.1881284065704234 120 236 77
13.330609682006394 -0.49026127713609235 1.8208379149563545 120 236 77
18.99728115431854 1.5487737966718407 1.9087442650463147 120 236 77
17.405421620348395 1.347056597952121 2.0677859150212345 120 236 77
14.106688862866333 -0.5043513798573807 2.499656465109541 120 236 77
13.144404755812017 -0.6714780398306004 2.4710676863154446 120 236 77
13.525867001003336 -0.495832249546975 2.2313248022851737 120 236 77
13.562396245447728 -0.7603106619494407 2.4331073219304113 120 236 77
13.644420840075043 -0.3439639990570143 2.050620616742615 120 236 77
11.931999806416936 0.09744708279211732 2.2289806046674006 120 236 77
13.235751930730995 2.4644380071614127 2.1548730523545148 120 236 77
11.038555379472857 0.2737118923486946 1.780563527354174 120 236 77
14.914379797048015 -0.7104049779262408 2.1608611369452966 120 236 77
13.919282064296725 -0.8451838251843393 2.517890259280265 120 236 77
14.38198731697476 -0.7104049779262408 2.103054970550489 120 236 77
12.437475388739015 0.43671309801450364 2.3012720493164767 120 236 77
12.333798753817844 0.4822938887599084 2.106767919259461 120 236 77
13.43816496259926 2.186796068995164 2.3349875203987853 120 236 77
14.336518317342804 -0.7603106619494407 2.478509416388026 120 236 77
14.33399397293143 -0.5190815192062926 1.6615153333738912 120 236 77
13.689967991430855 1.7312584333608225 2.3175039055325812 120 236 77
11.310997717676528 -0.008686382368548927 2.1613906199686213 120 236 77
