13.133846058973885 0.7736647798811318 2.228589265049152 84 154 136
9.108438023968866 1.7025897783402661 2.6499595991907263 84 154 136
9.617101266749145 1.6777584739731641 2.55881262688081 84 154 136
9.146437504557873 -1.0503334861055746 1.7945666382360603 84 154 136
9.511461712536134 -0.9584499070812376 1.6792638710402839 84 154 136
10.298394289956407 -1.424485556649289 1.8694020426894256 84 154 136
10.84447465836247 -0.6739842535172028 1.6658877465429527 84 154 136
8.432491448454543 -1.387425044962349 1.9382973640771184 84 154 136
9.516605516551111 -0.7281631738968336 2.008029910877464 84 154 136
7.628286062398406 -0.11411102305359495 2.1273377729592013 84 154 136
11.021461120972372 -1.437943899495002 1.7560089623032429 84 154 136
7.896639220682891 -2.882864844908287 2.1063311111347955 84 154 136
10.331668785322806 -2.4139897615591948 1.7685330415508 84 154 136
7.2679143052307955 -3.029723779930597 2.0007784374693727 84 154 136
10.35473243769639 -2.551372662276582 1.476949119644591 84 154 136
9.787992826242926 -2.6363566840158343 1.5738268900441734 84 154 136
8.657641988274857 2.9952454051173527 1.57422256502629 84 154 136
8.175079048131654 -2.746533155685573 2.086239374452196 84 154 136
8.59678880281978 -3.0556983403444566 1.5742468180747056 84 154 136
8.581299691995628 -2.00255282621025 1.6910753072204348 84 154 136
9.486572538154553 -1.958194220206282 1.4683318259573115 84 154 136
8.455600443484789 -1.7703711017967576 1.9372454037246978 84 154 136
8.67087152377023 -0.8275550390478105 2.516180035782318 84 154 136
8.613947256908675 -0.40221902778396457 2.194317789839862 84 154 136
8.78512787671993 1.156428914847386 2.7238483440317616 84 154 136
10.010465845295473 -0.6346194161820918 2.217220535372599 84 154 136
9.146530459321903 -0.943451375885061 2.4473846068269673 84 154 136
8.824302059978184 0.35221779931356345 2.7139569195785342 84 154 136
9.229724313615456 0.7215511193673 2.933004468250048 84 154 136
9.152504176018203 -0.6728811631113035 2.641042564230006 84 154 136
8.350154542475883 -0.26372128368587666 2.217230305894997 84 154 136
9.432842811311575 -1.276687722425706 2.589150117010334 84 154 136
9.186631798031927 -1.325722568959314 2.4421571246411395 84 154 136
9.004149028809008 -1.0313445037371771 2.304538933201013 84 154 136
10.01150349023397 -0.8920002830237133 2.097155176323017 84 154 136
8.737466069021904 0.0762710215062377 2.736313046825626 84 154 136
9.355892711176798 0.10738878849299556 2.876740094909917 84 154 136
9.51224165726454 -0.6197732335991419 2.821695067687111 84 154 136
10.107165853987802 -1.2659127654664386 2.2100206344399327 84 154 136
9.91387363969725 -1.387425044962349 2.2245930583696527 84 154 136
8.523428917339402 2.684210179118015 2.7995442689075665 84 154 136
9.439442318027671 2.1759526313492543 2.8458591233264894 84 154 136
8.727762258870465 2.41878381160598 2.7389124238688387 84 154 136
8.461610569630656 -2.8616237660157027 2.8206931997358744 84 154 136
8.433495536876235 3.0396115228564606 2.8308790946116598 84 154 136
9.168046912975486 2.9754146191696034 2.9676255847340975 84 154 136
10.194720905923564 -1.885213491620627 2.9614016594778425 84 154 136
9.897126352877118 -1.967353311733651 2.7197890232981505 84 154 136
9.78227643021197 -1.4549415120463671 2.7467668390065456 84 154 136
10.513678221969506 -2.0901508524298786 2.836980311227068 84 154 136
10.405635582095973 -1.4132258111009792 2.8719583609101345 84 154 136
9.340166025860919 -1.6895060658730865 2.6054621192145793 84 154 136
9.091445522046833 -1.6689624192141144 2.454695401590154 84 154 136
8.209473884382758 3.0944587351487645 2.395690823592027 84 154 136
8.238353471412621 -3.0098361764117794 2.391904615324446 84 154 136
8.387220897383724 -2.838965343006581 2.3730303070006578 84 154 136
9.62806995166943 -2.337657739723994 2.389296405603278 84 154 136
10.75405709104185 -2.1663007480089553 2.2832273625824464 84 154 136
9.177402929623712 -2.4555395372740936 2.4433532435592484 84 154 136
10.437209170234123 -2.00255282621025 2.18671468433041 84 154 136
9.933537002270901 -1.7703711017967576 2.2230772257864384 84 154 136
9.203448557402153 1.2460667004345765 2.6310151320809263 84 154 136
9.388490937657329 -1.1962282520995535 1.5739558479029057 84 154 136
10.1945509927376 -0.37716886667267335 1.4754701016446128 84 154 136
10.06372141870485 -0.8770476582446284 1.5737438575993812 84 154 136
8.847989855321464 -0.20314697690340655 1.8022498868399552 84 154 136
8.501622514840848 0.03111007262735374 1.6922081068539911 84 154 136
10.15090079841316 -0.8083623284978552 1.9790159869771615 84 154 136
8.400472702881203 -1.890903211797609 1.8148240427901352 84 154 136
10.193641100789032 -2.27440185996669 1.4754615668840183 84 154 136
7.639306806688787 3.1069079272946674 1.7059926895676514 84 154 136
8.62383007061472 3.1109547939056332 1.4580394516821296 84 154 136
9.164257848923233 -1.8563410833556713 1.6833904841998513 84 154 136
8.33232703112518 -2.915832752653567 1.9429295582831612 84 154 136
8.011096978582339 -1.514641488772265 1.8269446676349086 84 154 136
9.437039894028066 0.4783288800298003 2.8466958513926746 84 154 136
8.889533691240501 0.048260366750869366 2.4828781430333797 84 154 136
9.635789254598992 -1.0960317746155177 2.5558768289425773 84 154 136
8.936694518787156 -0.6024086911997837 2.3113659150933294 84 154 136
9.146738072499845 0.18092976784204823 2.9814237287954906 84 154 136
7.858689050790082 -0.21149448409211555 2.678126585873587 84 154 136
9.744626612024327 -0.8438236407015764 2.7561443422723393 84 154 136
10.41188459459904 -1.7743464313351318 2.8697951254117333 84 154 136
9.266014856442835 -2.9814221145133772 2.619086822975993 84 154 136
9.32754507475933 -2.3040219646255156 2.8881871388732256 84 154 136
10.598056579281945 -1.7990371394423217 2.4305078143064636 84 154 136
10.79114878970392 -1.9345648495527465 2.4099787251438163 84 154 136
9.777944187154473 -2.323682196397813 2.7478314458870092 84 154 136
9.633745078782553 -2.601418572723573 2.5561967721978522 84 154 136
9.45350677444691 -1.8898614387779873 2.5856144988214487 84 154 136
10.08271692142076 -2.261179344529533 2.093056232902554 84 154 136
9.134987071314246 1.9916202308966775 2.9895929184254273 84 154 136
9.325930641576988 1.8155338173970275 2.888856461675675 84 154 136
8.246372194419664 2.976230995369148 1.9470012407970811 84 154 136
10.069154165625477 -1.7301568369856917 1.7737592860509996 84 154 136
9.788923388245905 -1.7208423928946206 2.7451405027696434 84 154 136
9.669481851597874 -2.0670390362983246 2.55064481257849 84 154 136
9.394898341586472 -1.1694400266506995 2.4162054416821803 84 154 136
9.398910329591098 -0.7169424919435637 2.267284708958472 84 154 136
9.367774318022029 -0.8124713249617721 2.137567886839866 84 154 136
8.426786801513924 -1.654466090089257 2.210385745905512 84 154 136
11.325470229661347 -2.27440185996669 2.0309679915581103 84 154 136
9.220839051670232 -2.172267635545376 2.627658035257906 84 154 136
8.151042236266404 -0.1348724792006432 2.403482235783696 84 154 136
9.922329693979956 0.5824449044724637 2.7141637882189493 84 154 136
9.051132263681284 2.706697239855086 3.072702503579828 84 154 136
9.097358459544473 -0.3138182301461615 1.795794582896929 84 154 136
9.250842001512375 2.4627892010951262 2.9224810668010606 84 154 136
10.511903548087645 -1.2316690406012127 1.3822424072492128 84 154 136
9.20559173730472 -1.32550366349077 2.9457751461695616 84 154 136
8.361668309166356 -1.2659127654664386 1.8159797084534914 84 154 136
9.867946363955825 -0.6572406978089571 1.88285720173043 84 154 136
10.139292200116941 -1.890903211797609 2.2076674214525616 84 154 136
9.693331994325282 -0.5673194618498776 1.9995250911614773 84 154 136
8.30147553143251 -0.309422098214709 2.3837729034661987 84 154 136
10.071382937280587 -0.99337257409851 2.682751480115565 84 154 136
7.886355922890079 3.0680945711470193 2.671155571344032 84 154 136
9.036046757513006 -2.1038225340691845 1.4632037477194735 84 154 136
9.082421484532693 -1.0993187108735987 2.1576933617699114 84 154 136
