9.81046986712945 2.08552595467211 2.551189845154279 42 60 204
8.474562613411909 -1.0340783178588753 1.4702939293452457 42 60 204
8.68594206915717 -0.2639536144231351 1.7035514475942906 42 60 204
8.963210616968722 -0.3723568631859751 1.4757900528933312 42 60 204
9.809829102033317 -0.998584645265144 1.586059085174895 42 60 204
9.520275275271112 -1.4299121900123413 1.3751999208774885 42 60 204
9.437535924241034 -1.7514387990221243 1.480578359887032 42 60 204
8.48252071852718 -0.14883300156822288 1.7067546058233092 42 60 204
8.844215964756767 0.11887035487031802 2.3396863936416104 42 60 204
8.920043212694932 0.09044608487681113 1.9316850286659586 42 60 204
9.217709787967923 0.6937287143297263 2.65544025532781 42 60 204
8.8289884761632 0.22382359857723336 2.746767293179479 42 60 204
9.696760418784693 0.27104041769908166 2.3999067262962988 42 60 204
8.240484289877564 -0.19494904600285573 2.245837163857166 42 60 204
8.44973450590197 -0.34192302747333725 2.226167271136285 42 60 204
8.221374984282093 -0.47505934289744356 2.0998858818583104 42 60 204
8.529959662264904 -0.6744136548251514 2.218957352684288 42 60 204
8.884587851400061 -0.3599526292085842 2.73201039668131 42 60 204
9.767967903037968 -0.9084748582686281 2.5577145705261994 42 60 204
8.213426622468527 2.311082085446979 3.0169608698787895 42 60 204
9.067988284725242 1.2347130070830437 2.6876725698765416 42 60 204
8.62991964653506 1.8158506601488973 2.80642850268482 42 60 204
7.35055815140842 -2.9968080200218994 2.907292479310982 42 60 204
8.258216459136934 -0.1855992105694754 2.9793153411078603 42 60 204
9.440351832421799 -0.10612531887941545 2.8928137214828173 42 60 204
9.732910300279313 -1.779841720585182 2.793662675839508 42 60 204
9.259842284632077 -2.075638726382523 2.987215276368551 42 60 204
9.716736500170395 -1.701319394225919 2.565743289040361 42 60 204
10.551638348981312 -1.5115216276086572 2.6202219810317193 42 60 204
10.091810539203637 -1.497607283722203 2.7060659074634725 42 60 204
10.903989034385836 -0.9520565073134454 2.767463541744217 42 60 204
8.62212058223944 -1.4130944636324583 1.8227805883632948 42 60 204
9.682204068128772 -0.8661118476401918 2.131609142861133 42 60 204
10.054781064510577 -1.0833329972636758 2.361824498529888 42 60 204
10.272782741771678 -1.5209941515261418 2.4870578440761646 42 60 204
10.405995144380384 -1.8348347899168473 2.4705526002876415 42 60 204
9.896366455868453 -0.9382771901452135 2.0034896866164695 42 60 204
10.064373585434387 -1.1421579438695593 2.228168090148245 42 60 204
9.528953512198575 -1.6655499448102686 2.272306429497619 42 60 204
9.048693353390428 -1.7997512662307567 2.1762217289427483 42 60 204
8.852561779771126 -2.9991342016608122 1.7010384148339273 42 60 204
9.396388744523438 -2.2363568913393608 1.372587005796071 42 60 204
9.106492138643707 -1.9914163081444787 1.6973868636785443 42 60 204
8.767862805504716 -3.1132626394842324 1.7023038423601535 42 60 204
9.907231509763278 -2.4593408396911998 1.5859090187143934 42 60 204
11.172134846645736 -2.6453145282048154 1.4044140420739262 42 60 204
8.475026283656321 3.0293704414420484 2.2238752368962236 42 60 204
8.048936254093633 -3.07494222905709 2.6643857611851414 42 60 204
9.012778860644362 2.3442304831991665 2.7003939843688647 42 60 204
8.503415734687351 2.5003015686857437 2.5695659287364316 42 60 204
9.366843166316302 2.192348729910225 2.6261211469773738 42 60 204
8.614815527212457 2.8682538581330443 2.811499159089482 42 60 204
8.234106572387795 2.6977756449728343 2.6225720470173575 42 60 204
9.39203564650243 -2.500377562312779 2.2846881369158947 42 60 204
10.491906419535814 -2.476471243247641 2.197081913792326 42 60 204
8.88527409754239 -2.183606558757282 2.335225188572041 42 60 204
8.673261774450795 -2.7655268638530908 2.358937083102715 42 60 204
10.029340378498745 -2.575950539306726 2.230867214885007 42 60 204
9.171170741091398 -2.9573872654875246 2.30574487431391 42 60 204
9.484438835806252 -2.8818059109116207 2.604642423286913 42 60 204
8.671788186119619 -2.707563319396736 2.792831682486437 42 60 204
9.175226107401754 -2.2625250953975975 2.6642761025840036 42 60 204
9.57482146102256 -2.135264413889603 2.5889904211001973 42 60 204
8.49188415545349 2.9173296742861505 1.950784354021947 42 60 204
9.521142385147382 -2.7840368364140238 1.798543813630301 42 60 204
10.191101913227287 -2.5428237840067958 1.9901721411764965 42 60 204
9.021156385976825 -2.857356546723063 2.048789939898736 42 60 204
8.935899658407603 -1.8859763843966948 1.813750518018507 42 60 204
8.719784638154383 -2.0416556353200948 1.9403671396540478 42 60 204
10.501099643763306 -2.3903872247855404 2.083342812252395 42 60 204
9.510022485618485 -2.1042341178287134 2.2739894646989445 42 60 204
9.584778775289594 1.912119166844659 2.587308132464809 42 60 204
8.331798107295178 -1.5330596507629457 1.7092297861125263 42 60 204
8.394088744570873 -0.029615462307984307 1.708195964015742 42 60 204
9.13019255326816 1.993531635025256 2.673902437493884 42 60 204
9.46719656663989 0.31524936736191767 2.8818867375092845 42 60 204
9.385162267169283 0.38634152367472846 2.622686361900083 42 60 204
10.291132109843653 -1.6806063557960633 2.4847378375871627 42 60 204
9.453791699862862 0.20796046294485968 2.025223402812463 42 60 204
10.52498910091673 -1.2163836424386962 2.456437568286544 42 60 204
9.22313040990536 -0.05704704741891108 2.654329276549722 42 60 204
9.713506476585586 -1.4751824582412998 2.7992130278116156 42 60 204
10.797333104172854 -1.1558108531071898 2.581875798408383 42 60 204
8.182469600993715 -2.7982296799382773 3.052092080435485 42 60 204
8.993430553879703 -0.2304645042130358 2.4897932653562096 42 60 204
9.519068999036675 -0.4944953735521659 2.862112466532325 42 60 204
8.933500953116516 -2.0504696150404538 2.7195762795757203 42 60 204
8.549598412785425 -1.654116126821877 1.824965086309171 42 60 204
10.11048835624643 -1.731580147058313 2.7021126446911032 42 60 204
8.766575611278604 2.12087762822572 2.764218530633573 42 60 204
10.348428396329345 -1.0723185460221147 2.6555001800943026 42 60 204
9.594075534016577 -1.3917660099371505 2.2665854514198633 42 60 204
9.830714473240242 0.8725296668746667 2.7671942408024113 42 60 204
10.308002753121423 -2.4593408396911998 1.2906342107244297 42 60 204
9.129792457789861 -1.8859763843966948 1.2532930861965048 42 60 204
9.981920648986549 -2.913777876531292 1.4855108957922503 42 60 204
9.942176294835555 -3.013668908388896 1.3836007508610284 42 60 204
8.722588366481538 3.0550544747185704 1.5879617121962073 42 60 204
9.906794850341933 -2.687019879146119 1.789530799298429 42 60 204
9.88447092532948 -2.396634816619931 2.2422946107436728 42 60 204
8.558956843804241 2.8425438363950355 2.3724578657829705 42 60 204
9.266617474699556 -2.0443911011025704 2.4520806194579037 42 60 204
9.867250443305808 -1.977271909521766 2.38123683679544 42 60 204
8.585305961723922 -3.05027190343494 2.8216825494492412 42 60 204
8.38096689118424 -3.098337818708623 2.3946538210868935 42 60 204
9.359636993535721 -2.817602056208754 2.287690833132101 42 60 204
8.894523062078354 -2.145095267643447 1.8149036614506113 42 60 204
8.825464897201675 -2.980905316244807 2.06031186148896 42 60 204
10.092928721985 -2.3162048274802554 1.7854331619076775 42 60 204
10.560161066627382 -0.6444796030625037 1.3946739023985788 42 60 204
9.617339213568936 -0.7069965717352866 1.5863645918896294 42 60 204
9.781050583132798 -1.2620270998186618 2.250725703933224 42 60 204
9.838307936650319 -1.882206375239627 2.546980706782825 42 60 204
10.257689971081744 -0.7754684626789968 2.6725165566768294 42 60 204
9.185544350552581 -0.4000991128876748 2.462855896325158 42 60 204
8.701772429822888 1.126375092796373 2.7834757633572416 42 60 204
8.750269620298418 -0.5486044515781838 2.350126960041779 42 60 204
9.894228564452753 -2.30951255429048 2.118205910927015 42 60 204
9.22130556896367 -2.9259296592815516 2.4580620011990364 42 60 204
9.287420860836724 -1.9260945202522042 2.1585382077057655 42 60 204
9.806790142820658 -2.7420893349675604 2.123649755516187 42 60 204
10.394784827870842 -2.4593408396911998 1.8786454349860535 42 60 204
9.546331086816641 -2.405673630800725 2.41727152218444 42 60 204
8.621695808839117 2.8851628421582363 2.210923845524912 42 60 204
8.34293284152243 3.0438666309786737 1.9579253016348812 42 60 204
8.800197122833902 -0.07421896848693978 2.7546940223268463 42 60 204
8.233103913113714 -0.5922314435967767 1.9633700927137763 42 60 204
8.415614980636338 -2.5058237867425697 2.8895477487953887 42 60 204
9.310733025853928 -1.645140058862985 1.479346267765052 42 60 204
8.840111619323528 -2.694826021477792 2.5128736829869895 42 60 204
10.214576722444765 -2.5983838411761147 1.6835920744778539 42 60 204
9.265585609625612 1.0188879468245922 2.6457512731478454 42 60 204
9.25200835567415 -0.6224048609866675 1.8052911166804895 42 60 204
8.999060018531953 1.7522381818403014 2.7036332390572344 42 60 204
9.343440007183926 -1.9493076661239004 2.6305595257116225 42 60 204
10.579368700269855 -2.728539244934626 1.5849488004046446 42 60 204
8.288890589062488 0.521701208667317 2.958086239433478 42 60 204
9.142554000357388 -1.1889477147843845 1.8081520766427124 42 60 204
9.48715423281556 -2.0877955336119802 1.5865782409340676 42 60 204
8.35689605806413 2.7217548303402515 2.918459344929344 42 60 204
9.46605463573547 -1.007761760888787 2.426909393123186 42 60 204
