16.647497681634068 0.7936589105257018 0.9767886516896678 141 229 70
17.25717135832836 0.8419535555812836 1.0004617782809075 141 229 70
16.647497681634068 0.7936589105257018 0.9767886516896678 141 229 70
17.22712816127551 0.7936589105257018 0.9286654686298 141 229 70
15.681952826870939 0.9710075161384779 0.5562954098773811 141 229 70
15.953465562283837 1.330590695465279 0.456849829382982 141 229 70
15.06247980320559 1.330590695465279 0.48614024358026964 141 229 70
13.042056607927657 0.3159273575780866 0.7750149855853286 141 229 70
14.32032034036891 0.5085402058174029 0.7663143342396684 141 229 70
13.968338257496113 0.3774463854084757 0.8405732080625921 141 229 70
13.968338257496113 0.3774463854084757 0.8405732080625921 141 229 70
13.727479355115873 0.2851028448122126 0.8247514388844015 141 229 70
13.322151029425749 0.3774463854084757 0.8965262204504209 141 229 70
13.61751846063678 0.5085402058174029 0.8172622835858588 141 229 70
13.774251565489484 0.3159273575780866 0.7241934886303482 141 229 70
13.774251565489484 0.3159273575780866 0.7241934886303482 141 229 70
12.427218898659802 -0.3498238745764402 0.8375468407655253 141 229 70
13.394019223127549 -0.44761180796680156 0.8014893299772246 141 229 70
15.3466590457443 1.0656127661201298 0.36832546415473244 141 229 70
15.891481270723801 1.008863883902832 0.44884928500957116 141 229 70
15.541752069735072 0.6871409640735902 0.39958983691443206 141 229 70
15.552118593525075 0.9210141816193028 0.4011652819820331 141 229 70
15.818243948928446 0.8023444036541956 0.4391383294003568 141 229 70
15.552118593525075 0.9210141816193028 0.4011652819820331 141 229 70
15.551279021877246 1.2913927982477211 0.4010379846039752 141 229 70
12.45763674546682 1.7464632168874887 0.1501975995341252 141 229 70
12.471614256492549 1.218752605189566 0.15743043867259301 141 229 70
12.471614256492549 1.218752605189566 0.15743043867259301 141 229 70
13.863943224706535 -0.30694925382753024 0.2817266269504599 141 229 70
13.17548440188543 -0.03520153769721978 0.3628998598509581 141 229 70
12.854763332849938 -0.044770778532019904 0.2901673762893399 141 229 70
12.854763332849938 -0.044770778532019904 0.2901673762893399 141 229 70
13.754624263368525 -0.68046689948395 0.2528183139980019 141 229 70
12.431735300516062 -0.09800390926303441 0.13573923426872983 141 229 70
13.508989261412568 -1.2688441911781494 0.16862551661703226 141 229 70
13.10972561342567 -1.1885562380450556 0.34945139284003074 141 229 70
13.595633113088303 -0.9124529083064848 0.20266399082853973 141 229 70
12.721587641820499 -1.6733783995369909 0.25275616407456425 141 229 70
12.827146599692625 -1.0841825097598068 0.28286768068255896 141 229 70
13.10972561342567 -1.1885562380450556 0.34945139284003074 141 229 70
13.737866163229764 -0.5370281248162135 0.8254500017900043 141 229 70
12.914668065347877 -0.6178586147693657 0.9684290031525814 141 229 70
13.606509475940525 -0.5673384066295929 1.0029881577758315 141 229 70
12.914668065347877 -0.6178586147693657 0.9684290031525814 141 229 70
13.080298203550763 -0.5370281248162135 0.8816597423180872 141 229 70
14.087807348489767 -0.6374497220040666 1.0246330724650652 141 229 70
20.237423415358343 -1.0430126832785367 0.8525606330345763 141 229 70
13.400950314600868 -1.0333090528478517 0.5651264052158458 141 229 70
13.621401187445992 -1.0930117858810287 0.4411366305011394 141 229 70
15.125819674673235 -1.6162351457636583 0.4940061069153442 141 229 70
15.710395741722136 -1.3685413319396065 0.5592002557902662 141 229 70
15.710395741722136 -1.3685413319396065 0.5592002557902662 141 229 70
15.635475224014714 -1.4884043594448801 0.5514962824151948 141 229 70
14.781233743332622 -1.6106761154752334 0.5857237246579962 141 229 70
16.699217532229852 -1.4340248157657915 0.8261397181362302 141 229 70
16.828913068569697 -1.3544020089608186 0.8332196819684852 141 229 70
15.985451211005271 -1.421947265037963 0.7841622103238717 141 229 70
15.076656478718775 -1.5196261071898896 1.0640383855730131 141 229 70
14.751648058199796 -1.5154278904181058 0.971783605359284 141 229 70
15.297139220742514 -1.3703858481024664 1.0720217647479227 141 229 70
15.154339954548858 -1.4442992165534219 1.0668817244902187 141 229 70
15.661698026811647 -1.4442992165534219 1.0109391307541942 141 229 70
15.337727538914944 -1.5154278904181058 0.9179104154687693 141 229 70
15.738389958413213 -1.3841964729978304 1.1577519252254114 141 229 70
13.073990919881545 -1.0319946021455364 1.469861396713321 141 229 70
13.448151120491811 -0.9241063063202859 1.2439698274517679 141 229 70
12.527810026792475 -1.1005838688435976 1.5454593547045103 141 229 70
12.807877544402198 -1.1005838688435976 1.7818093543208429 141 229 70
13.437228470327462 -1.3703858481024664 1.5471744667278942 141 229 70
15.52817713044799 -1.2520548885452152 1.2890480754920453 141 229 70
14.902313187969806 -1.4531444675394454 1.2768701371722346 141 229 70
14.184196380887984 -1.5232329954874375 1.548418654186171 141 229 70
14.791640260906897 -1.3841964729978304 1.3445981596532992 141 229 70
13.68660471783608 -1.5196261071898896 1.843220768544044 141 229 70
12.652086712511734 -1.2528644790802632 1.9499197862136797 141 229 70
12.725705341953308 -1.277467045726452 1.6244628974879383 141 229 70
13.05528753248721 -1.2528644790802632 2.0211380708197506 141 229 70
12.638972853615515 -1.421947265037963 2.0371257597320067 141 229 70
13.895669687279913 -1.5154278904181058 2.0724928042837516 141 229 70
13.432603794157213 -1.6711654861475533 1.397409623134441 141 229 70
12.97594544422501 -1.6793541590431234 1.231607736100797 141 229 70
12.679667406324889 -1.837672263070988 1.4667112218386429 141 229 70
14.23005724549658 -1.6641221915330255 1.5484907853031467 141 229 70
13.567844184322862 -1.7456607508369433 1.3991551560511737 141 229 70
13.020031481500906 -1.912454265042311 1.7003917392743046 141 229 70
17.312941000284 0.7401104196972986 0.8583394664702705 141 229 70
17.22712816127551 0.7936589105257018 0.9286654686298 141 229 70
15.413474481227858 1.0775778354085432 0.5276173311330368 141 229 70
15.882253612575246 1.1323149215776247 0.576258678240741 141 229 70
15.882253612575246 1.1323149215776247 0.576258678240741 141 229 70
14.32032034036891 0.5085402058174029 0.7663143342396684 141 229 70
13.968338257496113 0.3774463854084757 0.8405732080625921 141 229 70
13.295338461095547 0.4163147985603946 0.7942769759852443 141 229 70
14.01430663358293 0.4163147985603946 0.7433529076164203 141 229 70
13.529481485504217 -0.13346263923430438 0.7034961519521296 141 229 70
12.912835452018443 -0.24455022428470566 0.7647437619279082 141 229 70
13.394019223127549 -0.44761180796680156 0.8014893299772246 141 229 70
15.891481270723801 1.008863883902832 0.44884928500957116 141 229 70
15.272617988855362 0.8954380594228145 0.5115684903657813 141 229 70
15.818243948928446 0.8023444036541956 0.4391383294003568 141 229 70
15.552118593525075 0.9210141816193028 0.4011652819820331 141 229 70
15.2708090328041 0.806856374507273 0.35523309585562873 141 229 70
12.471614256492549 1.218752605189566 0.15743043867259301 141 229 70
12.431735300516062 -0.09800390926303441 0.13573923426872983 141 229 70
12.485081431508572 -0.607773825411544 0.1640859403343347 141 229 70
13.10972561342567 -1.1885562380450556 0.34945139284003074 141 229 70
12.854763332849938 -0.044770778532019904 0.2901673762893399 141 229 70
12.485081431508572 -0.607773825411544 0.1640859403343347 141 229 70
13.508989261412568 -1.2688441911781494 0.16862551661703226 141 229 70
12.735275458711644 -1.3608833257008235 0.2568845417080114 141 229 70
12.827146599692625 -1.0841825097598068 0.28286768068255896 141 229 70
12.524297395062131 -1.2688441911781494 0.18202607215677918 141 229 70
12.617704788142062 -0.9124529083064848 0.2186168168069482 141 229 70
13.420799790154804 -0.6903741075057073 0.9941364100241188 141 229 70
13.737866163229764 -0.5370281248162135 0.8254500017900043 141 229 70
13.606509475940525 -0.5673384066295929 1.0029881577758315 141 229 70
14.748755364948533 -0.9524445261976405 0.44421195855977536 141 229 70
14.793015914808514 -1.4884043594448801 0.5869232623829111 141 229 70
14.255533485611862 -1.0333090528478517 0.5275516201224613 141 229 70
16.024157866686004 -1.4769677864146071 0.4657446963500642 141 229 70
13.621401187445992 -1.0930117858810287 0.4411366305011394 141 229 70
15.710395741722136 -1.3685413319396065 0.5592002557902662 141 229 70
15.154339954548858 -1.4442992165534219 1.0668817244902187 141 229 70
15.065096139638465 -1.5955375942450347 1.06361236648608 141 229 70
15.599630431594809 -1.4531444675394454 1.1538502739094874 141 229 70
15.503255052392124 -1.2986236300433864 1.0792495527598223 141 229 70
15.569540832626533 -1.3169953093716056 1.2222576621653283 141 229 70
14.241706098519089 -1.5232329954874375 1.4781621445961237 141 229 70
13.288817853830823 -1.5196261071898896 1.6977561523635518 141 229 70
13.948018450801108 -0.9685967801963018 1.330655922876983 141 229 70
12.568228273884746 -1.3544020089608186 1.7050781463209914 141 229 70
13.073990919881545 -1.0319946021455364 1.469861396713321 141 229 70
12.05590433899158 -1.2528644790802632 1.7951895141556327 141 229 70
14.599926574578445 -1.3841964729978304 1.4113965224533027 141 229 70
14.823308991975976 -1.5232329954874375 1.2752564677817926 141 229 70
13.640733496253299 -1.6711654861475533 1.3251360762068096 141 229 70
14.362958871845338 -1.8182487959918177 1.9028871981965223 141 229 70
13.040072729284056 -1.837672263070988 1.3135700133407675 141 229 70
13.595353987826895 -1.8182487959918177 1.6210270399730602 141 229 70
14.977028178132592 -1.8882729930495796 1.9599680604992271 141 229 70
14.01430663358293 0.4163147985603946 0.7433529076164203 141 229 70
13.069388808208766 0.2851028448122126 0.8809718262910048 141 229 70
13.727479355115873 0.2851028448122126 0.8247514388844015 141 229 70
15.3466590457443 1.0656127661201298 0.36832546415473244 141 229 70
15.552118593525075 0.9210141816193028 0.4011652819820331 141 229 70
15.2708090328041 0.806856374507273 0.35523309585562873 141 229 70
12.431735300516062 -0.09800390926303441 0.13573923426872983 141 229 70
13.595633113088303 -0.9124529083064848 0.20266399082853973 141 229 70
12.364076105073567 0.8917559712128958 0.08693570583206371 141 229 70
12.887007720272896 -0.6767422493227897 0.8692385181437392 141 229 70
12.914668065347877 -0.6178586147693657 0.9684290031525814 141 229 70
15.4438008438928 -1.3901051371170143 0.6475541360290203 141 229 70
15.303771909242732 -1.407550897641019 0.7384454055952102 141 229 70
15.985451211005271 -1.421947265037963 0.7841622103238717 141 229 70
16.6141079167546 -1.2520548885452152 1.1147166582056178 141 229 70
12.219985431114843 -1.1743041603953976 1.7089290633934473 141 229 70
15.105138160064314 -0.9102757055684773 1.2110628615721806 141 229 70
14.266323478473634 -1.0689830777343734 1.336115651000593 141 229 70
13.450811995518297 -1.3703858481024664 1.62156727939502 141 229 70
14.902313187969806 -1.4531444675394454 1.2768701371722346 141 229 70
13.948018450801108 -0.9685967801963018 1.330655922876983 141 229 70
16.7384347435986 0.8419535555812836 1.0507696811591667 141 229 70
12.471614256492549 1.218752605189566 0.15743043867259301 141 229 70
12.523748017317423 2.1963582003208613 0.18178759291264762 141 229 70
14.255533485611862 -1.0333090528478517 0.5275516201224613 141 229 70
15.137333639431846 -1.4769677864146071 0.49541664639322514 141 229 70
16.12089015222711 -1.335698683269352 0.792549299001433 141 229 70
13.771154324220747 -1.6793541590431234 1.0942193718029063 141 229 70
13.840669015778127 -1.8182487959918177 1.765852203583909 141 229 70
15.222145183164521 -1.4531444675394454 1.2139522269673404 141 229 70
12.397309317414768 -1.1743041603953976 1.7889086431503374 141 229 70
13.727479355115873 0.2851028448122126 0.8247514388844015 141 229 70
12.364076105073567 0.8917559712128958 0.08693570583206371 141 229 70
14.22946744315657 -1.5937915370463676 1.4780822416713257 141 229 70
15.206141742819556 1.1978713078950434 0.5037268328094325 141 229 70
16.0383634004138 -1.4340248157657915 0.8720034077207753 141 229 70
13.508989261412568 -1.2688441911781494 0.16862551661703226 141 229 70
13.547619911760576 -1.9834661478170874 1.7701276205884138 141 229 70
14.793015914808514 -1.4884043594448801 0.5869232623829111 141 229 70
13.737866163229764 -0.5370281248162135 0.8254500017900043 141 229 70
15.690466152954869 1.1410808223051647 0.42146810488656306 141 229 70
