11.44117317992259 0.6916696146789411 2.012670518502839 96 30 192
11.262900754550586 0.558049913878703 1.9236915287119092 96 30 192
12.499621572103697 1.0580575752620385 1.8043314667680845 96 30 192
8.676606332384084 1.9508430280584246 1.9106866632700885 96 30 192
9.693340676906223 1.6781879368929262 1.6630148561815934 96 30 192
9.128982196733574 1.6905673433183366 1.8932168371648923 96 30 192
11.164211992984107 0.9641535258143523 1.926949280634759 96 30 192
11.017141072822787 0.8287110489898355 1.9319200580387452 96 30 192
11.314463835905082 0.90509447563769 2.118591004514072 96 30 192
10.820639062869812 0.9918642677817592 2.1466774875723598 96 30 192
11.729044785889005 0.8898310252117289 1.909092504018939 96 30 192
10.827364110146636 0.90509447563769 2.039664861219435 96 30 192
11.017141072822787 0.8287110489898355 1.9319200580387452 96 30 192
11.951264518669202 1.0146293509789275 1.9025582695855106 96 30 192
10.703353012831139 0.6768560242776048 2.153808981798883 96 30 192
10.875228642548471 0.8450807784102033 2.3829125212759523 96 30 192
11.252078743210308 0.8355961340040343 2.2300990355166737 96 30 192
10.47239732359875 1.281222735054635 2.424411074615947 96 30 192
11.02419294250232 1.0295409317032083 2.3687631003046454 96 30 192
10.917607431017998 1.0835408233903139 2.5227023139548463 96 30 192
11.02419294250232 1.0295409317032083 2.3687631003046454 96 30 192
11.230539354052382 0.9543554068170299 2.484590229219965 96 30 192
10.33820676945565 1.726363995266866 2.4394246616637663 96 30 192
9.59652233299679 1.726363995266866 2.3720707891475104 96 30 192
9.486059171162218 1.4589604067613693 1.993638178486304 96 30 192
9.03585306338545 1.5753469046358457 2.142980402181573 96 30 192
9.669594445389365 1.706152946035611 2.2260984207979257 96 30 192
9.669594445389365 1.706152946035611 2.2260984207979257 96 30 192
9.6624417756851 1.4443858430622671 2.2266675085729446 96 30 192
8.774943756661918 1.8324827482068842 2.030417298243439 96 30 192
10.507214927016568 1.5769730777975677 2.5798656116355754 96 30 192
10.557968713603007 1.7535912061521017 2.5722731482661705 96 30 192
9.88709071830574 1.9194822482428426 2.4952256939618516 96 30 192
9.13230230463506 -0.40379849248091804 1.8930953834368491 96 30 192
8.885752662954344 0.07475245354743411 2.0242541005839807 96 30 192
9.701962020608777 0.3151152807098352 2.099360276618092 96 30 192
8.874880631100847 -0.05060723328840591 2.0248511795028366 96 30 192
9.48340513098665 0.1978133000005174 2.112872769440927 96 30 192
10.41701758619796 0.5233824990727319 2.059721811766724 96 30 192
10.922432591298977 0.5233824990727319 2.1406380509486795 96 30 192
9.452813886123552 -0.1744029469242492 2.1148229388601933 96 30 192
10.52688329236076 0.5425477343069253 2.4184960856766966 96 30 192
9.143100943483306 0.0854354782388957 2.271152708864862 96 30 192
9.124561186546273 -0.0675289768894627 2.427051580920992 96 30 192
10.90909556388133 0.6565117245761384 2.3796432006125086 96 30 192
9.13513607002862 0.09966931259804718 2.4257181216449712 96 30 192
10.52688329236076 0.5425477343069253 2.4184960856766966 96 30 192
9.262256152452087 0.22531803548575513 2.2603580660524862 96 30 192
14.440957762788736 0.7191727049337432 2.865142188513386 96 30 192
11.304261858574433 0.9978429595744848 2.636489854250905 96 30 192
8.071882557358718 -0.45079594073112733 2.389148167716769 96 30 192
8.501720082183548 -0.23106240510083748 2.3365928908797557 96 30 192
8.33345400835492 -0.33226219852552924 2.0568157045140634 96 30 192
9.223043026903623 -0.23106240510083748 2.4148280609934196 96 30 192
9.113740580439199 -0.5637505976602681 2.0120989094019763 96 30 192
8.432542777458535 -0.5184679007370687 2.1897818869616494 96 30 192
8.307207965074943 -0.5448936733458527 2.549398434007683 96 30 192
7.879012756044038 -0.681104771541714 2.6358398229704085 96 30 192
10.215025551676746 1.9875043511076 2.6271050368803017 96 30 192
11.60173492005017 2.433824143921423 2.7901591319369756 96 30 192
12.377093249406856 2.6572681366817013 2.8608820472259477 96 30 192
12.377093249406856 2.6572681366817013 2.8608820472259477 96 30 192
8.306768083919126 -1.188838172693755 2.824498854517766 96 30 192
10.177647759035196 2.222700113095411 2.1882716033038934 96 30 192
10.482978514802355 2.195413986954072 2.4232544327370387 96 30 192
10.358602917015716 2.1197149253632963 2.298829064664758 96 30 192
9.895614782452514 2.059017677068714 2.087969500708497 96 30 192
10.899762797802627 2.8290150753319923 2.255399921321896 96 30 192
10.833331267675607 2.521287084436287 2.5337100305046296 96 30 192
11.167545106454048 2.6689716592236152 2.3556870979312654 96 30 192
10.484692908443874 2.6689716592236152 2.2881597578467856 96 30 192
10.833331267675607 2.521287084436287 2.5337100305046296 96 30 192
10.249523975306577 2.4906438284597145 2.3083560419602107 96 30 192
10.792822739728893 2.291175548191775 2.539125550482675 96 30 192
11.902495158159555 2.5697475035071724 2.7266909328650577 96 30 192
12.15987192206081 2.4135310227374793 2.6809920110497316 96 30 192
11.050573080735111 0.6916696146789411 1.9307776655330473 96 30 192
10.704770856873413 0.8287110489898355 1.8444174613567885 96 30 192
9.850380262378955 1.7797133392526658 1.661540581340305 96 30 192
9.070235835598677 1.574817561224953 1.895381386680868 96 30 192
9.295560971946701 1.80319295519024 1.8872360171534366 96 30 192
9.31081700484798 1.910139985663638 1.7754960447365802 96 30 192
10.551418278488425 1.3999727635584622 2.5732438880956963 96 30 192
11.230539354052382 0.9543554068170299 2.484590229219965 96 30 192
10.6965499985974 0.7535040616409547 2.2710081073362174 96 30 192
10.011569135630358 2.0019547433532923 2.330170128122768 96 30 192
8.774943756661918 1.8324827482068842 2.030417298243439 96 30 192
9.247073316098017 1.3176211247946767 2.1283375345191566 96 30 192
10.331517000819307 1.4254740379353876 2.4401903863231107 96 30 192
11.258546082340855 0.7582050015985975 2.121623870873652 96 30 192
9.531739300242773 1.9508430280584246 2.109821610413219 96 30 192
9.827013512415915 1.8324827482068842 2.2138435413248168 96 30 192
10.44408548193268 1.3176211247946767 2.2915568121394356 96 30 192
11.408885823724916 0.8287110489898355 2.0140097459415234 96 30 192
10.997301754708595 1.0897005505473092 2.2481810402233777 96 30 192
9.09482151655503 1.706152946035611 2.138810110552898 96 30 192
10.997301754708595 1.0897005505473092 2.2481810402233777 96 30 192
9.809560577370828 -0.5960563433460011 1.7649520807009889 96 30 192
9.356750746739035 -0.05060723328840591 2.1210451956677003 96 30 192
9.254393831518582 0.2615044887951317 2.4110259939591927 96 30 192
11.606773812404573 0.8589765668040867 2.591193862617275 96 30 192
13.582847668310368 0.3827597486143095 2.8214333258033233 96 30 192
8.722737539608296 -0.38300109546992195 2.3125057633437924 96 30 192
8.33345400835492 -0.33226219852552924 2.0568157045140634 96 30 192
8.42390609212144 -0.600880019818571 2.345513333663032 96 30 192
7.559628287475834 -0.8853236735516722 2.718368676298879 96 30 192
8.674869540140385 -0.4545026942129579 2.0361355266136014 96 30 192
10.460204819041975 2.1542978069610594 2.5870475572026654 96 30 192
10.263362082425619 2.5628150718758573 2.18235357714386 96 30 192
10.429232100485477 2.401643034478005 2.429169976106558 96 30 192
11.902495158159555 2.5697475035071724 2.7266909328650577 96 30 192
10.566216251325997 2.604126366995038 2.414288244062388 96 30 192
11.380816370685638 0.7616984173975514 1.8277836661659217 96 30 192
10.895290246802459 0.6124717593971762 2.036509359257084 96 30 192
10.820639062869812 0.9918642677817592 2.1466774875723598 96 30 192
9.08721644664592 1.4443858430622671 2.139344284483733 96 30 192
10.705230864788398 1.1483225682516343 2.3998159768672602 96 30 192
10.485592832211193 1.869968442904228 2.4229692538056566 96 30 192
9.48340513098665 0.1978133000005174 2.112872769440927 96 30 192
9.701962020608777 0.3151152807098352 2.099360276618092 96 30 192
8.521615009580145 -0.057857528689432176 2.1823553217122535 96 30 192
13.959940512851293 0.7366553868481215 2.748021418647298 96 30 192
14.269211573928967 0.9228682145050707 2.911342981067491 96 30 192
13.325272553138436 0.4938829398968495 2.8860760957324314 96 30 192
7.4982948631466915 -0.5448936733458527 2.4748881916358436 96 30 192
8.626982566378027 -0.19882621357614522 2.1738160116934604 96 30 192
8.626982566378027 -0.19882621357614522 2.1738160116934604 96 30 192
8.807233218312957 2.059017677068714 1.7873816640733131 96 30 192
10.429232100485477 2.401643034478005 2.429169976106558 96 30 192
10.14020220246656 2.0676480575467484 2.4628317549675796 96 30 192
10.484372715701989 0.6124717593971762 1.951183633920014 96 30 192
9.614152011665134 1.5753469046358457 2.2305383633540203 96 30 192
9.540655273764271 1.5760367352327 2.3781344358745775 96 30 192
10.75538999192058 0.9255491262503162 2.2664070846417594 96 30 192
8.73355534975486 -0.5637505976602681 1.9083817879949951 96 30 192
11.332705069404131 2.604126366995038 2.47298919034724 96 30 192
10.705687034350056 2.945438037442692 2.2702891439866146 96 30 192
11.174201634886849 0.7468390751858041 2.49115481528779 96 30 192
10.68940081822735 1.233064994535802 2.5533405042448285 96 30 192
9.367063505043227 0.07475245354743411 2.120369954363011 96 30 192
10.206698685490593 2.3033820113593464 2.3121750867964543 96 30 192
9.452813886123552 -0.1744029469242492 2.1148229388601933 96 30 192
10.823767822097937 0.5833092586863641 2.261144791332241 96 30 192
14.269211573928967 0.9228682145050707 2.911342981067491 96 30 192
10.507214927016568 1.5769730777975677 2.5798656116355754 96 30 192
9.701962020608777 0.3151152807098352 2.099360276618092 96 30 192
8.27454429066296 -0.4545026942129579 1.927922200677505 96 30 192
