9.659575604127328 1.584244309019268 1.684510962401223 62 67 76
9.074480931313994 1.585808474329246 1.245055584109206 59 64 73
9.822060220119045 1.4802864837738166 1.3757191057801865 57 61 70
10.360825618283362 1.584244309019268 1.1844600545304134 58 62 71
10.646906295685271 -1.0928664363737803 1.6739262543774354 77 80 89
10.84805085785902 -1.3015430283920846 1.6720074002524385 60 66 74
12.822123777373116 1.987228954447779 1.4217572469189865 59 62 69
12.712159408776781 1.987228954447779 1.4996287046244576 58 61 70
9.848304559913277 1.6879132934159284 1.3762456279491686 58 62 71
10.640394814581361 2.459909181936449 1.390893253111936 57 62 71
18.365470519886248 0.873797001307476 2.289794365794514 37 39 42
12.172714107683781 0.6393844686353537 2.0027512087392996 29 43 81
9.000822086351922 0.8545874179215494 2.172658255505904 26 33 48
12.781563928575585 -0.38860035107873014 2.622220154133921 158 181 211
13.981954057109766 -0.20151915554202482 2.6161860773968306 161 188 219
8.559930652700807 0.8708582736176658 2.3633714480259265 78 86 105
8.15662495445443 1.0124723440215244 2.4149008280926347 58 66 85
7.8605755842820155 1.1842255708242226 2.4583418784901503 62 70 91
8.928755194286811 1.0124723440215244 2.4893810303804864 34 43 63
8.973824380287239 0.7352104357255902 2.6956098702385467 106 125 153
8.901595460195429 1.333195287585598 2.7128944706934504 96 110 135
9.05429643144016 1.0910900992433354 2.6773675885383836 115 133 162
8.455591222691007 1.5988676980214005 2.56663664157239 29 41 65
8.901595460195429 1.333195287585598 2.7128944706934504 96 110 135
9.499363053240797 1.247140187617372 2.849159185329559 79 100 129
8.499347331217107 1.3835299750977346 2.558739759296563 39 48 69
8.455591222691007 1.5988676980214005 2.56663664157239 29 41 65
9.157107318041833 0.6003738779371594 3.026067258483754 137 162 193
9.422692744493157 0.7063594391097748 2.8775259164877705 124 148 178
9.30561639901159 0.3085485231667547 2.9289739011344977 127 152 182
12.087785055618818 -0.9491793738068056 2.5593455251423904 163 180 203
12.278332381999967 -0.9930574709432417 2.699156748044735 163 181 206
11.675067003765424 -0.8496915909910866 2.6154580829965837 153 176 204
12.234866987665116 -0.7212544631634294 2.7067158284871233 158 181 211
12.278332381999967 -0.9930574709432417 2.699156748044735 163 181 206
9.24485426878078 -1.015460991585874 2.961942074961923 147 172 202
9.409187336215894 -1.6244370702666073 2.8828877022161 148 173 203
9.24485426878078 -1.015460991585874 2.961942074961923 147 172 202
9.24485426878078 -1.015460991585874 2.961942074961923 147 172 202
9.204642758932911 -1.662481888467293 2.9878476136094902 154 180 210
12.482905189092813 -1.23747984381818 2.6657372660122705 163 177 196
11.014653994884616 -1.3928636383941877 1.8557222800190698 61 67 74
11.214849939588335 -1.4872763513335694 1.9446828615021963 60 67 75
11.414005009064052 -0.920515706324663 2.3593153658988384 157 180 208
11.15690106157031 -1.351735423956717 2.260132567009578 62 67 77
11.074357954020014 -1.274484475265223 2.0489811666938094 62 67 76
10.118487512710585 -1.1391422126900672 1.9875678377097308 42 51 64
9.78614174270563 -1.089043955004642 2.1185179039008712 41 49 63
11.340330863450696 -1.2008753762310218 2.3658743841279213 40 51 67
11.987337451036264 -1.4356193846096998 2.5721986592008195 62 72 85
10.383008726258469 -1.1802949474331481 1.774068232373199 74 79 89
11.15690106157031 -1.351735423956717 2.260132567009578 62 67 77
10.308109756401333 -1.274484475265223 1.8758588075098288 67 72 81
9.206364867449754 1.7013909085573724 1.9137780239124589 60 64 74
9.30572298296454 2.2317060168845995 2.0265806389817675 61 66 77
9.757428483625691 1.8135817386180224 2.004010083475114 60 65 76
13.429826605147214 1.8135817386180224 2.421530406117882 48 55 67
13.806442597324132 1.9615341623266456 2.5042632938749185 55 61 76
17.60777099385077 2.4760643651999503 2.600900591843488 64 73 84
8.145272244374953 -2.188571535736788 2.416470058961324 62 78 99
9.47580731107315 -2.0099288157237045 2.8575326939696764 159 184 214
16.90878282364017 2.6269888734570834 2.5564869257407232 50 60 71
17.31591630207082 2.568930823650776 2.6296675308345727 39 49 61
7.770698806170455 -2.025310321356381 1.980599371814025 36 46 58
9.209035632529764 -1.9272363638292238 1.8004189619876532 102 109 119
19.70118885554324 2.908214550863901 2.2318851112006746 57 59 61
19.54339275382375 2.9716366468450923 2.2381810475854698 4 6 8
16.66239827724501 -2.9203008132276094 1.9453507257685105 40 43 50
19.586344619243697 3.1046376450096083 2.1730737952578125 0 2 5
19.435831814940162 3.0364680549690637 2.2425495300735045 3 8 9
20.05576756552563 -3.035083336764588 2.4229569745958828 32 35 42
19.597725968210558 2.892351594865845 2.3026426547772534 34 36 38
20.297172006319318 -2.945952297562011 2.4865472925485705 150 154 160
9.777475463677378 1.378247335367665 1.5806220616840856 56 60 69
12.822123777373116 1.987228954447779 1.4217572469189865 59 62 69
10.089448153042547 1.6879132934159284 1.2788480742023158 59 62 71
18.33823903041146 0.9177774329258312 2.220660457314363 48 53 59
10.434740862497584 1.584244309019268 1.9741896462042314 63 66 77
15.0121313443863 0.06712086183080558 2.507742056722701 140 167 198
13.981954057109766 -0.20151915554202482 2.6161860773968306 161 188 219
11.647501492182123 -0.8372016653526836 2.4669752360063266 165 185 210
12.043631996778643 -0.7350600016808051 2.564937613603636 156 179 209
8.499347331217107 1.3835299750977346 2.558739759296563 39 48 69
9.30561639901159 0.3085485231667547 2.9289739011344977 127 152 182
9.819905315676259 1.333195287585598 2.7552381975982096 128 147 174
8.901595460195429 1.333195287585598 2.7128944706934504 96 110 135
8.499347331217107 1.3835299750977346 2.558739759296563 39 48 69
8.659144714582702 1.1842255708242226 2.531314218201248 35 45 68
9.422692744493157 0.7063594391097748 2.8775259164877705 124 148 178
10.25852792059274 1.0713431434426832 2.9633881729665923 130 154 183
9.422692744493157 0.7063594391097748 2.8775259164877705 124 148 178
7.956405025743642 1.6066673113737642 2.67225661710079 101 118 143
8.705609793507833 0.9463700813352858 2.765162992755065 94 114 144
12.234866987665116 -0.7212544631634294 2.7067158284871233 158 181 211
12.234866987665116 -0.7212544631634294 2.7067158284871233 158 181 211
9.146582555390005 -0.4340215811892711 3.03644776467585 147 174 206
11.15690106157031 -1.351735423956717 2.260132567009578 62 67 77
11.367423781538491 -1.2415982797188976 2.2449623971780435 58 64 74
11.340330863450696 -1.2008753762310218 2.3658743841279213 40 51 67
10.541616179519067 -1.0454968690219582 1.969866555396933 37 46 61
8.035079265462198 1.8750001163465841 2.6533023495890182 104 120 146
9.47580731107315 -2.0099288157237045 2.8575326939696764 159 184 214
9.777437404812002 -1.8910916739542547 2.76605948164661 168 191 221
8.618554445977479 -2.021134957002039 2.5380814792396333 64 81 104
19.54339275382375 2.9716366468450923 2.2381810475854698 4 6 8
19.597725968210558 2.892351594865845 2.3026426547772534 34 36 38
19.267441863467123 -3.1108553502766614 2.3914629625641313 51 57 62
8.474825045880626 0.8545874179215494 2.0752417260445917 41 47 64
8.928755194286811 1.0124723440215244 2.4893810303804864 34 43 63
8.546681212342094 1.247140187617372 2.8154223559859686 86 107 138
11.265984594298299 -0.9491793738068056 2.51051528067961 162 181 206
12.549873633399148 -0.8496915909910866 2.6554846672711814 158 178 205
12.482905189092813 -1.23747984381818 2.6657372660122705 163 177 196
11.240541735290387 -1.4784427365806545 2.1440027780206776 64 69 79
11.227844172344298 -1.3015430283920846 1.8501653871520098 61 67 76
11.280336990735684 -1.2865415490868863 2.5087762481585933 46 58 72
11.361851109490177 -1.3744024917219992 2.1371260282234275 61 66 76
9.521683644838305 2.319492070773585 1.9019770977647856 59 64 73
12.508457215983416 2.953275618150971 2.884099001677828 148 176 209
20.05576756552563 -3.035083336764588 2.4229569745958828 32 35 42
9.861106512716765 1.4802864837738166 1.784989637986945 61 66 75
12.043631996778643 -0.7350600016808051 2.564937613603636 156 179 209
9.31247367780485 0.8970931670395383 2.6247406020984507 112 130 156
8.172401433881905 1.0910900992433354 2.622554533382147 98 112 138
8.85472436234702 -1.8910916739542547 2.724626960502997 175 199 229
8.145272244374953 -2.188571535736788 2.416470058961324 62 78 99
8.220456107059627 -2.025310321356381 2.092407412938335 55 62 72
16.66239827724501 -2.9203008132276094 1.9453507257685105 40 43 50
9.713092261753623 2.3949890921471875 1.5806871936542735 58 65 74
9.143539907572075 1.7013909085573724 1.2476056061046674 60 64 73
12.712159408776781 1.987228954447779 1.4996287046244576 58 61 70
17.709154112831186 -2.8899539456228407 1.5197310056499052 54 57 63
8.501347898935933 0.9656667095567141 2.213600756956067 88 95 111
11.805620077718217 -1.0824282295008956 2.596717076842202 162 178 199
9.31247367780485 0.8970931670395383 2.6247406020984507 112 130 156
8.15662495445443 1.0124723440215244 2.4149008280926347 58 66 85
11.675067003765424 -0.8496915909910866 2.6154580829965837 153 176 204
14.066839554846288 2.0686820320484767 2.4796674606574927 42 49 61
18.96004085988164 0.9177774329258312 2.2626645959441767 0 1 6
9.24485426878078 -1.015460991585874 2.961942074961923 147 172 202
8.499347331217107 1.3835299750977346 2.558739759296563 39 48 69
9.422692744493157 0.7063594391097748 2.8775259164877705 124 148 178
10.228134313631422 -1.1802949474331481 1.6781646939277173 76 81 90
