10.698819317881187 2.173075957878294 2.3875061194491343 21 232 129
10.627312541675268 2.103664644347541 2.2649100856185047 21 232 129
11.13886009212327 -1.213994023885498 2.6459299711862956 21 232 129
10.921196474998256 -2.2670543127390355 2.5075184232408994 21 232 129
10.730606724730604 -1.134069075198334 2.7216706878456844 21 232 129
10.691094943283142 2.896962796984856 2.7300265556801198 21 232 129
9.846796747567383 -1.7247164607403602 3.042344120485148 21 232 129
11.029132353974132 -2.2421859477071986 2.664655913663867 21 232 129
10.640854973044089 3.1329514567563588 2.740980914263691 21 232 129
10.491523228545155 2.567759702843601 2.776047931875599 21 232 129
9.994382905360707 -1.6468070271509665 2.943200114636915 21 232 129
10.684384775382242 -2.913296707997842 2.7314677511392054 21 232 129
10.077586125067933 -2.7199661778248965 2.9056325908257916 21 232 129
10.059167839294432 -2.1003261912035662 2.9133724579469726 21 232 129
10.190498745253462 2.50996836680849 2.6127400856775136 21 232 129
11.650862635358386 -1.134069075198334 2.7566700228857597 21 232 129
11.058836043327197 2.6925395225190587 2.9241136757616415 21 232 129
11.940200479868004 -1.7983625260272396 2.7006936519467026 21 232 129
11.534373329666387 -1.359472171014807 2.7824195906958686 21 232 129
11.560281312683415 -1.8530497643306552 2.7764972498637515 21 232 129
11.91511861372693 -1.4011314998708473 2.705175938426266 21 232 129
11.681276228362691 2.4860538253650164 1.7253616523486466 21 232 129
12.058943644715837 2.3632207945938593 1.8912331020413102 21 232 129
11.902270833917358 2.0448835294988235 1.8956048374589647 21 232 129
12.485718196732346 2.3046689132441687 1.7968396331592036 21 232 129
11.621663853206467 2.365527135780697 2.306376579691812 21 232 129
11.555868975490618 2.2890793230690267 2.1997536237925397 21 232 129
10.383253514730207 3.0288589660992415 2.05118393676236 21 232 129
10.113703110776882 2.92265112067331 1.955801247549004 21 232 129
10.812282864066832 2.6384484960030274 1.8325875765532558 21 232 129
10.384302778889683 2.7261666963452815 1.8436471236644667 21 232 129
10.615657597523551 2.3673595419598783 2.395884066546265 21 232 129
10.579789199385369 3.1365772619381 2.3995620665015034 21 232 129
11.069189785954803 3.134629433830844 2.6576992840224127 21 232 129
10.806380571416055 2.8967915872648797 2.2511966196966395 21 232 129
11.117494279127083 2.9430879399112917 2.6494961615579604 21 232 129
11.038549614112156 2.7850006685981734 2.2342893321554 21 232 129
11.337046307155484 3.1365772619381 2.459206074969994 21 232 129
11.323374303589029 2.627693890116405 2.330482559734036 21 232 129
11.7171038293649 2.527948627384699 2.2990292527056235 21 232 129
11.155474019389338 2.6830227523648875 2.479490396444857 21 232 129
10.925789860158085 2.8218928644919337 2.506946940183563 21 232 129
12.432820006412328 -2.6444842489245763 2.1493408827654448 21 232 129
12.010068811411479 -2.63533348401691 2.3929013399451566 21 232 129
12.131297534592079 -2.374528136187249 2.5110216816173048 21 232 129
12.486398554064039 -2.748572816686305 2.4730422901183715 21 232 129
11.94198395957738 -2.692442883415714 2.53307295215021 21 232 129
11.505876147113407 -2.87348573147137 2.4413444880827013 21 232 129
12.06062017040385 -3.0366046323495968 2.273908980667245 21 232 129
12.22862479438576 -2.569009164148279 2.5001988451264694 21 232 129
12.37618827934924 -2.5346849317096347 2.361585752905868 21 232 129
10.777649766137396 -2.98607700398019 2.525859963859423 21 232 129
12.059060281078859 -2.8574493193867814 2.072395679622002 21 232 129
12.570505730870584 -2.8574493193867814 2.1422041061392925 21 232 129
19.679774512135808 -0.8670970562015234 1.196151285186297 21 232 129
19.679774512135808 -0.8670970562015234 1.196151285186297 21 232 129
19.22338331596088 -1.0179459905125012 1.3504472431559855 21 232 129
20.8101362945436 -0.9610396314830372 1.4648004650034585 21 232 129
21.521290044283944 -0.922509526410635 1.4214749282270085 21 232 129
7.99655114012873 -0.888020326047532 1.2918672970352094 21 232 129
10.100859990747564 -2.509819588373436 1.5508303372095917 21 232 129
9.220478035606329 -1.8061503762454276 1.5489236705154978 21 232 129
9.950822662383263 -2.004333563858537 1.4497409862484691 21 232 129
10.064074899092924 -2.228329041008273 1.5507573499842644 21 232 129
10.428429399571561 -1.783272016286795 1.3580746760651283 21 232 129
10.26902973906101 -1.6856605835567842 1.354720788042111 21 232 129
10.07230437033243 -1.4856550122886896 1.4512080741304065 21 232 129
8.25665074760256 -1.0657357276885664 1.3008777645351746 21 232 129
11.465912467317088 -1.4036020569194305 1.8173438133864908 21 232 129
7.997644651355508 -1.0657357276885664 1.670784708216775 21 232 129
11.21303813296948 -1.387180543757739 2.0129920653856925 21 232 129
11.875594118967486 -1.2921702433365059 2.0808874964974744 21 232 129
12.205048428326661 -1.2270955231944454 2.3758633342822733 21 232 129
11.401635831523384 -1.3672313267861775 2.209630624470644 21 232 129
11.819615884741353 -1.1249636709619473 2.548095089210317 21 232 129
9.846101629839996 -1.0657357276885664 2.2004897431524197 21 232 129
12.879887057302243 -1.2629270002300994 2.3228047169940327 21 232 129
10.545652790054682 -0.9975244836032193 2.4030995942873408 21 232 129
11.577345277166797 -1.1822993912909787 2.434050611499093 21 232 129
11.060314647047154 -1.5858074284486834 2.019539990402415 21 232 129
10.181879246488664 -2.0511287324437335 2.061518183269191 21 232 129
11.1505099882422 -1.9654042840631547 1.8244689105078462 21 232 129
11.118890594470964 -1.6856605835567842 2.017004887976771 21 232 129
10.392334316258363 -1.8061503762454276 2.0507286514336087 21 232 129
10.64423696189681 -1.908676567273168 2.0384490354953675 21 232 129
10.126229391546309 -1.5858074284486834 1.7493355809555295 21 232 129
11.147377788118146 -1.5895763032381014 2.3455879453508803 21 232 129
11.41055721323797 -2.178667900302959 2.4513163706787284 21 232 129
11.670439557423508 -1.9167218922580382 2.5673173131835814 21 232 129
11.22196184038796 -1.592272193937115 2.471926059337648 21 232 129
11.282573624612736 -1.4762107581289288 2.217491536193095 21 232 129
10.083105103933754 -1.8344222245727786 2.183467668019297 21 232 129
10.68959047191393 -2.0511287324437335 2.14412160259161 21 232 129
11.309058471644096 -1.698342655982885 2.215724562006248 21 232 129
11.559760879824168 -1.4856550122886896 2.096239978460164 21 232 129
12.21177476596003 -1.8701832119893438 2.502048995484797 21 232 129
11.86847551365323 -1.5895763032381014 2.4058315070984517 21 232 129
11.654609878820944 -1.9955258439236327 2.426333900901093 21 232 129
10.673991006190008 -1.8701832119893438 2.389985876905598 21 232 129
12.877368462589997 -1.4492843847622934 2.5654158600146304 21 232 129
12.365206631926728 -1.4291628813863937 2.632699299146709 21 232 129
11.18082152117935 -2.509819588373436 2.0143567589150826 21 232 129
12.280030612210833 -2.3715017346269507 2.3695330580604064 21 232 129
12.810086642835959 -2.446346519617281 2.3279135670477955 21 232 129
10.628726779356294 -2.14477501248679 2.039186128121663 21 232 129
12.172298399958006 -2.302351350415631 2.067301220336435 21 232 129
11.613168403906455 -2.228329041008273 2.093575546431331 21 232 129
10.85256331329121 -2.302351350415631 1.7372706479526745 21 232 129
10.443928474286949 -2.228329041008273 1.842049897007948 21 232 129
12.145025332612844 -2.446346519617281 2.2680327917443996 21 232 129
12.795602186216087 -2.294159291385721 2.3289838130750535 21 232 129
10.820501638189539 -2.7327472121914775 1.172004239727851 21 232 129
11.040373453013714 2.0013036348041515 2.0204098728692745 21 232 129
10.29216335846007 3.1302080658158116 2.830564610528428 21 232 129
10.947454166184238 -0.9473992300913436 2.679302946515247 21 232 129
10.34409701840452 2.823848825340834 2.8153079783971937 21 232 129
10.570915598995757 -1.6085126987972698 2.7569030302149504 21 232 129
10.221840616015516 -2.401242895802571 2.8527318843520875 21 232 129
11.426724988050676 -2.1361744063068007 2.601173815381326 21 232 129
9.912546299918738 -2.443702839527089 2.989647875862911 21 232 129
11.702105451093253 -2.0676754592478757 2.7460016102475047 21 232 129
11.936841370407336 2.168366427694715 1.9844716452543116 21 232 129
12.635889658311418 2.1897985983374757 1.7941073628165671 21 232 129
12.219341749890473 2.297897206524844 2.065216619741308 21 232 129
11.219240983048472 2.504112838727226 2.0127303137393238 21 232 129
10.73449817226957 3.1357617131242463 2.531564941736402 21 232 129
12.152545160288126 -2.905091681819141 2.380367637888553 21 232 129
10.714459935375986 2.5880948029366064 2.035141894400333 21 232 129
12.353648746176374 -2.7927504871594895 2.3634317805133644 21 232 129
12.63095090699698 -2.6888658524197058 2.3414019053565025 21 232 129
10.61293682240707 3.1371926703326753 2.2660379715611727 21 232 129
11.25479433731957 2.765106311809072 2.6272016590030978 21 232 129
10.636984189004957 2.608903792413316 2.544806593420521 21 232 129
11.111041624822981 -2.956508336923129 2.650580563389632 21 232 129
10.773828129374712 2.8641828903737543 2.3801227043963764 21 232 129
12.979568724962727 -2.5944882343804974 2.3156452048360534 21 232 129
11.955929129424083 -2.6888658524197058 2.281354683733885 21 232 129
12.382048531518429 -2.8282974815645314 2.252105086644252 21 232 129
12.323657120306216 -2.5944882343804974 2.255952929573405 21 232 129
12.60304629321394 -2.4855404818694047 2.5998354985945595 21 232 129
19.754475395520736 -0.973842454476296 1.3564650078984375 21 232 129
9.696932760575017 -1.3672313267861775 1.2343100380638758 21 232 129
10.832035165630018 -1.908676567273168 1.06990130791436 21 232 129
9.044504051186069 -1.2270955231944454 1.2089628466925935 21 232 129
11.923081773531345 -1.7141511694810514 2.4007868386838194 21 232 129
10.919397966937291 -1.9955258439236327 2.3662383088181165 21 232 129
12.162679437279513 -1.3110907991363963 2.5074956465618037 21 232 129
10.570503161043515 -1.783272016286795 1.83872127243823 21 232 129
10.583112443604803 -2.004333563858537 1.9378915779671537 21 232 129
11.585612090820725 -1.6856605835567842 2.0949467150854693 21 232 129
11.529407597914227 -1.5858074284486834 2.097767118605431 21 232 129
11.675996901275033 -1.387180543757739 2.090477464501146 21 232 129
11.347524693443345 -1.4933879185726529 1.8199703107152518 21 232 129
10.545652790054682 -0.9975244836032193 2.4030995942873408 21 232 129
11.25147259495112 -1.5874817053546812 2.219580143653906 21 232 129
10.342542071323859 -1.9473919681377156 2.1659427830087985 21 232 129
11.17876842907575 -1.4644187904426549 2.3428425171270604 21 232 129
10.630340731889115 -1.595871624138378 2.5457270371548755 21 232 129
12.010927320483134 -1.3425033888487794 2.3928244158820284 21 232 129
10.278450726885291 -0.9624337301182038 2.1701705029057163 21 232 129
11.542814425717738 -2.369332876042713 2.0970914343230005 21 232 129
11.51234452114707 -2.294159291385721 2.2025068987254 21 232 129
12.173911812674689 -2.509819588373436 2.1632944850482847 21 232 129
13.0776506611442 -2.207506473806631 2.41771484615236 21 232 129
11.347908890706135 -1.0495625920174056 2.612863690795177 21 232 129
10.833800238846553 2.6854792274808177 2.700822015800921 21 232 129
9.549267724396307 -2.583986730787715 2.74236829788344 21 232 129
10.02938291715085 -1.1621937574448462 2.9265316150989635 21 232 129
10.103259899903499 -1.6009201103238917 2.627708291195486 21 232 129
10.168235750007492 2.260005411496899 2.4448420192328526 21 232 129
10.730506799962424 2.3745784470472704 2.721691545336853 21 232 129
11.565706169962056 2.440460783931608 2.199134972812839 21 232 129
11.107677425743603 2.558437959826366 1.7334126949933981 21 232 129
11.518335471258958 2.8641828903737543 2.4400618770513063 21 232 129
12.353648746176374 -2.7927504871594895 2.3634317805133644 21 232 129
11.905987521688402 -2.7692403261758956 1.985609599404937 21 232 129
10.784301903201522 2.974715536149093 2.5249886315749612 21 232 129
11.46218366532022 -2.6444842489245763 2.002725441995455 21 232 129
12.588389405834604 -2.462457410782599 2.462850858362652 21 232 129
19.68875109053175 -0.7901735974939386 1.0261137324142489 21 232 129
21.249356536285045 -0.8561755008385606 1.4669993663860112 21 232 129
19.934877322780952 -0.910225547338248 1.0910141019650825 21 232 129
18.702144753032805 -0.9210398943437649 1.0563981886449638 21 232 129
9.5034932085643 -1.908676567273168 1.549575140153643 21 232 129
10.373028378723216 -2.14477501248679 1.1537559433851483 21 232 129
10.890238381598342 -1.8061503762454276 2.1322704769516716 21 232 129
11.130878670085607 -1.908676567273168 2.1187291690137418 21 232 129
10.479380275290822 -2.509819588373436 1.8411091783833617 21 232 129
7.895033122496705 -0.888020326047532 1.8005946481921404 21 232 129
10.534064744627422 -1.7141511694810514 2.2723002041557305 21 232 129
12.051138496181636 -1.4492843847622934 2.520191275476551 21 232 129
11.013693156889376 -2.092228304198709 1.922901194223702 21 232 129
12.900579616496524 -1.734392921305054 2.562652479302295 21 232 129
11.963657441921336 -2.1081587823219365 2.3970859267701186 21 232 129
10.337161605986953 -2.844533267669319 2.817296571852548 21 232 129
10.663308329282293 3.0151649322595335 2.26210387267517 21 232 129
10.448311982786514 2.2771250616703815 2.2792547576717737 21 232 129
10.481719785519411 -2.369332876042713 1.260383448106067 21 232 129
10.037454024240752 -1.5858074284486834 1.4507908588415808 21 232 129
11.147600679533452 -2.228329041008273 2.0157731877168956 21 232 129
11.895306949532849 -2.05666001549022 2.5387280346787264 21 232 129
12.218625583170367 -1.2629270002300994 2.26299815819569 21 232 129
12.573649563426786 -2.283032357446111 2.4643055624376977 21 232 129
11.356561513209325 -2.302351350415631 1.911830757878517 21 232 129
11.11604751777187 -2.14477501248679 2.1195435932202553 21 232 129
10.818257948383373 -1.8769501297730848 1.8324395919909624 21 232 129
11.16754121910272 2.1406950216835168 2.1167269189456253 21 232 129
10.44006400885108 -2.6444842489245763 1.6473399029718152 21 232 129
11.192447274497775 -1.979442248911833 2.6371461307843314 21 232 129
11.01027420658793 3.124912710290092 2.945068542319814 21 232 129
11.298924534254208 -1.3425033888487794 2.3325399637361106 21 232 129
12.075937850718226 -1.734392921305054 2.5173289193414674 21 232 129
11.37385829824535 -1.6752640512037855 1.8193812048970364 21 232 129
11.135140510473523 2.4554366057663635 2.346664422176014 21 232 129
11.091951682709258 -1.4856550122886896 2.0181670661081683 21 232 129
11.897963819833091 -1.4644187904426549 2.403098078316938 21 232 129
10.493239634154882 -2.092228304198709 1.7430273547667459 21 232 129
11.6190570883768 -1.2699563135852963 2.574188695233873 21 232 129
