13.398094967626015 1.0674293705640912 0.7129499395219473 114 247 75
12.772851281869018 1.4122687040800601 0.6543166958655956 114 247 75
12.715790324283773 1.5412069627373877 0.6484438721216254 114 247 75
12.83676403833772 1.7977612754032704 0.6607805557766998 114 247 75
13.005289218616092 1.214696906060657 0.792045310896585 114 247 75
14.019949268214337 1.4093621859737602 1.4179331338409455 114 247 75
13.917096605289125 0.87626533746657 0.946510091892567 114 247 75
12.800288019769582 1.301139053695047 1.241873506069161 114 247 75
13.679523582748082 1.075502961189107 0.9339416422221128 114 247 75
13.329477077266263 1.1589219157402553 0.9143743581594941 114 247 75
13.088230578907556 1.223442372742046 1.2493730951322748 114 247 75
13.639881240503538 1.0285632505174518 0.8369748976783469 114 247 75
13.383855464174685 1.0427665049489119 1.177044233734378 114 247 75
14.027422540041727 0.9292838548398694 1.0372010404287482 114 247 75
13.288790537797116 1.1174308293806627 0.8128846742680105 114 247 75
13.605835023377933 1.3651339817039096 0.9299296808593859 114 247 75
13.950002606631637 0.815522695145628 0.8568465105441866 114 247 75
13.725180143037713 1.5541849443759195 1.4880218674027301 114 247 75
12.643470012737408 1.54732026604341 0.8718660899414846 114 247 75
12.212350918025912 1.8801208395200935 0.841812150722321 114 247 75
12.72263794076846 1.772348370620113 0.7698780570494131 114 247 75
12.337598548017272 1.6430546359791836 1.050376935870733 114 247 75
12.152321853807328 1.7519969674763463 0.9433073438944256 114 247 75
12.658148958859018 1.4302852657231229 0.7646084034301077 114 247 75
12.447431895530432 1.4660787266436681 1.232181635595969 114 247 75
13.081007353969364 1.6316848814023999 1.3287961899724376 114 247 75
12.772200977606898 1.99119096026113 1.1570643931227294 114 247 75
12.382330612190472 2.1087056922198575 1.1431969941002522 114 247 75
11.233806580457124 2.90235828018477 2.884715020362258 114 247 75
11.338033798340916 2.5978327674270085 2.851778109902578 114 247 75
11.985082303310753 2.8038316955044853 2.7058587595582297 114 247 75
12.165311255464522 2.6305408601703038 2.675052450018492 114 247 75
11.80886125923774 2.5246073002259997 2.739103785184407 114 247 75
11.521458414173424 2.9642195376508673 2.8024509674771085 114 247 75
13.465803274908337 -0.6240462497258474 2.8418011240790944 114 247 75
13.80381341376803 0.5644125939373128 2.7706981565344098 114 247 75
13.545754478305172 -0.07642628922868971 2.8232613831937057 114 247 75
13.645243297095256 0.3775292480827077 2.801831334658947 114 247 75
13.558763384310673 0.15864316616920346 2.8203626429360296 114 247 75
14.05921964360956 0.2948060847992648 2.9752685810890145 114 247 75
14.142639679793023 0.6451936950767297 2.943191316342596 114 247 75
14.297232705473206 -0.3892422331698894 2.8951330366216936 114 247 75
13.987389711254819 0.31032669403266094 2.738294202593448 114 247 75
13.238929941237508 0.4731972220281309 2.6820056439520785 114 247 75
14.032029963170737 0.7158070646767739 2.730902315965545 114 247 75
13.949525818425501 -0.24801909287644205 2.744703847143845 114 247 75
14.23950361352712 -0.09996918953953163 2.9118011029904087 114 247 75
12.291803037221014 2.155843339169138 2.8773627249817264 114 247 75
13.163329110606911 1.8519055786322263 2.92835908928127 114 247 75
12.87127962543538 -0.9588001350229419 3.1108621936158793 114 247 75
12.935116507822755 -1.4008102520544832 3.0375748637556983 114 247 75
12.219878120498574 -2.222515003894471 2.90007255730365 114 247 75
13.075344697014666 -1.4733296824848612 2.9620662232948547 114 247 75
12.884969511851672 1.2466924342758086 3.086194031854061 114 247 75
14.019980414211066 0.938856250298054 2.992863503993966 114 247 75
12.998546164362278 -2.688509473703787 2.720909024543408 114 247 75
12.998546164362278 -2.688509473703787 2.720909024543408 114 247 75
11.904093461876746 -1.0951298821425013 2.720708992786813 114 247 75
12.744598498718682 -2.619193330794927 2.5916106366651306 114 247 75
12.124010150569612 -1.7149510264608645 2.6818626720772842 114 247 75
12.630383884345617 -2.4055247517707974 2.606542885257176 114 247 75
12.652060200893592 -1.7476637719140162 2.7870574368146457 114 247 75
12.630059970445368 -2.2660753744225923 2.791793326075598 114 247 75
12.630059970445368 -2.2660753744225923 2.791793326075598 114 247 75
12.630480340217856 -1.5182962989016244 2.7917021037421796 114 247 75
13.006784133652353 -1.5281445318754054 2.719495589212593 114 247 75
12.929261956192521 -2.141032545455731 2.7330517530849145 114 247 75
12.737537149802998 -0.80012740131964 2.769351738628639 114 247 75
12.521599192795515 -0.980422263473194 2.8163676217294054 114 247 75
12.346142209299016 -1.7992482604548392 2.861556143673931 114 247 75
13.213992669207066 -2.533297578644467 2.685833458404763 114 247 75
11.635672969279321 2.781790612401518 1.1137518699520732 114 247 75
11.302482517218193 2.6153905778789985 1.558869684998015 114 247 75
16.92916261767198 -2.961635083525952 2.267644572202809 114 247 75
16.821092326623194 -3.0383269881630497 2.2730336691678814 114 247 75
16.65442550958693 -2.546494354888736 1.6227700308016972 114 247 75
13.746394256644894 0.9729679692361269 0.7417765056714831 114 247 75
13.157392154919425 1.301139053695047 1.169882886721911 114 247 75
14.27118694939127 1.0427665049489119 1.0472619562216186 114 247 75
12.79387124221038 1.319522122641916 0.7756045064020538 114 247 75
13.42502035839633 0.9482727458493516 0.9198455547109379 114 247 75
14.05349659524755 0.9482727458493516 0.8632095793607216 114 247 75
13.53200613188203 1.248920124661135 1.4123753778931765 114 247 75
13.15045040559956 1.78614320144398 1.4077382718133404 114 247 75
12.935057307400713 2.0290261977376276 0.9865317845405731 114 247 75
11.521458414173424 2.9642195376508673 2.8024509674771085 114 247 75
11.338033798340916 2.5978327674270085 2.851778109902578 114 247 75
11.80886125923774 2.5246073002259997 2.739103785184407 114 247 75
11.218101896574241 -3.025377386121958 2.8900996710690765 114 247 75
13.903038186285686 0.12866610998164568 2.752759049635721 114 247 75
14.142639679793023 0.6451936950767297 2.943191316342596 114 247 75
14.105192545189112 -0.5362420388590557 2.9568616591730947 114 247 75
13.238929941237508 0.4731972220281309 2.6820056439520785 114 247 75
13.476715702061616 0.6129383328093395 2.647548597562609 114 247 75
13.890351712038065 -0.061847052667194494 2.7549944582751853 114 247 75
14.05921964360956 0.2948060847992648 2.9752685810890145 114 247 75
12.069715050697717 -2.5002240846395636 2.9572433157986233 114 247 75
13.949668019134934 -2.099230625907053 3.0314914464136775 114 247 75
13.890494518528675 -2.744927235977558 3.081237618663119 114 247 75
12.475336292390741 2.3739014065644004 2.827550828607626 114 247 75
12.187814742743258 1.8519055786322263 2.9109948636377494 114 247 75
12.189184354691006 -3.025377386121958 2.910516750264976 114 247 75
12.45479060181462 -3.0560038586354725 2.832670240054384 114 247 75
12.506928486526114 -0.5663612031677047 2.623438129146618 114 247 75
11.904093461876746 -1.0951298821425013 2.720708992786813 114 247 75
12.228541034543769 -1.8922476580990057 2.664887858805923 114 247 75
12.10148868646784 -1.5281445318754054 2.6856358994739935 114 247 75
12.75226336888638 -1.9599093733399293 2.7664052088561384 114 247 75
13.812835104719584 -2.4193945216540933 2.7690222842977072 114 247 75
13.034272228145777 -0.9296041652699819 2.714823911938549 114 247 75
12.886582501169666 -2.4193945216540933 2.7407712654163103 114 247 75
12.448808021438865 -2.0607904011274902 2.834179653693664 114 247 75
12.382893040296485 -1.2170955996214439 2.8514151021777927 114 247 75
17.436517778980477 -3.116255159566461 2.3192138858068065 114 247 75
16.875466165528525 -2.946718791352402 2.3505491694674117 114 247 75
15.923401031899417 -2.511037459415405 1.688201800572798 114 247 75
12.907367514963584 1.2884095962095823 0.667785736562337 114 247 75
13.005289218616092 1.214696906060657 0.792045310896585 114 247 75
13.49206216586097 1.344565586623049 0.8270499414610814 114 247 75
14.213141235522071 1.339064871219926 1.420026925685321 114 247 75
13.046859884883128 1.2488811714950296 0.8975769821443844 114 247 75
13.45912948252729 0.8892485160310126 0.8247965288223302 114 247 75
13.896207079117291 1.4813039046632759 1.4165610779810598 114 247 75
12.643470012737408 1.54732026604341 0.8718660899414846 114 247 75
12.899408725073597 1.456352118347929 0.9847031742035335 114 247 75
12.622199589195034 1.6596317604280277 0.7616347283778836 114 247 75
12.976469171840536 1.7097464089578682 1.4055320948024623 114 247 75
12.693342176254905 1.8039498268425616 1.23899633430204 114 247 75
12.878079702749334 1.7214742015899442 1.1606714568255838 114 247 75
12.621708495162196 1.8248975515880101 1.0632306370234552 114 247 75
11.233806580457124 2.90235828018477 2.884715020362258 114 247 75
12.115272492908856 -1.8918612595735722 2.9380623753428297 114 247 75
13.935826157413945 0.5036801025461304 3.0408746262821054 114 247 75
13.923169558849146 -0.25789651862575647 3.050310214947199 114 247 75
10.112921320485341 -2.0464895744027114 2.1894895936451872 114 247 75
12.32402668569932 -1.5025440043956968 2.8678651037243936 114 247 75
16.875466165528525 -2.946718791352402 2.3505491694674117 114 247 75
12.772851281869018 1.4122687040800601 0.6543166958655956 114 247 75
12.73722565057064 1.6711313610537406 0.6506615249208443 114 247 75
12.388872204372523 1.5513402937559408 1.2305164677788365 114 247 75
11.088174616875294 -2.5002240846395636 2.9407108122876595 114 247 75
11.623106474377957 2.723478673256923 2.77847312223344 114 247 75
12.665088203032935 -0.30346643158912867 2.7842889640093946 114 247 75
13.142588769787537 1.4861048989816255 2.935774436436012 114 247 75
12.886582501169666 -2.4193945216540933 2.7407712654163103 114 247 75
11.889840457571358 2.5422641864492235 1.4752082121666763 114 247 75
13.903180862467206 2.4226873052538505 3.0676619673405874 114 247 75
14.019980414211066 0.938856250298054 2.992863503993966 114 247 75
12.152721513003675 -1.0849029936193344 2.923635332189629 114 247 75
14.046674227804164 -0.14432862681355713 2.980675863802908 114 247 75
12.183742933516648 -2.3016847572810186 2.5144406723249486 114 247 75
13.026866812100508 -0.6663093664853197 2.7160758063850556 114 247 75
12.808273071160095 -0.5026140120467798 2.755454009595015 114 247 75
12.600568589038728 1.5446156697855573 0.7598327662317449 114 247 75
12.007923553980127 2.00277118977149 2.987260611581461 114 247 75
14.05255115352158 1.339064871219926 1.5612037958403855 114 247 75
12.287432740956577 -2.28825705057609 2.655688934000821 114 247 75
