22.170353680683018 1.5650309907060207 1.32921276040412 143 104 132
22.249228172239203 1.657721465431601 1.3300861503175183 143 104 132
21.594916608146608 1.5186232487212203 1.5103728250540458 143 104 132
21.64948735054525 1.5650309907060207 1.4641693987903144 143 104 132
21.666843067422455 1.6114635617715698 1.4642551345655845 143 104 132
21.73025251752051 1.657721465431601 1.4645672010450597 143 104 132
21.566739132037757 1.5186232487212203 1.6030716841643042 143 104 132
21.555226946686417 1.6114635617715698 1.603088927734614 143 104 132
21.61896377465974 1.657721465431601 1.602993690027796 143 104 132
20.614736542614892 1.6134424538690826 1.6531583935441774 143 104 132
20.68137202141859 1.6619334370934136 1.6528924238093072 143 104 132
20.72098620866543 1.6134424538690826 1.7012736132301307 143 104 132
20.78728109750279 1.6619334370934136 1.7008551283975177 143 104 132
20.940462319750203 1.6619334370934136 1.7482239572456624 143 104 132
20.874653918040995 1.6134424538690826 1.7487892799145297 143 104 132
15.047699002869745 -0.8383525944977817 0.31569661164015844 143 104 132
14.355970027650594 -0.3989118442104913 0.0850768221395973 143 104 132
14.468658869014376 -0.21947626946374876 0.15098873055514733 143 104 132
14.535808774467712 -0.6065903172673092 0.17881147336093683 143 104 132
14.423644570453973 -0.9192073186658404 0.12886645693904927 143 104 132
14.406425463263746 -2.107013908681107 0.11928875148392434 143 104 132
14.535808774467712 -0.6065903172673092 0.17881147336093683 143 104 132
14.423644570453973 -0.9192073186658404 0.12886645693904927 143 104 132
14.380309755414874 -1.4867870110804147 0.10303393691024622 143 104 132
14.559847868531133 -1.1442888658450727 0.1877265934903409 143 104 132
14.516919643011889 -1.5206702576091367 0.17146291263021415 143 104 132
14.762683266085293 -1.2578370140523316 0.2499180021189689 143 104 132
14.720346571383725 -1.5350851716120237 0.23838998783499435 143 104 132
14.637094242213927 -2.219586388663364 0.21373107224821167 143 104 132
14.720346571383725 -1.5350851716120237 0.23838998783499435 143 104 132
14.838873781909335 -2.0659358805402115 0.2692987707210103 143 104 132
15.104298142430203 -1.9678326955400314 0.3269748493538222 143 104 132
15.0129289750044 -1.76413259865648 0.30852703981007396 143 104 132
22.912793953394115 1.7036096679082449 1.246358591242161 143 104 132
22.478960234834947 1.757425743841372 1.1924177989729912 143 104 132
22.719154045300975 1.7099987383798714 1.1488637084906201 143 104 132
21.839314559804762 1.7036096679082449 1.4650996817230462 143 104 132
21.937982435997142 1.7489424168215602 1.6481802519430093 143 104 132
21.874443076008966 1.7489424168215602 1.5568962507591813 143 104 132
21.937982435997142 1.7489424168215602 1.6481802519430093 143 104 132
21.222791513744653 1.8040188357513924 1.4620171949122882 143 104 132
22.07094556409166 1.8940296561948198 1.3745290718745347 143 104 132
21.53190809378745 1.8040188357513924 1.3695490840791211 143 104 132
21.015591680202064 1.757425743841372 1.4609403907570506 143 104 132
21.551783533019595 1.757425743841372 1.32213458261004 143 104 132
21.713545968422217 1.8940296561948198 1.6489817363415618 143 104 132
21.10882753377638 1.8040188357513924 1.6037720813233622 143 104 132
21.68645564189642 1.8940296561948198 1.510628182939419 143 104 132
20.90126410994059 1.7099987383798714 1.7001418721978276 143 104 132
21.062161032533783 1.757425743841372 1.6991482992729536 143 104 132
21.520181209603514 1.8496035814309912 1.6964019300891395 143 104 132
21.658397257980646 1.8940296561948198 1.6029350480197229 143 104 132
21.658397257980646 1.8940296561948198 1.6029350480197229 143 104 132
22.373862959227473 1.9789334707739044 1.6019069869814588 143 104 132
22.401025205149175 1.9789334707739044 1.5125496939925764 143 104 132
22.02394479367479 1.937172455673273 1.5115512724800702 143 104 132
21.22662051500295 1.954187723954515 1.6981484218525384 143 104 132
22.050620501239383 1.937172455673273 1.6477841777291808 143 104 132
9.496878148750268 2.04636257406626 1.1004371677776226 143 104 132
21.4186442163261 1.8040188357513924 1.7442221255007817 143 104 132
21.053616034585886 1.7099987383798714 1.7472603124710901 143 104 132
21.02877883423884 1.9093738362080934 1.747470929646105 143 104 132
21.860970078446535 1.8496035814309912 1.7872935355038346 143 104 132
21.960462016982866 1.8940296561948198 1.739901492711313 143 104 132
21.376653742487978 1.954187723954515 1.7445662556264534 143 104 132
21.376653742487978 1.954187723954515 1.7445662556264534 143 104 132
14.597979973351707 -2.9783025597480086 0.2010131481102024 143 104 132
14.179169605955853 3.0340948035547415 0.3531697819901002 143 104 132
14.551573246262421 -3.061128187251332 0.41709752021727026 143 104 132
14.597979973351707 -2.9783025597480086 0.2010131481102024 143 104 132
14.177323371301313 -3.044720032502834 0.35281634145754903 143 104 132
13.643320368576761 -3.061128187251332 0.44679469494499446 143 104 132
14.798524042023445 -2.4312105883620387 0.259236287813156 143 104 132
14.798524042023445 -2.4312105883620387 0.259236287813156 143 104 132
14.245846595918076 -2.848056950551574 0.36565570940232706 143 104 132
15.313389100918632 -2.672075934171775 0.3651013370544353 143 104 132
15.024915966129054 -2.573515531878356 0.3110205732442745 143 104 132
13.93529186158427 -2.7782237526931053 0.3021406826953997 143 104 132
14.752748166403054 -2.7431044071953794 0.4468766844724001 143 104 132
15.260786622658555 -2.1421122185606394 0.3559745623026055 143 104 132
14.664537720718021 -2.6680148211230725 0.22218860602906937 143 104 132
14.95296712098615 -2.6076694117090997 0.47405129409684565 143 104 132
15.221555342645637 -2.41084543858969 0.3489768284670466 143 104 132
14.95296712098615 -2.6076694117090997 0.47405129409684565 143 104 132
14.95296712098615 -2.6076694117090997 0.47405129409684565 143 104 132
13.78534255474598 -3.081503820435747 0.6093769766661443 143 104 132
13.685176927497034 2.9713115392777762 0.7182859392910048 143 104 132
13.608062391717109 -3.0882600702314735 0.7117781781423601 143 104 132
13.608062391717109 -3.0882600702314735 0.7117781781423601 143 104 132
13.609985848518777 3.0823804382939155 0.7119419960403061 143 104 132
13.855804437551601 -2.9566012075849315 0.6166251208246812 143 104 132
14.208399316307345 -2.7261893117038034 0.6508171082064576 143 104 132
12.942909875879188 -2.977046053505599 0.7686457226835662 143 104 132
14.208399316307345 -2.7261893117038034 0.6508171082064576 143 104 132
13.09452417291729 -2.8697781109245906 0.7805458172868707 143 104 132
14.862631852493049 -3.107458663486725 1.2058798288892523 143 104 132
13.913710751725732 -1.8387711809096294 2.245917193488882 143 104 132
14.681246341597584 -1.8163849463659059 2.2047280139720655 143 104 132
19.944337849846907 -2.4845963301282574 1.913178604192103 143 104 132
22.249228172239203 1.657721465431601 1.3300861503175183 143 104 132
21.666843067422455 1.6114635617715698 1.4642551345655845 143 104 132
21.622121624106406 1.5186232487212203 1.649313005583004 143 104 132
21.537781286758914 1.5650309907060207 1.6031150939341323 143 104 132
21.555226946686417 1.6114635617715698 1.603088927734614 143 104 132
21.609897916273667 1.657721465431601 1.5567260769313578 143 104 132
20.596494283118375 1.5647501201365572 1.6532315070218186 143 104 132
20.596494283118375 1.5647501201365572 1.6532315070218186 143 104 132
14.434307511463226 -2.894181931263464 0.134447017180366 143 104 132
14.434307511463226 -2.894181931263464 0.134447017180366 143 104 132
14.468658869014376 -0.21947626946374876 0.15098873055514733 143 104 132
14.745860068118862 -1.8177889284469801 0.24540859319553296 143 104 132
14.670970792278087 -0.8613115675996783 0.22412126023638607 143 104 132
14.637094242213927 -2.219586388663364 0.21373107224821167 143 104 132
14.501616482153564 -2.4756538343709815 0.165257596236542 143 104 132
14.406425463263746 -2.107013908681107 0.11928875148392434 143 104 132
14.380309755414874 -1.4867870110804147 0.10303393691024622 143 104 132
14.762683266085293 -1.2578370140523316 0.2499180021189689 143 104 132
14.745860068118862 -1.8177889284469801 0.24540859319553296 143 104 132
22.613890277636337 1.7036096679082449 1.2882844977372658 143 104 132
21.839314559804762 1.7036096679082449 1.4650996817230462 143 104 132
22.139824908195134 1.7036096679082449 1.3751476052327354 143 104 132
21.719564312358173 1.7036096679082449 1.556797125071925 143 104 132
21.780148119932598 1.8496035814309912 1.371873733283337 143 104 132
21.551783533019595 1.757425743841372 1.32213458261004 143 104 132
21.352809629632546 1.8496035814309912 1.5565566594378926 143 104 132
21.41789654835159 1.8496035814309912 1.6500632465428517 143 104 132
20.90126410994059 1.7099987383798714 1.7001418721978276 143 104 132
21.814444417886648 1.8940296561948198 1.6946988043867555 143 104 132
21.10882753377638 1.8040188357513924 1.6037720813233622 143 104 132
21.41789654835159 1.8496035814309912 1.6500632465428517 143 104 132
21.68645564189642 1.8940296561948198 1.510628182939419 143 104 132
22.402643238242916 1.937172455673273 1.3774720818042816 143 104 132
22.050620501239383 1.937172455673273 1.6477841777291808 143 104 132
22.373862959227473 1.9789334707739044 1.6019069869814588 143 104 132
21.996316913324318 1.937172455673273 1.6024411489469712 143 104 132
9.259937099889678 2.1067181017246157 0.960884601546913 143 104 132
22.1507065065119 1.8940296561948198 1.7844175177715191 143 104 132
21.668181881100534 1.8496035814309912 1.7422049868932903 143 104 132
21.7649514401737 1.9974390261853707 1.7414353822818223 143 104 132
14.597979973351707 -2.9783025597480086 0.2010131481102024 143 104 132
14.589017778945882 -2.522560624442488 0.4228526602070585 143 104 132
15.313389100918632 -2.672075934171775 0.3651013370544353 143 104 132
15.480419707139989 -2.284705633637018 0.39236071342690776 143 104 132
14.998131919753543 -2.2623048448805334 0.30541621312492173 143 104 132
15.260786622658555 -2.1421122185606394 0.3559745623026055 143 104 132
13.855804437551601 -2.9566012075849315 0.6166251208246812 143 104 132
13.679437463465 -2.977046053505599 0.7178057735263254 143 104 132
13.997534206840104 -2.837250146428668 0.6307691329865277 143 104 132
14.928009674525441 -3.035774706974079 1.2075523952353313 143 104 132
13.953608717113116 -2.2524664805269765 2.243630039811026 143 104 132
14.009244688847366 -2.1986143004904366 2.152380321499739 143 104 132
14.154268508180936 -2.1770904631391796 2.3254271246304707 143 104 132
14.472559628386023 -2.319639465740091 2.215370379238896 143 104 132
14.472559628386023 -2.319639465740091 2.215370379238896 143 104 132
14.472559628386023 -2.319639465740091 2.215370379238896 143 104 132
19.631217627303577 -2.4845963301282574 1.8651775389890235 143 104 132
19.508474231052645 -2.4093543927201355 1.867085705285566 143 104 132
20.702837571038643 1.5647501201365572 1.701388647359356 143 104 132
15.104298142430203 -1.9678326955400314 0.3269748493538222 143 104 132
14.535808774467712 -0.6065903172673092 0.17881147336093683 143 104 132
14.872290719585228 -1.0219923504867297 0.2773231470946338 143 104 132
14.637094242213927 -2.219586388663364 0.21373107224821167 143 104 132
14.542790031096448 -1.9110874312907646 0.18144823658160608 143 104 132
14.516919643011889 -1.5206702576091367 0.17146291263021415 143 104 132
22.32827506262848 1.7099987383798714 1.1897335568280671 143 104 132
21.352809629632546 1.8496035814309912 1.5565566594378926 143 104 132
21.783555435126406 1.7036096679082449 1.6487299479830935 143 104 132
21.26890719635775 1.8040188357513924 1.6978938477334986 143 104 132
21.354507086270825 1.8040188357513924 1.415448628794693 143 104 132
22.07094556409166 1.8940296561948198 1.3745290718745347 143 104 132
20.87624565196171 1.9093738362080934 1.7002977540203474 143 104 132
14.61834228636491 -2.8958372268259884 0.42728862056101097 143 104 132
15.024915966129054 -2.573515531878356 0.3110205732442745 143 104 132
14.245846595918076 -2.848056950551574 0.36565570940232706 143 104 132
14.664537720718021 -2.6680148211230725 0.22218860602906937 143 104 132
15.506370723548363 -2.522560624442488 0.3963853813556754 143 104 132
14.798524042023445 -2.4312105883620387 0.259236287813156 143 104 132
12.663145992359475 3.002176469199219 1.0497057545221438 143 104 132
20.72098620866543 1.6134424538690826 1.7012736132301307 143 104 132
14.312430310806619 -1.314624499856779 0.034229208139162665 143 104 132
14.380309755414874 -1.4867870110804147 0.10303393691024622 143 104 132
21.911169597884896 1.7489424168215602 1.5112459824596876 143 104 132
22.401025205149175 1.9789334707739044 1.5125496939925764 143 104 132
21.053616034585886 1.7099987383798714 1.7472603124710901 143 104 132
14.516711694680307 -2.6737795106428996 0.5593916895881909 143 104 132
13.31969258560795 -2.7685416097479307 0.7974717719921182 143 104 132
14.535808774467712 -0.6065903172673092 0.17881147336093683 143 104 132
14.720346571383725 -1.5350851716120237 0.23838998783499435 143 104 132
22.129065953572738 1.757425743841372 1.2344231047024024 143 104 132
12.540491475961002 2.891169983649667 0.9490728080110765 143 104 132
14.61834228636491 -2.8958372268259884 0.42728862056101097 143 104 132
13.787241279230093 3.074883314007223 0.6095742520168764 143 104 132
14.102906673679556 -3.0727905729552987 0.510607931386267 143 104 132
20.68137202141859 1.6619334370934136 1.6528924238093072 143 104 132
21.56599659834203 1.5650309907060207 1.5102916981603838 143 104 132
14.862631852493049 -3.107458663486725 1.2058798288892523 143 104 132
13.865233932665998 -3.019947351327335 0.28548357414053127 143 104 132
15.21640144650755 -2.4908441358932447 0.5067575771290247 143 104 132
14.838873781909335 -2.0659358805402115 0.2692987707210103 143 104 132
14.102906673679556 -3.0727905729552987 0.510607931386267 143 104 132
20.856638996518363 1.5647501201365572 1.748944667924787 143 104 132
20.874653918040995 1.6134424538690826 1.7487892799145297 143 104 132
