17.789221862649566 1.0744097987286905 0.632416195961155 97 115 134
17.313996314393037 0.9945799075503303 0.6904113612645623 122 138 156
16.80126102739929 0.9411505263581487 0.6525915782400405 121 138 157
16.470175663259404 1.0250248818659724 0.6258181933397537 97 112 129
17.13385341372126 1.0404687875070013 0.7659470985394057 119 135 154
17.29841591517724 1.1979339032918113 0.6893202613184582 105 125 142
9.483531557057368 2.2432422285651135 0.16875412870919454 66 68 74
8.441292832851456 1.564502217985549 0.14815778118908626 176 181 189
13.607203814104539 -0.5027877555892927 0.43345398772106647 48 57 68
14.520799822135096 -0.5027877555892927 0.40452538471474336 88 96 105
13.346916803764081 -0.1494319262636809 0.38918496927050533 46 53 66
13.753394995374192 -0.12484196065723312 0.45587987146971876 90 97 109
6.6371100445231 0.0490930800827147 0.8563128134273843 109 118 128
14.450195652054319 -1.0511694223401107 0.7724953496301725 34 44 53
14.071167710705435 -0.7638154389393077 0.6325377793776148 56 66 75
13.674138912948607 -0.8546168251498137 0.5917829567727124 47 58 68
15.00045226700783 -0.911604697465567 0.7127523722419629 27 37 44
13.74074352583776 -0.8437959571341914 0.7179617222382352 41 51 58
14.258889731632083 -0.911604697465567 0.7586288774195324 26 35 45
15.182417008453793 -1.0511694223401107 0.7265098818957623 35 46 55
13.692693562875371 -0.6694079582674001 0.5937960037827656 68 78 87
13.674138912948607 -0.8546168251498137 0.5917829567727124 47 58 68
9.35205647234219 1.5389317829247522 0.026325924731362128 95 98 107
9.796376153336766 -1.9165879829457042 0.3034418565813557 59 61 67
10.376246712265736 -1.5603943587723625 0.07272936016517322 48 51 54
9.746007976081753 -1.5679484756829976 0.2864758316729137 104 107 113
9.404534785394413 2.898503719387951 0.1089085896300057 71 73 77
9.796376153336766 -1.9165879829457042 0.3034418565813557 59 61 67
10.124636336087514 -1.308506259764241 0.39402058393675504 179 179 200
10.12308695377333 -1.8291848021514159 0.39365229170013405 53 54 61
9.433162233845652 -0.6422742148107974 0.1338269373926462 180 183 194
9.404534785394413 2.898503719387951 0.1089085896300057 71 73 77
9.565168763071693 -1.0492532272641457 0.2130943834144612 178 183 195
10.97763101392194 -1.5694332877193442 0.5517201294486132 108 107 113
11.023795553710379 -1.3973986805974674 0.5584870290906392 173 174 197
12.940575162736812 -0.870348039518749 0.5012247933402242 79 89 99
10.48811131433254 -1.5691465711401424 0.47043172533679034 109 110 113
10.534932045801073 -1.7765445919628609 0.47909791293702597 50 52 59
11.438629465370768 -1.4415429939409614 0.7526513414149524 152 156 180
11.437258088444125 -1.6980598220603993 0.7525233064788407 52 55 61
10.785839805506932 -1.422666671082854 0.6855777439379241 161 165 189
11.472625875610763 -1.683652934534079 0.8755791665903434 51 54 62
11.42964698553361 -1.5699004041177123 0.8724384123053943 24 27 35
10.738652363209916 -1.569635101082897 0.6801876445041395 66 69 71
9.658527909247292 -1.7765445919628609 0.5268437017266401 69 68 80
10.730545755464204 -1.4415429939409614 0.8163982864326502 136 140 160
10.6831140814805 -1.5697848601839504 0.8122172654928267 30 33 38
9.139439048399785 -0.8437959571341914 1.4226733590239422 31 38 44
9.639741168272609 -0.8437959571341914 1.2160026806362376 19 26 32
9.695063253170288 -1.3453319112841091 1.9569222466650498 16 26 38
10.012125832586014 -0.7669512817436313 1.3339922221711424 1 6 12
8.33072747862486 -0.8546168251498137 1.15711415835263 27 34 42
10.091176146677578 -1.0511694223401107 1.5362230111221717 16 23 31
9.628476985021786 -1.2398359368892167 1.849748241207915 18 25 34
11.680385968870494 -1.6721661510970989 0.9961415554194795 23 28 37
11.638174346261126 -1.5699922563516675 0.9937910830555426 54 58 74
12.381616663851913 -1.2980690668992358 1.1240909232166263 14 24 36
11.642338959414568 -1.6627956587598258 1.1879798509065564 8 15 24
11.189095136362859 -1.3862141255893952 1.359303093363749 7 23 39
11.263308143798103 -1.5700670260877954 1.2689109898678024 7 16 30
10.883527044946861 -1.6627956587598258 1.4465449912088408 7 16 30
11.121690746406662 -1.4773508977590335 1.8114933257237533 11 26 41
10.926556497572557 -1.4773508977590335 1.7224940757032718 8 23 38
11.800908136162354 -1.6550072160382596 1.5412336247329406 10 23 38
9.639589465403548 2.582650521646365 0.2462413334057006 39 38 46
9.819058155715636 3.0595462326822473 0.31073455107428793 18 20 22
9.588404066032064 -2.7797919799082944 0.22401803876123863 38 40 43
9.36822138431487 -2.058687703134192 0.47084619750361556 31 36 37
8.760580142522143 -2.4196963778626603 0.30781428987773707 32 35 43
9.811802874167672 -1.9676189301523839 0.5531093332808216 30 35 37
11.807443866036493 -1.7722664502406404 1.003094193894677 22 25 33
11.090752059510839 -1.8684466261081552 1.167870099526722 13 16 28
11.301243241947557 -1.7722664502406404 1.0777694183606608 36 41 50
10.956286393392192 -1.7539686898426672 1.6302661190924739 10 22 35
11.530278228482537 -1.7539686898426672 1.8930030953269965 14 29 46
10.97657736279796 -2.0438461822970506 1.6301560556076462 1 9 21
10.797862373705502 -1.9592822601321322 1.3515172596106404 2 7 18
16.809320244159302 1.1161823132197597 0.7456589327111881 85 105 124
16.992903890819598 1.0744097987286905 0.6672080514690892 93 109 128
14.638479781378848 1.5699480871903684 0.6836493686121928 118 126 135
14.638479781378848 1.5699480871903684 0.6836493686121928 118 126 135
8.441292832851456 1.564502217985549 0.14815778118908626 176 181 189
6.151885415966503 0.2438671407344939 0.9951750822601233 41 48 60
13.378413705324636 -0.5584856073989733 0.5580428641633159 77 86 95
14.640546506149652 0.040931614340998235 0.4232221679628815 66 73 87
13.844273161656833 -0.6432543740566858 0.4690899179918705 50 60 70
13.440539122467914 -0.3368894980886581 0.40583301912038044 45 54 66
13.84426876489959 -0.28404940298449827 0.46908929136690924 81 90 102
14.628666462893891 -0.9973483121705963 0.6828255623739705 40 51 58
14.124092138845805 -0.932777745839879 0.6376320473687502 44 55 62
13.277805876983656 -0.7638154389393077 0.6770774398682633 52 63 71
10.583826508371395 -0.5960652628709775 0.9274700000220417 19 26 32
9.379171818335987 -1.5603943587723625 0.0804769510797717 97 100 108
9.563528742136695 -2.085590242405824 0.21230039787823496 64 68 70
9.797977199505674 -1.2199724672642276 0.30396329973653097 179 183 197
14.317199333333756 -1.0937381023120336 0.6556199846411849 50 59 67
12.940575162736812 -0.870348039518749 0.5012247933402242 79 89 99
10.536420866404974 -1.3618883591861866 0.4793698569366243 177 177 197
10.18952582675304 -1.3973986805974674 0.6105152462847627 170 174 195
9.339538423035277 -0.8437959571341914 1.316575196163765 30 37 44
9.279161207941655 -1.2398359368892167 1.641031097933798 23 30 40
6.0293944892644005 0.0490930800827147 0.9819344341037324 38 45 55
9.32853493980815 -0.9973483121705963 1.4256973904878198 14 21 29
9.524662511562232 -0.9973483121705963 1.3216222944278124 15 22 30
8.33072747862486 -0.8546168251498137 1.15711415835263 27 34 42
11.1242739213862 -1.5699922563516675 1.0692022951761189 12 17 30
15.437996756406706 -1.0187390758503931 0.8361199166047177 23 31 41
11.680385968870494 -1.6721661510970989 0.9961415554194795 23 28 37
12.05292743470264 -1.4773508977590335 1.1109869094129494 4 11 25
11.75912915867186 -1.5701290733454971 1.5411285607183278 7 21 36
12.250706029348011 1.879543619471347 0.5646936002119618 19 21 25
9.811802874167672 -1.9676189301523839 0.5531093332808216 30 35 37
9.588404066032064 -2.7797919799082944 0.22401803876123863 38 40 43
10.168491399078913 3.0800376383905803 0.4042678030505909 24 26 29
9.561882074022334 3.018706583992153 0.21149996524296102 14 16 18
9.01419259665245 -2.197042659499133 0.38662835710477783 34 38 39
9.811802874167672 -1.9676189301523839 0.5531093332808216 30 35 37
11.51965334033457 -1.8684466261081552 1.0879286256291911 0 5 12
12.016656977604832 -1.8684466261081552 1.0141584539140336 1 5 13
11.181436660905744 -1.8421703015047508 1.6290672595853026 8 19 33
11.589271255507207 -1.9262550525312416 1.7137580353359443 7 17 31
11.530278228482537 -1.7539686898426672 1.8930030953269965 14 29 46
10.074352346718856 -1.568707100572315 0.3818366216318841 112 112 116
9.746007976081753 -1.5679484756829976 0.2864758316729137 104 107 113
13.801242444592516 -1.0352386639097086 0.6053483293311083 56 64 73
13.34040438961396 -0.9623980148175986 0.5534616881757394 63 72 82
9.406202527803732 0.23944960605423538 0.11051829268497614 178 181 190
9.35205647234219 1.5389317829247522 0.026325924731362128 95 98 107
9.406202527803732 0.23944960605423538 0.11051829268497614 178 181 190
11.394145791320403 -1.5697848601839504 0.7484734824974559 60 62 65
9.797977199505674 -1.2199724672642276 0.30396329973653097 179 183 197
14.882543481757516 -1.1414480900835553 0.7035368677835732 46 55 63
10.97763101392194 -1.5694332877193442 0.5517201294486132 108 107 113
10.106146851660974 -1.0511694223401107 1.635275453521589 20 27 35
10.296874426122745 -1.1414480900835553 1.9332734625602999 11 16 25
11.168428024831838 -1.6721661510970989 1.071368992937645 14 20 28
11.772472707229095 -1.3862141255893952 1.1924271608943855 9 17 31
11.053513660298027 -1.4773508977590335 1.356668803843706 5 16 32
10.29592152897616 -1.2716768659834805 1.4394138037208475 15 25 37
12.250706029348011 1.879543619471347 0.5646936002119618 19 21 25
9.639589465403548 2.582650521646365 0.2462413334057006 39 38 46
8.760580142522143 -2.4196963778626603 0.30781428987773707 32 35 43
9.561882074022334 3.018706583992153 0.21149996524296102 14 16 18
11.769807590343964 -1.7539686898426672 1.1923371454823308 13 19 29
12.378138500029522 -1.9262550525312416 1.9560108640137905 10 25 40
11.406902353823297 -1.8421703015047508 1.3634009325508425 7 14 27
11.039950827488482 -2.0438461822970506 1.4483144154555958 0 5 13
11.186291031519042 -1.7539686898426672 1.3592492724824279 6 14 27
17.13385341372126 1.0404687875070013 0.7659470985394057 119 135 154
17.29841591517724 1.1979339032918113 0.6893202613184582 105 125 142
17.55707489608224 1.1161823132197597 0.7070064232479079 91 110 129
10.784385418079697 -1.716653352026143 0.6854128467843961 57 58 64
14.148208477067415 -0.7593953862335802 0.509848726935274 51 62 71
6.6371100445231 0.0490930800827147 0.8563128134273843 109 118 128
14.006130135435876 -0.429811414936729 0.4914018926135935 75 86 96
14.134796378104129 -1.1414480900835553 0.7493206798132402 39 47 56
9.511927656046305 -1.5663248165078454 0.18545814350884446 99 103 107
10.773652259025194 -1.5700670260877954 1.6312754671431093 5 20 35
13.607203814104539 -0.5027877555892927 0.43345398772106647 48 57 68
13.607203814104539 -0.5027877555892927 0.43345398772106647 48 57 68
11.306919324465209 -1.6627956587598258 1.2701118585838815 7 13 25
9.639589465403548 2.582650521646365 0.2462413334057006 39 38 46
10.729083872621327 -1.6980598220603993 0.8162702208485302 62 67 73
10.97763101392194 -1.5694332877193442 0.5517201294486132 108 107 113
8.780583816526827 -0.8546168251498137 1.0526433636288917 27 35 43
14.826457436448985 -0.969323848763628 0.798200399219306 24 33 43
9.237095446474717 -0.9973483121705963 1.533024835142417 27 34 42
10.305328090599586 -1.367782946309294 1.830985573004061 10 25 41
14.006130135435876 -0.429811414936729 0.4914018926135935 75 86 96
9.046088341569371 -0.8437959571341914 1.532226902870818 0 3 9
9.639589465403548 2.582650521646365 0.2462413334057006 39 38 46
