6.043913015249378 1.1385194206508025 1.583470429096117 7 11 12
5.781647322242144 1.832220654842981 1.7580993342438158 5 9 12
5.891346408982121 1.474181825425779 1.9310193413274976 3 5 8
5.885941152933988 1.6559057324981783 1.931365260998466 6 9 12
5.697826364595202 1.2985778744983256 1.584240300631089 2 8 11
5.507985727235219 1.6559057324981783 1.5847036958728722 4 9 10
7.63093811349651 1.2985778744983256 2.29864556770484 5 9 12
8.929766988682383 1.1569330565300082 2.7009036910204665 97 118 131
7.707747943530191 1.24184515460529 2.4789600998196044 11 15 18
7.490253532582485 1.6559057324981783 2.3155091093536306 1 4 7
7.490253532582485 1.6559057324981783 2.3155091093536306 1 4 7
8.201042386462339 1.6559057324981783 2.4052868751177017 26 33 37
7.907204371656868 1.419467027255926 2.6791286513495027 69 82 89
7.903177950693306 1.7042402533462502 2.680151660577056 66 79 86
8.50714986577217 1.8869874583207058 2.5532134961327135 12 18 21
8.809847896672924 1.7042402533462502 2.7307119665117887 95 115 131
8.396363340658667 1.452833464289745 2.57329270793384 32 38 41
7.5684912533043605 1.6747475111801213 2.502908987106953 18 25 28
9.422928516734729 1.7568279688789992 2.869632079026131 116 145 171
10.445567390315174 0.5019977639468279 2.6238582083674156 112 139 163
9.525120606935532 2.1039898538303485 2.833493525315469 113 142 169
9.13707291493633 2.186681673375711 2.6550126872784108 90 109 123
9.13707291493633 2.186681673375711 2.6550126872784108 90 109 123
8.735441579215262 2.073645589028783 2.51512248004006 28 34 36
8.266371828721205 2.186681673375711 2.5984152729761023 50 60 66
8.617960545039116 2.3534129159524584 2.5342114935560502 37 46 52
10.029985247597258 2.5193882234420597 2.7020500879432463 112 140 167
9.90487060108231 -0.659353334395775 2.524245389913795 151 178 210
9.372832677125688 -0.8827223048014677 2.276172724358595 156 186 216
8.92012104939237 -0.9628487033907182 2.0454288667697247 123 147 175
7.729940032567859 -1.763794594913558 1.710527099663548 129 142 155
7.603659129782176 -1.6330348414888374 1.7128633441457626 102 117 132
9.320722725515083 -1.140243468056038 2.4329299244915727 151 180 208
7.697419259835701 -1.6425610380521403 2.128932289156653 154 177 203
8.456057017368567 -1.0738708989827805 2.0738375009405985 140 166 196
8.409731861925877 -1.4534800622977724 2.5708081604569215 151 177 204
8.405946153447966 -1.6741765397907258 2.571509957667357 153 179 205
9.164013482887034 -0.9462404699133868 2.6494842599256034 150 179 210
9.591877122926881 -1.059491890076367 2.57182229254665 150 179 207
8.93954606564062 -1.1595528858411999 2.6985898992136033 148 180 208
8.823368098684655 -1.4205263684343492 2.7272089600043885 152 180 209
8.928858051018437 -1.9667116062913828 2.701119586286524 152 180 209
7.834384581531525 -1.3397811784676532 2.118053662611645 153 177 204
8.274486132606771 -1.4893140106608413 2.231312315921556 155 176 199
9.489088595295124 -0.782651583333928 2.5889607875679634 150 178 209
10.253528257746623 0.31715766518205274 2.657756953670127 130 160 187
10.253528257746623 0.31715766518205274 2.657756953670127 130 160 187
11.506590567279524 -0.09237868990506592 2.637729946988987 145 176 206
11.060649493957461 -0.11260658294171974 2.7165748973550627 145 176 204
9.324369360333952 0.7707233850405425 2.9105478326335374 128 157 185
9.324369360333952 0.7707233850405425 2.9105478326335374 128 157 185
9.219207732854272 -0.32284997544831484 2.9654751597883293 139 172 200
9.328384364310507 -0.7790428499200639 2.908725284738214 155 186 217
9.75230115049418 -0.7815626113375286 2.767155365288082 151 182 211
9.543710709317283 -0.5384958766003216 2.827430289528996 155 186 217
9.103102367427862 -2.3110395201007283 3.065266171448072 145 178 208
9.106598265362067 -0.7668734206453349 3.060401140338488 146 179 208
9.207488790666725 2.820990050270413 2.972776924514766 137 169 197
9.314122943329696 2.34964862540074 2.915271641865437 126 155 183
9.208844306265911 -2.8057541219522695 2.971915460592873 144 177 207
9.213045354990387 1.2274307191609508 2.9692742641389693 127 156 184
9.207488790666725 2.820990050270413 2.972776924514766 137 169 197
9.10522752817867 0.7419551301102991 3.062272774128487 132 164 191
9.531670405056584 -2.0996294709156866 2.831341495691902 154 185 216
9.429549298108377 -1.7550213267869652 2.867125568370077 151 180 211
9.432924213640266 -1.3622004066923548 2.8658577749391045 153 182 211
9.429549298108377 -1.7550213267869652 2.867125568370077 151 180 211
9.318142362286531 -2.3413292278021474 2.9134059131985066 155 188 218
9.432924213640266 -1.3622004066923548 2.8658577749391045 153 182 211
9.213654884933746 -1.8709803128634799 2.9688945739304984 154 187 217
8.069878856094453 -1.9330611389182735 2.100366421387477 149 175 204
8.56763547366615 -1.9917710243355073 2.359230677550546 154 179 208
8.748291960435326 -2.0713065467432115 2.513095668363273 153 178 207
9.829830501784421 2.73641846439423 2.747571792312197 124 153 181
9.523089149463845 2.5992045184073924 2.8341645569892857 124 153 181
9.735968439544518 -2.3472980103532617 2.771447682679343 157 187 216
9.735968439544518 -2.3472980103532617 2.771447682679343 157 187 216
5.51376151336377 1.474181825425779 1.5846891266608698 0 7 10
7.707747943530191 1.24184515460529 2.4789600998196044 11 15 18
8.318259251173124 1.832220654842981 2.3898696431575566 31 37 42
8.809847896672924 1.7042402533462502 2.7307119665117887 95 115 131
7.57269563010222 1.452833464289745 2.502161615974258 33 40 45
7.494501800466061 1.474181825425779 2.3149867292058923 3 7 12
8.03663737081462 1.1569330565300082 2.6478014762876283 85 96 105
8.024746878593755 1.969255850702832 2.6505613260030914 53 64 71
8.392571601930609 1.6747475111801213 2.5740006111063343 20 26 29
10.445567390315174 0.5019977639468279 2.6238582083674156 112 139 163
9.426305802715992 1.3601681069441314 2.8683502573241366 117 146 172
9.53514028953648 1.018835469919417 2.830208438795456 117 146 173
9.729556172911654 2.352290347411208 2.7731498690882512 113 141 167
7.822186651241772 -1.792529012548921 2.119004140503951 153 177 205
10.400486569339401 -0.5657283991781317 2.45998326139385 151 178 210
8.520344563445894 -1.8853516528375331 2.550896495054506 154 180 206
8.53154436455182 -1.2435374630106004 2.5489416610101396 151 179 207
10.253528257746623 0.31715766518205274 2.657756953670127 130 160 187
10.253528257746623 0.31715766518205274 2.657756953670127 130 160 187
9.103102367427862 -2.3110395201007283 3.065266171448072 145 178 208
9.209589863739064 1.8757138130824045 2.9714435891898674 127 157 185
9.106598265362067 -0.7668734206453349 3.060401140338488 146 179 208
9.324369360333952 0.7707233850405425 2.9105478326335374 128 157 185
9.103102367427862 -2.3110395201007283 3.065266171448072 145 178 208
9.75230115049418 -0.7815626113375286 2.767155365288082 151 182 211
9.541683209743734 -1.0232838448399681 2.828084915001471 152 181 210
9.429549298108377 -1.7550213267869652 2.867125568370077 151 180 211
9.217108852210009 -1.2326726914052306 2.966759373979677 154 185 216
9.101731103755924 2.3359523608827697 3.067262273076935 132 164 191
9.213654884933746 -1.8709803128634799 2.9688945739304984 154 187 217
9.217853741231052 0.30812264123003835 2.966302475686668 133 165 192
8.069878856094453 -1.9330611389182735 2.100366421387477 149 175 204
9.14663035442081 -2.1833224306992323 2.6530411093086417 152 180 209
9.418821082037217 2.946580824606122 2.871200256698525 137 169 197
9.735968439544518 -2.3472980103532617 2.771447682679343 157 187 216
9.735968439544518 -2.3472980103532617 2.771447682679343 157 187 216
9.420146187943235 -2.936865376678034 2.8706932274077337 144 177 207
9.52702040666515 -2.5918183386516853 2.8328675188954557 155 186 217
8.024746878593755 1.969255850702832 2.6505613260030914 53 64 71
8.588696181548999 1.018835469919417 2.794528798261286 107 132 152
5.611693595842024 1.6559057324981783 1.763842362927583 5 11 13
8.919067255475076 1.969255850702832 2.703454250383941 93 113 129
8.81346011605754 1.419467027255926 2.7297722576050085 95 117 131
9.45634401859611 2.3534129159524584 2.594601218373376 89 106 120
9.9029170447981 -0.9067058953934036 2.5245233250209136 149 178 206
8.819759937212657 -1.703302952755268 2.7281400284749155 151 179 208
8.932319583320474 -1.0009889456410892 2.3189593549971526 153 182 211
9.852343990233908 -1.1595528858411999 2.7421114854609923 150 179 208
9.432924213640266 -1.3622004066923548 2.8658577749391045 153 182 211
9.856270763222875 -0.4046144069917174 2.7411688599594424 154 187 216
9.219207732854272 -0.32284997544831484 2.9654751597883293 139 172 200
9.543710709317283 -0.5384958766003216 2.827430289528996 155 186 217
9.101731103755924 2.3359523608827697 3.067262273076935 132 164 191
9.531670405056584 -2.0996294709156866 2.831341495691902 154 185 216
10.036205567891795 -2.5146515330602246 2.700733853870681 151 180 209
6.043913015249378 1.1385194206508025 1.583470429096117 7 11 12
8.50714986577217 1.8869874583207058 2.5532134961327135 12 18 21
8.396363340658667 1.452833464289745 2.57329270793384 32 38 41
5.781647322242144 1.832220654842981 1.7580993342438158 5 9 12
5.755088989269823 1.832220654842981 1.4096503384023236 6 10 12
7.907204371656868 1.419467027255926 2.6791286513495027 69 82 89
9.422928516734729 1.7568279688789992 2.869632079026131 116 145 171
9.489088595295124 -0.782651583333928 2.5889607875679634 150 178 209
9.377656822815783 -1.2435374630106004 2.608539990908149 148 177 206
8.405946153447966 -1.6741765397907258 2.571509957667357 153 179 205
9.320722725515083 -1.140243468056038 2.4329299244915727 151 180 208
7.701553253501157 -1.4893140106608413 2.1285971862167523 155 177 201
11.059520948096655 0.10716433425556146 2.716800410674355 136 167 194
9.103102367427862 -2.3110395201007283 3.065266171448072 145 178 208
9.829830501784421 2.73641846439423 2.747571792312197 124 153 181
5.891346408982121 1.474181825425779 1.9310193413274976 3 5 8
8.089576072092006 -1.200012038129952 2.098941778069814 151 178 207
8.456057017368567 -1.0738708989827805 2.0738375009405985 140 166 196
10.302010738248013 -0.7832589420063034 2.471852161064497 150 177 205
9.418821082037217 2.946580824606122 2.871200256698525 137 169 197
7.729940032567859 -1.763794594913558 1.710527099663548 129 142 155
10.058381429671215 -0.6183244507693245 2.696084060616697 151 182 211
10.036205567891795 -2.5146515330602246 2.700733853870681 151 180 209
8.928858051018437 -1.9667116062913828 2.701119586286524 152 180 209
12.019371270487936 -0.07829875004526962 2.5650699793336402 145 178 207
9.209589863739064 1.8757138130824045 2.9714435891898674 127 157 185
