6.953217297454736 0.6669755176387973 2.8949502429199434 164 98 124
7.519834796783746 1.158560205602981 2.6829814192848604 164 98 124
7.172696360384405 0.9940079633232297 2.7936154530657675 164 98 124
8.566913746793267 -0.11348317064596473 1.775659724639383 164 98 124
9.41796637922945 -0.5575988651893966 2.226567117945424 164 98 124
9.184944053340814 -0.11348317064596473 1.990502973454949 164 98 124
9.251218998050513 0.007920990049051103 2.387444332742216 164 98 124
9.314885548533116 0.006840962552549084 2.2351091120142534 164 98 124
9.2997156223856 -0.14885233145140672 2.3819092083279925 164 98 124
7.135441218618424 0.021494158138086337 2.8083072037984897 164 98 124
6.938771231300816 -0.6188097272749319 2.9033600387870195 164 98 124
9.554052659939211 -1.2142187267790694 1.5438721976192407 164 98 124
10.9443782799462 -1.1737150363400906 2.2345740076072884 164 98 124
11.409790158185578 -1.2468191527455301 2.4437869171597444 164 98 124
10.318221434862538 -1.0600633656527305 2.419463820484907 164 98 124
9.92046917213435 -0.7480758645497451 2.3181297658733073 164 98 124
11.177197466753231 -1.4045653165124479 2.336065955470167 164 98 124
10.722008010020254 -1.0716875247022386 2.1360242510768677 164 98 124
9.840212052776982 -0.8399374091977218 2.1939573680796816 164 98 124
11.340078311113103 -1.2852507195773084 2.3223593518658756 164 98 124
10.216291976110456 -1.4228526057590731 2.0535710337038036 164 98 124
10.886957687596869 -1.3157103426836358 2.1264435145412364 164 98 124
10.003089425751748 -1.0132144179800462 2.1823036560880302 164 98 124
10.257791890309639 -1.2142187267790694 1.9442932696758624 164 98 124
11.284671366909372 -1.4228526057590731 2.2111987819950367 164 98 124
6.712631647704796 2.0707628612365183 2.5973523402169554 164 98 124
6.511120442791239 1.461788287020713 2.6508820404340643 164 98 124
7.535054181141614 2.4860712527889524 2.678907215905848 164 98 124
6.83224691402768 1.2630279829658329 2.9795985161581378 164 98 124
7.055490074182566 1.4093890690708106 2.842760020335348 164 98 124
7.024552093299242 2.579201635755336 2.857405555752395 164 98 124
9.498111533077815 3.021000297436667 1.9758378401413146 164 98 124
7.671323887477915 -2.8570348395029885 1.1322821429417271 164 98 124
8.64466443195025 -2.423571049002668 1.0558754144481688 164 98 124
8.604288254565166 -2.5028907127656472 1.3053554695000829 164 98 124
9.776626320641878 -2.1015679212301377 1.2311408024909898 164 98 124
7.829231985103298 -2.1824426383298055 2.9928615689006803 164 98 124
6.289492203232964 -2.277913322057853 2.7215656555428898 164 98 124
7.771564563793604 3.066423259104505 3.0555230263277084 164 98 124
7.0505984231775605 -1.9000243777994938 2.845020466516545 164 98 124
5.779661428158451 -2.510155425098345 2.533258344887332 164 98 124
6.624958813694259 -2.510155425098345 2.6196305930691572 164 98 124
8.055542985323077 -1.528830585791682 1.414088848923852 164 98 124
10.053022986456291 -1.9595829975574344 1.847132863714933 164 98 124
9.422766675535954 -1.8603284354288852 1.4369753682628912 164 98 124
8.219276550014719 -1.777393266491949 1.4172355982361307 164 98 124
10.654714872645611 -1.6450946494351106 2.140035205541317 164 98 124
10.42959813513489 -1.528830585791682 2.2737918301715965 164 98 124
10.556573851285425 -1.777393266491949 2.2636424103680874 164 98 124
9.723773079384886 -1.6450946494351106 1.9659087552141967 164 98 124
11.518388615323424 -1.8603284354288852 2.196162370884596 164 98 124
10.76361073831605 -1.7548584807610235 2.133574669685612 164 98 124
9.842973636456984 -1.7548584807610235 1.9608635500734382 164 98 124
10.556573851285425 -1.777393266491949 2.2636424103680874 164 98 124
11.248113190363377 -1.9595829975574344 2.1066281231901183 164 98 124
11.117305313250547 -1.6543994771430495 2.3412535684163123 164 98 124
8.749666218346954 -3.0324266359997836 1.655792901988453 164 98 124
8.09997176477916 -2.892532037236213 1.7876528258840085 164 98 124
9.485039771902892 -2.774271477797056 2.0944287810671316 164 98 124
10.069691597851675 -2.92028506975526 2.061217201678889 164 98 124
9.440009555193143 3.135803417127322 1.9784782276238193 164 98 124
9.401066116293887 -2.6658373601429566 1.9802679528351266 164 98 124
9.221670206121857 -2.1015679212301377 1.5429015069108782 164 98 124
10.140431335801281 -2.1900234307244832 1.8446892047953978 164 98 124
12.138286967725152 -2.051394405890724 2.159758315288473 164 98 124
10.14395761459766 -2.254796130812254 2.0573122585311463 164 98 124
9.562056671065422 -2.5028907127656472 2.089784403640447 164 98 124
12.038436188413215 -2.1015679212301377 2.269431161263606 164 98 124
11.407537021755523 -2.268594662443517 1.9995745154083626 164 98 124
10.818136755578822 3.033373285848714 2.024626929349141 164 98 124
7.212133087860119 0.4228374443965672 2.778841238437649 164 98 124
12.062215128637439 -1.3157103426836358 2.2677764540208223 164 98 124
8.76977448026295 -0.49403129590862976 1.888889172591657 164 98 124
8.158394797983904 -1.4045653165124479 1.416080459617846 164 98 124
10.683320011599378 -0.9412674090381538 2.381476012258016 164 98 124
9.251218998050513 0.007920990049051103 2.387444332742216 164 98 124
11.587277894033647 -1.1737150363400906 2.3026036463502235 164 98 124
9.4618296336911 -0.7541482714130234 1.9774824807740918 164 98 124
9.45433066719135 -0.298637709748421 2.364844318282807 164 98 124
8.25891947617875 2.4476568613289515 2.525990692572992 164 98 124
7.079004682545825 1.884974372576824 2.8321593611737708 164 98 124
7.8420378768442855 2.1360960856895352 2.982332942466284 164 98 124
7.058852514523798 1.7338194267169007 2.521043920662829 164 98 124
7.326438372094026 2.7663684516571285 2.739739026426197 164 98 124
7.944143038827833 2.6317049706270637 2.584462080569126 164 98 124
7.2418695379109606 2.2532361204067937 2.7681723484343084 164 98 124
9.934773060004364 3.021000297436667 2.0684823429069246 164 98 124
8.52062597268435 -2.3317808675186935 1.3026851993310575 164 98 124
7.829231985103298 -2.1824426383298055 2.9928615689006803 164 98 124
7.771564563793604 3.066423259104505 3.0555230263277084 164 98 124
9.732980224864406 -1.8603284354288852 1.8564705227632141 164 98 124
9.752994357129912 -1.9595829975574344 1.4415322870669856 164 98 124
10.759814988477274 -1.8943843514196888 2.2480622431916717 164 98 124
10.370576851131341 -1.9595829975574344 1.9400348018292133 164 98 124
10.759814988477274 -1.8943843514196888 2.2480622431916717 164 98 124
8.890570959813804 -3.0324266359997836 1.7681015119909755 164 98 124
9.924667811493368 -3.0324266359997836 2.069035613232731 164 98 124
9.87923951836074 3.135803417127322 2.0715389128997526 164 98 124
9.247961637543606 -2.1015679212301377 1.6512029671159316 164 98 124
10.76481450531491 -2.051394405890724 1.9259004269342113 164 98 124
9.04424861516667 -0.43585519589121813 2.2587617174803047 164 98 124
10.625502418910395 -0.7480758645497451 2.387217109003622 164 98 124
9.406567146857371 -0.8317387107228729 1.5434499499021863 164 98 124
6.873637209874826 0.0375970057226051 2.9461657219855386 164 98 124
9.839117329138464 -1.1737150363400906 2.073771938098485 164 98 124
11.909214958096394 -1.4228526057590731 2.278580422874039 164 98 124
7.135441218618424 0.021494158138086337 2.8083072037984897 164 98 124
7.430521488304415 1.7858281764020778 2.7079612566029327 164 98 124
6.4023762444730785 -2.799360471880402 2.683683849489621 164 98 124
7.026988758799668 -1.4012372442888499 2.856220808974144 164 98 124
6.289492203232964 -2.277913322057853 2.7215656555428898 164 98 124
9.706667594532801 -1.5335149687161276 1.966643799522689 164 98 124
10.445519822824817 -1.6543994771430495 2.2725008445429493 164 98 124
7.7527611067477995 -2.6066933310354243 1.5376145130821688 164 98 124
7.942070945056251 -2.6066933310354243 1.792035283187913 164 98 124
7.8264363350032795 -3.0183223324634056 1.4094618518332023 164 98 124
9.639143935891918 -2.92028506975526 1.969573098054085 164 98 124
11.612597360274039 -2.051394405890724 2.0880921819170553 164 98 124
11.864683725751446 -2.1900234307244832 2.175244554684045 164 98 124
8.863127771785178 -0.7541482714130234 1.7687205257550334 164 98 124
10.198119627996066 -0.6374100154968277 2.4329372823356286 164 98 124
8.785280725771969 -0.12879664233976856 2.1410637108259145 164 98 124
10.315247660491847 -1.1198404279691365 1.8399309403948543 164 98 124
9.141241948111855 -1.0716875247022386 1.4328281076851073 164 98 124
11.270891010811512 -1.0132144179800462 2.32811147388688 164 98 124
8.510191030503874 -0.49403129590862976 1.7770448228389353 164 98 124
10.654714872645611 -1.6450946494351106 2.140035205541317 164 98 124
11.221713083867625 -1.777393266491949 2.3322625418614256 164 98 124
11.326302435177535 -2.1900234307244832 2.1025340417341614 164 98 124
8.99763879308028 -2.254796130812254 1.6534449938916091 164 98 124
8.218151506243135 -2.774271477797056 1.5394942173877841 164 98 124
10.022553194350346 -2.774271477797056 2.1809426449680522 164 98 124
9.190003520835772 -1.7548584807610235 1.4335648012055167 164 98 124
5.523117644663251 -2.799360471880402 2.6035575994813613 164 98 124
9.792192230656841 -1.4228526057590731 1.9629965873964623 164 98 124
9.084782334944228 -2.6066933310354243 2.120060124279467 164 98 124
6.331726768302715 3.1227772852309887 2.7068712739029244 164 98 124
10.639106255168175 -1.5335149687161276 2.140974277233702 164 98 124
8.591046257199691 -0.22983175310123655 1.6573661243239446 164 98 124
8.93236019845588 -0.9162050165272164 1.7671663570828746 164 98 124
11.10234706354525 -1.528830585791682 2.3425620346006397 164 98 124
11.790065453687237 -1.9595829975574344 2.1796224838312943 164 98 124
6.938771231300816 -0.6188097272749319 2.9033600387870195 164 98 124
8.380157431167616 -1.2852507195773084 1.420206346275822 164 98 124
10.96301433158826 -1.8603284354288852 2.1221416955678065 164 98 124
