9.752966341698832 1.5942369064915956 1.2183704937748174 113 115 141
7.247700425512954 1.1455792006308456 1.9426667200264545 113 115 141
7.147269184309905 1.605661700792497 2.1040965032897976 113 115 141
6.972758730680586 1.4194764071768708 2.2976431657258134 113 115 141
7.154737973828612 1.237134019508641 2.2752463046024975 113 115 141
6.6099335466798825 1.288289853252046 1.8205138261497444 113 115 141
7.154737973828612 1.237134019508641 2.2752463046024975 113 115 141
6.972758730680586 1.4194764071768708 2.2976431657258134 113 115 141
6.947095267044126 1.1455792006308456 1.8081551431482508 113 115 141
8.457598313672772 0.4224300405463483 2.4724052494044986 113 115 141
8.765443609915057 0.5822973592402821 2.4291696058125347 113 115 141
8.119652348175322 -0.14570457271144252 2.337565642667988 113 115 141
8.076557849628095 0.02609681037058859 2.3427190247118594 113 115 141
8.803284359089108 0.02609681037058859 2.424207309882284 113 115 141
8.260080919233197 0.23604024568975376 2.503244340989397 113 115 141
8.994095319745204 -0.3093325574582333 2.4002181328428445 113 115 141
8.156765237614074 0.19638571332772226 2.333191333523568 113 115 141
7.482984813037118 0.6941876714049706 2.4231674954351257 113 115 141
7.557795194698801 1.055276213518711 2.641848035656638 113 115 141
7.557795194698801 1.055276213518711 2.641848035656638 113 115 141
7.347002510499549 1.6387787776361649 2.6972354683170545 113 115 141
7.347002510499549 1.6387787776361649 2.6972354683170545 113 115 141
7.041616340139237 1.383787243594597 2.4981439333167343 113 115 141
7.221860690956224 1.16459283470404 2.4655646146987853 113 115 141
7.95594709354608 0.8314264812317101 2.3575837732249125 113 115 141
7.8543732635312855 0.8468992774225379 2.5765451641294432 113 115 141
8.449100367116372 1.055276213518711 2.698594750278429 113 115 141
7.93473742965561 0.5167329187754199 2.560765957934558 113 115 141
7.198488435904589 0.8779976307489386 2.7427598839718654 113 115 141
7.933690330150291 1.6702084966156558 2.86563387165094 113 115 141
6.9001417300893335 -0.7966726671507072 2.5260055866403985 113 115 141
7.436939797124296 -1.01097611737305 2.6724766301712046 113 115 141
7.638021822985311 2.528259008086772 3.1072360787399793 113 115 141
7.84099481469829 0.0843805008708821 2.9110345992888025 113 115 141
8.127244972436126 0.05416295947584445 2.7912348024893414 113 115 141
6.691062405675643 -1.818321434485074 3.010344155322867 113 115 141
6.921859463494728 -0.44385605289621566 2.851938915690183 113 115 141
7.684657490617077 -0.22062445308011042 2.6124008578305986 113 115 141
7.22262080067378 -1.6459600540825743 2.734904499346218 113 115 141
7.72386079848786 0.29517995321354373 2.603785458003605 113 115 141
7.9235870745064485 0.5726138537068048 2.8701729418075055 113 115 141
7.684657490617077 -0.22062445308011042 2.6124008578305986 113 115 141
6.931031296376359 -1.169091762593955 2.8475314201666593 113 115 141
7.114078013995303 -0.8028758881411538 2.7719290143208526 113 115 141
7.428392635494852 -0.5860149540875191 2.674751833022463 113 115 141
7.759659848822167 0.9719791114075594 2.961033484373061 113 115 141
8.127244972436126 0.05416295947584445 2.7912348024893414 113 115 141
7.84099481469829 0.0843805008708821 2.9110345992888025 113 115 141
8.469344490329533 -1.3471264277867996 1.8869852361139496 113 115 141
7.79281375305264 -1.4566130999799296 2.0558600763672246 113 115 141
6.710300196475392 -1.6150127223904758 2.332987134622116 113 115 141
6.752706115675439 -1.4102076322059278 2.3270092312040083 113 115 141
7.144560486809189 -0.9079536805104128 2.104320339160913 113 115 141
6.6364820984890995 -0.9443499751394021 2.3436601322372237 113 115 141
6.681148354247544 -1.126345730694913 1.8177962652192583 113 115 141
7.709418262426042 -1.3694920173799159 2.6069346162831906 113 115 141
6.8262134436722395 -1.6264792419939702 2.5414881916419683 113 115 141
8.902101373343672 1.7187132974366095 1.182980314920462 113 115 141
6.4790808003864 1.7657428757973062 1.8256680936774696 113 115 141
6.4790808003864 1.7657428757973062 1.8256680936774696 113 115 141
7.273694442488901 1.9768300664457075 2.261427072241667 113 115 141
7.273694442488901 1.9768300664457075 2.261427072241667 113 115 141
7.246554052453012 1.7657428757973062 2.0960271447458156 113 115 141
7.4794140463849415 1.9163776089910933 2.078076824143405 113 115 141
7.729461223730311 1.8023542924144342 2.3874175996481957 113 115 141
7.9481859346197785 1.9768300664457075 2.3585634407724596 113 115 141
7.1022910645784085 1.8554408546084553 2.486837049060373 113 115 141
8.234173907502477 2.3707455916246913 2.7572706621406664 113 115 141
8.234173907502477 2.3707455916246913 2.7572706621406664 113 115 141
7.731006804455488 3.017887745792641 2.9826136385986763 113 115 141
7.949688990940102 3.0735051579104966 2.858614170032257 113 115 141
7.949688990940102 3.0735051579104966 2.858614170032257 113 115 141
8.031163520675845 2.6622677672868558 2.8255947429682675 113 115 141
7.993467495994092 -2.775506577102353 2.8403519231153447 113 115 141
7.993467495994092 -2.775506577102353 2.8403519231153447 113 115 141
6.815953166575815 -1.8162210690743181 2.3182921133397993 113 115 141
6.992006601627385 -1.775537200013459 2.1172573543249715 113 115 141
6.891600526975879 1.07507602747494 2.1261432342580244 113 115 141
6.891600526975879 1.07507602747494 2.1261432342580244 113 115 141
6.781969023874494 1.1455792006308456 1.6643442846744843 113 115 141
6.412512014309313 1.4437884299248296 1.828373714072422 113 115 141
6.737012627437701 1.4437884299248296 1.9724081245892149 113 115 141
6.925189549760919 1.288289853252046 1.9608958679367192 113 115 141
9.061008795564836 0.3559597891842031 2.392187877553273 113 115 141
8.35672493173669 0.3559597891842031 2.3105817700030045 113 115 141
8.87692784414423 0.19638571332772226 2.4147495410543574 113 115 141
8.223434313348648 -0.17558230332019079 2.509274928989016 113 115 141
7.030231187825998 0.8468992774225379 2.500306564099059 113 115 141
8.026350394056596 1.16459283470404 2.5435994662364054 113 115 141
7.531678630786202 0.9797791731939087 2.4158036007205057 113 115 141
7.509270731550095 0.6575780399794949 2.6538151597703536 113 115 141
8.129284382431571 0.8779976307489386 2.7905489418911964 113 115 141
8.262087540127974 0.6941876714049706 2.50291708487479 113 115 141
7.675303806772907 0.18994786025855143 3.0371933655830126 113 115 141
6.921859463494728 -0.44385605289621566 2.851938915690183 113 115 141
7.84099481469829 0.0843805008708821 2.9110345992888025 113 115 141
7.436939797124296 -1.01097611737305 2.6724766301712046 113 115 141
7.675303806772907 0.18994786025855143 3.0371933655830126 113 115 141
7.84099481469829 0.0843805008708821 2.9110345992888025 113 115 141
7.114078013995303 -0.8028758881411538 2.7719290143208526 113 115 141
7.638021822985311 2.528259008086772 3.1072360787399793 113 115 141
7.113430240804316 -1.2745216723307813 2.1069072049795343 113 115 141
7.551942037584466 -1.3157828880457625 1.9270015180195825 113 115 141
6.993194701998394 -1.126345730694913 1.9569007135704968 113 115 141
7.37976404644299 -1.4566130999799296 1.93569664722097 113 115 141
7.052589049015775 -1.1364622857022633 2.49607211236248 113 115 141
8.347129059743692 1.9386929348393986 2.725085896488474 113 115 141
7.814761586491122 2.3830434884577345 2.9258004573837573 113 115 141
7.949688990940102 3.0735051579104966 2.858614170032257 113 115 141
7.776016574530746 -2.531528616592213 2.949852697855143 113 115 141
7.949688990940102 3.0735051579104966 2.858614170032257 113 115 141
7.66473638865579 -1.8835252884859481 1.9215315740538066 113 115 141
7.437680758505772 -1.746303859266507 1.9327236621877057 113 115 141
7.182228262201426 1.6007892784926496 1.6591169365001224 113 115 141
7.247700425512954 1.1455792006308456 1.9426667200264545 113 115 141
7.557795194698801 1.055276213518711 2.641848035656638 113 115 141
8.842837953045548 -0.14570457271144252 2.4190953913669033 113 115 141
7.286090479575087 0.39185387378433834 2.7151316516463546 113 115 141
7.722785107172156 1.755077223574283 2.989397179604597 113 115 141
6.889723047662057 -1.6863134370209716 2.868024134308465 113 115 141
8.180886525867484 0.0315468649568137 2.516408235094344 113 115 141
7.262035691745694 -1.3017824650210486 2.7224816771524147 113 115 141
7.969589287572042 1.2206841875409755 2.850149964951816 113 115 141
7.385753654648216 1.3265043129347784 2.6863399991845895 113 115 141
9.061008795564836 0.3559597891842031 2.392187877553273 113 115 141
8.316182113086054 -1.4710573874508128 1.8930167512047986 113 115 141
7.03402743814358 1.8023542924144342 2.289923877431259 113 115 141
8.031163520675845 2.6622677672868558 2.8255947429682675 113 115 141
7.4436237634249 1.9386929348393986 2.6707081105043913 113 115 141
7.467341336245984 1.07507602747494 2.2401814267097824 113 115 141
8.35672493173669 0.3559597891842031 2.3105817700030045 113 115 141
7.244518589266947 -0.29584704359732933 2.7279426582788386 113 115 141
6.6364820984890995 -0.9443499751394021 2.3436601322372237 113 115 141
7.9481859346197785 1.9768300664457075 2.3585634407724596 113 115 141
7.437680758505772 -1.746303859266507 1.9327236621877057 113 115 141
7.53155006473094 -1.8162210690743181 2.415822838084411 113 115 141
7.385753654648216 1.3265043129347784 2.6863399991845895 113 115 141
7.9235870745064485 0.5726138537068048 2.8701729418075055 113 115 141
7.7206383209617115 -0.8242471033824446 2.991220874422558 113 115 141
7.639109450142558 0.03987265996369285 2.6226866948107816 113 115 141
7.246554052453012 1.7657428757973062 2.0960271447458156 113 115 141
8.023249410111681 2.0848080425990743 2.8286257293769737 113 115 141
7.731006804455488 3.017887745792641 2.9826136385986763 113 115 141
7.764876536642586 -1.8764568555521028 2.594994087811948 113 115 141
6.367841013703034 1.605661700792497 1.8302221453099374 113 115 141
6.93169915377316 1.6124231586977145 2.302923043336075 113 115 141
6.93169915377316 1.6124231586977145 2.302923043336075 113 115 141
7.154737973828612 1.237134019508641 2.2752463046024975 113 115 141
7.828184868310588 1.6224351729104967 2.581843956589773 113 115 141
