8.124202963475783 -0.5024567289835629 1.4719101167271036 46 213 126
9.390429349347833 -0.6938160518860826 1.3776942676377286 46 213 126
9.590000502207573 2.5685915894615863 1.3817618848203517 46 213 126
16.72185440328046 2.8062666677844486 0.5999024485971558 46 213 126
7.8976157501892965 -2.471637967052228 0.9172074068719379 46 213 126
9.185469595175288 -0.6044125606538724 1.9263950750298857 46 213 126
10.43497708130381 2.617524761819746 2.928039645693978 46 213 126
10.239433517001327 3.025513188505118 3.051533145110574 46 213 126
10.27636955491567 -1.8849329281776495 2.494344925622414 46 213 126
12.700515898560985 -1.3886822232683602 2.6502316280525475 46 213 126
11.616499416537986 -1.2119401211092193 2.872333670566746 46 213 126
11.56600572501432 -1.5413285083194677 2.8886359161215327 46 213 126
12.946578842542369 -2.027856200008026 2.799857345654873 46 213 126
12.654348415712164 -1.5563258964661535 2.6570932625241577 46 213 126
12.798101159918614 -1.8849329281776495 2.636167345184951 46 213 126
12.268513450749008 -1.3525410435070044 2.7207325451324325 46 213 126
12.009081134821606 -2.027856200008026 2.771947960629581 46 213 126
12.254602472723567 -1.7555941025437032 2.723275859135452 46 213 126
11.890693838716544 -1.8015546779061893 2.79856177844045 46 213 126
11.905030050059445 -1.2989432260076552 2.795205812154437 46 213 126
11.357191846256407 -1.5257819716216425 2.9739306599735666 46 213 126
12.377847567034712 -2.020850693059707 2.970886885061806 46 213 126
11.408609770521402 -1.0503070499263494 2.9491180598386375 46 213 126
13.468405964424537 2.1276490501834195 1.8105258603863807 46 213 126
13.451855557910301 1.9564226447687245 1.8108266044409926 46 213 126
11.771637491462624 2.089443926387995 2.618571809936384 46 213 126
12.341423675236536 2.4181711215341846 2.297302229000264 46 213 126
12.53309679455296 2.115803508035127 2.2837925507357073 46 213 126
13.041874896658793 2.264911363981651 2.353588776513219 46 213 126
12.5603770192699 2.2202249075591434 1.997460202918126 46 213 126
12.250164476576167 1.9767879396573753 2.1988596990325537 46 213 126
12.41894958133262 2.337043347217352 2.534235905775902 46 213 126
11.891999654741017 1.915949720254869 2.331409449541182 46 213 126
11.717455046776319 2.264911363981651 2.2322845270398908 46 213 126
11.983414021479394 1.9600121646306359 2.44581526187034 46 213 126
9.672207903374053 2.5685915894615863 1.8000415231976385 46 213 126
12.483846371960418 2.534694167035957 2.52679577159676 46 213 126
11.669942620486017 2.3322699593146985 2.6338895752199267 46 213 126
10.936053831654073 3.123561768892576 2.5700461904052263 46 213 126
10.487190370819446 2.920113938867068 2.6405120657218557 46 213 126
9.521854728905385 2.8458632114294473 2.279588056358413 46 213 126
10.66387248723335 2.7787252480027638 2.8448947105813573 46 213 126
11.738980888495544 2.577894142845355 2.623417006306253 46 213 126
9.99692022252666 3.1143537041018896 2.739073491308209 46 213 126
11.35668272709188 2.4707755394259747 2.6859261866170923 46 213 126
11.822851992250609 -2.9916886615381175 2.6111071000829162 46 213 126
11.9757999246602 2.799429517860492 2.589722207091781 46 213 126
11.980429140927743 -2.4504158495977055 2.4461136599332187 46 213 126
11.300191739708355 -2.5051082271663243 2.696235780126809 46 213 126
11.477677521712247 -2.7738754932736893 2.664866125751916 46 213 126
11.661906651240795 -2.874330042267303 2.479514537068594 46 213 126
11.604245116590238 -2.157131424772919 2.4859159607891437 46 213 126
11.23097539741554 -2.4504158495977055 2.389030338889342 46 213 126
12.504403709790694 -2.525737119399586 2.397312606994504 46 213 126
12.13891234120447 -2.686641087320446 2.568269459790638 46 213 126
10.398545192904109 -2.3580046057778032 2.209355148984739 46 213 126
11.971234058742672 -2.471637967052228 2.5903420000765043 46 213 126
11.298300111783512 -2.2134271482711303 2.696586655813315 46 213 126
11.22907210944464 -2.2658947466487653 2.389211366156313 46 213 126
10.092906255337628 -2.157131424772919 2.364803404845917 46 213 126
11.680679227438715 -2.108010609663731 2.632239856182722 46 213 126
12.14398494703032 -3.041716382021317 2.311844421523089 46 213 126
11.395624548863982 3.1281174183209206 2.3737249357330623 46 213 126
11.021402095251538 -2.9323184557397983 2.168026987367801 46 213 126
12.474621368092977 -2.7911195172021137 2.3999085761987193 46 213 126
12.451896802916453 -2.8277606948947605 2.289445526675792 46 213 126
12.743738073095857 -2.6844365905203995 2.377139995921783 46 213 126
12.870767330055008 -2.359874529346803 2.816822673605724 46 213 126
12.012640241812766 -2.6911126564686603 2.7711840298292336 46 213 126
12.563205850329597 -2.108010609663731 2.671062336408959 46 213 126
19.17105961407841 -0.5326909463979045 1.1516608882062063 46 213 126
18.727628469906215 -0.6582999720267857 1.255799964787784 46 213 126
18.076173246120764 -0.8177367741150317 1.3588780865425227 46 213 126
18.207575790140673 -0.6582999720267857 1.360430537640867 46 213 126
18.61021707669928 -0.7377157666593298 1.2537435237597951 46 213 126
9.068727373330008 -1.093198846497197 1.3707530107025137 46 213 126
9.798801580382719 -0.9984738886999459 1.2807884592851573 46 213 126
8.10184946455676 -1.8417294336596748 1.0823172980579732 46 213 126
7.967838244462823 -2.0872769250195566 1.4699629863371921 46 213 126
9.919261895541213 -0.9984738886999459 1.8990565864265991 46 213 126
10.0305530288178 -1.1401822222909708 1.7917131025218827 46 213 126
11.436987469728315 -1.093198846497197 2.251520592727763 46 213 126
11.270533256874431 -1.2368672800555078 2.153069597218047 46 213 126
11.901225918696069 -1.1499610938614961 2.454126247956 46 213 126
10.83553452116161 -1.093198846497197 2.179739652794847 46 213 126
7.9841816855983385 -1.5599920533909664 1.721403840227918 46 213 126
7.896282870136203 -1.5599920533909664 1.595866065319453 46 213 126
10.94756974777805 -1.3630604141618874 1.9643343171464613 46 213 126
11.600342348436667 -1.7828569117061115 2.240168166439659 46 213 126
12.270819404156235 -1.808773167040347 2.4182207239593474 46 213 126
12.154981658265903 -1.686166096481993 2.42907990177967 46 213 126
12.154981658265903 -1.686166096481993 2.42907990177967 46 213 126
12.298588939503212 -1.3125143010250397 2.4156674324522265 46 213 126
12.89612435577377 -1.5599920533909664 2.4828709508568014 46 213 126
12.309481776305226 -1.5584248538289986 2.547152072685558 46 213 126
12.095658607578896 -1.5612068464846458 2.315506359362797 46 213 126
11.545476942990113 -1.414638504704725 2.4925621728398197 46 213 126
12.273797198822546 -1.3404799210653802 2.302209224115291 46 213 126
13.313915883441458 -1.277040955302586 2.570054853253271 46 213 126
10.202055084253344 -2.127697227933668 1.9948731405200677 46 213 126
10.22977869892308 -2.0311999557138742 2.1037948673906133 46 213 126
11.747619527487954 -1.9245274047671839 2.3431710933781735 46 213 126
10.006231852220152 -2.279935589366431 2.0037263003569064 46 213 126
11.10044516063321 -1.9708279650379827 2.401673790278016 46 213 126
11.564688473701825 1.9295185318072903 2.6504973200090003 46 213 126
11.159242863750338 2.0070782908483173 2.7234768958543834 46 213 126
12.569717267748631 -1.8769983297156174 2.897771321053567 46 213 126
12.39705580186573 -1.1679541137946676 2.698135929580034 46 213 126
12.220714055563446 -1.5533692765430749 2.729558053743818 46 213 126
12.824729016745879 -1.2307068799112488 2.6324278750094283 46 213 126
12.265057739237333 2.074293158017553 2.4187528607835547 46 213 126
12.81198498793906 2.1002843506015405 1.9885506814685907 46 213 126
12.619868108798213 2.1758385814211767 2.3874309060706684 46 213 126
12.349577765042527 2.201120850456503 2.1930265379878064 46 213 126
12.847557683868102 2.4293806960136326 2.487770117031807 46 213 126
11.90305176155242 2.115803508035127 2.22020251776315 46 213 126
11.96817028482349 1.8805574379538597 2.2160778069977565 46 213 126
12.834071981174827 2.0234117107062675 2.074792113736006 46 213 126
12.17575810884058 2.020671510307234 2.309459255660414 46 213 126
12.042300050325629 2.445527345779645 2.580817224923363 46 213 126
11.541810297516733 -3.01311016156581 2.492981023033174 46 213 126
10.606830734124278 3.1050156517937535 2.8630238114598274 46 213 126
10.78165791164067 2.9828944230852192 2.4346629050171336 46 213 126
10.429182310814165 3.119894068066352 2.650763422824563 46 213 126
10.991387155880041 2.956628541385621 2.5622657238612256 46 213 126
10.97941738712073 2.8660892842242176 2.7620202290728275 46 213 126
11.68433836769586 -2.609516120593945 2.6316794193299256 46 213 126
10.508720234445024 -2.0300966780898047 2.4656347910075374 46 213 126
11.978644934321453 -2.2658947466487653 2.446292148798506 46 213 126
12.332766384213702 -2.3583737126391147 2.544364899581036 46 213 126
12.147980504554502 -2.6287843131915536 2.4297472710495187 46 213 126
12.28126607801048 -2.9067873767475416 2.4172579766806748 46 213 126
12.258183070589622 -2.9323184557397983 2.303352977279335 46 213 126
11.980846666685451 2.3243281324136262 2.7780788554878617 46 213 126
18.458341137112253 -0.7780097534180451 1.473011915578523 46 213 126
18.83361790093437 -0.45619457219809645 1.2576331695535314 46 213 126
19.845484274958174 -0.7072143323509924 1.5807703990261346 46 213 126
9.00604950009621 -1.3125143010250397 1.1349611224490133 46 213 126
10.492234947361 -2.190171131190734 2.202742951880821 46 213 126
11.540239807992712 -1.808773167040347 2.3608320181815183 46 213 126
12.129896408780004 -1.6732898252369208 2.312907701534191 46 213 126
12.095658607578896 -1.5612068464846458 2.315506359362797 46 213 126
9.454087528358873 -0.8475784033989058 1.8054286176079293 46 213 126
8.499143862681333 -1.9245274047671839 1.712215197977397 46 213 126
11.849928013188523 -1.2368672800555078 2.2236107653754873 46 213 126
11.081498821650367 -1.1401822222909708 2.0590274759702183 46 213 126
10.707634588340433 -2.0872769250195566 2.30800604301545 46 213 126
13.063351940689197 -1.3125143010250397 2.4665053581748175 46 213 126
9.46006726529459 2.617524761819746 2.9056348091999893 46 213 126
9.454355464142164 -0.7693756407538879 2.030878225728628 46 213 126
12.037454496536292 -1.0790736114007504 2.765911421004446 46 213 126
11.723111698876593 -2.1553985393411854 2.8411371083782773 46 213 126
11.270694502599147 -2.3680154605027095 3.0279052303165175 46 213 126
11.693259104562035 2.3425059426821675 2.129448294102499 46 213 126
11.714022500627893 2.1408588194732228 2.473827294053401 46 213 126
9.203444961976981 2.8814540776640474 2.0444342109016294 46 213 126
11.940121901766966 -2.831792763538175 2.5945947921173738 46 213 126
11.865359182959667 -2.7452979275463845 2.4578160277432506 46 213 126
11.96944848148631 -2.245542521151721 2.5905846818064777 46 213 126
10.894247213406901 -3.041716382021317 2.175986321925221 46 213 126
10.959971248018444 -2.9172337802426975 2.7664930804830496 46 213 126
7.6790504744957335 -2.4504158495977055 1.5965754172734947 46 213 126
12.041884655328476 -2.6844365905203995 2.3196304162307184 46 213 126
11.023865753550641 -2.3580046057778032 2.2822576410104216 46 213 126
12.278192255060878 2.1880381842607908 2.718974859882474 46 213 126
11.927312255532419 -2.359874529346803 2.790066530436006 46 213 126
19.78533188103348 -0.7785378829433928 1.5808007237289172 46 213 126
7.986541108540389 -1.686166096481993 1.4701999183359735 46 213 126
11.377175408501682 -2.0311999557138742 2.2557855653233925 46 213 126
12.16900651818 -1.4341592869701154 2.4277468670362667 46 213 126
9.391705621559023 -0.9984738886999459 1.5918736130842057 46 213 126
12.343126481480576 -1.7027210506596697 2.5431318271490078 46 213 126
11.530693704820607 -1.7027210506596697 2.4942539480350137 46 213 126
11.81380927302604 -1.7247792555436956 2.6124134925726716 46 213 126
13.024755069341117 -1.0885098073703843 2.605561832081883 46 213 126
11.601806676880141 -1.8769983297156174 2.8769616214460894 46 213 126
12.369507326531611 -1.9437715186941347 2.7028479066822855 46 213 126
11.855368094858735 2.277010522766014 2.0246650555339665 46 213 126
13.8485323297279 2.025242487448479 1.8038219773579003 46 213 126
11.306152085889867 -2.0300966780898047 2.5209997444185643 46 213 126
10.491683855405553 -2.9323184557397983 2.0891307280203035 46 213 126
11.59659498096592 -2.3589319086190152 2.645377101021793 46 213 126
10.929659899798018 2.8458632114294473 2.418954144692776 46 213 126
12.415308076154904 -2.559442008423195 2.534658064503862 46 213 126
11.724934790547145 -2.56551264435943 2.840635672174841 46 213 126
19.41311263653793 -0.6676318137872549 1.4259517086694755 46 213 126
18.43636907361884 -0.5804607965038415 1.3630796114779549 46 213 126
8.664366445875983 -1.198183686966373 1.3612813105282493 46 213 126
9.941694917065202 -1.2368672800555078 1.8982881773818052 46 213 126
11.112284563223756 -2.190171131190734 2.27541836365453 46 213 126
10.450589290357806 -1.9245274047671839 2.205663502653951 46 213 126
12.356937802892505 -1.414638504704725 2.541494649495517 46 213 126
11.791097749692206 -1.198183686966373 2.3395847890488213 46 213 126
12.68995872299357 -1.1499610938614961 2.5041536678084997 46 213 126
20.81601185787243 -2.981468950023208 2.0827808904376846 46 213 126
12.191517626493441 2.6579556374646742 2.561620773416078 46 213 126
12.681767303013201 -2.1553985393411854 2.8644763037985115 46 213 126
12.208499475339499 -2.2134271482711303 2.7318532779006808 46 213 126
10.466829771740347 -2.961787137956389 2.6440752927601836 46 213 126
12.143950239294494 -1.4493632949386435 2.311847036658797 46 213 126
11.038765765743433 -1.3404799210653802 2.1669576307565657 46 213 126
8.55029964816649 -2.190171131190734 1.7113634653335912 46 213 126
11.855765273884895 -1.5488944444333381 2.8069083735716838 46 213 126
9.472811702336324 2.662968134672696 1.9151529162308136 46 213 126
12.120814715857344 -1.5599920533909664 2.4323490185335848 46 213 126
12.344297495447464 -1.5257819716216425 2.987449668945331 46 213 126
11.530693704820607 -1.7027210506596697 2.4942539480350137 46 213 126
