13.469344590864184 0.978247338939808 1.1281077905882846 0 6 29
13.664294783271492 0.8041991426171601 0.9659622057837118 3 14 21
13.664294783271492 0.8041991426171601 0.9659622057837118 3 14 21
14.279531841623701 0.8621326295332485 0.9954489656200415 3 12 17
13.759020280431299 0.9290448272011012 0.9707134573644622 2 9 14
13.072241857332704 0.978247338939808 1.1972867720730562 0 5 23
13.336737905738607 1.4344162259554678 1.4376974591780374 141 180 211
13.070277341486324 1.2410765605717025 1.1135827933107951 146 185 215
12.579128055242602 1.127220567758068 1.094280575847872 72 75 100
12.888826866711689 1.0854745372224395 0.9237435956651425 0 15 30
12.863495514015835 1.0358830655680444 0.8206251358600702 4 17 23
12.285482364271187 1.2724566760697071 0.88609320343086 43 73 99
12.070059868253738 1.3523539118271644 0.7574646369794765 12 23 31
10.29509900453374 -0.6830995726085105 2.4971293301145208 1 20 33
9.52891821960399 -0.9490809574650197 2.613362692020498 15 41 55
10.948660295601249 -0.7151867724930288 2.176123834808143 17 23 24
9.966780942319744 -0.7964031992841807 2.382445019000025 50 54 53
9.747502972837243 -1.2195175999641275 2.5761141649526014 55 67 68
9.173218697651187 -1.0524296599329643 2.478639693099308 1 5 4
9.744529931358038 -1.1283415815867748 2.406797702854191 0 5 3
9.744529931358038 -1.1283415815867748 2.406797702854191 0 5 3
23.349655683895566 0.27887753213241206 2.2261459448288825 50 115 152
16.609139018563123 0.976333582551906 2.5997603040642465 97 149 173
15.731580981226923 1.1406033852672608 2.7011388417188735 69 138 180
16.20714105714365 0.9040718677990295 2.6424978126730343 33 94 125
16.20714105714365 0.9040718677990295 2.6424978126730343 33 94 125
15.731580981226923 1.1406033852672608 2.7011388417188735 69 138 180
16.765696971543704 0.12395086630755967 2.58444104560863 62 128 165
16.2934357009132 0.542334358191095 2.6328670637463 54 120 157
16.2934357009132 0.542334358191095 2.6328670637463 54 120 157
16.071215549795486 0.4274081186953353 2.6582408612308344 59 125 162
16.765696971543704 0.12395086630755967 2.58444104560863 62 128 165
16.573114512112607 0.6433261801927931 2.603382421390645 31 96 133
16.67836921409684 0.014128247312577022 2.721783446417447 57 123 159
16.188691549750775 0.7211206021004899 2.644592456687654 35 100 137
14.108172601827397 0.6840301850199297 2.786929935167292 50 115 152
15.162556198706499 0.4119319707099164 2.7890702464238624 63 128 164
16.005352112849227 0.22461945768526434 2.8290828312322693 99 162 198
14.129339026158743 0.9716375784005694 2.7829065186704427 73 136 170
14.91657112900502 1.1573252662681874 2.837040765812096 66 129 164
14.65313377410041 0.6430759518778645 2.900728982506756 59 124 159
14.65313377410041 0.6430759518778645 2.900728982506756 59 124 159
15.478378543381593 0.8620076607284798 2.9622530263447047 68 131 166
14.673514117445125 1.044851830010314 2.895138110518645 54 120 157
14.829241622331425 0.836064369774048 2.856371410546475 81 147 184
14.832757463664965 2.2245554798683407 0.7581827970098924 35 44 68
12.76465328700205 1.491998627121718 0.9163729335744937 119 152 179
13.529249694324283 1.8083938759423044 0.7639207635475702 77 103 128
13.529249694324283 1.8083938759423044 0.7639207635475702 77 103 128
13.427111714399437 1.6893737284929644 0.8590643012987575 147 185 213
14.017994056750293 1.9652601017057028 0.8948766310909617 140 179 206
14.326807937412214 2.0903623778688645 0.8203993478370722 133 166 191
15.050212617393836 2.5565420884921966 2.3181953756321088 101 131 142
15.050212617393836 2.5565420884921966 2.3181953756321088 101 131 142
8.649382519594129 2.891418823813511 1.3647171152310449 17 39 50
9.299764148030283 3.023052674087678 1.4879178461584328 17 39 50
10.005239767317555 3.023052674087678 1.184468538254095 18 36 46
8.907948950297232 2.891418823813511 1.2546108111333538 16 39 51
10.005239767317555 3.023052674087678 1.184468538254095 18 36 46
10.365928884598288 3.1311572089047077 1.0926336980413243 23 38 49
9.37194067672357 3.1311572089047077 1.380807854683923 19 40 48
9.653027032338732 -3.0436800486076283 1.279762247704394 26 42 48
9.414945265705013 -3.0436800486076283 1.3816861841820478 22 40 47
10.075818068701032 2.7228327831607575 1.5936383180210427 21 36 47
9.712364905714653 2.817063623140172 1.5944932612114058 15 38 51
13.737508325157686 2.67846827266036 2.410860748012821 54 110 138
14.357045115383297 2.7228327831607575 2.36392421013548 63 114 137
14.10434921410225 2.817063623140172 2.3822918574070164 36 92 115
9.27069990228075 3.023052674087678 1.5956224325293793 16 39 50
9.171504799769096 2.67846827266036 1.5958909972261865 23 40 47
13.994876157644164 2.635876110707855 2.290998304921669 94 143 167
14.068092005513092 2.5856904314566456 2.385011178417765 62 121 152
14.59952733902426 2.9389742232795717 2.3471978135424063 27 73 93
14.489793678003567 3.034577801694932 2.3546633670600645 12 51 63
14.776274097847583 2.8469739365139852 2.3355163491325888 24 73 92
13.173287612804623 2.05454989641618 2.5915318054118526 83 139 171
13.451435462100182 2.1743944581406005 2.558683688714443 110 164 191
13.451435462100182 2.1743944581406005 2.558683688714443 110 164 191
13.901822152568025 1.8564179571299941 2.829468017039965 50 113 148
13.851175029587072 1.6202683308105348 2.841006594689457 64 127 161
12.953779205022453 1.8564179571299941 2.8057598718486836 44 107 142
12.953779205022453 1.8564179571299941 2.8057598718486836 44 107 142
13.589075465551428 1.636207459220814 2.911239664629836 47 110 145
14.322872950472474 2.402604442177785 3.027732716618251 85 148 183
13.431235343245662 1.978798662246277 2.7154665858386644 63 126 160
12.741406077739894 2.131900705022819 2.6495903001311847 35 96 130
12.741406077739894 2.131900705022819 2.6495903001311847 35 96 130
13.431235343245662 1.978798662246277 2.7154665858386644 63 126 160
13.289530263151569 2.2344197931954626 2.73960008266095 53 116 148
12.80679223935651 2.189193016541979 2.840362704265153 58 121 157
13.57505481533671 2.381025340410719 2.9156859015070666 54 119 154
13.100880454877329 2.678966506633612 2.7749470488369803 34 99 136
12.081360579597723 2.373142944373523 2.7639649957376937 46 109 144
13.57505481533671 2.381025340410719 2.9156859015070666 54 119 154
13.456969775829617 2.6798948284882944 2.957722492539117 53 116 150
13.297561670651932 2.506683843628619 2.738181809151509 59 124 159
13.764962438423181 2.189193016541979 2.8619187366956704 34 99 135
13.28504228049021 3.0619159387699515 3.0506408932167153 60 123 155
13.467300380187055 2.557974005809693 2.5568994014179487 57 117 152
13.907653775456545 2.474659074202756 2.6453576591751546 40 103 138
13.907653775456545 2.474659074202756 2.6453576591751546 40 103 138
14.653070442507616 2.9666974720077044 2.6972453480843623 81 141 176
13.33591393428125 2.9339654751605493 2.731496230269666 75 139 174
14.2357935987182 2.9905827566751655 2.6043270826184353 58 121 155
15.448660653916248 2.9176519307797997 2.484322360587403 51 107 137
15.378629270454315 2.735631362838737 2.6066410458972706 53 116 150
14.766970875798487 3.008761858594987 2.5466998228353357 83 140 169
15.345000433628385 3.023052674087678 2.493126033897387 46 103 131
14.874659879758104 2.891418823813511 2.5360837219874717 65 121 156
14.766970875798487 3.008761858594987 2.5466998228353357 83 140 169
14.347470058414853 2.858410152851079 2.5914008881626054 44 106 140
15.485429916017194 2.8469739365139852 2.382130334580871 42 94 119
15.173078349776832 3.1321799467798814 2.40406794718133 7 49 66
15.888229554548753 -3.0610764868599927 2.3557901877573686 11 42 45
13.761006252636617 0.8621326295332485 1.0564564242701682 3 14 18
12.550994680161557 1.175332895276904 0.9032460954743052 11 34 55
12.815528051732612 1.3238520117606678 1.103779269321833 140 182 213
13.293466385359931 1.0033782708606553 0.9465477262081148 0 7 15
12.09705279744587 1.3757287783194307 0.8733083999036809 90 123 150
12.993415762178046 1.0495597691802312 1.1106704135522676 11 18 44
12.863495514015835 1.0358830655680444 0.8206251358600702 4 17 23
9.868873946632728 -0.7992608925219995 2.5570207604556154 11 32 43
10.077214601354784 -0.999244147506873 2.370964477518756 27 34 33
17.293128115387532 0.8069048548711246 2.5372535835072183 62 124 153
16.609139018563123 0.976333582551906 2.5997603040642465 97 149 173
16.519030231421382 0.37797868820817715 2.608892065004159 57 123 160
16.36112105250765 0.2626113041865114 2.6254976116059945 53 118 155
17.630097583470626 0.1598725477763092 2.740390736328883 69 134 169
14.91657112900502 1.1573252662681874 2.837040765812096 66 129 164
16.005352112849227 0.22461945768526434 2.8290828312322693 99 162 198
15.73457675686454 0.28100645690253717 2.88769333017702 89 152 187
15.162556198706499 0.4119319707099164 2.7890702464238624 63 128 164
14.673514117445125 1.044851830010314 2.895138110518645 54 120 157
14.4431673989653 2.141977201666663 0.7292532340858859 27 34 57
13.994706721261542 2.0036239140269956 0.798039587879511 112 145 172
12.741349339797056 1.5908811801203129 0.9149689528986933 159 193 221
13.727571043442039 1.9093494934011914 0.778885656358691 91 123 148
13.402797761288465 1.7022674789183125 0.7540204734787676 56 71 90
14.719478086429296 2.1692872688208316 0.8449918074478611 154 186 211
15.050212617393836 2.5565420884921966 2.3181953756321088 101 131 142
9.836521944390517 2.9176519307797997 1.2853453492780127 16 37 48
9.37194067672357 3.1311572089047077 1.380807854683923 19 40 48
9.611087793734221 3.1311572089047077 1.2784549124511675 20 37 47
10.862422297599656 3.1311572089047077 1.0108072506301429 20 37 47
10.053445420740546 -1.3693640123661888 2.7340720556532396 21 58 79
15.04839678573689 2.603023309979513 2.231108110293073 46 71 81
15.017668058208173 2.7598265291374107 2.3202055951409886 8 54 74
12.375433372050551 2.2344197931954626 2.7079795290305735 49 112 147
13.640695783933692 1.9413479845164354 2.895622418464975 45 110 148
12.80679223935651 2.189193016541979 2.840362704265153 58 121 157
13.016126033632924 2.373142944373523 2.792296439933776 61 124 159
14.44127068566858 2.6798948284882944 2.970383479619154 76 141 176
13.872614758540719 1.3785734653017783 2.836060300944144 50 111 146
12.815126188672982 2.5621035208696092 2.83827651758552 53 118 154
13.329832185223381 2.402604442177785 3.0192093192130876 63 127 162
15.61579948935259 2.817063623140172 2.470575461806863 47 104 133
15.61579948935259 2.817063623140172 2.470575461806863 47 104 133
14.874659879758104 2.891418823813511 2.5360837219874717 65 121 156
14.811194284889396 2.5856904314566456 2.4313737822014634 55 119 153
14.560521104647883 3.023052674087678 2.451634502216272 30 85 108
15.316868543931415 2.9389742232795717 2.3937933638567706 32 89 113
15.90031426612838 3.044066921398288 2.3550310601729776 7 41 52
15.862783994931062 3.1330201134431355 2.3573942816762457 20 48 57
13.304112462741646 1.193231112325648 1.3610657419816998 130 163 204
13.395019235596349 1.1627301203516092 1.1254756635235246 128 156 185
13.505862227092578 1.4344162259554678 1.3642443740161976 139 180 211
12.888826866711689 1.0854745372224395 0.9237435956651425 0 15 30
13.507885419450018 1.3603673584407856 1.4393936850750215 136 179 208
12.161824581630631 0.7439168098621379 1.7552113191242564 2 12 16
10.714335528689913 -0.7964031992841807 2.446730637244973 52 58 57
9.525876957716948 -0.911916322983375 2.43257074812547 20 24 22
10.357546607660034 -0.7945222976418093 2.216181908626239 32 38 37
23.349655683895566 0.27887753213241206 2.2261459448288825 50 115 152
16.145424053294647 1.195307641686347 2.6495558073162218 90 137 155
13.684080748538545 0.6430759518778645 2.8832960587029954 73 139 176
16.765696971543704 0.12395086630755967 2.58444104560863 62 128 165
14.695330664995959 2.2034574473794546 0.6419566544714443 4 23 43
10.404825993198756 -3.0436800486076283 1.0945702422265264 24 37 44
9.653027032338732 -3.0436800486076283 1.279762247704394 26 42 48
9.672904748351012 3.023052674087678 1.2803777410671924 17 36 47
9.78725168425317 2.817063623140172 1.696816766635488 16 39 52
9.206182650064232 3.1311572089047077 1.5957964508821176 18 39 48
14.67367786674343 2.635876110707855 2.342246647116152 50 103 130
15.04839678573689 2.603023309979513 2.231108110293073 46 71 81
13.451435462100182 2.1743944581406005 2.558683688714443 110 164 191
12.978481845007225 2.886487121466991 2.8003489105486095 66 129 166
13.0845712636619 2.064216195931325 2.7782067616928248 58 121 156
12.475166214461147 2.6798948284882944 2.943065982185178 34 97 132
13.39667474848319 1.667252264432787 2.983747719904102 52 117 154
14.023775120237977 2.064216195931325 2.80355508033294 48 111 146
12.741406077739894 2.131900705022819 2.6495903001311847 35 96 130
13.431235343245662 1.978798662246277 2.7154665858386644 63 126 160
14.399938240317077 3.0980218082505497 2.9878694083738138 67 126 159
15.208884263688432 2.858410152851079 2.6257856423570782 49 112 146
15.103578478442286 2.9905827566751655 2.638218833540438 76 139 173
14.766970875798487 3.008761858594987 2.5466998228353357 83 140 169
13.291144524485173 3.1231356971752104 2.7393145014547606 74 137 172
15.212310288061806 3.034577801694932 2.4012338523188976 14 61 78
14.075874355655143 0.9582600502332377 1.299661682170851 2 11 19
16.188691549750775 0.7211206021004899 2.644592456687654 35 100 137
23.479019808731678 0.3481381962003225 2.276631692772254 36 102 139
16.188691549750775 0.7211206021004899 2.644592456687654 35 100 137
16.2934357009132 0.542334358191095 2.6328670637463 54 120 157
16.96302545883685 0.4274081186953353 2.6856420912096395 50 115 152
9.429177065554317 -2.9375816983574237 1.4890578888417516 30 47 53
14.59952733902426 2.9389742232795717 2.3471978135424063 27 73 93
14.671815433993562 2.6783656855656317 2.251199300726711 28 69 90
14.322872950472474 2.402604442177785 3.027732716618251 85 148 183
13.028777314055288 2.2604296941521596 2.6098962572830824 66 127 160
13.036969359050122 2.474659074202756 2.6088289282188732 52 115 149
13.851175029587072 1.6202683308105348 2.841006594689457 64 127 161
13.630982807817858 2.131900705022819 2.6842529728233298 65 128 162
13.41260443969728 3.0980218082505497 2.9764531430157617 76 133 167
13.589075465551428 1.636207459220814 2.911239664629836 47 110 145
13.289530263151569 2.2344197931954626 2.73960008266095 53 116 148
13.84160975238993 1.9175466648511263 2.654243402459664 58 118 153
9.868873946632728 -0.7992608925219995 2.5570207604556154 11 32 43
15.939793935541513 1.013711779016383 2.674192071632403 63 128 167
9.194761127560964 2.780687486603246 1.2647991510146281 21 38 48
15.171277223776585 3.1330201134431355 2.3108251483732314 19 41 46
12.602454116966166 2.381025340410719 2.8979114300029423 78 143 180
13.467300380187055 2.557974005809693 2.5568994014179487 57 117 152
15.173078349776832 3.1321799467798814 2.40406794718133 7 49 66
15.345000433628385 3.023052674087678 2.493126033897387 46 103 131
12.76465328700205 1.491998627121718 0.9163729335744937 119 152 179
13.751310770748796 1.877988004265075 0.8792256102283103 140 179 208
13.84160975238993 1.9175466648511263 2.654243402459664 58 118 153
16.519030231421382 0.37797868820817715 2.608892065004159 57 123 160
14.357045115383297 2.7228327831607575 2.36392421013548 63 114 137
