12.340388903778235 1.1012642773607622 1.2128777480166004 116 216 89
14.400713043006414 0.7927730803837324 0.5438322039147117 116 216 89
14.062912761585917 0.6889948632646675 0.5026949384784148 116 216 89
14.062912761585917 0.6889948632646675 0.5026949384784148 116 216 89
13.02985314436713 0.4290594617773781 0.6562771413572173 116 216 89
13.151823765734548 1.2309938689371254 0.5336486070593182 116 216 89
13.35777162613859 1.0975506664219308 0.5591944136595426 116 216 89
12.842865098421942 1.2746326979139668 0.6371332174722948 116 216 89
14.369851484042014 0.9274193776835415 0.3840359021350802 116 216 89
13.601534942557612 1.173065379877559 0.4370318989664807 116 216 89
13.601534942557612 1.173065379877559 0.4370318989664807 116 216 89
14.068437784483462 0.897920581788926 0.5034087708323888 116 216 89
13.800773429223046 1.024125899875038 0.46697979591220745 116 216 89
9.255792170983048 0.7056282743896929 1.0848160326018186 116 216 89
9.264184533370273 0.8785390365967708 1.0852944974481877 116 216 89
9.264184533370273 0.8785390365967708 1.0852944974481877 116 216 89
8.738736786126692 0.9800776928081333 1.0532936226189547 116 216 89
12.989755276150413 0.20687734630377733 0.5121382119689963 116 216 89
12.812573986390674 0.30894685068257155 0.6339318831097952 116 216 89
12.476342688308357 0.05873205554653795 0.4333363593500035 116 216 89
12.476342688308357 0.05873205554653795 0.4333363593500035 116 216 89
12.15790085631608 0.2998016496026564 0.37271784550519804 116 216 89
12.542393230615188 -0.30111803344116456 0.18724919242168941 116 216 89
12.743086094410327 0.09492429611012022 0.2574351520138414 116 216 89
12.637112294521351 -0.6492571843654155 0.22337330983292858 116 216 89
11.54471062966526 0.1370451223660371 0.19622946268754393 116 216 89
12.091299864984421 0.07257329929534125 0.3583663199212969 116 216 89
11.54471062966526 0.1370451223660371 0.19622946268754393 116 216 89
11.906750832702658 1.4394277302548713 0.9083570130720172 116 216 89
10.792502254835815 1.4394277302548713 1.055000934406098 116 216 89
11.390593786232193 1.7587424111726804 0.9822884431020555 116 216 89
11.84794031881844 1.5393599675883964 0.6650260550114284 116 216 89
12.818428793280578 1.214816855633129 0.2788879053911198 116 216 89
12.761368354423105 1.501430395113135 0.2628215895725809 116 216 89
10.63719154776143 2.142312663410028 0.5023209138918192 116 216 89
11.784855150508845 1.6632436790433862 0.7865972759271357 116 216 89
10.983657082391819 2.0622112677024416 0.34856209650733494 116 216 89
13.112098898934663 1.2926941470905298 0.34866201427484356 116 216 89
10.873107158578883 1.8927219767845544 0.5405016965302298 116 216 89
13.112098898934663 1.2926941470905298 0.34866201427484356 116 216 89
10.25273424970586 2.0518416016608385 0.6235710989831452 116 216 89
11.188437265876003 2.2680175169174803 0.39586697091690826 116 216 89
11.216425262101232 1.8084622970933064 0.7346724281141025 116 216 89
10.801435624248256 1.892658748794412 0.945423873556727 116 216 89
10.801435624248256 1.892658748794412 0.945423873556727 116 216 89
12.45319537766619 0.8160167963761727 0.14464263964953497 116 216 89
12.45319537766619 0.8160167963761727 0.14464263964953497 116 216 89
12.539437845064366 1.471536950756556 0.18600114454612401 116 216 89
12.59750355909319 1.0811342657608338 0.20908232725132558 116 216 89
12.388182042062814 0.24502542084085752 0.10250766120331416 116 216 89
12.499480496933046 -0.9424269236690749 0.16816723219224342 116 216 89
12.344733251436237 -1.250388451525432 0.05913839405120547 116 216 89
12.403710473090243 -0.5128394367635568 0.11403245256171243 116 216 89
12.403710473090243 -0.5128394367635568 0.11403245256171243 116 216 89
11.730191476445706 2.700602362980822 0.26420698079388427 116 216 89
11.690680362248026 2.225182343535402 0.2514111597242543 116 216 89
11.690680362248026 2.225182343535402 0.2514111597242543 116 216 89
12.462657172166109 -1.9978592107815538 0.149764823101775 116 216 89
12.36660198267828 -2.4092748094937586 0.08385109916068996 116 216 89
11.46481424699823 2.969594278532184 0.15736415173144688 116 216 89
12.743572296992594 -2.5931515699173855 0.2575800270621396 116 216 89
12.56416449031969 -2.378633715466369 0.19618423310751645 116 216 89
11.353482292640734 2.761725217078215 0.07311071978843987 116 216 89
10.51590937036766 2.4071205660100694 0.6575664103602953 116 216 89
10.940303906776727 2.289775038779739 0.550651020063649 116 216 89
12.155361715308409 2.5923680848424007 0.37218322355458083 116 216 89
12.997655189977307 -2.7196438049081424 0.3235717055598508 116 216 89
12.997655189977307 -2.7196438049081424 0.3235717055598508 116 216 89
13.322141193757515 -2.800644049762733 0.3897267498691964 116 216 89
22.227279450842655 2.590483434196804 1.0877984775320853 116 216 89
22.27152144235271 2.5483501615562005 1.138878592999673 116 216 89
21.3719288159591 2.590483434196804 1.1707693248394755 116 216 89
11.746956116172163 -1.365204180391368 1.1939141918275216 116 216 89
11.0926041328702 -1.0759943963542513 1.4512292202310364 116 216 89
10.477260270796819 -1.2491416616564137 1.3472051439473998 116 216 89
11.731050951475385 -1.1941010630322457 1.3714440435198447 116 216 89
11.247740072532961 -1.2774486559254088 1.4528861052708604 116 216 89
11.166842325556734 -1.365204180391368 1.3612253881416796 116 216 89
11.574595076735813 -1.1941010630322457 1.4562306327400816 116 216 89
19.649421806959555 -1.0209903297998077 1.6562385043923578 116 216 89
14.127231188618458 -1.5218641372046537 0.3390138537956171 116 216 89
14.490122161308202 -1.530449740900335 0.40408006819605036 116 216 89
14.207171457417147 -1.6427042581367095 0.8549865920674821 116 216 89
13.470662256455228 -1.6500935734852158 0.8063908976625357 116 216 89
13.517398702052146 -1.659171078553108 0.7017808364400855 116 216 89
13.49739464198088 -1.5443661870673282 0.7000257863842847 116 216 89
11.535674626696453 -1.5493081734989298 1.186654392701454 116 216 89
10.614222595693638 -1.849183741873699 1.2523568429862388 116 216 89
11.598766466488645 -1.4562844464909075 1.188852203599576 116 216 89
10.801540581543511 -1.6427042581367095 1.4479912294019872 116 216 89
10.776496340920106 -1.5493081734989298 1.447704385714596 116 216 89
10.344825570072159 -1.849183741873699 1.3442930821766108 116 216 89
10.969028405945805 -1.6427042581367095 1.3573881202748552 116 216 89
10.944367438165584 -1.5493081734989298 1.3568997855921374 116 216 89
15.5360852499859 -2.359815323822709 1.3552317535142995 116 216 89
12.340388903778235 1.1012642773607622 1.2128777480166004 116 216 89
10.951607159306311 1.3356582757403979 1.0632191405921017 116 216 89
13.601534942557612 1.173065379877559 0.4370318989664807 116 216 89
12.053749570177315 1.2746326979139668 0.6865066776437763 116 216 89
13.722460453171033 0.7945006855256576 0.45553015233031136 116 216 89
13.243365583815041 1.0931259763740515 0.37497938331442093 116 216 89
8.833084595808899 0.7056282743896929 1.1850868862064146 116 216 89
9.762991034931135 0.7056282743896929 0.9941234569652404 116 216 89
8.841878184674473 0.8785390365967708 1.185490683704956 116 216 89
13.094306337783836 0.2998016496026564 0.34490461438357417 116 216 89
12.812573986390674 0.30894685068257155 0.6339318831097952 116 216 89
12.091299864984421 0.07257329929534125 0.3583663199212969 116 216 89
12.591333113116328 0.5303452311125961 0.2067600330075881 116 216 89
12.758182566592893 -0.21120883627265094 0.2618918655167156 116 216 89
12.734075952832177 0.8025240861847004 0.2547337731585647 116 216 89
12.734075952832177 0.8025240861847004 0.2547337731585647 116 216 89
12.637112294521351 -0.6492571843654155 0.22337330983292858 116 216 89
11.845299529388537 1.5461119009609137 0.904303985613292 116 216 89
11.319205367708053 1.4394277302548713 0.9780733370982808 116 216 89
11.868088577770187 1.653358891481903 0.9058134402566106 116 216 89
12.547840653134534 1.4238292893735203 0.7332419556408545 116 216 89
11.188437265876003 2.2680175169174803 0.39586697091690826 116 216 89
11.325005241085542 1.9607128043404323 0.4237918017236336 116 216 89
11.102602852999643 1.6758074120616586 0.7232514826896852 116 216 89
10.709915778074773 1.9331477591856336 0.8178753044429801 116 216 89
10.589173999699526 1.7807410234101961 0.9308733034703874 116 216 89
11.581519839096453 1.8929495884240266 0.21162239451083611 116 216 89
12.403710473090243 -0.5128394367635568 0.11403245256171243 116 216 89
12.743572296992594 -2.5931515699173855 0.2575800270621396 116 216 89
11.424385365364113 2.103133267722837 0.13322333593547855 116 216 89
12.388182042062814 0.24502542084085752 0.10250766120331416 116 216 89
11.353482292640734 2.761725217078215 0.07311071978843987 116 216 89
12.403710473090243 -0.5128394367635568 0.11403245256171243 116 216 89
12.462657172166109 -1.9978592107815538 0.149764823101775 116 216 89
11.535033009281447 2.5054134354757744 0.1919632021562859 116 216 89
11.883282916817159 2.447065730774076 0.3082564387445233 116 216 89
10.101680272950608 2.289775038779739 0.6024717441988133 116 216 89
13.232326582783918 -2.997429888537102 0.37285413433342707 116 216 89
11.731050951475385 -1.1941010630322457 1.3714440435198447 116 216 89
19.759895549119257 -1.0209903297998077 1.7066828358525719 116 216 89
14.490122161308202 -1.530449740900335 0.40408006819605036 116 216 89
14.127231188618458 -1.5218641372046537 0.3390138537956171 116 216 89
14.29629764552051 -1.7348638852050058 0.8603956762424247 116 216 89
10.968501563415488 -1.849183741873699 1.1656616929111396 116 216 89
11.559074125632868 -1.6427042581367095 1.187472543214493 116 216 89
11.598766466488645 -1.4562844464909075 1.188852203599576 116 216 89
10.84400607879752 -1.4562844464909075 1.448474556166885 116 216 89
10.776496340920106 -1.5493081734989298 1.447704385714596 116 216 89
10.842849221855094 -1.7348638852050058 1.5409886194579585 116 216 89
11.010847972463893 -1.4562844464909075 1.3582111115007047 116 216 89
11.084222558182097 -1.7348638852050058 1.3596397384292311 116 216 89
13.800773429223046 1.024125899875038 0.46697979591220745 116 216 89
13.151823765734548 1.2309938689371254 0.5336486070593182 116 216 89
14.068437784483462 0.897920581788926 0.5034087708323888 116 216 89
14.627105869739152 0.7945006855256576 0.425448683870697 116 216 89
14.068437784483462 0.897920581788926 0.5034087708323888 116 216 89
12.091299864984421 0.07257329929534125 0.3583663199212969 116 216 89
12.637112294521351 -0.6492571843654155 0.22337330983292858 116 216 89
12.540898998203614 0.24498965839467587 0.4443320240076948 116 216 89
11.778791872422195 0.09492429611012022 0.2790520460233916 116 216 89
12.812573986390674 0.30894685068257155 0.6339318831097952 116 216 89
13.01963416973791 1.3782386022478752 0.5162057486717362 116 216 89
12.36660198267828 -2.4092748094937586 0.08385109916068996 116 216 89
10.273014319893077 2.2680175169174803 0.4334118288760171 116 216 89
12.743572296992594 -2.5931515699173855 0.2575800270621396 116 216 89
12.388182042062814 0.24502542084085752 0.10250766120331416 116 216 89
11.424385365364113 2.103133267722837 0.13322333593547855 116 216 89
12.36660198267828 -2.4092748094937586 0.08385109916068996 116 216 89
12.440957288009491 -1.4358468674870015 0.13772495740879132 116 216 89
12.539437845064366 1.471536950756556 0.18600114454612401 116 216 89
12.45319537766619 0.8160167963761727 0.14464263964953497 116 216 89
11.65350879395099 -1.2774486559254088 1.2816195652106557 116 216 89
11.247740072532961 -1.2774486559254088 1.4528861052708604 116 216 89
11.0926041328702 -1.0759943963542513 1.4512292202310364 116 216 89
11.002366213143912 -1.365204180391368 1.45024381013194 116 216 89
13.564628530717467 -1.751441884113962 0.8130123209077186 116 216 89
12.897096125767229 -1.6705877431149332 0.6427931583076439 116 216 89
14.181151112064283 -1.6500935734852158 0.7554707714136738 116 216 89
10.944367438165584 -1.5493081734989298 1.3568997855921374 116 216 89
13.243365583815041 1.0931259763740515 0.37497938331442093 116 216 89
13.094306337783836 0.2998016496026564 0.34490461438357417 116 216 89
10.675625686602396 1.3085694792580829 0.9368882530847908 116 216 89
10.804331557395424 1.9846253470816881 0.6914012447664408 116 216 89
12.344733251436237 -1.250388451525432 0.05913839405120547 116 216 89
10.562438726824956 1.9968312467461926 1.042607250572359 116 216 89
20.914957480576387 2.5483501615562005 1.313451051524744 116 216 89
11.25576171053224 -1.0759943963542513 1.3629053494531551 116 216 89
14.162084638722337 -1.5470919749943943 0.7540402861310909 116 216 89
14.162084638722337 -1.5470919749943943 0.7540402861310909 116 216 89
10.344825570072159 -1.849183741873699 1.3442930821766108 116 216 89
13.19542383192982 0.6889948632646675 0.5392148671023683 116 216 89
12.743572296992594 -2.5931515699173855 0.2575800270621396 116 216 89
11.581519839096453 1.8929495884240266 0.21162239451083611 116 216 89
12.59750355909319 1.0811342657608338 0.20908232725132558 116 216 89
13.322141193757515 -2.800644049762733 0.3897267498691964 116 216 89
11.668444634600712 -1.7348638852050058 1.1912496182549626 116 216 89
12.527036710987188 0.1370451223660371 0.18066469451098624 116 216 89
12.091299864984421 0.07257329929534125 0.3583663199212969 116 216 89
