16.475529229423362 1.8248608137668518 1.7767937048964775 191 229 45
16.749623364079035 1.8838877347532195 1.7733754314479562 191 229 45
17.723724626335226 2.047106763445412 1.7049150490157519 191 229 45
11.564391186368791 0.8918910388458969 1.8664953647725713 191 229 45
11.813502022489027 0.5858501324387182 2.358178391721494 191 229 45
11.577473387709833 0.6793080100451534 2.260849075826954 191 229 45
11.191786430395602 0.8309080207398777 1.9719293106810052 191 229 45
18.79913799530047 -0.32597612961015615 2.0322288054039293 191 229 45
11.8813842399222 0.2838014351240903 2.239915077114315 191 229 45
11.83275274231177 0.31728503710765626 2.356546358777254 191 229 45
12.140275038875567 0.38347614895613225 2.2231610646608715 191 229 45
12.26659059747333 0.06802066142944228 2.321752670463349 191 229 45
11.827196300345642 0.061200082869438635 2.1395544299646225 191 229 45
11.86835821173473 -0.1263497876733871 1.947871653829865 191 229 45
11.893048356126476 -0.13889715752976817 2.1360190549690237 191 229 45
13.26942750488281 -0.1263497876733871 2.159651394465874 191 229 45
11.920635842512056 0.16042306162920564 2.1345519178145236 191 229 45
11.702491396869222 0.17799625793193496 2.252062789749904 191 229 45
12.199050772909386 -0.03565870096075197 2.026612355283822 191 229 45
19.588831048482866 -0.024483521547958343 2.190054105430788 191 229 45
20.010936577687822 -0.1401366105206576 2.1155585998538604 191 229 45
19.730289625858497 -0.14879906704207374 2.184952934102619 191 229 45
19.538019052108574 -0.3461320073446019 2.1919090640701215 191 229 45
20.071032748578546 -0.268669020676288 2.1730319621148326 191 229 45
19.916238833653253 -0.08186889961087174 2.118442159500251 191 229 45
20.500726186104703 -0.30498670277159123 2.3475235396405703 191 229 45
21.02947187343536 -0.2384802119232028 2.3904027747471 191 229 45
12.292152143833995 -0.04910191887949534 2.4376124066360747 191 229 45
12.209822686164419 0.47920947690113413 2.4455910498696127 191 229 45
13.420940727535502 0.22767804661183513 2.58145276936596 191 229 45
12.75149834410836 0.359341249688268 2.5204858802106695 191 229 45
13.338015723830425 0.08751580596655122 2.591446047516615 191 229 45
11.943484792130478 1.1345180308231944 1.7705536370000796 191 229 45
11.548320053363671 0.8381445565355179 2.2629346287614664 191 229 45
12.116141138095607 1.0166501206694543 1.9397855366386052 191 229 45
12.891387050830215 1.3709313165042714 2.2774177339456685 191 229 45
11.657945596337775 1.0954099440485918 1.955029667476585 191 229 45
12.363739486195948 1.2410432678503547 2.3144434098362283 191 229 45
11.980661420419521 1.092347882085296 2.3442671815631577 191 229 45
12.463591540575207 1.2732651351060065 2.2034902535223946 191 229 45
11.796972580899334 1.04929978353819 2.1411929581097717 191 229 45
13.668727974938305 1.761977098889008 2.2298183680730816 191 229 45
13.55460456833553 1.6697613190836398 2.2363562232696355 191 229 45
13.546721599933509 1.481810883831449 2.2368131348521185 191 229 45
12.699455682265485 1.092347882085296 2.400637253329407 191 229 45
12.64531273108604 1.1514307419354517 2.532318831355129 191 229 45
13.228463576639536 0.7501371412618313 2.6051015967089524 191 229 45
14.629133488293185 1.2367813175799698 2.7236532192952168 191 229 45
13.778207234705606 0.862721081723286 2.6855263807331373 191 229 45
13.421677449083877 1.5763542862976068 2.343566951863953 191 229 45
15.683864861335719 1.9523912061785438 2.591480911553461 191 229 45
13.511311782745262 1.461288900698985 2.4457320980313133 191 229 45
13.47821818859858 1.5769998323417345 2.4486769860236928 191 229 45
14.463810371029448 1.8784562993355265 2.370226961998473 191 229 45
14.91456241661189 1.5788769102379352 2.682459160116417 191 229 45
14.286181820212857 1.7813157607086967 2.3831000629400916 191 229 45
15.23022535638257 1.9898801166542417 2.803883411173217 191 229 45
15.091259904605757 1.5823827054260662 2.831169331981117 191 229 45
15.120823590646202 1.3682554508190592 2.8251313604388635 191 229 45
15.455041010049639 1.4036233404235927 2.7646418857176576 191 229 45
15.461951090342819 1.7564249263536822 2.763514594902285 191 229 45
16.046371928366167 1.5823827054260662 2.8502066698628896 191 229 45
16.109145135011484 2.003562557278802 2.67262999703545 191 229 45
15.455041010049639 1.4036233404235927 2.7646418857176576 191 229 45
15.562093399317204 1.9217060282293292 2.747630033167023 191 229 45
13.575500065479295 0.4854312053202084 2.7169781529788453 191 229 45
13.730638109362916 -0.06557485980559143 2.6926402746713607 191 229 45
13.819131521772134 0.2643251885484115 2.679526206337313 191 229 45
13.819131521772134 0.2643251885484115 2.679526206337313 191 229 45
13.802651505805029 0.6303775836859562 2.6819294255960866 191 229 45
14.158628254306118 0.8861683313579759 2.8062509859621954 191 229 45
14.032888564688665 0.38722840349025994 2.832990851262115 191 229 45
13.738610171817333 0.10213792022999049 2.6914373121531723 191 229 45
14.907176623972742 -0.09862683574365996 2.8723129439371182 191 229 45
14.506465930617168 -0.19798264348634936 3.004300450788587 191 229 45
14.590254518749958 0.6908861302975955 2.9676003126275816 191 229 45
14.681611659150759 0.203970436298094 2.9351821411202677 191 229 45
14.943677594476219 1.0762072138377086 2.863599931471396 191 229 45
14.681611659150759 0.203970436298094 2.9351821411202677 191 229 45
14.899251458910896 0.7248007519857362 2.874247077903427 191 229 45
14.69692419080978 -0.8873963266991608 2.930264121798929 191 229 45
15.092579029860085 -0.5446107034236746 2.8308969918808846 191 229 45
14.567723474629904 -0.6202784311172194 2.976631711683375 191 229 45
14.734712341418971 -0.4409189662876218 2.918625317266388 191 229 45
13.727735102649925 2.944571439553631 2.9127871985350917 191 229 45
13.622146606261502 2.4767988405862407 2.9488744700681573 191 229 45
13.960253728864455 2.4344247700987753 2.8497535247278485 191 229 45
15.375016073132748 -1.7067232673520505 3.1159546049291706 191 229 45
14.413998744552075 0.5720629400237185 3.0634056285238658 191 229 45
14.846559180381467 1.3143217229237698 2.8875270154566075 191 229 45
14.382982279654918 1.6582027708232023 3.0990414216458237 191 229 45
15.375016073132748 -1.7067232673520505 3.1159546049291706 191 229 45
14.421407653408389 2.6170639041067 3.057101875605381 191 229 45
14.853752333818095 1.8547540544879164 2.8856687894756843 191 229 45
14.413998744552075 0.5720629400237185 3.0634056285238658 191 229 45
14.528723899734095 2.8530557450081 2.9936242706354617 191 229 45
14.635618638571303 1.2228095482721046 2.95077090903309 191 229 45
14.642915414340582 1.9544742092316416 2.948208264870946 191 229 45
14.748619978847229 2.237498137522999 2.9145038574394126 191 229 45
14.778688174750044 2.656490311207228 2.9058606035308054 191 229 45
14.521185612470877 -2.9536620335001627 2.997148641524969 191 229 45
14.490767625313099 1.0391509547179738 3.012377704874258 191 229 45
14.413998744552075 0.5720629400237185 3.0634056285238658 191 229 45
14.12709328903271 -2.3039296909691167 2.81271618174089 191 229 45
14.399853410162185 -2.1784669539005312 2.7610928274353417 191 229 45
14.399853410162185 -2.1784669539005312 2.7610928274353417 191 229 45
15.568743416989507 -2.5463539666114174 2.981622897069103 191 229 45
15.432826464592184 -1.609187713902315 3.0513029996618553 191 229 45
15.554843172573081 -1.5931350383368963 2.98725989466916 191 229 45
14.884007454815483 -2.4773674343784533 2.878012203714187 191 229 45
15.076958955708854 -2.3039296909691167 2.8341399070315965 191 229 45
18.283747489297564 -0.4040337427856958 2.046294717238253 191 229 45
17.848123030091944 -0.4040337427856958 1.9964613110924747 191 229 45
19.677619112222757 -0.45851884581959745 2.317809442484441 191 229 45
15.06197749545721 -1.8327048704920357 2.2422105068350993 191 229 45
14.89148570911381 -1.7491544421603817 2.251340606758559 191 229 45
14.822795274262905 -1.7659058811863662 2.3456277944172728 191 229 45
14.717623459437739 -1.6718330482660515 2.352648514759729 191 229 45
14.319255069817801 -1.8851722170544405 2.38066572677082 191 229 45
15.059249393963805 -1.8851722170544405 2.426473736894972 191 229 45
15.403981117944802 -1.575485260689983 2.309324396084292 191 229 45
15.566222405158497 -1.6825074559670792 2.4892551525577558 191 229 45
13.900322493933233 -1.9625897881444472 2.5286591625731445 191 229 45
14.456831564090132 -1.9198111375381102 2.4758800147189133 191 229 45
14.729524499807951 -1.9625897881444472 2.5677246306239803 191 229 45
14.729524499807951 -1.9625897881444472 2.5677246306239803 191 229 45
16.700825393816327 1.9636098841373255 1.8981504602652366 191 229 45
15.454684781813937 2.116752717048283 2.067893073952518 191 229 45
14.807477916530404 2.089291496832682 2.171535587478381 191 229 45
15.333036473089688 2.2772210439031717 1.9992232681145934 191 229 45
15.539639275459681 2.051431896754729 2.1395949014130844 191 229 45
14.87503781217284 1.906710263460934 2.16842672901247 191 229 45
17.245036421459975 2.0745948683408435 1.8269939463337157 191 229 45
15.853444085688276 1.9263324515943827 1.9842813833923116 191 229 45
16.242087357257546 2.048953900626437 1.9077570544819478 191 229 45
15.454857791978142 1.9519596996245383 2.0678870004860728 191 229 45
15.810105907905427 2.0183712772807696 2.0557362525171756 191 229 45
16.26140095938622 2.1391713128058822 1.9732997317886873 191 229 45
16.126379863461384 2.1934901507908666 1.8452096791949844 191 229 45
16.199953976075463 1.9893118265275904 1.9749151619917396 191 229 45
15.853444085688276 1.9263324515943827 1.9842813833923116 191 229 45
15.075014248202201 2.2683223895321216 2.1594248928956503 191 229 45
16.924131507763086 2.2070297856300845 1.5926581723543722 191 229 45
15.967089916033478 2.284485935987875 1.8480192311303216 191 229 45
15.571412921726818 2.329288814618608 1.9228863560943898 191 229 45
15.480715291189343 2.6138038011024447 1.7902411843127939 191 229 45
14.82206574027027 2.6728841006455766 1.7313798636810127 191 229 45
15.169126727902361 2.8246513675445866 1.7948249311651934 191 229 45
15.502302804745986 2.7618146593359594 1.7899306085991715 191 229 45
14.742032865839338 2.706017301336881 2.017611218528678 191 229 45
14.95662283668213 2.6719711305861527 2.1647185321016478 191 229 45
15.27001918528875 2.6728841006455766 1.861033296546499 191 229 45
14.126282853086188 2.4936858845661805 2.038603224536309 191 229 45
14.454022282368983 2.5386744118661957 1.9514423601892903 191 229 45
14.908048625358298 2.378766998729598 1.9392846540101747 191 229 45
14.391266325609214 2.77633064862086 2.029322519420111 191 229 45
14.109316327789232 2.5600063897611665 2.120397642442099 191 229 45
14.689140676304735 2.4334089366276035 2.0193371790045567 191 229 45
14.283939486471297 2.4334089366276035 1.9562117686679903 191 229 45
15.02978740217949 2.015313114941882 2.243913407975818 191 229 45
14.72371182500509 1.9357377921142065 2.260600249226006 191 229 45
16.145307932313322 2.3182881364984937 2.4436478933345067 191 229 45
16.531910819242803 2.2427919905140143 2.5127974424499566 191 229 45
15.162096216871767 2.2039813671182875 2.2369747252388374 191 229 45
15.379280503191783 2.1329405290254217 2.310787552128772 191 229 45
15.910689118859576 2.2571710780757286 2.3668650631873343 191 229 45
15.421377194017666 2.454352141446067 2.39984033084155 191 229 45
16.94988872147428 2.454352141446067 2.4796400831270775 191 229 45
15.175570321010847 2.384528805964261 2.323113925700295 191 229 45
15.247548028563147 2.6706562777799805 2.412368037753645 191 229 45
16.24140188971304 2.183605628815285 2.436623436304723 191 229 45
15.059116659874919 2.322834321627876 2.242361461092429 191 229 45
15.270421325359377 2.5109785676361365 2.3173161391317763 191 229 45
15.949683064779355 2.1965284130761904 2.6927641364097554 191 229 45
16.75799400264412 2.0602433129862567 2.6011849804053684 191 229 45
16.93590904934306 2.3123083050310598 2.5839232987414356 191 229 45
17.44551390242899 2.394238385132312 2.648824436054187 191 229 45
15.949683064779355 2.1965284130761904 2.6927641364097554 191 229 45
16.328238619942535 2.1209167201270804 2.6468020953534706 191 229 45
15.205969441998242 2.746500478971259 2.234708772534372 191 229 45
14.757282703051581 2.944284654436049 2.0171161524288537 191 229 45
13.491880815506551 -2.7634951793030664 2.0625052989306867 191 229 45
13.216049146625155 -2.7298386230869367 2.162351411241186 191 229 45
14.148671140366307 -2.6494163156897073 2.2038040286713065 191 229 45
14.6855177832249 2.9579996069992505 1.8023348671004715 191 229 45
14.10828150378851 2.9097570915882778 2.2059062012662167 191 229 45
14.273390893999228 -2.8439652386002217 2.1974077072055342 191 229 45
13.498472047631061 -2.9286041503536864 2.148360698546944 191 229 45
13.835519268032503 -3.035468452968339 1.8921498131060257 191 229 45
13.35768446189498 -3.0164511331911474 2.1552449209624855 191 229 45
13.771005046073148 -3.1116855035122732 1.8937097477584004 191 229 45
13.934405647125642 -3.0164511331911474 2.2151337480932023 191 229 45
13.139246054342554 3.0949342754137894 1.6752511548556124 191 229 45
14.966508588867976 2.8718163924666054 2.010437196508184 191 229 45
14.581820409223146 2.8506329287879315 2.100666526776335 191 229 45
13.638680788120467 -3.1092059527323292 2.056749365332646 191 229 45
14.127968470269957 3.0949342754137894 1.9606948017578258 191 229 45
13.299086709593917 3.086507688930372 2.158162607436043 191 229 45
14.613637679062387 3.018911260619866 2.021825137751608 191 229 45
14.569023741677492 2.8718163924666054 1.9482856459853983 191 229 45
13.476539700415762 2.917247277919234 2.574908459681835 191 229 45
13.476539700415762 2.917247277919234 2.574908459681835 191 229 45
14.529360724825823 2.664924958855119 2.739395435275658 191 229 45
13.859683785700993 2.9656532187985833 2.4161573246607646 191 229 45
14.306094853116424 3.0215621310240017 2.7778283900973757 191 229 45
14.689151418488505 3.0412448933922054 2.714546205345389 191 229 45
14.063303916943523 2.7636134342081258 2.826277188063389 191 229 45
13.984188589169039 2.992345195207608 2.8441092136780823 191 229 45
13.771450958917729 -3.09848571161871 2.4234124174650447 191 229 45
13.946503331764822 3.06605525694818 2.5239665522264305 191 229 45
13.865432896345498 2.881722885340881 2.6728655363299816 191 229 45
14.476741187672454 2.787246194899706 2.595329055004503 191 229 45
14.330284325580514 2.917247277919234 2.6123789758877956 191 229 45
15.121474871232898 -3.086284870221843 2.655511918101042 191 229 45
14.935811678300865 -3.0455487616283685 2.865451350400539 191 229 45
14.943140802807887 2.992345195207608 2.8637258334691142 191 229 45
13.560570872066446 -2.743112675960978 2.4413942546693375 191 229 45
13.559888548912578 -2.323928816019171 2.565320457116199 191 229 45
13.650798137899166 -2.489039268439911 2.4335862335312664 191 229 45
14.376424598833731 -2.4450131829547597 2.765188052358955 191 229 45
14.136760431382674 -2.853045151303383 2.5052650934194705 191 229 45
13.835963101678269 -2.989194265403521 2.418092858099154 191 229 45
14.454629363142418 -2.514091242771 2.597850404746005 191 229 45
14.082017004663829 -2.5848177202217775 2.5105454941280514 191 229 45
15.304281399516315 -2.8148269930172414 2.633367036892542 191 229 45
14.136760431382674 -2.853045151303383 2.5052650934194705 191 229 45
13.749072285332044 -2.6900523934879317 2.3206037696921777 191 229 45
13.480029031700694 -2.551738351934518 2.339354811249274 191 229 45
15.310829853441911 -2.4450131829547597 2.7891981473494005 191 229 45
15.77511129158076 -2.765488370357357 2.7163199782030345 191 229 45
15.12086298343853 -2.608742484489621 2.8251234049327087 191 229 45
15.654811491188013 -2.9158031695514675 2.7336181069380237 191 229 45
15.29595709250368 -2.8730757667078453 2.7918517695592744 191 229 45
14.995315399377066 -2.8111261562879526 2.851777912850811 191 229 45
14.57959351224731 2.996998287485024 2.2687830957690074 191 229 45
14.532640988084088 2.982845476741503 2.3653679823556173 191 229 45
14.677078750603442 2.887633959239739 2.3553951925112377 191 229 45
14.93326890229031 2.8259592809260212 2.249077528570061 191 229 45
13.748445526956793 -3.1027689600708124 2.3206462233669005 191 229 45
13.75640726972605 3.0810412368191202 2.3201073443224076 191 229 45
14.887431854228204 2.7968944996843588 2.3413857019971545 191 229 45
14.15495654246518 -2.816321760810564 2.294222140085633 191 229 45
14.63973045643422 -2.908147165367648 2.3579455271268537 191 229 45
13.94925737385153 -2.908147165367648 2.307321390022882 191 229 45
14.379096297924137 -2.329111812916716 2.482794676672226 191 229 45
14.075699031976987 -2.4054633576578524 2.3990151371464647 191 229 45
13.88737156651475 -2.5269396866519624 2.217680734088283 191 229 45
14.00806845786615 -2.5753675155736824 2.124831130559312 191 229 45
14.471786494181826 -2.1705466935655875 2.4745652025699822 191 229 45
14.557002324514631 -2.3328603887854986 2.3636649562042003 191 229 45
13.257159182024015 -2.4708181036296977 2.2540945545036672 191 229 45
13.508739962156652 -2.5753675155736824 2.0618369985077543 191 229 45
14.153649172007368 -2.0724577180935495 2.5036518562443297 191 229 45
13.381314235601424 -2.257063092845782 2.3465123388666154 191 229 45
13.183070828132335 -2.399091403411408 2.164032939283782 191 229 45
13.310155872617571 -2.4569775992472183 2.06983214248596 191 229 45
14.264420465452272 -2.112888454564027 2.384711385769749 191 229 45
13.307917100505977 -2.195779840991735 2.2509932757507953 191 229 45
12.809938203851237 -2.3356975613477666 2.0033635043099682 191 229 45
13.890329830155313 -2.3941781720140254 2.047203945009561 191 229 45
14.87601396659637 -2.023463397690491 2.2521828759110436 191 229 45
14.103997939346703 -2.0983163016465767 2.1206286440027053 191 229 45
17.457477530741365 1.995201491064379 1.7650541649389835 191 229 45
16.708769851328974 1.8248608137668518 1.8354107215469906 191 229 45
11.77760943618599 0.5256281360515314 2.2469025151088062 191 229 45
11.627172658867432 0.6146743274666598 2.150590118279373 191 229 45
11.920635842512056 0.16042306162920564 2.1345519178145236 191 229 45
11.607295909509876 0.06802066142944228 2.2587301706735117 191 229 45
11.423357539202902 0.42635700865717246 2.2720370144810382 191 229 45
12.257661209347713 -0.04362097638099506 2.322432832719018 191 229 45
11.817934919605715 -0.039240207336268915 2.140055447111357 191 229 45
11.674388429599972 -0.1541894387956957 2.2540160209733715 191 229 45
13.26942750488281 -0.1263497876733871 2.159651394465874 191 229 45
12.092684731835202 0.42635700865717246 2.3352613190634934 191 229 45
11.674388429599972 -0.1541894387956957 2.2540160209733715 191 229 45
11.793087517903217 -0.03565870096075197 1.95040059926183 191 229 45
19.63423834232265 -0.0869777470217289 2.1884066340371673 191 229 45
20.737907020593124 -0.3688238799624431 2.336344292796873 191 229 45
12.390923188080444 0.19983556871440603 2.4282758987220734 191 229 45
12.75149834410836 0.359341249688268 2.5204858802106695 191 229 45
13.329804082816603 -0.056156491517193395 2.59245132151894 191 229 45
12.301056494872144 0.07654884763545325 2.4367603364309245 191 229 45
13.063954994644234 1.3893382652919017 2.170193548604546 191 229 45
11.694205468144743 1.181102527268687 2.0478892241957407 191 229 45
12.000637819653827 1.140979094495018 2.2320806664853183 191 229 45
11.796972580899334 1.04929978353819 2.1411929581097717 191 229 45
12.64531273108604 1.1514307419354517 2.532318831355129 191 229 45
13.609233452379026 0.8481140037343801 2.559764703885354 191 229 45
12.914995726598134 1.0325050110211145 2.503007236283238 191 229 45
12.48800899319155 0.9283155917792737 2.4193375326461704 191 229 45
14.445959317626123 1.0020197419034356 2.753191599672614 191 229 45
12.811928137265827 0.6594031267181225 2.5139245140490405 191 229 45
14.480361544411661 1.8510230109411603 2.274545599776637 191 229 45
14.529912803152666 1.4036233404235927 2.7393061233802465 191 229 45
14.286181820212857 1.7813157607086967 2.3831000629400916 191 229 45
15.683864861335719 1.9523912061785438 2.591480911553461 191 229 45
14.944475655910221 1.4285468558770325 2.678426754464883 191 229 45
15.127886334755427 1.7954685819601786 2.8237087501657463 191 229 45
15.461951090342819 1.7564249263536822 2.763514594902285 191 229 45
15.852158152221008 1.728845336912561 2.7057126747594538 191 229 45
15.949850705631874 1.872018443931315 2.6927423132836292 191 229 45
15.42611785483421 1.5803173490884543 2.769406712602498 191 229 45
13.329157609792404 0.5455399745510344 2.5925305858987775 191 229 45
14.346258816153124 0.31457039115469343 2.7705442815285037 191 229 45
14.346258816153124 0.31457039115469343 2.7705442815285037 191 229 45
14.18241686144655 0.5842098069770393 2.801470807906213 191 229 45
14.268712466693614 0.12259690454578355 2.7847734321613915 191 229 45
14.91451982000067 0.1532249076407915 2.870534676422025 191 229 45
14.91451982000067 0.1532249076407915 2.870534676422025 191 229 45
14.756988428300165 0.4999382301987635 2.912062634971005 191 229 45
14.674151912367474 -0.13176051695728694 2.9376241641731373 191 229 45
14.323343964711272 -0.2740322242530816 2.774678179640568 191 229 45
14.406400426375608 -0.3912700927949726 3.0704547555498682 191 229 45
14.92074430882623 2.4344247700987753 2.86903754310498 191 229 45
14.382982279654918 1.6582027708232023 3.0990414216458237 191 229 45
14.6050728304454 1.5912609390731363 2.961919745116843 191 229 45
14.846559180381467 1.3143217229237698 2.8875270154566075 191 229 45
14.816448256768146 1.585592261503267 2.895474841093674 191 229 45
14.413998744552075 0.5720629400237185 3.0634056285238658 191 229 45
15.468644159561482 -2.2191262797021083 3.0285775379440882 191 229 45
15.432826464592184 -1.609187713902315 3.0513029996618553 191 229 45
14.46808165176717 -0.9731056027598907 3.0250646145388815 191 229 45
14.756444845486204 -2.7142615282810967 2.9122203485644325 191 229 45
15.076958955708854 -2.3039296909691167 2.8341399070315965 191 229 45
19.095078459294236 -0.429662697820151 2.2086088694482333 191 229 45
14.28343166293186 -1.7491544421603817 2.196898897363165 191 229 45
21.005064676235673 -1.1729350408949986 2.635301832446322 191 229 45
14.822795274262905 -1.7659058811863662 2.3456277944172728 191 229 45
15.665698178369741 -1.7860764203670936 2.480987304755674 191 229 45
14.786802466247467 -1.663015388317382 2.2570852947673883 191 229 45
15.169126727902361 2.8246513675445866 1.7948249311651934 191 229 45
15.853444085688276 1.9263324515943827 1.9842813833923116 191 229 45
16.364924362361766 1.903813069866244 1.9051287120330564 191 229 45
15.188628177400005 2.735719153279083 1.93216150013265 191 229 45
14.42084047910055 2.6719711305861527 2.1072177923069937 191 229 45
14.67643758365756 2.4798510594450347 1.8731350651197716 191 229 45
14.488785349596117 2.4426331203775558 2.186686842208253 191 229 45
16.91978469317876 2.157801949403495 1.832032880212914 191 229 45
14.611008867148357 2.746500478971259 2.180778936812902 191 229 45
15.539639275459681 2.051431896754729 2.1395949014130844 191 229 45
15.498844298819622 2.1772760082621154 1.994342679044836 191 229 45
15.296726459316183 2.378766998729598 2.0003076546843666 191 229 45
15.120282652031397 2.3264071051183755 2.07993153468529 191 229 45
14.945302972171632 2.2772210439031717 1.93832233371653 191 229 45
15.428822263967982 1.9699645099215577 2.399313865464924 191 229 45
15.799654687516862 2.2039813671182875 2.2867551739359175 191 229 45
15.895795541408289 2.1015708169507303 2.4625763595378496 191 229 45
14.843640853407198 2.632651627768914 2.253952797326877 191 229 45
16.19250616447246 2.157014907472779 2.5422175983587225 191 229 45
15.160956888572768 2.7116922454412644 2.3240164413590287 191 229 45
14.8649514257907 2.5868858626672577 2.342854920706919 191 229 45
16.923678524018232 2.3182881364984937 2.4816301167148356 191 229 45
15.08856611682394 2.4426331203775558 2.2408111369183126 191 229 45
16.856224856770446 2.1965284130761904 2.7185088281670886 191 229 45
15.949683064779355 2.1965284130761904 2.6927641364097554 191 229 45
13.703817974468752 -3.0267382628311923 2.0542403726574854 191 229 45
14.069423377515282 -2.9286041503536864 2.2079431588982854 191 229 45
13.957959035162249 2.996998287485024 2.2138665554121264 191 229 45
14.21940622252173 3.0088477741211586 2.1156619387850673 191 229 45
14.541163846079904 3.027562588631162 1.8046760344212471 191 229 45
13.703817974468752 -3.0267382628311923 2.0542403726574854 191 229 45
13.35768446189498 -3.0164511331911474 2.1552449209624855 191 229 45
13.87035137628173 -3.106278268219492 2.2186078809004925 191 229 45
14.326988293183408 2.8259592809260212 2.194702096712716 191 229 45
14.581820409223146 2.8506329287879315 2.100666526776335 191 229 45
13.646706569832876 3.091069638555932 2.0564387498670174 191 229 45
13.624122995500645 -2.8673878968699467 1.975940336103458 191 229 45
14.264870587585834 3.09825003536237 1.7377101275478903 191 229 45
14.025831231902114 2.944339018477857 2.51604834110065 191 229 45
13.458952780738228 2.833254151393897 2.736556357998317 191 229 45
14.906681137028114 2.7345849575402106 2.683529777371034 191 229 45
14.212512220687534 2.569604340579392 2.795536686513774 191 229 45
15.128714051240491 3.0553956142045737 2.654607056372096 191 229 45
14.252651061788647 3.0553956142045737 2.621767680273596 191 229 45
14.97560463956185 2.7622171109217826 2.432929093163443 191 229 45
13.650798137899166 -2.489039268439911 2.4335862335312664 191 229 45
13.963430699790404 -2.4140560669217117 2.522261978436054 191 229 45
14.002392011980678 -2.970617750323967 2.518369552071667 191 229 45
14.089133563321353 -2.215546424392093 2.6424201651279025 191 229 45
14.065187185988687 -2.4262731992308084 2.6455517593244675 191 229 45
13.84449695053827 -2.6424624491260174 2.4173952710070763 191 229 45
14.376424598833731 -2.4450131829547597 2.765188052358955 191 229 45
15.41905693655874 -2.6997379592619826 2.7705815284401174 191 229 45
15.12086298343853 -2.608742484489621 2.8251234049327087 191 229 45
14.723570679194546 2.9097570915882778 2.26060815808154 191 229 45
14.427189891181316 -2.7298386230869367 2.277677732221155 191 229 45
13.862409246621887 -2.3328603887854986 2.3130168467718653 191 229 45
13.308612342064288 -2.5269396866519624 2.1576861742414133 191 229 45
14.501196433475231 -2.1360454512792173 2.5925615083767872 191 229 45
13.987551283053692 -2.239882740537284 2.519847164985083 191 229 45
13.91014723619488 -2.4708181036296977 2.309873753575256 191 229 45
14.09962755632239 -2.257063092845782 2.3971679503734054 191 229 45
13.381314235601424 -2.257063092845782 2.3465123388666154 191 229 45
14.153649172007368 -2.0724577180935495 2.5036518562443297 191 229 45
13.207061125236438 -2.3328603887854986 2.257186676949743 191 229 45
13.584076790389481 -2.507680106805125 1.9772049991400014 191 229 45
16.211623346432436 -1.9883578963676187 2.264855093660535 191 229 45
15.2960774554321 -1.9126808211498858 2.230108019250626 191 229 45
14.700571360372065 -2.020828500549974 2.4550416338268843 191 229 45
13.958530872159715 -2.195779840991735 2.306719153686789 191 229 45
13.608189861917698 -2.0983163016465767 2.057933239027209 191 229 45
15.293391113762764 -1.978285848999645 2.4090195205557556 191 229 45
17.07795954695469 1.9407441092046767 1.769428123818463 191 229 45
11.511600672838963 0.7605364445950299 2.157179058775163 191 229 45
11.388795926087457 -0.13889715752976817 2.0618018082813503 191 229 45
19.40411699821212 -0.2535052409990068 2.016784789165111 191 229 45
12.050958992473968 -0.23586104096301 2.1277298197127523 191 229 45
11.8813842399222 0.2838014351240903 2.239915077114315 191 229 45
20.338436879871015 -0.22306650056063096 2.2881252357546775 191 229 45
20.338436879871015 -0.22306650056063096 2.2881252357546775 191 229 45
20.195816430126584 -0.15859343681548546 2.2943023719299376 191 229 45
12.239284414369859 1.0599296551550161 1.6829630288815134 191 229 45
11.569043005482285 0.9074567683643026 2.153884146789383 191 229 45
12.3462313530004 0.9943823393443018 2.315748557252645 191 229 45
12.133981273224526 1.2146700772197758 1.9392170475404251 191 229 45
14.634204128159931 1.8279814706418531 2.1796716174257362 191 229 45
13.513714720794713 1.5758304289776062 2.2387338591072288 191 229 45
14.275593159495251 1.1712145920845176 2.7834826907484223 191 229 45
15.455041010049639 1.4036233404235927 2.7646418857176576 191 229 45
14.79542926614103 1.0871248700793317 2.6990249041683794 191 229 45
15.120823590646202 1.3682554508190592 2.8251313604388635 191 229 45
16.489956868475083 1.9217060282293292 2.770909970224257 191 229 45
12.872793018088029 1.3484369207822582 2.3860344657107593 191 229 45
13.454910111120327 1.4726073545134317 2.341161446000153 191 229 45
14.957967035774786 2.0880277217973666 2.8602718692069056 191 229 45
14.635618638571303 1.2228095482721046 2.95077090903309 191 229 45
13.507629648223375 2.1503269118711468 2.998700329499642 191 229 45
13.808319869245512 2.656490311207228 2.888945729599609 191 229 45
13.093794561692697 0.4135193245767205 2.6226568417753877 191 229 45
14.459915830313152 1.6039683401626863 3.029992637315364 191 229 45
14.51401186299054 0.3034388172168545 3.000587298829354 191 229 45
15.689703152742586 -2.280483648780137 2.9393622980739424 191 229 45
14.490767625313099 1.0391509547179738 3.012377704874258 191 229 45
14.51401186299054 0.3034388172168545 3.000587298829354 191 229 45
14.528723899734095 2.8530557450081 2.9936242706354617 191 229 45
14.862461479226482 -0.6815806231514687 2.8834388226005294 191 229 45
14.734127510130252 0.9298827171214896 2.9188004434618735 191 229 45
14.399997728983045 0.7408150644884706 2.761067772389249 191 229 45
14.89148570911381 -1.7491544421603817 2.251340606758559 191 229 45
14.320689670422055 -1.856615527964711 2.2840470309171135 191 229 45
14.505308025493568 2.3813219005216775 2.103758999273909 191 229 45
14.758272020303199 2.6400167333729647 1.9432062834066341 191 229 45
15.853444085688276 1.9263324515943827 1.9842813833923116 191 229 45
16.242087357257546 2.048953900626437 1.9077570544819478 191 229 45
16.51663588486873 2.157801949403495 1.7147828019679119 191 229 45
14.368009609247972 2.6026747431441337 2.0301216641316913 191 229 45
14.656491182841691 2.5600063897611665 2.178611757724104 191 229 45
14.90924723227304 2.578465399029486 1.868268374379706 191 229 45
15.790070985052866 2.0808071850812073 1.9860431026753544 191 229 45
16.47504234879155 2.2438820054335764 1.7767998802606921 191 229 45
15.178062108269634 1.9813440414931451 2.15489939667107 191 229 45
15.67102637011615 2.2331157694299453 1.920551971048544 191 229 45
14.689140676304735 2.4334089366276035 2.0193371790045567 191 229 45
15.995984886518773 2.5585269286360046 1.7830623185451606 191 229 45
15.222848438819735 2.2200806961897874 2.0761743647172084 191 229 45
15.243628888734278 2.157519797336831 2.152058719498438 191 229 45
15.394847475815796 2.089291496832682 2.225145293001461 191 229 45
16.328238619942535 2.1209167201270804 2.6468020953534706 191 229 45
16.60476425242772 2.22355620222443 2.6167684953299624 191 229 45
15.721176034318574 2.054930441710803 2.379258517404794 191 229 45
16.49823954915925 2.388673703148852 2.5156091261654705 191 229 45
15.910689118859576 2.2571710780757286 2.3668650631873343 191 229 45
13.200372513785632 -2.8439652386002217 2.0743707918765217 191 229 45
13.419088449736957 -2.6878510032888574 1.9825024591552778 191 229 45
13.880582600484274 2.9283887517874065 2.047566362117346 191 229 45
12.75116001435442 -2.6878510032888574 1.8382606808663298 191 229 45
13.456525390654 -2.6045536811132743 2.242091094561379 191 229 45
14.10828150378851 2.9097570915882778 2.2059062012662167 191 229 45
13.84108523615469 -2.945807051931521 2.0490408602488723 191 229 45
14.069423377515282 -2.9286041503536864 2.2079431588982854 191 229 45
13.73763702854249 -2.3162938014598664 2.691583921535688 191 229 45
13.988449309924196 2.887633959239739 2.304783867676183 191 229 45
13.813065114044194 -3.0041526931546114 2.316298176858582 191 229 45
14.935811678300865 -3.0455487616283685 2.865451350400539 191 229 45
15.237627437976922 -3.06447003712616 2.8025027828281996 191 229 45
14.082017004663829 -2.5848177202217775 2.5105454941280514 191 229 45
13.971932163739167 -2.883439557635264 2.407142943319 191 229 45
14.177302346541659 -2.7832599488036607 2.391239749492506 191 229 45
14.306094853116424 3.0215621310240017 2.7778283900973757 191 229 45
13.700097728778694 -2.1705466935655875 2.42939298864478 191 229 45
17.997992561843027 -0.32597612961015615 1.9325621592231468 191 229 45
12.364385054028737 -0.17322776890316569 2.43075988516435 191 229 45
12.365617195659386 1.04929978353819 2.2093123372539902 191 229 45
14.17702971539743 1.6799821364819099 2.39126037762448 191 229 45
12.43481252782851 0.7562359107097351 2.4242065198991796 191 229 45
14.193915300544765 1.6697613190836398 2.2918007076862152 191 229 45
16.644082941787065 2.0692751596600196 2.7477702991022817 191 229 45
15.554843172573081 -1.5931350383368963 2.98725989466916 191 229 45
14.454729183507983 -0.4501690168043599 2.751711549047473 191 229 45
14.498137303414516 2.1503269118711468 3.008522890809572 191 229 45
15.590380546101562 -1.9858591804398171 2.9732390364738244 191 229 45
15.872863587214097 -2.1153489514180577 2.889197115319106 191 229 45
14.41381324087809 -2.786590710797891 3.0635700689906153 191 229 45
14.729524499807951 -1.9625897881444472 2.5677246306239803 191 229 45
13.29085101663637 -3.106278268219492 2.1585751956709855 191 229 45
15.454857791978142 1.9519596996245383 2.0678870004860728 191 229 45
15.153327874740409 2.8901857395466815 1.8633340654584518 191 229 45
14.120216235386359 -3.1116855035122732 1.9609204230884687 191 229 45
13.065413959306516 -2.6494163156897073 2.0800708134490176 191 229 45
13.779399409145144 3.0743721251228915 2.4227525606969844 191 229 45
14.025831231902114 2.944339018477857 2.51604834110065 191 229 45
13.859683785700993 2.9656532187985833 2.4161573246607646 191 229 45
14.943140802807887 2.992345195207608 2.8637258334691142 191 229 45
13.865432896345498 2.881722885340881 2.6728655363299816 191 229 45
14.283939486471297 2.4334089366276035 1.9562117686679903 191 229 45
14.995315399377066 -2.8111261562879526 2.851777912850811 191 229 45
16.849671452799555 2.0745948683408435 1.711917653301006 191 229 45
16.199953976075463 1.9893118265275904 1.9749151619917396 191 229 45
14.604512788877734 2.4936858845661805 2.099756646664414 191 229 45
15.229212016402819 -1.942745297891452 2.3198223564369975 191 229 45
13.865372836129874 -2.215014688939119 2.1312108173215796 191 229 45
19.659060750663407 -0.19746300292797822 2.067605786504351 191 229 45
14.695973973872908 -3.0143911586550995 2.930565726609035 191 229 45
14.966794190321648 -0.3387500626814742 2.8582381468769453 191 229 45
14.135161165399111 -1.575485260689983 2.204505488410338 191 229 45
21.21569990841511 -1.0859666946629374 2.6176761062829437 191 229 45
13.938650172095352 -3.0931409909660124 2.5247601592342104 191 229 45
15.180250845043851 -2.9469489378296734 2.648233946143116 191 229 45
15.157368172652825 1.8818203623538092 2.0785662485707324 191 229 45
14.848415381731343 2.8021360439857848 1.9408358497604783 191 229 45
13.906751627668339 -2.792275960677864 1.9672404780804693 191 229 45
14.723570679194546 2.9097570915882778 2.26060815808154 191 229 45
14.476741187672454 2.787246194899706 2.595329055004503 191 229 45
15.087514241207877 -1.8108089868710906 2.531999121003969 191 229 45
16.96210034794233 2.469731391960541 2.581452499326108 191 229 45
13.066986217566456 -2.5753675155736824 1.994299361878414 191 229 45
14.261036739813283 -0.07878123541072775 2.7862200853353825 191 229 45
13.05906644552043 1.0974222404080232 1.5225324334158639 191 229 45
14.330284325580514 2.917247277919234 2.6123789758877956 191 229 45
13.971932163739167 -2.883439557635264 2.407142943319 191 229 45
13.97149264943532 -2.960466954324489 1.8889117786027887 191 229 45
12.425095334634008 1.201350673595355 2.425103374335452 191 229 45
14.703422649288951 2.944571439553631 2.9282137610921524 191 229 45
14.456831564090132 -1.9198111375381102 2.4758800147189133 191 229 45
14.075699031976987 -2.4054633576578524 2.3990151371464647 191 229 45
13.208616522852104 -2.2698322563797806 2.1627294937630275 191 229 45
13.878243183645182 3.086507688930372 2.2181776241225366 191 229 45
14.703422649288951 2.944571439553631 2.9282137610921524 191 229 45
