10.595662930983002 1.0859566161210188 0.6795840914999678 101 153 128
13.630371344386623 0.628642488339493 0.8257303372380992 101 153 128
11.54315544526748 1.164667915158434 0.47944657010817965 101 153 128
10.847951993443058 0.9418679667277023 0.33590979548576233 101 153 128
10.834766157840832 0.7588923827502199 0.5491580483698545 101 153 128
11.387202139688737 0.8975792456265471 0.4523975195876018 101 153 128
11.592161673458815 0.732391732467175 0.2465317226864623 101 153 128
10.847951993443058 0.9418679667277023 0.33590979548576233 101 153 128
10.799861827041068 1.4120128479405452 0.7026578781833142 101 153 128
10.743830460123329 1.5557702715008321 0.6964768568821268 101 153 128
11.126927939640792 1.9686672041613948 0.7366909085821836 101 153 128
11.428097078982741 2.0853785040178754 0.7652980075039664 101 153 128
11.63191956033982 2.1551130416177235 0.6525971801309406 101 153 128
12.243732062106128 2.210627120049306 0.4073926131547351 101 153 128
11.92992958333181 1.7971995705227362 0.34133669893177204 101 153 128
11.011545192002881 1.2944750064567476 0.37615322474646157 101 153 128
11.60806421414781 1.5349970319467232 0.25191798472427135 101 153 128
11.403390509243437 1.3489074253737223 0.45530971453052127 101 153 128
11.642166133176163 1.8714160873626235 0.2630576255833153 101 153 128
11.963519014816 2.3570315518015543 0.3491542698909964 101 153 128
11.761501168863141 2.1512698818622336 0.298420060099769 101 153 128
11.350338875073215 1.549628216909889 0.44566844858882515 101 153 128
11.713617075740666 2.1054058327823824 0.5067248084870034 101 153 128
11.659943281469426 1.2062129851813488 0.2686608707178164 101 153 128
13.319598041037736 2.7729344387575723 0.405077312839923 101 153 128
12.864475494711613 2.470042475440986 0.5077233839009435 101 153 128
13.019386300281171 2.6856571983463944 0.5287147112764069 101 153 128
12.333701730203558 0.7047495341179932 1.0401787089022436 101 153 128
11.589031611480392 0.9692279307272486 1.1960814839624714 101 153 128
11.51442002738004 1.0497319656290292 1.098169783890102 101 153 128
10.77810853129252 1.23497305067587 1.0629168561193627 101 153 128
10.806250305390396 1.0337332302082853 0.8364029103025288 101 153 128
11.593031585958204 1.0944708132321783 1.287395763234187 101 153 128
15.673595538896917 -0.0119075467055963 2.521804562754088 101 153 128
15.673595538896917 -0.0119075467055963 2.521804562754088 101 153 128
11.124063529665989 0.732391732467175 2.8844571756588326 101 153 128
11.548846127465437 0.21394788471735743 2.7694498073553 101 153 128
10.998254489748064 0.4008959235810163 2.932334732988146 101 153 128
11.668720344007518 0.43193404757741033 2.7439602239701 101 153 128
10.586595141377403 -0.026411448421576975 2.743399121144501 101 153 128
10.962591583675911 -0.051489058173189 2.9482503028930385 101 153 128
11.017950201362337 -0.48495010208819456 2.9240776387265957 101 153 128
11.393821201696289 -0.5967324589998194 2.806029589009696 101 153 128
11.197568341286733 -0.034915421233162824 2.8605756636462885 101 153 128
10.355150944397758 -1.1801725647154615 2.57884922473234 101 153 128
11.443466966187433 -1.0248511237106313 2.5920099407486807 101 153 128
11.355317975482217 -0.7859881487344972 2.6048174899787564 101 153 128
10.79485994673852 -1.0975838206907655 2.699783109317461 101 153 128
11.62049800935581 -0.7861780998667076 2.7539596928884684 101 153 128
10.1219330302701 1.431857215191663 0.9063188128591995 101 153 128
10.101449560071211 1.6839056135774575 0.9047294573697122 101 153 128
10.470197618003821 1.9225599129945528 0.9321156902329388 101 153 128
9.852051488297343 1.5591497554880354 1.125709117212567 101 153 128
9.913124686765869 1.4473149049527432 1.1286458491837013 101 153 128
9.084291376761312 -2.766575322121913 1.2059097715819793 101 153 128
9.084291376761312 -2.766575322121913 1.2059097715819793 101 153 128
10.851473600113417 0.679554098444741 3.010476785849429 101 153 128
9.98080403145895 2.702116201324073 2.93005842579316 101 153 128
10.832369742551649 2.358904132781778 3.0246078162401764 101 153 128
10.353381774949852 2.5630582818739436 2.8009075752337065 101 153 128
10.923852084197907 1.5161027771244566 2.9672902929348925 101 153 128
10.978964745582344 1.0426699919212892 2.940775886606737 101 153 128
10.832369742551649 2.358904132781778 3.0246078162401764 101 153 128
10.795710109420938 1.4551615325254792 3.0583535265688724 101 153 128
11.389038635565036 -2.086593525289716 2.599862422352608 101 153 128
11.125805541159655 -2.3033160712075302 2.883862411793565 101 153 128
9.80001959441463 -3.021247175454231 3.0493221970340523 101 153 128
10.81577466412325 -1.477634198418013 3.0384831914134 101 153 128
10.980288544955474 -2.612672642075842 2.940184482273012 101 153 128
10.99957596760002 -1.9728140379713042 2.9317697698670586 101 153 128
11.516571486894259 -1.5455945009426115 2.776696837888139 101 153 128
11.234210425135466 -1.8515696320622972 2.849488893084606 101 153 128
11.015060990494245 -1.5505263882471414 2.6592443032697526 101 153 128
11.550943523601907 -1.78562548205132 2.7689848939704254 101 153 128
11.018389924195544 -1.088596450060323 2.9238971423547486 101 153 128
11.357832599088498 -2.1186092442594413 2.8152368251987028 101 153 128
11.198866299921942 -1.5374921300434081 2.860174423034811 101 153 128
10.759375872971068 -0.8082511866768811 3.1276580503570663 101 153 128
11.252632089019544 -1.2296521109852414 2.844093083370895 101 153 128
10.815326703487829 -0.09791890691567287 3.0388842439120456 101 153 128
10.980288544955474 -2.612672642075842 2.940184482273012 101 153 128
9.941491916387887 -3.08449175337291 2.949339128839285 101 153 128
12.91823078700408 2.873890741476328 2.5549469876052804 101 153 128
11.308587572737894 -2.6203537940502453 2.0050919238653915 101 153 128
13.15439457404628 -3.12320969434451 2.676702815834793 101 153 128
13.32185127631048 -2.7981874439409515 2.652234895436217 101 153 128
13.200564723485003 -2.9557820858360193 2.6697770699218686 101 153 128
12.493551675183408 -2.4276802530593637 2.467172927140197 101 153 128
12.93787786497136 -2.5330440919791197 2.5526663319779033 101 153 128
13.110898381295565 -2.575955782427856 2.6833616326861285 101 153 128
12.93787786497136 -2.5330440919791197 2.5526663319779033 101 153 128
11.990984257165682 -2.9088915063726257 2.274457676059761 101 153 128
13.793643423723488 -2.844892874839683 2.5914417700099395 101 153 128
13.345680535567753 -3.127865022881259 2.508376141074481 101 153 128
13.391191185501404 -3.002135942103654 2.50376078813281 101 153 128
13.391191185501404 -3.002135942103654 2.50376078813281 101 153 128
12.195257315439267 -2.766575322121913 2.3719727192541566 101 153 128
12.206576746361518 -2.8054534059776617 2.259563861066876 101 153 128
11.880582305859356 -2.6043197639237006 2.3997090230615226 101 153 128
11.569286310652902 -2.504050122365672 2.305809900971188 101 153 128
12.195257315439267 -2.766575322121913 2.3719727192541566 101 153 128
13.151606316811359 -2.718134913245625 2.5287637069545523 101 153 128
9.62391608558973 -1.1007053399326425 2.3493400312088335 101 153 128
9.849268151617727 -1.696243766489199 2.3270154162589636 101 153 128
9.87027497981091 -1.4167784837122388 2.3250097352069203 101 153 128
10.6785635005777 -1.553844058144864 2.532519788208869 101 153 128
10.715623915972662 -1.7165111127668449 2.527579067719064 101 153 128
10.8642474636657 -2.416715792655476 2.1294273002696142 101 153 128
9.99004307273829 -1.8315121588458951 2.313805075671966 101 153 128
10.553990503148858 -2.0722143913067312 2.2657604838552383 101 153 128
10.376074904104879 -2.1739819765670716 2.1591140778205986 101 153 128
11.702928388939926 0.9624156558955674 0.6604951287434351 101 153 128
13.620235244328095 0.574386447784958 0.9208989260545589 101 153 128
11.232779944691986 0.8727813984874664 0.6045798179931812 101 153 128
13.218457569627999 0.49306181120861636 0.8975886882357689 101 153 128
11.156220239974951 1.0752452399615358 0.4077303265803882 101 153 128
11.085359037006885 0.7500564237796318 0.3926678757556489 101 153 128
11.085359037006885 0.7500564237796318 0.3926678757556489 101 153 128
10.799861827041068 1.4120128479405452 0.7026578781833142 101 153 128
11.507212847791958 1.9406487746075376 0.47340364706736787 101 153 128
11.896652570810014 1.544191076342137 0.33337335225191045 101 153 128
11.60806421414781 1.5349970319467232 0.25191798472427135 101 153 128
12.243732062106128 2.210627120049306 0.4073926131547351 101 153 128
12.790131250896856 2.449070925276689 0.6422538370070341 101 153 128
12.263621538708092 0.7702535464538666 0.9391180581032416 101 153 128
12.1454837787219 0.8967218780593542 1.214038178362514 101 153 128
11.833403517874858 0.8967218780593542 1.2933066619007039 101 153 128
15.698559956496357 0.09762765661516384 2.519579526000211 101 153 128
15.503291813243344 -0.010729092651450334 2.431713965096658 101 153 128
11.355699535446943 0.5473692327341759 2.815792270631202 101 153 128
11.232485225833525 0.27974741500649364 2.8500000939958143 101 153 128
11.21364408561811 -1.1801725647154615 2.6264439273610116 101 153 128
11.51488859195311 -0.026411448421576975 2.777079617258952 101 153 128
11.394246419054546 -0.9758570169432162 2.805922599453015 101 153 128
11.197568341286733 -0.034915421233162824 2.8605756636462885 101 153 128
11.162976263027655 -0.7865484426568212 2.871518662115106 101 153 128
11.033409436661206 -0.9238371299534045 2.6560777998618605 101 153 128
11.251770934702028 -0.3430215021857982 2.8443428110875946 101 153 128
10.1219330302701 1.431857215191663 0.9063188128591995 101 153 128
10.062127297046478 1.5576740954566095 0.9016545902530922 101 153 128
9.179206110812343 -2.6618482938765093 1.32408972401598 101 153 128
9.839896932473033 2.358904132781778 3.0127458093339303 101 153 128
10.119270561911502 2.357473501994448 2.8737024272524 101 153 128
11.234210425135466 -1.8515696320622972 2.849488893084606 101 153 128
10.85236651877301 -2.250858209397696 3.0098543283221124 101 153 128
9.80001959441463 -3.021247175454231 3.0493221970340523 101 153 128
11.069719560657942 -1.35803732905283 2.649897358356475 101 153 128
11.234210425135466 -1.8515696320622972 2.849488893084606 101 153 128
11.234210425135466 -1.8515696320622972 2.849488893084606 101 153 128
11.050992991446654 -1.7445106575845755 2.6530708096541384 101 153 128
11.125805541159655 -2.3033160712075302 2.883862411793565 101 153 128
11.357832599088498 -2.1186092442594413 2.8152368251987028 101 153 128
10.96347545235127 -1.5217175014439503 2.947838966300885 101 153 128
13.478633615429832 2.906472980887932 2.495058838244589 101 153 128
13.660679400131414 3.013022583320605 2.6075234011772035 101 153 128
11.176215289787546 -2.6618482938765093 2.22019377405406 101 153 128
10.539984602341073 -2.567381928546078 2.0391918943040324 101 153 128
12.262342693609442 -2.504050122365672 2.3663427776852117 101 153 128
13.151606316811359 -2.718134913245625 2.5287637069545523 101 153 128
13.676541466745594 -2.982233948074694 2.60556551770511 101 153 128
12.932167783764298 -2.766575322121913 2.425807357151251 101 153 128
13.15439457404628 -3.12320969434451 2.676702815834793 101 153 128
12.635857648927304 -2.6043197639237006 2.4532075786780845 101 153 128
12.91041610310993 -2.7349883880181296 2.7159247874923356 101 153 128
12.826968616705798 -2.982233948074694 2.5657385374671 101 153 128
10.35067260713665 -1.1007053399326425 2.4181760909751935 101 153 128
10.522921089100333 -1.5562285130539515 2.3998305435922402 101 153 128
10.691941974815546 -1.8315121588458951 2.3827373610720572 101 153 128
10.347026163091611 1.2278596043890297 0.64927002674869 101 153 128
11.194155614242357 0.43193404757741033 0.4155061590394622 101 153 128
12.003933943958168 2.2642086096216474 0.6921327810007525 101 153 128
10.909429311438059 1.8393312174928096 0.7144360401898245 101 153 128
10.78066651133263 1.7001471774501447 0.7005527057474812 101 153 128
11.642166133176163 1.8714160873626235 0.2630576255833153 101 153 128
13.718767052746077 2.8311616896936713 0.46831509083683875 101 153 128
12.046414293720375 2.024245928435567 0.3675896542640931 101 153 128
10.073587423687346 1.33848886086047 1.1361734863419186 101 153 128
12.466757740409655 0.7721469594818297 1.136853290874953 101 153 128
13.012583175408764 0.6479798973952232 1.0705244932953648 101 153 128
11.754150702348852 -0.8940489770744694 2.5502680822082473 101 153 128
10.962591583675911 -0.051489058173189 2.9482503028930385 101 153 128
15.542485948386654 -0.10926755685452727 2.4287843688625257 101 153 128
11.124063529665989 0.732391732467175 2.8844571756588326 101 153 128
10.238757770714077 1.8066355811663097 0.9152254054630643 101 153 128
10.032381246416621 1.7809321622906418 1.1342659081366122 101 153 128
11.131529226346448 2.1885308373774106 0.862481725092465 101 153 128
10.789713417544876 2.029427809315333 0.9539282991809704 101 153 128
10.79615888399976 -3.021247175454231 3.0578567788762125 101 153 128
10.851473600113417 0.679554098444741 3.010476785849429 101 153 128
14.20706387556228 -3.002135942103654 2.545685669069249 101 153 128
10.756417208368203 -2.003254518325823 2.70740052075359 101 153 128
12.191852328934912 -2.567381928546078 2.2605585485384823 101 153 128
12.95175417861125 -2.844892874839683 2.5510643867296774 101 153 128
10.096004204279236 -1.2391444969717946 2.4472205291346762 101 153 128
10.962645347417352 -2.1739819765670716 2.235069820191028 101 153 128
10.907255509914926 1.0054172917596012 0.5599239270847552 101 153 128
11.761501168863141 2.1512698818622336 0.298420060099769 101 153 128
11.796669015208868 0.9418679667277023 0.3079636724538055 101 153 128
11.350338875073215 1.549628216909889 0.44566844858882515 101 153 128
11.385212780255506 1.7520461914643004 0.45203786736507107 101 153 128
11.51442002738004 1.0497319656290292 1.098169783890102 101 153 128
12.066710565863822 1.0179377205894262 1.298809660618414 101 153 128
10.279136675644402 1.3102961230401058 0.918242851631527 101 153 128
11.706650411939181 -1.0975838206907655 2.7363154274992265 101 153 128
11.389038635565036 -2.086593525289716 2.599862422352608 101 153 128
9.941491916387887 -3.08449175337291 2.949339128839285 101 153 128
10.871435237005066 -0.7875884909128095 2.997219093741371 101 153 128
13.345680535567753 -3.127865022881259 2.508376141074481 101 153 128
13.374990712079525 3.02915797131535 2.505396816228741 101 153 128
10.795710109420938 1.4551615325254792 3.0583535265688724 101 153 128
13.497958348046485 2.608150372365458 0.43486379533254965 101 153 128
11.94727855697127 1.2944750064567476 0.34540117745915877 101 153 128
10.960083112373281 2.013352148346808 2.9494227994031808 101 153 128
11.10741851375132 1.1384118469682083 1.0793437882375092 101 153 128
12.81005460860798 3.013022583320605 2.5677753903259735 101 153 128
10.227112890149463 -1.9577228856843585 2.2927136898817357 101 153 128
10.834766157840832 0.7588923827502199 0.5491580483698545 101 153 128
15.712364861030558 -0.12115887956349215 2.5183551047251793 101 153 128
10.998254489748064 0.4008959235810163 2.932334732988146 101 153 128
11.251770934702028 -0.3430215021857982 2.8443428110875946 101 153 128
13.51623223525527 -2.656448619820475 2.625880004011069 101 153 128
13.510766587276569 -2.88067233894727 2.4919142408894746 101 153 128
