11.007364243149112 1.028357532137508 1.4150477579072112 15 241 127
10.2493102002543 1.2006774279615713 1.7963824145811722 15 241 127
11.681877773498977 0.6551454972565008 2.4905731926581223 15 241 127
11.681877773498977 0.6551454972565008 2.4905731926581223 15 241 127
10.863343328984802 0.8734366039695217 2.597125609002876 15 241 127
11.656139616942186 0.855764688740749 2.493477233795714 15 241 127
11.297724140456952 0.973548427720694 2.5366143946816795 15 241 127
10.302233091488299 1.1118719236921986 2.227859241747347 15 241 127
11.030858090670753 1.0509360131701861 2.4215210540702365 15 241 127
10.88137335770603 1.0641500429538968 2.078744424590428 15 241 127
10.496535911147506 1.1607612812818728 2.099272423244373 15 241 127
7.499220328265609 -1.0047408880858073 2.0253386738124175 15 241 127
8.283233852874552 -1.0753594702330844 1.9795812848875556 15 241 127
11.400481078478485 0.7420656127061482 2.6970708815179223 15 241 127
14.272587237252859 0.2361280296370548 2.376243564773855 15 241 127
11.513976131904487 0.46475958860358846 2.676806005894969 15 241 127
11.150992168873621 0.5694162214113372 2.7466425384526216 15 241 127
11.730188033071384 0.8734366039695217 2.641296319446049 15 241 127
9.764522899510988 1.8216476161170523 1.395029212359424 15 241 127
9.640072119174574 1.8216476161170523 1.4973430313532483 15 241 127
9.504113661688677 1.7185849689173747 1.7072171910077965 15 241 127
9.61079078607378 1.5050158491742742 1.8116567293730306 15 241 127
9.940892292206543 1.2972080231093253 1.803508338168659 15 241 127
9.677353643926962 1.2972080231093253 1.6010304267526363 15 241 127
9.458175460799493 1.736057530478233 2.041871442455942 15 241 127
9.376093167137393 1.4971301158591 2.0463353275235123 15 241 127
9.085871454451324 1.379089098392927 1.9416169235209289 15 241 127
9.048314762399526 1.736057530478233 1.9432312478087868 15 241 127
8.94761962847434 1.8503520361188441 1.8299039165266033 15 241 127
8.94980558756684 1.6172541566073044 1.947534892759331 15 241 127
9.993384171186381 1.1782988669524428 2.3887334428417515 15 241 127
8.934685453530818 1.473921149430484 2.352208113716321 15 241 127
9.979952290190592 1.2759657516397247 2.5515554045379094 15 241 127
9.020785116715974 1.7869828349849626 2.3427832437046336 15 241 127
9.337494501676114 1.8862285719653162 2.173419242158781 15 241 127
9.653324150030512 1.6319396454219897 2.4271271431610524 15 241 127
9.744724066374426 1.7869828349849626 2.416379306999541 15 241 127
9.781715935345176 1.3536445286903587 2.2695922387666583 15 241 127
10.793677347175835 1.826057190137529 2.607880517140088 15 241 127
10.721824038217918 1.4558358076100142 2.619332798870293 15 241 127
10.572852418700132 1.0260228224716532 2.644359751854769 15 241 127
9.133226351329363 1.7581606621497918 2.188889444678978 15 241 127
9.048196705210815 1.4871011966636472 2.195587325816848 15 241 127
9.98615171637395 1.379089098392927 2.1293828508083257 15 241 127
9.993384171186381 1.1782988669524428 2.3887334428417515 15 241 127
8.981242173800288 1.9576351567079928 1.6033745885177202 15 241 127
8.981242173800288 1.9576351567079928 1.6033745885177202 15 241 127
9.950027287183634 1.9576351567079928 2.016851469219976 15 241 127
11.225431288105712 2.363046820164912 2.4019776433385114 15 241 127
11.064689829337265 2.434381149438575 2.0695451420102127 15 241 127
12.464684937695367 2.447677721847519 2.412095344637261 15 241 127
12.148972262502886 2.434381149438575 2.214622414865577 15 241 127
11.047695101994593 2.2771536852463243 2.291743139227151 15 241 127
11.731864731339506 2.2771536852463243 2.355816099348342 15 241 127
5.8446607645872435 -1.6386542845565453 1.793788920567544 15 241 127
6.766407133797178 -1.294334421095939 2.078991330234171 15 241 127
6.162155668003158 -1.4633293408251828 1.9519974434381835 15 241 127
6.871878272667844 -1.0621150578266698 2.245483819074014 15 241 127
7.626134212681822 -1.334025587977811 2.017222254912346 15 241 127
7.2041456078452 -1.8584201992607075 2.395950238871501 15 241 127
7.251260165405148 -1.2392399558353582 2.3889410458382745 15 241 127
7.461413667881569 -2.0417694968241316 2.359331571272613 15 241 127
11.784401908220648 -2.596880927070544 1.943630339578788 15 241 127
12.68191108909938 -2.5226004711916477 2.0013015331076645 15 241 127
12.233913389450024 -2.6784920422832097 2.1110485404592803 15 241 127
12.061539696247841 -2.6319766892099974 2.220073930302881 15 241 127
10.901186574947655 1.9671300229206603 2.8058536210406393 15 241 127
10.83004657300188 1.3876972467331605 2.8252163910184307 15 241 127
11.166433236627958 1.6601645662115432 2.7433383666915314 15 241 127
11.176593901715089 1.429503094616362 2.7411831476434836 15 241 127
11.275782512076061 1.2128245615168163 2.7208861810752456 15 241 127
11.124025746327655 0.9029070764853194 2.752499092874504 15 241 127
10.394095623596094 1.1337335463273277 3.0016904183801887 15 241 127
10.815845147540179 2.3717940847000047 2.829252060556501 15 241 127
10.468198689406343 2.383346318670586 2.958141204155599 15 241 127
10.671953256958636 0.9617289357790249 2.8741420524606207 15 241 127
10.567098291533235 1.3115407082890933 2.913139027072114 15 241 127
10.639996535307416 2.110766631632736 2.885331639152163 15 241 127
10.567098291533235 1.3115407082890933 2.913139027072114 15 241 127
10.30455536868083 2.460605210174533 3.0932996805502775 15 241 127
10.570232793776972 3.0111115140266724 2.9118671326523042 15 241 127
12.080057478285331 2.5901520493302157 2.590642544364931 15 241 127
11.668539269954177 2.4947001312688806 2.6510477080708084 15 241 127
11.330570537719986 2.367137704726148 2.7102061177299 15 241 127
11.66225412091133 2.2364170885007684 2.652057730240698 15 241 127
12.080057478285331 2.5901520493302157 2.590642544364931 15 241 127
11.66225412091133 2.2364170885007684 2.652057730240698 15 241 127
11.079507490849178 2.542327450801486 2.7624195521364334 15 241 127
11.079507490849178 2.542327450801486 2.7624195521364334 15 241 127
11.265084276361739 2.850716508863084 2.7230138121150738 15 241 127
10.914629804501748 2.77167568616315 2.8023416380407524 15 241 127
11.079507490849178 2.542327450801486 2.7624195521364334 15 241 127
11.844891143789047 2.7359677794840738 2.6238599615091225 15 241 127
9.993907822539281 1.2006774279615713 1.6000724920882803 15 241 127
10.431644316309011 1.0641500429538968 1.9948871523908072 15 241 127
9.594996306333035 1.0641500429538968 1.7059170686135403 15 241 127
11.336116079928876 0.7579183492726564 2.391337943569069 15 241 127
11.235624072528593 0.751765784854797 2.5446544377356726 15 241 127
11.681877773498977 0.6551454972565008 2.4905731926581223 15 241 127
10.88137335770603 1.0641500429538968 2.078744424590428 15 241 127
11.235624072528593 0.751765784854797 2.5446544377356726 15 241 127
11.75576406859764 0.6228005962855204 2.637331053513321 15 241 127
9.442351956937019 1.7185849689173747 1.4958020800977736 15 241 127
10.05578875271796 1.9195561654651756 1.4001710648578818 15 241 127
9.410377065244663 1.612271817952703 1.7085846987088344 15 241 127
9.59897283660576 1.612271817952703 1.8119591509906459 15 241 127
9.048314762399526 1.736057530478233 1.9432312478087868 15 241 127
8.962479571582186 1.4971301158591 1.9469754796627587 15 241 127
9.655571605631865 1.8503520361188441 2.0314863243046726 15 241 127
10.825180401374055 1.2759657516397247 2.602976001692796 15 241 127
10.744896937650497 1.1782988669524428 2.4524092778192785 15 241 127
10.420460143402597 1.7581606621497918 2.34595457854945 15 241 127
8.921971987052515 1.6319396454219897 2.3536227525147613 15 241 127
10.453088043616502 1.3536445286903587 2.342901055806607 15 241 127
10.572852418700132 1.0260228224716532 2.644359751854769 15 241 127
10.51903551608636 2.0761717877785975 2.653870168786334 15 241 127
11.56825600731804 2.3619677105158847 2.2528550176240336 15 241 127
11.307681906130593 2.17803436102901 2.3940397102026827 15 241 127
11.058061471419395 2.2886547354746423 2.069871659322745 15 241 127
11.14432896845366 2.364622062157989 2.5568168998915346 15 241 127
12.150670207758795 2.361182234313912 2.115162616988961 15 241 127
11.570039175106649 2.2886547354746423 2.1458325465260133 15 241 127
7.898413957600702 -1.1982074840578176 2.000785648958339 15 241 127
7.2041456078452 -1.8584201992607075 2.395950238871501 15 241 127
7.589227136138386 -1.1400104977460475 2.171968879384053 15 241 127
12.184301840576955 -2.596880927070544 2.0201392763261894 15 241 127
12.484165866156111 -2.5457204698947136 2.19462044579851 15 241 127
12.061539696247841 -2.6319766892099974 2.220073930302881 15 241 127
10.567098291533235 1.3115407082890933 2.913139027072114 15 241 127
11.330570537719986 2.367137704726148 2.7102061177299 15 241 127
10.81956046970506 1.686924061963384 2.8281903850192407 15 241 127
10.556350992987076 1.736349386114057 2.917559699417132 15 241 127
10.639996535307416 2.110766631632736 2.885331639152163 15 241 127
11.079507490849178 2.542327450801486 2.7624195521364334 15 241 127
10.83004657300188 1.3876972467331605 2.8252163910184307 15 241 127
10.500678256581566 0.6831352024165193 2.9421579711914547 15 241 127
10.815845147540179 2.3717940847000047 2.829252060556501 15 241 127
11.176593901715089 1.429503094616362 2.7411831476434836 15 241 127
10.500678256581566 0.6831352024165193 2.9421579711914547 15 241 127
10.394095623596094 1.1337335463273277 3.0016904183801887 15 241 127
10.38316925686344 1.857032202179655 3.009372690155513 15 241 127
10.914629804501748 2.77167568616315 2.8023416380407524 15 241 127
11.681877773498977 0.6551454972565008 2.4905731926581223 15 241 127
11.341574236656038 0.9768715342192573 2.056295194632122 15 241 127
10.302233091488299 1.1118719236921986 2.227859241747347 15 241 127
9.594996306333035 1.0641500429538968 1.7059170686135403 15 241 127
8.029030174788081 -0.8892257320871273 1.9933376661395106 15 241 127
11.75576406859764 0.6228005962855204 2.637331053513321 15 241 127
10.41006416680272 1.7044338230736324 1.5989018232433145 15 241 127
9.363979018721427 1.6172541566073044 2.0470016359690253 15 241 127
11.664206080565648 2.361182234313912 2.041756472751062 15 241 127
9.655571605631865 1.8503520361188441 2.0314863243046726 15 241 127
8.653885312403574 1.8503520361188441 1.6046074115472344 15 241 127
9.494110969154821 1.379089098392927 2.0399445977063695 15 241 127
10.195599350613175 1.2661979683079494 2.116594630841888 15 241 127
10.825180401374055 1.2759657516397247 2.602976001692796 15 241 127
9.561273974104413 1.9576351567079928 1.922355694131796 15 241 127
9.665075641780964 1.473921149430484 2.4257264069398485 15 241 127
8.632021815551717 1.3536445286903587 2.091258448898088 15 241 127
12.298202546063767 -2.5226004711916477 1.9273408007158672 15 241 127
11.668539269954177 2.4947001312688806 2.6510477080708084 15 241 127
10.646885168212497 2.6385558784866605 2.8828738693445466 15 241 127
10.868192413391263 0.7245118318208825 2.8146649294712756 15 241 127
10.31556500449657 0.47197914941350066 3.0747682679346715 15 241 127
10.390228165465064 2.919447033916915 3.0043589009235765 15 241 127
12.060213642305252 2.17803436102901 2.4504406023875998 15 241 127
11.018690972074603 1.1136555881479722 2.5742714340510933 15 241 127
9.227542690563887 1.9322099572587288 2.3211949300912886 15 241 127
11.568163667046752 2.2609460932036742 2.503588031987156 15 241 127
9.995448296878493 1.227570709966327 2.2517582505043716 15 241 127
9.744724066374426 1.7869828349849626 2.416379306999541 15 241 127
10.825180401374055 1.2759657516397247 2.602976001692796 15 241 127
10.31556500449657 0.47197914941350066 3.0747682679346715 15 241 127
11.072888002957203 2.1950194620383945 2.7639227119984926 15 241 127
11.24554183720305 1.8818184627745311 2.7269374301208202 15 241 127
7.0800235843407116 -1.653073172317327 2.415134420740821 15 241 127
11.983129416466934 2.363046820164912 2.458253380985259 15 241 127
11.574499908908807 2.4664014195105453 2.502850070976568 15 241 127
9.714173310704895 1.2661979683079494 2.028494511655591 15 241 127
9.048196705210815 1.4871011966636472 2.195587325816848 15 241 127
10.556350992987076 1.736349386114057 2.917559699417132 15 241 127
10.932379831911035 1.117603769100158 2.797770363766712 15 241 127
7.096037906508539 -1.4406355172255434 2.412598198615613 15 241 127
5.994417355950463 -1.8099380654811013 1.7881273584638009 15 241 127
10.567098291533235 1.3115407082890933 2.913139027072114 15 241 127
7.3109322941844965 -0.9139948059838972 2.1983176337881125 15 241 127
9.725961111862727 1.3992488399419771 1.8087491408162877 15 241 127
9.65546097336709 1.6235956889564855 2.280630539914518 15 241 127
