12.089380406105837 1.1816896502683523 1.782723957808472 143 184 92
15.896189259430479 1.035611641217412 2.214708342411523 143 184 92
15.515203621433315 1.10598383249329 2.2332712281396057 143 184 92
16.811407201237614 0.9109899411688368 2.174440769786076 143 184 92
17.90744476768707 0.856377941091974 2.200303041282515 143 184 92
10.263502783414076 1.8188512267317463 1.623720926671052 143 184 92
11.239068948007143 1.617979860512794 1.799031480791692 143 184 92
11.239068948007143 1.617979860512794 1.799031480791692 143 184 92
11.755246873053762 1.2623955288157565 1.788843733444628 143 184 92
10.539537940090982 1.8188512267317463 1.3355032110298397 143 184 92
10.247752880744548 1.6227207384613016 1.328671609078195 143 184 92
10.623800720747512 1.4225629004927993 1.2393539407593557 143 184 92
16.301646854051945 1.2868107922720455 2.274099643416629 143 184 92
16.824901311383147 1.34746572841895 2.4120787433345017 143 184 92
16.11758048210482 1.3656339792459073 2.283823676200491 143 184 92
16.611071547247608 1.5302966936433076 2.3390691714699763 143 184 92
16.612056115685487 1.6140317752962414 2.339011900738362 143 184 92
8.847215340963027 1.4894915126410853 2.4031945553287324 143 184 92
14.593244032042328 1.962461063122906 2.196174164832793 143 184 92
14.593244032042328 1.962461063122906 2.196174164832793 143 184 92
17.008044179011574 1.8819104138632943 2.4001143269471212 143 184 92
16.829761030754565 1.796969589042831 2.411755822066052 143 184 92
8.963182480301324 1.8209216668392232 2.3890880816383415 143 184 92
9.185387886098503 1.971781837596901 2.3635949667366853 143 184 92
16.383000866940648 1.9109599425642319 2.442780506359147 143 184 92
16.419044857697592 1.8453025703350872 2.5406996595713562 143 184 92
16.197839577032287 1.8188512267317463 2.4564972977299417 143 184 92
18.96022903426199 2.1729750431820323 2.3663930625078065 143 184 92
18.12639703914434 2.2794386656085517 2.3350118012276804 143 184 92
18.617168959420365 2.3346538056566524 2.310040579403407 143 184 92
18.832210334571574 2.2794386656085517 2.3733558070154857 143 184 92
21.123037058007025 2.721257067836012 2.2065743905129525 143 184 92
21.16345158260099 2.5898236060671764 2.205165805759648 143 184 92
21.472157412401984 2.668848268774923 2.1946274422567926 143 184 92
13.788378496694282 0.12435092869497859 2.5628477157279894 143 184 92
14.611150057218849 -0.011775438303056883 2.756838249009345 143 184 92
14.611150057218849 -0.011775438303056883 2.756838249009345 143 184 92
14.41446210093904 -0.43152500471287925 2.792075679098033 143 184 92
14.448341459133767 -0.4415393631524279 2.622204534029465 143 184 92
14.923868817328138 -0.3886717159344744 2.56893079691801 143 184 92
15.250264362500944 -0.3125515699100127 2.429354175178506 143 184 92
14.028089013213034 -0.5096180528992207 2.6772814243361847 143 184 92
13.378804750897073 -0.846165017917558 2.6115351261990085 143 184 92
15.48223865392647 -0.4049056933011785 2.4121710979676934 143 184 92
15.282669904926498 -0.2387190546153306 2.5334830745362824 143 184 92
15.194129616105293 -0.538196739233179 2.433643718621408 143 184 92
15.057987511060688 -0.4905015657385101 2.3464120978284697 143 184 92
13.730585571660487 -0.19175122192077587 2.722610534046001 143 184 92
14.269737920114551 -0.30827649211502955 2.6445335158987198 143 184 92
15.081160847733102 -0.21435400419218054 2.4424401945112764 143 184 92
14.41446210093904 -0.43152500471287925 2.792075679098033 143 184 92
14.644574396508835 -0.14130551888913886 2.599227858610172 143 184 92
13.689081670702091 1.3259204654921743 2.9953397040218412 143 184 92
13.904155353754607 0.6619709702823838 2.913152954073999 143 184 92
13.552932105341394 -3.017178732262439 3.1031872822454485 143 184 92
12.777807718047868 0.9167724462813329 2.9495633055951656 143 184 92
12.700593707473214 1.3259204654921743 2.983865018788727 143 184 92
13.768944669918605 -0.025994361483723586 2.9601577152884917 143 184 92
14.01506247825556 0.2623309181921537 2.8812937126169613 143 184 92
13.800532116998657 0.3602023165499939 2.9480785124878994 143 184 92
13.656038853020885 0.5625381656253476 3.01280171294423 143 184 92
13.768944669918605 -0.025994361483723586 2.9601577152884917 143 184 92
13.707937825618632 -1.3406869628602718 2.9862799562855464 143 184 92
13.92272022793021 -0.6935183612153729 2.9074867698561855 143 184 92
13.92272022793021 -0.6935183612153729 2.9074867698561855 143 184 92
12.847483701037925 -1.1148618231078395 2.6870435025777537 143 184 92
13.92272022793021 -0.6935183612153729 2.9074867698561855 143 184 92
13.92272022793021 -0.6935183612153729 2.9074867698561855 143 184 92
14.024274579861304 -0.296579490381869 2.8788387621840945 143 184 92
13.148589760553861 -0.8897237676421279 2.8368956940673775 143 184 92
13.96438325165455 -1.1199272633940451 2.895287825210341 143 184 92
13.809887325182943 -0.4049448884783277 2.9446516104901055 143 184 92
13.665492979660595 -0.6224014056589892 3.0075655846455893 143 184 92
13.41695059625362 -1.0222939210741984 2.7786540780985636 143 184 92
14.149154430419781 -1.697157389884261 2.8478097968837153 143 184 92
14.356198653095955 -1.0222939210741984 2.803386189725793 143 184 92
13.893765149951061 -1.4142694378176797 2.9163920307362075 143 184 92
13.659631345096015 2.5888463624695484 3.010786617634166 143 184 92
14.36189374635799 -2.125137537937193 2.8022605548978525 143 184 92
14.220804532049945 -1.9278704382899017 2.8315900455403105 143 184 92
13.967896438898869 -2.0302761699503145 2.8942893733758366 143 184 92
10.673832597510797 -1.3288590738663981 1.8113500145952512 143 184 92
10.392118321376694 -1.5227790979651041 1.8180052987708368 143 184 92
10.294448388644165 -1.7203342443005907 1.7212438472232443 143 184 92
11.325428717558044 -1.873249087069817 2.2996539074370954 143 184 92
10.397790067405458 -1.634736624671545 2.251400104403207 143 184 92
11.620060190590083 -1.112672245255809 2.396741504199806 143 184 92
12.130308559170484 -1.2327295711937465 2.4762446826112114 143 184 92
12.172367579085384 -1.4912155921620365 2.6182171620015247 143 184 92
10.396216996721984 -1.5108965570586588 2.251522621692778 143 184 92
10.911424338886597 -1.3033650587189625 2.103650654370071 143 184 92
10.721035127052728 -1.2038849135614902 2.0083673997442815 143 184 92
17.982660240768322 -2.9014709825354728 2.342701640427556 143 184 92
17.151123644213445 -2.978114514629028 2.309071971963742 143 184 92
17.982660240768322 -2.9014709825354728 2.342701640427556 143 184 92
19.12381361082801 -2.7570956170637992 2.3577012519723803 143 184 92
17.874432244691405 -2.7830852173231295 2.2016489180215126 143 184 92
18.17980252769205 -2.8275949137379626 2.3321998494496827 143 184 92
18.48191560782885 -2.7830852173231295 2.2453555384685844 143 184 92
17.82472773562324 -2.627740172383288 2.203687227267638 143 184 92
17.989309565200767 -2.583397006000271 1.8840167977343527 143 184 92
18.344449254871616 -2.662272723479537 1.8777529093455652 143 184 92
18.72868177870016 -2.690395796886074 2.3046255208829147 143 184 92
18.78341521634856 -2.6568879322323955 2.37604806612483 143 184 92
14.660481102975794 -2.529484169466361 3.0148771863164265 143 184 92
14.797378707514886 -2.7413643059671102 2.955880648004238 143 184 92
14.766816067848849 -2.204279705968894 2.9672404918030506 143 184 92
15.103783554708667 -2.610686404107776 2.868225207514808 143 184 92
15.27263658568672 -2.424736803130639 2.831226631620704 143 184 92
16.50015513378908 -2.8735260896845674 2.649575859057987 143 184 92
16.97964326660149 -2.834768105692093 2.7272635630500757 143 184 92
17.502015321811232 -2.9279531937476087 2.551572292826771 143 184 92
18.065249811940593 -2.947737639093447 2.5065102497303355 143 184 92
16.654857250966597 -2.7544480776523965 2.6325162401938624 143 184 92
16.853175625385074 -3.1340102939681684 2.6118156041542218 143 184 92
18.206658160650687 -2.858034733915861 2.496044875431837 143 184 92
16.44629776631016 -2.5838928593106987 2.655720926750957 143 184 92
16.853175625385074 -3.1340102939681684 2.6118156041542218 143 184 92
17.297741045956876 -3.0008939815587277 2.6872576374241537 143 184 92
16.886642036563753 -3.0172340862280635 2.60844115314849 143 184 92
18.84721724450647 2.7645912179464363 1.5996076546152425 143 184 92
18.895656774294313 2.7645912179464363 1.4936087680856716 143 184 92
19.235450885950392 2.7162222961414306 1.5470326629668223 143 184 92
19.237683001095885 2.7162222961414306 1.5990227163695465 143 184 92
22.299186203493157 0.4932152013665124 1.9158643542324452 143 184 92
17.391725467450637 0.8064874519381595 2.0842712965636725 143 184 92
15.515203621433315 1.10598383249329 2.2332712281396057 143 184 92
10.346455893092703 1.7222486844162244 1.3310269664787102 143 184 92
16.601739200517226 1.9457124660623062 2.5248282442859917 143 184 92
18.388627280811168 2.6937000312464083 1.6548022972989354 143 184 92
17.035672295965185 -0.08507177992937205 2.3152560549594075 143 184 92
14.150546578696158 0.14328580112538444 2.660289695490895 143 184 92
14.296477392228562 0.20568010120993394 2.815470979530841 143 184 92
13.272230106918949 0.14328580112538444 2.6254026858032407 143 184 92
14.605971677499364 -0.008628643497683641 2.603629488579963 143 184 92
14.265988098882982 -0.01440141766080236 2.821850587624624 143 184 92
14.756151504254198 -0.36008238196457654 2.733255905421453 143 184 92
15.449567956221774 -0.3466469855098465 2.5181329240870407 143 184 92
15.48223865392647 -0.4049056933011785 2.4121710979676934 143 184 92
15.057987511060688 -0.4905015657385101 2.3464120978284697 143 184 92
14.305508276480058 -0.2331185042127966 2.8136094772089275 143 184 92
14.64973913097209 -0.19175122192077587 2.7503846215260244 143 184 92
15.081160847733102 -0.21435400419218054 2.4424401945112764 143 184 92
14.751024027702302 -0.26918258911148907 2.5873697330929204 143 184 92
14.756151504254198 -0.36008238196457654 2.733255905421453 143 184 92
11.086382807417124 -1.1114509345916772 1.9930052694744531 143 184 92
11.527149400857502 -1.0267426491145788 1.975893086765565 143 184 92
13.690276382529918 1.831515436169762 2.994748464322202 143 184 92
13.904155353754607 0.6619709702823838 2.913152954073999 143 184 92
13.551725285331349 -0.13273301352704042 3.105579363990487 143 184 92
13.9839596281016 -0.018534585149457918 2.8897798605373897 143 184 92
13.58502182703528 2.0751743968337264 3.0628602666138804 143 184 92
14.117111094641082 0.5071130878428621 2.855407904436281 143 184 92
12.692145125680673 -1.2858240078857441 2.7127684269980064 143 184 92
13.779508299940225 -0.9476828247081024 2.956025400466936 143 184 92
14.217353839940069 -1.2208052338770747 2.8323486299068246 143 184 92
14.105718314080484 -0.8897237676421279 2.858165559406452 143 184 92
13.373582251903835 -0.7214878571809089 2.7872915530234006 143 184 92
13.707937825618632 -1.3406869628602718 2.9862799562855464 143 184 92
13.659631345096015 2.5888463624695484 3.010786617634166 143 184 92
10.486344108534137 -1.424437841492468 1.8157382476180703 143 184 92
10.397790067405458 -1.634736624671545 2.251400104403207 143 184 92
10.49508212110511 -1.7566530091293957 2.2439169475734086 143 184 92
17.152673502432112 -2.964203672957456 2.3909529409774573 143 184 92
18.23618342657853 -2.8023016340064073 2.4078017871755386 143 184 92
18.03965729599232 -2.881513447765628 2.4199649614947747 143 184 92
17.982660240768322 -2.9014709825354728 2.342701640427556 143 184 92
18.233267779636734 -2.8494797165865156 2.2563093025168532 143 184 92
18.26511940298278 -2.6886713292011106 2.0575043432697018 143 184 92
17.9021070322532 -2.7458572335085836 2.0682654440343637 143 184 92
14.999837567671172 -2.847615159249593 2.8941408715514703 143 184 92
14.660481102975794 -2.529484169466361 3.0148771863164265 143 184 92
14.766816067848849 -2.204279705968894 2.9672404918030506 143 184 92
14.90273690382352 -2.454498468080371 2.921406796197301 143 184 92
19.229493312191817 -2.727276469153804 2.428409217720122 143 184 92
18.84721724450647 2.7645912179464363 1.5996076546152425 143 184 92
19.386356487388813 2.7162222961414306 1.443712728499963 143 184 92
19.96536477954535 2.6698826947632424 1.39676624880325 143 184 92
16.544212876752923 1.211448390048664 2.261731790353383 143 184 92
11.755246873053762 1.2623955288157565 1.788843733444628 143 184 92
11.237613642368823 1.5265977871030707 1.7990615622009645 143 184 92
10.531776097890354 1.325837689090053 1.3353265253393327 143 184 92
10.246156775196427 1.5221558996098021 1.3286331369165731 143 184 92
11.329138593068889 1.7085822035527076 1.7971851681766318 143 184 92
16.11758048210482 1.3656339792459073 2.283823676200491 143 184 92
20.90377160892564 2.668848268774923 2.1557899267541796 143 184 92
20.36864725535994 2.668848268774923 2.114847168865877 143 184 92
18.832210334571574 2.2794386656085517 2.3733558070154857 143 184 92
21.123037058007025 2.721257067836012 2.2065743905129525 143 184 92
14.119742174941372 -0.009959393614415493 2.664483818545382 143 184 92
13.844064820408047 -0.36008238196457654 2.704569399988296 143 184 92
13.800532116998657 0.3602023165499939 2.9480785124878994 143 184 92
13.894942262740754 -1.7377200957499934 2.9160225330508456 143 184 92
13.779508299940225 -0.9476828247081024 2.956025400466936 143 184 92
14.135396283879434 -0.5349961212726153 2.8510442563741347 143 184 92
14.147998468085976 -1.4523629482786176 2.848079983539897 143 184 92
13.967896438898869 -2.0302761699503145 2.8942893733758366 143 184 92
14.111514495996106 -2.2582776815764833 2.8567587750802867 143 184 92
14.220804532049945 -1.9278704382899017 2.8315900455403105 143 184 92
10.68149121303794 -1.8157947581769611 1.8111741360008033 143 184 92
10.949794147689698 -1.237573912413507 1.805172405603009 143 184 92
10.195241889408702 -1.622055608288763 1.7227191135761641 143 184 92
10.728088904653584 -1.4085598201466973 2.113759499925732 143 184 92
11.965663215367096 -1.363792749332897 2.493980956393056 143 184 92
10.721035127052728 -1.2038849135614902 2.0083673997442815 143 184 92
12.130308559170484 -1.2327295711937465 2.4762446826112114 143 184 92
17.896929478150167 -2.964203672957456 2.429075231094206 143 184 92
17.504837716500962 -2.8275949137379626 2.2908355788003023 143 184 92
19.41260924328976 -2.690395796886074 2.342889136293278 143 184 92
15.533387870048216 -2.545407810452921 2.7825606110585945 143 184 92
16.97904089994516 -2.9037562445113827 2.59929081470127 143 184 92
17.412391843567804 -3.0301878693790405 2.55930402094148 143 184 92
17.755127589963575 -3.0172340862280635 2.6370705954276477 143 184 92
16.853175625385074 -3.1340102939681684 2.6118156041542218 143 184 92
19.92467512683696 2.783210696625892 1.4471640834248163 143 184 92
20.1625869946162 2.6698826947632424 1.3478991543412322 143 184 92
16.383000866940648 1.9109599425642319 2.442780506359147 143 184 92
8.963182480301324 1.8209216668392232 2.3890880816383415 143 184 92
16.670182587628563 1.4471247237822311 2.3356483209169143 143 184 92
8.849063777161744 1.657573348145615 2.4029650797947433 143 184 92
14.890682461863172 -0.4467941057245073 2.4577940669658442 143 184 92
13.668210995061964 -0.5995667140306642 2.732978294487804 143 184 92
14.028089013213034 -0.5096180528992207 2.6772814243361847 143 184 92
15.250264362500944 -0.3125515699100127 2.429354175178506 143 184 92
14.159670536343231 -0.1627418393193096 2.6590573721558504 143 184 92
13.583817857955859 1.093615909862724 3.0639917992265104 143 184 92
13.624116403135451 -0.04349732187967664 3.0323741219127793 143 184 92
13.809887325182943 -0.4049448884783277 2.9446516104901055 143 184 92
18.42917172736873 -2.7570956170637992 2.3193808447694755 143 184 92
18.8836197909914 -2.8275949137379626 2.37054238041227 143 184 92
18.780584526203548 -2.719833469452675 2.2327015102218866 143 184 92
16.97904089994516 -2.9037562445113827 2.59929081470127 143 184 92
19.378415711161114 2.2324673640308914 2.3446087520597763 143 184 92
13.7462615324939 -0.7456901184763362 2.5675539954707753 143 184 92
14.028089013213034 -0.5096180528992207 2.6772814243361847 143 184 92
13.593322214236576 -1.1443658788648932 3.055466972334151 143 184 92
12.847483701037925 -1.1148618231078395 2.6870435025777537 143 184 92
17.83947641395176 -2.978114514629028 2.3505441664134836 143 184 92
13.760750217348159 0.9167724462813329 2.9634330037684076 143 184 92
14.135396283879434 -0.5349961212726153 2.8510442563741347 143 184 92
13.077657550399865 -0.9682744827740647 2.6522578079323926 143 184 92
16.853175625385074 -3.1340102939681684 2.6118156041542218 143 184 92
10.553302792398833 1.9109599425642319 1.622266282560919 143 184 92
16.197839577032287 1.8188512267317463 2.4564972977299417 143 184 92
10.195241889408702 -1.622055608288763 1.7227191135761641 143 184 92
15.179948906764396 -0.12483310099951878 2.54327309387008 143 184 92
14.697827946291056 -1.8158713561245439 2.996287225335561 143 184 92
18.037495462089197 2.2324673640308914 2.265218195356176 143 184 92
11.805840087541435 0.6506379133269321 2.3798287322813074 143 184 92
11.28762909629409 0.7328296495100388 2.4292622765964484 143 184 92
