6.325155358381959 1.4763032775238891 1.6669094092678027 19 167 162
6.435638424643323 1.7914559016834313 1.509691270731496 19 167 162
6.621587456824125 1.7914559016834313 1.8159343634139882 19 167 162
6.814364887742145 1.4763032775238891 1.9633762949854316 19 167 162
7.801509298777898 1.4763032775238891 2.202506881166123 19 167 162
6.9034296469085294 1.9373082668190695 1.8057336879842756 19 167 162
7.621372540785592 1.9373082668190695 2.06379957629609 19 167 162
14.421658853438904 -0.7925429991363594 1.8959450314539663 19 167 162
6.5374037475848805 1.8316102081780852 2.155254128147605 19 167 162
6.502476714529574 1.6943906953502619 2.610562821984873 19 167 162
6.516922815374929 1.3909782018030818 2.60680047084219 19 167 162
8.282281241393306 1.0246569876631584 2.4943117732687896 19 167 162
6.753722664519865 1.132638841967488 2.932764349791836 19 167 162
7.164956426445523 0.9581414553627431 2.7443371519328426 19 167 162
7.023374981720631 1.4585042244314463 2.2862390920548004 19 167 162
7.058183521845976 1.6656309733748125 2.488809293233748 19 167 162
7.023374981720631 1.4585042244314463 2.2862390920548004 19 167 162
6.640340643705288 1.9770941847026429 2.5762098577048884 19 167 162
7.058183521845976 1.6656309733748125 2.488809293233748 19 167 162
7.224549380076794 1.2133437908851572 2.4592586946222106 19 167 162
6.997173820604507 1.7479249605620086 2.806067733437555 19 167 162
7.125472750435449 2.12575298737946 2.757759359344268 19 167 162
6.872889546045344 2.4077915465117026 2.8625243459178176 19 167 162
7.814117439383459 0.8998472989057957 2.5783351212811896 19 167 162
7.503873208034426 1.9770941847026429 2.6476656574637323 19 167 162
7.541375988367225 1.116963666514804 2.638507639598694 19 167 162
5.429560349519382 -1.1671371004592042 2.2973871844986755 19 167 162
5.22417898147815 -1.4129510947410484 2.3328967564745615 19 167 162
5.377349431960708 -1.9310727555847023 2.3060503412530267 19 167 162
6.760241083502912 2.953320594732143 2.9282621466130205 19 167 162
6.760241083502912 2.953320594732143 2.9282621466130205 19 167 162
6.639052539646794 0.42363438287006133 3.0432811216211872 19 167 162
7.1030400351751135 0.10290106500784897 2.7656565674103932 19 167 162
5.588368818532317 -1.0426398060081827 2.539919748756013 19 167 162
5.389043189044723 -1.3567008009764274 2.596119188262685 19 167 162
6.673924439123641 -0.8891476232177726 2.9998509113858907 19 167 162
6.673924439123641 -0.8891476232177726 2.9998509113858907 19 167 162
6.624872758448693 2.558319418946528 3.0681099744021076 19 167 162
6.034514714469643 -2.2526290173300447 2.7629146773149875 19 167 162
6.794491025972577 -2.661499620780892 2.9061219957307305 19 167 162
14.567914848805328 -0.8474201409958964 2.0415190940526795 19 167 162
13.403147214261995 -0.9549885926075203 1.7665502913141105 19 167 162
13.01170497703454 -1.1258690661131399 1.6174631551670582 19 167 162
12.610642218895876 -1.0198407673298076 1.618948454780587 19 167 162
14.292876653095995 -0.9549885926075203 1.9739193590792798 19 167 162
13.412093580207719 -1.0198407673298076 1.9214327350451308 19 167 162
5.014004063747791 -1.6563749504239116 1.8970549436004385 19 167 162
5.24560729262011 -1.2458796251041062 1.882153188747544 19 167 162
7.445924758614482 2.0841251178948914 2.423449251038712 19 167 162
7.826475321138704 2.244344550268639 2.3694447195662787 19 167 162
7.4002403648931825 1.9992270595784003 2.2427889575759266 19 167 162
7.388117646508016 2.385730072601245 2.6776005320770784 19 167 162
7.753710954356107 2.205436583646367 2.5907951747149953 19 167 162
7.144825480974633 2.656600369194646 2.7511072976024558 19 167 162
7.036531812514292 3.0307109861867882 2.790379758262123 19 167 162
7.069443312133348 -2.846199125587672 2.7778865981063574 19 167 162
17.204252845594098 0.9788195329862052 1.606085312353356 19 167 162
6.973065924100243 1.3217568829565591 1.9539705008097288 19 167 162
6.293291785012081 1.6354743789359658 1.5083073665514384 19 167 162
7.4670831501021375 1.4892426184316885 1.7877036928621788 19 167 162
6.932489430657871 1.7914559016834313 1.956330995160107 19 167 162
6.580416889118935 1.2769592913960877 2.1509359809828106 19 167 162
7.382153661419669 1.6943906953502619 2.679217539152458 19 167 162
7.508807715191736 1.0246569876631584 2.4139169059010666 19 167 162
6.872889546045344 2.4077915465117026 2.8625243459178176 19 167 162
6.913815834096556 0.6719206808112449 2.8425603529034245 19 167 162
7.39488148920365 1.3909782018030818 2.675776100309642 19 167 162
7.185393174315731 1.8890285006808158 2.4659933925308914 19 167 162
7.45148845207573 0.7184129999428419 2.660884667570322 19 167 162
5.802430968794716 -0.963395414633927 2.2416247094606025 19 167 162
5.882469498238439 -1.8010123924630042 2.8343470216555873 19 167 162
6.760241083502912 2.953320594732143 2.9282621466130205 19 167 162
7.13564478770081 -0.2750784349073487 2.7542449322035107 19 167 162
5.951297808923632 -0.8113180728403879 2.4561137391737806 19 167 162
6.624872758448693 2.558319418946528 3.0681099744021076 19 167 162
5.630672733070556 -1.0693541304887733 1.860220204527439 19 167 162
13.708410720560037 -1.0587488198006638 1.762136546497124 19 167 162
13.776652878200052 -0.8474201409958964 1.911771142190971 19 167 162
15.189282456266378 -0.9549885926075203 2.0953344719683393 19 167 162
6.572933338695372 1.7914559016834313 1.357246367449803 19 167 162
7.940505456044531 1.3217568829565591 2.1897571572630232 19 167 162
6.397321886343676 1.6477076794942176 2.1698108471706083 19 167 162
7.009972651537544 1.6477076794942176 2.287901801527096 19 167 162
7.125472750435449 2.12575298737946 2.757759359344268 19 167 162
6.73978414125366 1.8806709917922033 2.9427591646024878 19 167 162
7.210334870611712 0.454619202047256 2.729595360158109 19 167 162
6.989022971679532 0.8998472989057957 2.5018631872276815 19 167 162
7.814117439383459 0.8998472989057957 2.5783351212811896 19 167 162
7.503873208034426 1.9770941847026429 2.6476656574637323 19 167 162
7.138041539298391 1.8316102081780852 2.2723619821203176 19 167 162
7.177456073875634 1.2769592913960877 2.2677309376225074 19 167 162
5.377349431960708 -1.9310727555847023 2.3060503412530267 19 167 162
5.371564663562597 -1.7183048168381576 2.6015046656081604 19 167 162
6.801845204262261 0.1664926231387415 2.9016570372949504 19 167 162
6.659818905989625 -2.0770849850843423 3.01555855826636 19 167 162
6.760241083502912 2.953320594732143 2.9282621466130205 19 167 162
5.588368818532317 -1.0426398060081827 2.539919748756013 19 167 162
6.835886700179192 -0.43055147591563486 2.882083742597012 19 167 162
13.403147214261995 -0.9549885926075203 1.7665502913141105 19 167 162
5.191546705243478 -1.8595993962611073 1.885506222713141 19 167 162
7.826475321138704 2.244344550268639 2.3694447195662787 19 167 162
7.445924758614482 2.0841251178948914 2.423449251038712 19 167 162
7.036531812514292 3.0307109861867882 2.790379758262123 19 167 162
8.025465905664324 1.2133437908851572 2.5379154177404843 19 167 162
7.010600618656581 1.3146150862396675 2.8006180054158403 19 167 162
5.0327245414223025 -1.445916149118107 1.8957966341865005 19 167 162
7.329254037576706 2.376881981238125 2.4418620821032992 19 167 162
7.771499392014915 2.5541521918292753 2.5870797328803974 19 167 162
6.794491025972577 -2.661499620780892 2.9061219957307305 19 167 162
8.200518941812868 0.737901385551072 2.5076189770690083 19 167 162
7.071494480420176 1.432496241800719 2.486351396695426 19 167 162
5.24560729262011 -1.2458796251041062 1.882153188747544 19 167 162
5.8001978801046485 -0.8042440787639309 2.036964348156854 19 167 162
6.800550658934764 1.6354743789359658 1.9642175666229125 19 167 162
6.502476714529574 1.6943906953502619 2.610562821984873 19 167 162
13.46397254565412 -1.0587488198006638 1.5416027734555717 19 167 162
