22.94820768444115 0.2602851244002475 1.971895774239063 249 132 65
11.866090649876435 1.3626788409538548 1.3979926965126492 249 132 65
12.212079572214412 1.447681505448842 1.233596749942484 249 132 65
12.06612677055663 1.5310326527702462 1.046503571713319 249 132 65
11.242932641413521 2.023037262918209 1.2032092428849708 249 132 65
11.222611399060147 1.9016353643698338 1.3879757861600241 249 132 65
10.886645865606345 1.626764982869595 1.2877625376011013 249 132 65
11.303504364962624 1.7214843051190793 1.2052719935714364 249 132 65
13.717225045816091 2.3089336917537993 1.1945369236345154 249 132 65
13.126167794028312 2.419788763317791 1.3370512809136854 249 132 65
13.727983677139138 2.419788763317791 1.1948465306410418 249 132 65
12.931189176389767 2.419788763317791 1.4123518358396026 249 132 65
13.393166481396113 2.419788763317791 1.26435277423242 249 132 65
13.114915481037297 2.3089336917537993 1.336846993703656 249 132 65
10.384815429546935 2.797274199685121 1.373038994002836 249 132 65
10.384815429546935 2.797274199685121 1.373038994002836 249 132 65
14.84708276013876 1.0945781134592414 1.9113947847731318 249 132 65
14.845886945603228 1.0596129336470579 2.0587230826598404 249 132 65
12.669534515136585 1.3789879310942934 1.5676143796852362 249 132 65
12.862532712892028 1.457492339157464 1.8029781639164575 249 132 65
13.705738728533658 1.1601422552144758 1.7142709579080535 249 132 65
13.232438430630719 1.2296700174953943 1.6433853355007322 249 132 65
12.933172546000918 1.3028018435727797 1.6450680619097418 249 132 65
13.128751667573399 1.457492339157464 1.8771710559412886 249 132 65
13.605659396854161 1.3789879310942934 1.9439255547803898 249 132 65
13.81826480926628 1.3028018435727797 1.9379095513759044 249 132 65
14.920243368390318 1.2296700174953943 2.0560800009702893 249 132 65
14.655483187401034 1.3028018435727797 2.0656310085835945 249 132 65
14.322089164105652 1.457492339157464 2.078235518332893 249 132 65
14.443178035688982 1.1601422552144758 1.9213235331601966 249 132 65
14.346717659897799 1.2806154815913782 2.158929551198204 249 132 65
14.617071605784254 1.2023783140290896 2.146645553632964 249 132 65
14.949557085225807 1.128589843944652 2.132272437473895 249 132 65
14.949557085225807 1.128589843944652 2.132272437473895 249 132 65
14.597490563100745 1.447681505448842 2.2316393792609146 249 132 65
14.142059004862851 1.3626788409538548 2.1686114418506057 249 132 65
13.462837205530928 1.447681505448842 2.114086707604962 249 132 65
12.60414319975864 1.6177792312277826 1.726909196403389 249 132 65
13.803692116038992 1.6177792312277826 2.017223710723559 249 132 65
13.48302891638234 1.6975352771622128 1.9474885120004652 249 132 65
14.850932173967518 1.6975352771622128 2.1364551870924546 249 132 65
14.263985719040479 1.6177792312277826 2.080501784981477 249 132 65
12.376104762147213 1.7930600602926547 1.8964689084263384 249 132 65
12.093328595760937 1.7930600602926547 1.818044873695786 249 132 65
11.45213640683998 1.6218803039326242 1.5672761273726192 249 132 65
14.614900156771943 1.7084826255065277 2.2307135886699765 249 132 65
13.940476443271967 1.534506174108341 2.1784913025653276 249 132 65
14.540487657166574 1.6218803039326242 2.234690857990759 249 132 65
14.614900156771943 1.7084826255065277 2.2307135886699765 249 132 65
13.767771384877392 1.626764982869595 2.279397672093099 249 132 65
13.76161340911921 1.5310326527702462 2.279781265675312 249 132 65
14.388015311439483 1.8745301552927318 2.157016707558995 249 132 65
13.859856133583179 1.8745301552927318 2.096876115671514 249 132 65
14.171995601114824 1.7930600602926547 2.1671737556432475 249 132 65
14.388015311439483 1.8745301552927318 2.157016707558995 249 132 65
13.635471636853056 1.7930600602926547 2.106458275556954 249 132 65
12.183486674714745 2.019947920064484 2.3970470740751684 249 132 65
12.918712929311296 2.419788763317791 1.723077819992146 249 132 65
13.772681972314373 2.3639557318827635 1.7873810738045464 249 132 65
11.876202038467273 2.062117381333892 1.6516920367411665 249 132 65
12.799990359056496 2.3089336917537993 1.4894320118416196 249 132 65
13.050003754232646 2.1992243766464585 1.721534006171941 249 132 65
12.811519272676977 2.419788763317791 1.489505392275042 249 132 65
12.75770848352215 2.3089336917537993 1.567636371553236 249 132 65
14.685002827812106 2.133625703244666 2.1436451025385264 249 132 65
14.845846399826593 2.062117381333892 2.218698065223779 249 132 65
15.011796533746892 2.0250411848582734 2.129666681189025 249 132 65
14.91992586765164 2.09318338031159 2.0560912230753967 249 132 65
14.506366278707478 2.0250411848582734 2.0711862823000833 249 132 65
14.584047044955613 2.180011185727214 2.232356235618492 249 132 65
14.264633986494378 2.062117381333892 2.1627718010439394 249 132 65
15.01331962723986 2.31364859451795 1.9074732466001867 249 132 65
14.081028410669992 2.3089336917537993 2.007817255653287 249 132 65
14.336161056144034 2.3639557318827635 1.9240542355021957 249 132 65
14.769888743794256 2.259119938231326 1.986137859460567 249 132 65
14.211969892307723 2.1992243766464585 2.003517524924346 249 132 65
14.532540509514819 2.3089336917537993 2.070201701945579 249 132 65
15.159776823457813 2.1992243766464585 2.123573711635909 249 132 65
15.62957553817384 2.3639557318827635 2.105133583047624 249 132 65
15.200953458999011 2.259119938231326 2.0463664483742643 249 132 65
15.200953458999011 2.259119938231326 2.0463664483742643 249 132 65
15.589531063437308 2.3089336917537993 2.18306384610187 249 132 65
15.159776823457813 2.1992243766464585 2.123573711635909 249 132 65
14.50982862405868 2.481700435098296 2.151451730029279 249 132 65
15.0469059644007 2.419788763317791 2.128208133615234 249 132 65
12.695951907098042 1.905285585003014 2.4726491797797863 249 132 65
14.438521443168705 1.626764982869595 2.3320085440665252 249 132 65
11.216650474923089 2.189688245329798 2.3597711053075665 249 132 65
9.739302047765426 2.9927627238814773 1.669493967928991 249 132 65
16.4407282050091 -1.3053595067938304 0.9138550397409461 249 132 65
17.175669230024564 -1.1909201346970055 1.0165010901470308 249 132 65
16.67102234590927 -1.1909201346970055 1.0675261952461361 249 132 65
16.653608139607787 -1.3241169337379692 0.9969763475573292 249 132 65
16.132638861209426 -1.3241169337379692 1.0490579229983275 249 132 65
16.373530814763363 -1.256077465622087 1.0574952447110766 249 132 65
16.262443518585417 -1.380861765193698 0.9053723798866508 249 132 65
16.35471436824968 -1.4064433689818894 1.125776136883398 249 132 65
15.664815407586985 -1.380861765193698 0.9556114734408805 249 132 65
16.695114099419566 -1.473919350417195 1.0683204974527343 249 132 65
16.36098146921538 -1.4668261634737407 0.9853718014547745 249 132 65
15.950911005657439 -1.394566555460804 1.0424960091825304 249 132 65
14.312892769079676 -1.3241169337379692 1.3567477265068049 249 132 65
14.356498603238139 -1.394566555460804 1.2855149000317945 249 132 65
14.40863444930046 -1.256077465622087 1.4287152310425542 249 132 65
15.803851782872233 -1.1909201346970055 1.1786148664397353 249 132 65
13.788303831369731 -1.4668261634737407 1.4222766831911582 249 132 65
15.449307548676334 -1.1909201346970055 1.238464111162302 249 132 65
15.489714537692194 -1.256077465622087 1.1702120547621573 249 132 65
16.879924980923768 -1.5401901514551897 0.9337695958404696 249 132 65
16.180721017168263 -1.5422906288767875 1.120641360167631 249 132 65
16.185958665449196 -1.6109291102703505 1.1207977289129616 249 132 65
16.71033843598732 -1.6791918963222099 1.0688210828462186 249 132 65
16.640203126069014 -1.5422906288767875 1.0665062268802792 249 132 65
16.30494525965077 -1.5401901514551897 0.9830916779579003 249 132 65
16.83463501028265 -1.7464568554703825 1.0728691149112715 249 132 65
16.56785543672527 -1.8121553942189776 1.1319027759036882 249 132 65
13.721765477895485 -1.5401901514551897 1.421551113152499 249 132 65
17.112360571838863 -1.936992194155277 1.1467882880382652 249 132 65
17.112360571838863 -1.936992194155277 1.1467882880382652 249 132 65
13.776303654433347 -1.394566555460804 1.5678700136668697 249 132 65
13.931551682777048 -1.3053595067938304 1.9347844219150554 249 132 65
13.580397006652133 -1.4586169130046154 1.944653870481877 249 132 65
13.580397006652133 -1.4586169130046154 1.944653870481877 249 132 65
13.710239060397138 -1.3648783708347498 2.1032245178871847 249 132 65
23.344151280227145 -1.5020798085935774 2.059501669946436 249 132 65
13.846111231734177 -1.7591144588305039 1.495591456608418 249 132 65
13.185099956696979 -1.6173096390817185 1.8758194450987535 249 132 65
13.003730756736545 -1.6962800295894298 1.8004115450050797 249 132 65
13.80703330915621 -1.7591144588305039 1.5678765266407904 249 132 65
14.449031241853932 -1.6962800295894298 2.0733573590416885 249 132 65
14.449031241853932 -1.6962800295894298 2.0733573590416885 249 132 65
23.30491202039454 -1.5506055239905117 2.0603971686268556 249 132 65
13.288775483061652 2.529106651134934 1.3399637443199275 249 132 65
13.883544530199517 2.529106651134934 1.1992654517687649 249 132 65
13.288775483061652 2.529106651134934 1.3399637443199275 249 132 65
12.978069924160831 2.529106651134934 1.4905508778405023 249 132 65
13.083899137191068 2.529106651134934 1.7211405294071747 249 132 65
15.220365692949782 2.468621819824919 2.045709730939481 249 132 65
14.789866776564587 2.468621819824919 1.9855422429791227 249 132 65
15.188964809484276 2.529106651134934 2.122388610479975 249 132 65
15.736073987572167 2.529106651134934 2.176538555521104 249 132 65
13.67708554605673 2.468621819824919 1.7145736201862867 249 132 65
23.20548401413357 0.305442714390548 1.9671986042554697 249 132 65
23.356789344574686 0.2602851244002475 2.0113220340651994 249 132 65
11.703573496812162 1.447681505448842 1.3955684369840227 249 132 65
11.15400397977104 2.1051545017998987 1.3868384531287907 249 132 65
13.393166481396113 2.419788763317791 1.26435277423242 249 132 65
13.382138674971127 2.3089336917537993 1.2640920193058585 249 132 65
11.316192531482345 1.7371725022358244 1.0077365091436918 249 132 65
12.919767050273991 2.3089336917537993 1.4122105723189897 249 132 65
10.626618415430297 2.797274199685121 1.2806383581756338 249 132 65
16.789879503749326 0.9364566821670464 2.133690564578973 249 132 65
13.232438430630719 1.2296700174953943 1.6433853355007322 249 132 65
14.443178035688982 1.1601422552144758 1.9213235331601966 249 132 65
14.45519673821126 1.3789879310942934 2.073122942375271 249 132 65
14.142059004862851 1.3626788409538548 2.1686114418506057 249 132 65
14.617071605784254 1.2023783140290896 2.146645553632964 249 132 65
14.199119854500152 1.0921876375401078 2.165877568616489 249 132 65
14.92473383921526 1.2806154815913782 2.214703365246403 249 132 65
14.484486154551321 1.7757057803059946 2.0720124732845386 249 132 65
13.48302891638234 1.6975352771622128 1.9474885120004652 249 132 65
14.258042057337033 1.5374218021819055 2.0807348153905396 249 132 65
11.499219787545414 1.6218803039326242 1.4802042635221497 249 132 65
11.611229397176603 1.534506174108341 1.7403831251388464 249 132 65
11.077234505511564 1.9016353643698338 1.657540981736369 249 132 65
12.376104762147213 1.7930600602926547 1.8964689084263384 249 132 65
12.672318142054648 1.9520496059129022 1.8065287735552362 249 132 65
13.76161340911921 1.5310326527702462 2.279781265675312 249 132 65
13.481712112162352 1.7084826255065277 2.1132414248181934 249 132 65
11.195912187497672 1.905285585003014 2.361638468908861 249 132 65
13.394682187600678 1.534506174108341 2.117162398441281 249 132 65
14.964436413069848 1.8745301552927318 2.2127133205623286 249 132 65
13.940476443271967 1.534506174108341 2.1784913025653276 249 132 65
14.388015311439483 1.8745301552927318 2.157016707558995 249 132 65
12.811519272676977 2.419788763317791 1.489505392275042 249 132 65
14.021631191452267 2.3639557318827635 1.8570896877122833 249 132 65
12.793689784777758 2.3089336917537993 1.64587932373505 249 132 65
12.918712929311296 2.419788763317791 1.723077819992146 249 132 65
12.151963952700822 2.2477985889515755 1.485082721095691 249 132 65
15.144776622482365 2.3639557318827635 2.048277665260485 249 132 65
15.037091015860847 2.3089336917537993 2.128615055596322 249 132 65
15.589531063437308 2.3089336917537993 2.18306384610187 249 132 65
14.712066013524225 2.3639557318827635 1.9878717691563244 249 132 65
14.685002827812106 2.133625703244666 2.1436451025385264 249 132 65
14.769888743794256 2.259119938231326 1.986137859460567 249 132 65
14.542695986058554 2.419788763317791 2.0698207857580826 249 132 65
13.965142619267809 2.2477985889515755 2.0925038969527754 249 132 65
13.822471402078119 2.1992243766464585 1.9377925251796317 249 132 65
14.91992586765164 2.09318338031159 2.0560912230753967 249 132 65
15.011796533746892 2.0250411848582734 2.129666681189025 249 132 65
14.438521443168705 1.626764982869595 2.3320085440665252 249 132 65
15.82755756424182 -1.128981192683363 1.2467005475586475 249 132 65
16.262443518585417 -1.380861765193698 0.9053723798866508 249 132 65
16.477626933263476 -1.394566555460804 0.9900575714954306 249 132 65
16.36098146921538 -1.4668261634737407 0.9853718014547745 249 132 65
16.477626933263476 -1.394566555460804 0.9900575714954306 249 132 65
16.132638861209426 -1.3241169337379692 1.0490579229983275 249 132 65
15.906347283414856 -1.256077465622087 1.1122887357200162 249 132 65
15.470970702221544 -1.394566555460804 1.0983499246820614 249 132 65
15.803851782872233 -1.1909201346970055 1.1786148664397353 249 132 65
14.356498603238139 -1.394566555460804 1.2855149000317945 249 132 65
17.150700067415396 -1.6109291102703505 1.0155996113018289 249 132 65
16.6452961932504 -1.6109291102703505 1.0666750831070433 249 132 65
16.812595250478918 -1.8757983088537316 1.1387253577820304 249 132 65
16.71033843598732 -1.6791918963222099 1.0688210828462186 249 132 65
13.905663424366727 -1.5401901514551897 1.350377307682024 249 132 65
14.301332778876299 -1.256077465622087 1.4979895897138187 249 132 65
23.344151280227145 -1.5020798085935774 2.059501669946436 249 132 65
14.067136223331117 -1.8291944296672575 1.4967752672177477 249 132 65
12.936370105829598 2.529106651134934 1.5676800132058515 249 132 65
12.971855845390644 2.529106651134934 1.6448461702504626 249 132 65
12.578374891833317 1.447681505448842 1.1585018024179115 249 132 65
14.322089164105652 1.457492339157464 2.078235518332893 249 132 65
14.207878620596412 1.3028018435727797 2.00365054217779 249 132 65
11.73556474438613 1.3626788409538548 1.4820335722652236 249 132 65
13.705738728533658 1.1601422552144758 1.7142709579080535 249 132 65
14.130737730586763 1.0945781134592414 1.70992727923781 249 132 65
14.92473383921526 1.2806154815913782 2.214703365246403 249 132 65
12.791179502861207 1.5374218021819055 1.804297339930655 249 132 65
11.764771625826898 1.7930600602926547 1.652459942804964 249 132 65
10.802631803811025 1.813562757928925 1.4743449735753096 249 132 65
14.024119724026134 1.7084826255065277 2.1743491644831323 249 132 65
12.805224370988627 2.419788763317791 1.6458115638750317 249 132 65
14.659449538726033 2.1992243766464585 2.0654850129209623 249 132 65
14.336161056144034 2.3639557318827635 1.9240542355021957 249 132 65
14.264633986494378 2.062117381333892 2.1627718010439394 249 132 65
15.0469059644007 2.419788763317791 2.128208133615234 249 132 65
15.62957553817384 2.3639557318827635 2.105133583047624 249 132 65
11.216650474923089 2.189688245329798 2.3597711053075665 249 132 65
9.889837421362337 2.892598379028007 1.5667200381130157 249 132 65
17.022146185884058 -1.128981192683363 1.078847735453191 249 132 65
16.477626933263476 -1.394566555460804 0.9900575714954306 249 132 65
15.84982386241486 -1.3053595067938304 0.963836268563308 249 132 65
16.4407282050091 -1.3053595067938304 0.9138550397409461 249 132 65
16.21241371962855 -1.1909201346970055 1.121585814619971 249 132 65
15.625717698883966 -1.7464568554703825 1.2423579609660063 249 132 65
13.676135971273427 -1.4668261634737407 1.4946549658489467 249 132 65
13.607672825700002 -1.3053595067938304 1.8660569792387438 249 132 65
14.113009251491365 -1.380861765193698 2.0067589383821236 249 132 65
23.101752657907557 -1.4062111657967504 2.0165328307109407 249 132 65
13.512834940991668 -1.5377556188902641 1.946616104262851 249 132 65
13.17866971981207 -1.5377556188902641 1.8759730721589811 249 132 65
13.267116723398862 -1.6962800295894298 1.8738736586485032 249 132 65
22.85539492119826 -1.5992264523807123 2.0216894813879436 249 132 65
23.308548851495 -1.5992264523807123 2.0603140259393187 249 132 65
12.978069924160831 2.529106651134934 1.4905508778405023 249 132 65
13.536023194312516 2.468621819824919 1.5678180679871387 249 132 65
13.393166481396113 2.419788763317791 1.26435277423242 249 132 65
14.920243368390318 1.2296700174953943 2.0560800009702893 249 132 65
14.597490563100745 1.447681505448842 2.2316393792609146 249 132 65
13.27383121275136 1.3789879310942934 1.8737154794047872 249 132 65
13.803692116038992 1.6177792312277826 2.017223710723559 249 132 65
11.015043229118167 2.1051545017998987 1.47621053997079 249 132 65
14.845846399826593 2.062117381333892 2.218698065223779 249 132 65
14.777708250996989 1.6177792312277826 2.13960409159134 249 132 65
14.614900156771943 1.7084826255065277 2.2307135886699765 249 132 65
14.264633986494378 2.062117381333892 2.1627718010439394 249 132 65
15.15257325645322 -1.1909201346970055 1.3008890364905572 249 132 65
14.134294180388599 -1.3241169337379692 1.4259382381140107 249 132 65
16.30494525965077 -1.5401901514551897 0.9830916779579003 249 132 65
16.887070165763262 -1.256077465622087 1.0058868217030563 249 132 65
16.9340586416079 -1.4668261634737407 0.9361328982923465 249 132 65
13.676135971273427 -1.4668261634737407 1.4946549658489467 249 132 65
13.776303654433347 -1.394566555460804 1.5678700136668697 249 132 65
22.936479122199366 -1.600678877787 2.119318088170372 249 132 65
14.277024765806047 2.529106651134934 1.133955248061229 249 132 65
15.188964809484276 2.529106651134934 2.122388610479975 249 132 65
14.845886945603228 1.0596129336470579 2.0587230826598404 249 132 65
13.605659396854161 1.3789879310942934 1.9439255547803898 249 132 65
14.005975802535914 1.447681505448842 2.17524247198178 249 132 65
14.50982862405868 2.481700435098296 2.151451730029279 249 132 65
14.614900156771943 1.7084826255065277 2.2307135886699765 249 132 65
14.756857113783127 1.7930600602926547 2.2232703716531272 249 132 65
14.532540509514819 2.3089336917537993 2.070201701945579 249 132 65
14.107743430590604 -1.394566555460804 1.3535855983483474 249 132 65
16.185958665449196 -1.6109291102703505 1.1207977289129616 249 132 65
16.532004015933264 -1.3404424058430449 1.1308845241165826 249 132 65
14.669168684230751 1.9520496059129022 2.1443414773597316 249 132 65
13.096459194236978 2.3089336917537993 1.7987569042855927 249 132 65
14.789866776564587 2.468621819824919 1.9855422429791227 249 132 65
11.936219131034473 1.2806154815913782 1.5674188923741479 249 132 65
11.492206091062911 1.6218803039326242 1.654401266031298 249 132 65
14.584047044955613 2.180011185727214 2.232356235618492 249 132 65
14.082289174238426 2.259119938231326 1.8558219107820162 249 132 65
16.695114099419566 -1.473919350417195 1.0683204974527343 249 132 65
15.246118748317427 1.1601422552144758 2.044841424377712 249 132 65
12.793689784777758 2.3089336917537993 1.64587932373505 249 132 65
