12.959299863351063 1.264629244190228 0.9965134833473651 199 19 146
13.299290977351088 0.9805954295143455 1.0129676453344325 199 19 146
12.558488144061434 1.3322719830769032 0.8760405541734941 199 19 146
13.044704231828481 1.0983785942590754 0.8051610068718417 199 19 146
13.271264727606452 1.3050458214089844 0.712827994029599 199 19 146
11.446317818355237 0.11367815727322793 2.849073287185814 199 19 146
12.40472369847626 0.8058072703422893 2.873038473410069 199 19 146
13.07874636277967 1.3730173229556522 1.0907597530776896 199 19 146
13.5709720150021 1.210945923380991 1.1095534043439077 199 19 146
13.957164159849697 1.3886341349473996 1.1232589908441066 199 19 146
13.289561464809376 1.2900934818187122 1.0990014599650895 199 19 146
14.029977634004469 1.2378430039288566 1.2033591282532488 199 19 146
13.719763861326598 1.4019869960897036 1.4215584178411707 199 19 146
12.829280101319315 1.8272609801747532 0.9899420924543083 199 19 146
13.093889985605484 1.6566304973318724 0.6970122906683038 199 19 146
13.186778130010216 1.7734334054936804 0.7053843927893201 199 19 146
13.128091042400426 1.5438693834203523 0.9116770191700968 199 19 146
13.43780498821417 1.4587849581832952 1.0193861620976568 199 19 146
13.799917857923795 1.771475178137227 1.4224316715470233 199 19 146
12.985405169166048 1.8869272976573404 1.172203723748785 199 19 146
12.89872450697552 1.6340628541574915 1.0834793034835384 199 19 146
13.775083189945333 1.4754248610730762 1.348282368425852 199 19 146
13.548262172525735 1.6246218856312598 1.419654854039408 199 19 146
12.260437697346482 1.0765647656144421 2.9197884176834252 199 19 146
13.68127592614288 1.5070072667192163 2.8154527700708916 199 19 146
13.453152920754679 1.208389615289977 2.870015861945231 199 19 146
13.038098928023533 -0.45477851181321255 3.0321425254338585 199 19 146
12.968500727338338 0.929676488312451 3.105560449212506 199 19 146
13.028463018330244 0.28469333018374055 3.0390928294860498 199 19 146
14.264717033530427 2.1978649162518447 2.9345553717514887 199 19 146
14.380188264233102 1.7811791848340142 2.899280735961716 199 19 146
14.288963908506412 2.6738010722891126 2.92662630258765 199 19 146
14.132704167413351 2.4675795252442936 2.985136581719243 199 19 146
14.079619212090995 -2.792861889734701 3.0111928260188416 199 19 146
14.070696575527178 2.9273249306124756 3.016120798558701 199 19 146
13.145841968774677 2.4675795252442936 2.97328323674873 199 19 146
14.159337985739707 -2.384575671403058 2.973631546907971 199 19 146
13.064622504643374 -1.4005719148828353 3.0150034156129637 199 19 146
14.159337985739707 -2.384575671403058 2.973631546907971 199 19 146
12.79023192643498 -2.2145428649660914 2.7793235966875125 199 19 146
14.308669652743436 -2.1508973553763213 2.9204072858888885 199 19 146
13.124145636720813 -0.9040017211437406 2.983308378780821 199 19 146
12.167380222740906 2.67555466901737 2.692349188529448 199 19 146
11.971422761191258 2.6086532663505375 2.5534781975738112 199 19 146
12.439352033633114 2.9058042224670073 2.6489403307158685 199 19 146
11.949839605431333 -3.0098369829425353 2.7317262525270745 199 19 146
12.36885823564899 3.076235793835488 2.6596648380513948 199 19 146
13.807208212625218 -3.0098369829425353 2.7894799131704078 199 19 146
13.498067866617397 -2.9750084568495967 2.858311729539884 199 19 146
13.42095950669935 -3.0607407407376965 2.5263601888235345 199 19 146
13.814931510436166 -2.9042689497968266 2.617415282381036 199 19 146
13.5812006526941 -2.7296711304853143 2.8379924495550717 199 19 146
12.472056434538931 -2.4866465883919884 2.6440774377613634 199 19 146
12.883840817136019 -2.5767048370415613 2.5880822835570516 199 19 146
12.960324365080135 -2.8099495967445742 2.746141374593925 199 19 146
13.814931510436166 -2.9042689497968266 2.617415282381036 199 19 146
12.79765682420197 -2.5270562059318626 2.7777958492502623 199 19 146
13.73681863481018 -2.5270562059318626 2.8037017678853284 199 19 146
13.661057944182904 -2.8137856602107325 2.5019121975096903 199 19 146
12.464437582509584 -2.248182763213024 2.6452041252426564 199 19 146
12.382421541144716 -2.4616376355748883 2.505415358438866 199 19 146
13.887968864857537 -2.7025591717471005 2.480266179478117 199 19 146
13.844027506068848 2.7116555694077995 1.198183814522792 199 19 146
13.146423035995205 2.7843791640219298 1.2584401938816387 199 19 146
14.10015927613477 -2.9572996689318223 2.461162343957204 199 19 146
13.496129098140472 -2.8491458626651416 2.4008914061491926 199 19 146
14.250111110068543 -2.8491458626651416 2.4482635316335357 199 19 146
13.725766851823016 -2.747582279682358 2.382772843859664 199 19 146
15.065386012812956 -1.9880431414053383 3.0232888957660986 199 19 146
13.431013996701932 1.0578955502685456 0.9290336606422874 199 19 146
12.751685025550938 1.1975523589581194 0.7828314258776495 199 19 146
12.252687259228816 0.5425976816653558 2.922611003324802 199 19 146
13.114163868654517 1.1000632632692753 1.0921653817564354 199 19 146
13.136499913035713 1.4191914667413696 0.7008777821724183 199 19 146
13.144882537038148 1.6401425006179062 0.912666248369262 199 19 146
13.364315260819396 1.54821979816353 1.1841143184910423 199 19 146
13.693176125258763 2.0367885541075035 1.193874118183657 199 19 146
12.993007981288514 1.7209258504442093 1.0873209493949612 199 19 146
13.68127592614288 1.5070072667192163 2.8154527700708916 199 19 146
13.28766292585224 2.1978649162518447 2.919084663279402 199 19 146
13.9926593134581 -2.4266436977732915 3.0733430589998507 199 19 146
12.260437697346482 1.0765647656144421 2.9197884176834252 199 19 146
14.227637351841956 3.0048295226822717 2.9473531537187285 199 19 146
13.50033420737028 -2.3739611821690594 2.857735634400031 199 19 146
14.223110234275934 -1.838647151664248 2.948977866307031 199 19 146
13.34195820236904 -2.603002521194117 2.901760568882323 199 19 146
13.50033420737028 -2.3739611821690594 2.857735634400031 199 19 146
13.081495468172218 -1.9880431414053383 3.0052428858642957 199 19 146
11.971422761191258 2.6086532663505375 2.5534781975738112 199 19 146
12.40136953920078 2.5209829407200375 2.6546766124024725 199 19 146
13.121865022143258 -2.7691476720184256 2.5593898789171363 199 19 146
13.504566972598315 -2.9340713747630796 2.517653645743046 199 19 146
12.958864403273038 -2.9042689497968266 2.5787833857802136 199 19 146
13.88849069062995 -2.8099495967445742 2.7738819044349117 199 19 146
13.123306850219551 -2.634001794111219 2.717377320814514 199 19 146
12.798568933410232 -2.3663580620778935 2.5989601129175526 199 19 146
13.661057944182904 -2.8137856602107325 2.5019121975096903 199 19 146
13.337703160467486 -2.9572996689318223 2.4139757269871827 199 19 146
13.569577753426872 1.3730173229556522 1.0253479263367293 199 19 146
13.289561464809376 1.2900934818187122 1.0990014599650895 199 19 146
13.5709720150021 1.210945923380991 1.1095534043439077 199 19 146
13.042965381148377 1.647512288713166 0.8050328498398271 199 19 146
13.30418245980516 1.8532506938489428 0.8237435796009047 199 19 146
13.186778130010216 1.7734334054936804 0.7053843927893201 199 19 146
13.093889985605484 1.6566304973318724 0.6970122906683038 199 19 146
13.03711052730517 1.6289621932859204 1.255731350536775 199 19 146
14.227637351841956 3.0048295226822717 2.9473531537187285 199 19 146
14.046072924082608 2.053681169806932 3.0308836064808173 199 19 146
12.106589427557386 0.8211778270966575 2.985862985941579 199 19 146
12.36885823564899 3.076235793835488 2.6596648380513948 199 19 146
12.36885823564899 3.076235793835488 2.6596648380513948 199 19 146
11.728859192781611 2.7481671288381113 2.5852544550359253 199 19 146
12.043663962119867 -2.8099495967445742 2.714150246628826 199 19 146
12.218879517754251 -2.634001794111219 2.6836848961716653 199 19 146
13.113180894642893 -2.7025591717471005 2.433413399860681 199 19 146
12.883840817136019 -2.5767048370415613 2.5880822835570516 199 19 146
13.070321322545185 1.142550212036105 0.9082483735609939 199 19 146
12.191418914397424 -0.26785523346458395 2.9464741149053113 199 19 146
13.903659748243925 1.4019869960897036 1.350374259738182 199 19 146
12.415989165568233 1.435154486555468 0.8664374285393255 199 19 146
13.221337372950007 2.0372880568979213 0.9171292330301497 199 19 146
13.077033014417431 1.5374429264964982 0.6954711425224107 199 19 146
13.359354689577971 -2.4866465883919884 2.679808581548193 199 19 146
12.978181157308006 -1.1507316366025946 3.0887754201440614 199 19 146
14.250111110068543 -2.8491458626651416 2.4482635316335357 199 19 146
14.512603214915474 2.7877335480235663 2.8647684863855956 199 19 146
11.274971195933121 2.67555466901737 2.65382211486342 199 19 146
14.178892395096204 1.865440613343665 2.965684118908377 199 19 146
13.846692777738513 1.935235275817826 1.2747295000197405 199 19 146
14.236461626838953 -2.9155752937589674 2.944227126913212 199 19 146
13.733213666185804 -3.0487747928085587 2.627801365713604 199 19 146
13.039601037875846 -2.3691248267903635 2.731822310672511 199 19 146
13.357938340038714 -2.6468657271871123 2.533067660809352 199 19 146
12.01234017673809 2.8582717921398446 2.7199111126874627 199 19 146
13.247544286396662 2.7116555694077995 1.3392629762734016 199 19 146
13.052662508968105 2.053681169806932 3.022419099402044 199 19 146
