14.470056390001368 -0.9533546839819506 1.5098650169466057 17 133 180
15.82856155114632 -0.8492066662706473 1.7050628350168444 17 133 180
15.085814937248845 -0.8991305719538966 1.645031247348203 17 133 180
15.29494750638999 -0.9912791835094198 1.5131549289068404 17 133 180
15.415855961444588 -0.9912791835094198 1.70867999936611 17 133 180
16.42233383422316 -0.8555238577982173 2.08791723092546 17 133 180
6.296032755410769 1.5127103826048247 1.4303847276369672 17 133 180
5.672944123422954 1.692350665641228 1.9535796046869531 17 133 180
5.587552824803701 1.8746803087038808 1.7724018311375223 17 133 180
5.469619024623625 1.3157499166379432 1.4089952165254263 17 133 180
5.799131665629428 1.3157499166379432 1.9448334765474027 17 133 180
5.237841586517451 -1.4951714283177406 1.9872615695099436 17 133 180
5.918304091659228 -1.6808147392863162 1.760992757770609 17 133 180
6.790095135010513 1.3157499166379432 2.222572149381073 17 133 180
8.159741181613162 0.89850534602634 2.418684272273611 17 133 180
7.048874406349767 1.1710567664248077 2.6220832530771068 17 133 180
7.5586865990783645 1.2588677125885717 2.5141209254216377 17 133 180
7.044134275651378 1.0608999923142448 2.384280191947076 17 133 180
7.503788425470012 0.09436959366884795 2.8199041451130986 17 133 180
7.599602189642022 0.47797302928819335 2.7839993304028248 17 133 180
7.350519499797165 0.7319377220493137 2.889869787455503 17 133 180
7.875954371257568 0.06639910960339243 2.699535296515357 17 133 180
7.3271516114876185 0.5843455594831313 2.5591013596915477 17 133 180
6.925556599567441 0.7552354730800878 2.6541205679676576 17 133 180
7.540538974610744 -0.3176070238059805 2.8055869727135025 17 133 180
7.289438353104455 -0.5181549452020826 2.924835791473273 17 133 180
6.066728451732462 -1.0118865039997285 2.3170965781764252 17 133 180
6.284110020301044 -0.8658985970748642 2.522788905829438 17 133 180
7.7079579215917855 -0.6448579361263044 2.7480947393660524 17 133 180
6.66194982107941 1.501622986730511 2.237332615903825 17 133 180
6.122648909104538 1.940781882701005 2.3086834842223825 17 133 180
6.666961685930571 1.7207416108932363 2.446190205699944 17 133 180
7.107403240618363 2.040952909060964 2.6078606693293347 17 133 180
6.925519032720892 1.4589946211649811 2.6541307999930304 17 133 180
6.666961685930571 1.7207416108932363 2.446190205699944 17 133 180
6.835536672255715 1.940781882701005 2.4171378865955604 17 133 180
6.646216566256298 1.4853170883599123 2.449939192941434 17 133 180
6.451430493430449 2.5000527797184224 2.819108444906032 17 133 180
7.485293352679341 1.8502556176842444 2.827402671954836 17 133 180
7.466822155346877 1.4094501447137155 2.8351067571222472 17 133 180
6.7132755133510145 2.205730306063572 2.717609665579092 17 133 180
7.23231086119678 1.2832119942911364 2.9642397666739453 17 133 180
7.25137944594485 2.0515001861295605 2.9501237261717588 17 133 180
7.150901423070896 2.804604790003082 3.046900863614314 17 133 180
7.131564182308873 0.5533438860634561 3.081908586632144 17 133 180
7.14148059395524 2.129117903426816 2.36996889886582 17 133 180
7.595245757357062 3.057052941357535 2.785537521238836 17 133 180
7.45791090522885 2.5929876032033103 2.532999388490037 17 133 180
6.774742717450662 2.7073191588266545 2.6979356323786674 17 133 180
6.774742717450662 2.7073191588266545 2.6979356323786674 17 133 180
6.916104726302798 -2.1038277616500625 2.656704740964952 17 133 180
8.032236854335341 -2.931326620153396 2.6600615644338683 17 133 180
7.6315558969358515 -2.8553548103733815 2.772956697077604 17 133 180
6.749542288859398 -1.7966969876754453 2.705857828939474 17 133 180
7.346050771126607 -2.6989664440647836 2.892246123629943 17 133 180
7.3460861874335945 -1.369820383047325 2.892227191724889 17 133 180
7.3648601988964595 -1.9156401112600459 2.882406675531094 17 133 180
7.79702075804998 -2.5489553303859966 2.7214330708372447 17 133 180
5.740113230166452 -1.7036013980007696 2.1452136516471967 17 133 180
8.18961025797619 -2.6873568901872864 2.624491214626028 17 133 180
5.599782233197398 -1.4752550076400701 2.397260298128333 17 133 180
15.891278741979683 -0.8991305719538966 1.8987621476089669 17 133 180
16.475056473642706 -0.7589586078118272 1.8867299285288173 17 133 180
15.506964156539771 -0.8050062321259673 1.8396370160313538 17 133 180
5.563738295158884 1.501622986730511 1.2258925400198941 17 133 180
8.159741181613162 0.89850534602634 2.418684272273611 17 133 180
7.801125535908284 1.0608999923142448 2.4724548936924062 17 133 180
7.308245132752885 0.9384577457449568 2.5630403814464766 17 133 180
7.251415324631756 0.16269839909542577 2.9500982030457203 17 133 180
6.7746594873464385 1.2588677125885717 2.4273509071134 17 133 180
7.350519499797165 0.7319377220493137 2.889869787455503 17 133 180
7.599602189642022 0.47797302928819335 2.7839993304028248 17 133 180
7.910976207241247 -0.22697355798602523 2.690272274339574 17 133 180
6.8559429808690995 -1.1147593703830578 2.6736336945470223 17 133 180
7.997746031897799 3.0802210264805905 2.668380674869129 17 133 180
7.689920078989412 2.7073191588266545 2.7537838753004498 17 133 180
6.599517585948628 2.2566441098070644 2.4585286482486177 17 133 180
6.945429961396621 1.76621660197666 2.648750432560954 17 133 180
6.666961685930571 1.7207416108932363 2.446190205699944 17 133 180
6.666961685930571 1.7207416108932363 2.446190205699944 17 133 180
5.624388369886967 -1.7381816546682343 2.39252263987356 17 133 180
7.1894560611970695 -2.2586972804577017 3.0013452437880783 17 133 180
7.517802153912787 -2.3156981255388702 2.8143569094572514 17 133 180
7.170222798476818 -1.1346262608733901 3.021833878505748 17 133 180
6.729051763288407 -1.4411775682954913 2.712444876001517 17 133 180
15.044735969345778 -0.8991305719538966 1.5786972433506377 17 133 180
15.310482784367476 -0.9912791835094198 1.643939953895254 17 133 180
14.443692874864558 -0.9533546839819506 1.5790260302091619 17 133 180
6.462430900229846 2.129117903426816 2.2618578432810454 17 133 180
6.682646099762169 1.692350665641228 2.2348987301340855 17 133 180
7.540538974610744 -0.3176070238059805 2.8055869727135025 17 133 180
6.646216566256298 1.4853170883599123 2.449939192941434 17 133 180
7.462492800473318 -0.916724900502817 2.836945360403189 17 133 180
7.503788425470012 0.09436959366884795 2.8199041451130986 17 133 180
7.0245463621678 2.441255179263606 2.628171345208521 17 133 180
7.581375180235605 1.0212428555300477 2.790489932692809 17 133 180
7.402118906153761 2.2566441098070644 2.54390149017782 17 133 180
7.3271516114876185 0.5843455594831313 2.5591013596915477 17 133 180
7.466822155346877 1.4094501447137155 2.8351067571222472 17 133 180
15.019027651542165 -0.9533546839819506 1.8485989521265365 17 133 180
6.31792781956963 1.6729677874635833 1.4308745367195557 17 133 180
5.380015157402931 1.692350665641228 1.7802924495720946 17 133 180
7.218634778216339 -2.330648104298259 2.582333945072563 17 133 180
5.751641294721594 -1.2246809384572435 2.369023902418223 17 133 180
6.749542288859398 -1.7966969876754453 2.705857828939474 17 133 180
7.350519499797165 0.7319377220493137 2.889869787455503 17 133 180
6.30049287255841 1.8746803087038808 2.0886534429610593 17 133 180
7.05898069599336 1.1461436185820248 2.193819528579059 17 133 180
7.997746031897799 3.0802210264805905 2.668380674869129 17 133 180
7.635823469132329 2.205730306063572 2.771512603482455 17 133 180
6.7132755133510145 2.205730306063572 2.717609665579092 17 133 180
6.541550629787388 1.8502556176842444 2.7801415097123963 17 133 180
7.406665062304221 2.5000527797184224 2.861910498548058 17 133 180
7.6315558969358515 -2.8553548103733815 2.772956697077604 17 133 180
7.599602189642022 0.47797302928819335 2.7839993304028248 17 133 180
5.399888981207401 -1.2930367684538038 1.9740255884273188 17 133 180
15.815311533169181 -0.9912791835094198 1.8342693977221387 17 133 180
7.308322286172381 3.0059569390550593 2.913399090668074 17 133 180
5.648549508625421 1.501622986730511 1.955319127711141 17 133 180
6.790095135010513 1.3157499166379432 2.222572149381073 17 133 180
7.79702075804998 -2.5489553303859966 2.7214330708372447 17 133 180
