14.1814934770657 1.1610110817910995 0.44564163358779724 40 77 197
14.229432201492449 0.9795564465699633 0.5934479102018966 40 77 197
14.044357190209235 1.3201633133253798 0.4247418654481764 40 77 197
14.044357190209235 1.3201633133253798 0.4247418654481764 40 77 197
14.386992235833459 1.0210650818655143 0.47466548928757435 40 77 197
14.109488936602908 1.3842869591436642 0.580725478614272 40 77 197
14.245998259370772 1.260942439436606 0.5951695865092604 40 77 197
13.93187523651906 1.042900317742415 0.6841670427774141 40 77 197
12.777083805521041 1.1910179757644597 0.8114395918947404 40 77 197
13.265593757056084 1.2950388896476597 0.7399749738652595 40 77 197
13.047390582775352 1.520251309487486 0.7214697524055979 40 77 197
13.104411326054784 1.422476886248329 0.8348909458490218 40 77 197
12.01709588630644 1.322515694779013 0.9696782485827248 40 77 197
12.258930699476132 1.227361872787944 0.9831450050753775 40 77 197
12.60997743122218 1.62397743319003 1.001577962870044 40 77 197
14.412345212188981 1.656049396404345 0.4780775749402418 40 77 197
14.058150796763996 1.842935430514152 0.4269061393356416 40 77 197
13.761585021346333 1.941076435988093 0.5409861665227151 40 77 197
14.123218931620872 1.7736562168931218 0.5822052933517831 40 77 197
14.047636859784262 1.6448857449044145 0.5739809462689569 40 77 197
14.058150796763996 1.842935430514152 0.4269061393356416 40 77 197
12.667038113796307 2.1753959896257995 0.6866389455809174 40 77 197
12.993592565080126 2.2541006816818556 0.5900631963473129 40 77 197
13.125835735003937 2.0584343125956615 0.8363681223600097 40 77 197
12.570964181400598 1.860398444813444 0.7957582417899101 40 77 197
12.622007568669757 2.0143675114383175 1.0021877057419857 40 77 197
13.020068953453507 1.2830271139303917 1.1935209726061218 40 77 197
12.452249262321894 1.3639693871173826 1.2609833929316854 40 77 197
12.56621782761457 1.5333014356259418 1.1791681506023446 40 77 197
13.140735082941857 1.3799638183338547 1.3563488856453807 40 77 197
12.920423437809944 1.5362731863565824 1.3526336352017856 40 77 197
12.174291549765108 1.895010275567123 1.165836678037186 40 77 197
12.224816834184901 1.619403034849353 1.2550220829855292 40 77 197
13.731676551688134 0.8097125824679016 0.3712003767481543 40 77 197
14.30534975493197 0.8043359712976474 0.46343592739362355 40 77 197
13.816709264625269 1.0844773460356247 0.38670325334620026 40 77 197
13.372260998515968 1.1920279586182494 0.294526417400842 40 77 197
12.595920950782736 2.510193872420789 0.35820057669715116 40 77 197
12.914582310105589 2.6227265165997116 0.419185464380435 40 77 197
13.612093514281927 1.6927512771087732 0.3479334257260271 40 77 197
13.612093514281927 1.6927512771087732 0.3479334257260271 40 77 197
12.594448991934115 2.3516100530909494 0.5409136276038636 40 77 197
12.594448991934115 2.3516100530909494 0.5409136276038636 40 77 197
11.928018755326896 2.350331520330495 0.439103004407345 40 77 197
12.810908725020461 2.353002296570517 0.8139428871659637 40 77 197
12.699452953894529 2.3534231154964047 1.0060797495235698 40 77 197
12.093737871066018 2.0958150755735767 1.1629797715103154 40 77 197
13.734850950499274 2.298911423604367 1.2140606268789997 40 77 197
12.841203688020965 2.291845340110559 1.1024689162050945 40 77 197
12.670282345696949 2.5665251461604406 0.5507965489607934 40 77 197
12.149431550336187 2.6966931710323134 0.7611817911410376 40 77 197
12.171953891990494 2.450100009625082 0.6353943216811072 40 77 197
12.246438871203171 2.8392820313344385 1.4235736325256394 40 77 197
11.859690182491235 2.7304035039103622 1.3327604574084762 40 77 197
17.755434850822407 -2.4429725980086046 1.6386333495923187 40 77 197
9.68326501099289 0.5313212622557287 2.5814675545385644 40 77 197
10.180196934587972 0.4471703144874119 2.5078794642840965 40 77 197
10.234555246397182 0.13593157442594422 2.68887695866938 40 77 197
10.80917450824732 0.8193508883481505 2.8052603777139877 40 77 197
10.428526399208721 0.8416354619754615 2.933501462542717 40 77 197
10.612490339824506 0.5831701945941232 2.863083376766292 40 77 197
10.230839269983804 0.9482889897794834 3.0685403312856194 40 77 197
10.50769474604174 0.24412929054070343 2.9004061630016267 40 77 197
10.321863229190646 0.39986774741790326 2.9900397771139575 40 77 197
11.22840935575606 0.9482889897794834 3.0750406178042344 40 77 197
11.117713815522793 -1.4720158429843613 2.7332352029013487 40 77 197
11.201533325297104 -1.2550096888653066 2.716272653749427 40 77 197
11.1211334587433 -0.780635874192756 2.5455670823523784 40 77 197
10.776979784191276 -0.679772533447085 2.435974300775236 40 77 197
10.773077674374996 -0.88255590881513 2.436399566031413 40 77 197
10.765357018884929 -0.6530709191234543 2.596198881954503 40 77 197
10.953401409370766 -0.41478049753519086 2.568533180903736 40 77 197
10.111153530980284 -0.6084900696027815 2.71465384995758 40 77 197
10.856142618633832 -0.3853128616907173 2.793096903917295 40 77 197
10.759727778404402 -0.7766910769438989 2.8186621858372956 40 77 197
10.493150817601464 -0.494825287780693 2.6405889545592034 40 77 197
11.025354394689183 -0.9482920672829906 2.753050989499879 40 77 197
9.831685023474135 -0.11400243268678648 2.78220221088733 40 77 197
10.311525502331975 -0.2674692181460287 2.9967517153482444 40 77 197
11.630178266082869 -1.310684260321027 2.6410746973107666 40 77 197
10.224129241880739 -0.08845267029194452 2.690977974842248 40 77 197
11.795415840687497 -1.1466499301627238 2.6160341485679206 40 77 197
10.220409474740602 -0.7347077482979536 3.0841501117355996 40 77 197
11.714263413161287 -1.4431854528766639 2.845221596621692 40 77 197
11.298255262945677 -1.2679293299745464 3.0120254639491693 40 77 197
11.234161664608314 2.3203122720286133 3.067756194506345 40 77 197
11.431370144835695 -2.6586729093967434 2.6738586492634195 40 77 197
11.070095380895147 -2.550306266175456 2.7432939115262918 40 77 197
11.602982887405615 -2.2731616201521203 2.4868517084240054 40 77 197
12.079201328378058 -2.154814260311159 2.576839555595046 40 77 197
11.218822744660686 -1.9129222043777345 2.712883089839591 40 77 197
11.218822744660686 -1.9129222043777345 2.712883089839591 40 77 197
11.218822744660686 -1.9129222043777345 2.712883089839591 40 77 197
10.61278014626076 -2.6439084005073394 2.8629878929258017 40 77 197
10.61278014626076 -2.6439084005073394 2.8629878929258017 40 77 197
10.866245262876742 -2.0028262173828124 2.7905469069190096 40 77 197
11.0546143197814 -2.2179827536168957 2.746635253926957 40 77 197
12.010396276330365 -2.3753100292047207 2.5859469213015904 40 77 197
12.236862910788382 -2.3808026444182957 2.727688366844599 40 77 197
11.303972029017256 -1.9557902788374926 3.008200239487991 40 77 197
11.470243297155 -1.8024668859006607 2.9255308560630686 40 77 197
11.739885203364587 -2.390722625469193 2.838156220905811 40 77 197
11.467843215952978 -1.2068402196238663 2.5023587361920177 40 77 197
11.214715837591621 -1.5028001998263922 2.533374450643626 40 77 197
10.415947315144486 -1.6588792545512363 2.4776931911415643 40 77 197
11.49597695962821 -1.9522820947811026 2.4990737892882118 40 77 197
11.214715837591621 -1.5028001998263922 2.533374450643626 40 77 197
11.314958003023163 -1.810803200480045 2.5207644164540364 40 77 197
12.557619296451655 -2.0794169030865435 2.519290633623926 40 77 197
12.107523805365421 -2.5939915767715402 2.5731581964681522 40 77 197
12.598465951996504 -2.6645041214374046 2.5147853368823245 40 77 197
11.726790263044137 -2.2159914369739555 2.232271633111758 40 77 197
12.233021765677995 -2.2968898694553097 2.2004454829458693 40 77 197
12.379899528701564 1.525505161116012 0.8895435673015634 40 77 197
12.904958166035208 2.0090238157201314 0.708831873496245 40 77 197
13.45368459303274 1.8959806992470734 0.6393395006565699 40 77 197
14.245998259370772 1.260942439436606 0.5951695865092604 40 77 197
13.950123742210856 1.091284711463684 0.5630782155417547 40 77 197
14.407861842382507 1.5049890850737488 0.47747669898719514 40 77 197
13.814025355677737 1.520251309487486 0.6736385935298546 40 77 197
13.982216997973941 1.671160834454741 0.4148061153028348 40 77 197
13.133652359939504 1.7506228509316015 0.72890481823091 40 77 197
12.992618295254568 1.4574244969219547 1.35386531699256 40 77 197
13.189268795733964 1.3047497931031065 1.4341663702634273 40 77 197
12.640435864515648 1.4477511160151972 1.1815916226066738 40 77 197
12.311594465198052 1.7047911040544335 1.2573239904221252 40 77 197
12.155233065515215 1.9771923954459119 1.2531512504616464 40 77 197
13.607346478848525 1.4765620088047706 0.3469702787578491 40 77 197
13.516218131056723 0.9768743658348334 0.32781645528567954 40 77 197
14.027553003181167 0.9300229938560757 0.4220853425406398 40 77 197
13.152936500316859 2.4728964609298334 0.45815966604173664 40 77 197
12.594448991934115 2.3516100530909494 0.5409136276038636 40 77 197
12.594448991934115 2.3516100530909494 0.5409136276038636 40 77 197
12.267474628639158 2.2293534211474566 0.49475044471142954 40 77 197
12.22466343758561 2.5037673973674774 0.8792048501665604 40 77 197
13.057525628224614 2.4347388755525317 0.7223516672345726 40 77 197
12.714389426909877 2.423690231968821 0.9106926482069262 40 77 197
12.422670903747088 2.7035151105936057 0.5174319895994299 40 77 197
11.191655725234703 2.8126086759945133 1.4995716964184012 40 77 197
11.664448367448266 2.7304035039103622 1.4161703800211554 40 77 197
11.859690182491235 2.7304035039103622 1.3327604574084762 40 77 197
10.321863229190646 0.39986774741790326 2.9900397771139575 40 77 197
9.842526745591341 0.17478656538778609 2.77928170424118 40 77 197
9.954327454657907 0.43745561427997165 2.75072281569581 40 77 197
10.342118904191315 0.34753198059237594 2.6679435578301645 40 77 197
11.373000360134382 -1.0646297490140237 2.684123742971127 40 77 197
10.856142618633832 -0.3853128616907173 2.793096903917295 40 77 197
10.497540023220578 -0.16013055191718992 2.9043708196505214 40 77 197
10.311135554234827 -0.30438115694323176 2.6738398708441453 40 77 197
10.779160671020762 -0.2509436493694623 2.5940920930294267 40 77 197
10.759727778404402 -0.7766910769438989 2.8186621858372956 40 77 197
10.311525502331975 -0.2674692181460287 2.9967517153482444 40 77 197
9.848680247442728 -0.0722421033364202 2.555231251062816 40 77 197
10.582298625640963 -0.5196706282391237 2.873241711647938 40 77 197
10.765357018884929 -0.6530709191234543 2.596198881954503 40 77 197
11.206940649277538 -1.0036365929664781 2.53437159340518 40 77 197
9.831685023474135 -0.11400243268678648 2.78220221088733 40 77 197
11.46460944166021 -1.3908458228290002 2.9277813009831224 40 77 197
11.602982887405615 -2.2731616201521203 2.4868517084240054 40 77 197
11.555062517923297 -1.6751019779154772 2.6530917700618537 40 77 197
11.681734505259293 -2.5023259998882064 2.633064514159979 40 77 197
11.12352336851913 -1.6986095244032708 2.732029808018532 40 77 197
11.401368138177135 -2.0991796376181613 2.6790953668463686 40 77 197
11.983805833344578 -2.2179827536168957 2.7787481747545297 40 77 197
11.397762731296405 -2.4140270265385837 2.956725336423973 40 77 197
11.739885203364587 -2.390722625469193 2.838156220905811 40 77 197
12.100244193757094 -2.190831190795371 2.435046685632876 40 77 197
11.314958003023163 -1.810803200480045 2.5207644164540364 40 77 197
11.638098729818005 3.033001896746517 2.6398318782106083 40 77 197
11.617733250011709 -2.473276779515636 2.4851996858775944 40 77 197
12.031559480447758 -2.3718217724424564 2.44176142113343 40 77 197
12.598465951996504 -2.6645041214374046 2.5147853368823245 40 77 197
12.299074288279355 -2.3694100806024543 2.300978891926816 40 77 197
13.485057140446997 1.1910179757644597 0.7576297238030409 40 77 197
14.386992235833459 1.0210650818655143 0.47466548928757435 40 77 197
14.486024511971236 1.8033350165613078 0.48780224118758625 40 77 197
12.993592565080126 2.2541006816818556 0.5900631963473129 40 77 197
13.97759566350045 1.493295142477548 0.41405466449038875 40 77 197
13.939129289490134 1.393686158745129 1.4415588192119737 40 77 197
12.35625584877433 1.8080352354469613 1.0825131678203794 40 77 197
13.362249319404805 1.3047497931031065 1.359958019614835 40 77 197
12.595920950782736 2.510193872420789 0.35820057669715116 40 77 197
13.038715970878574 2.12500728005725 1.2753495456592425 40 77 197
10.163756068079921 0.6490860969491474 2.703415721399034 40 77 197
10.705928705415113 0.11115123912077733 2.6054171997699136 40 77 197
10.765357018884929 -0.6530709191234543 2.596198881954503 40 77 197
11.212788275446613 -0.30438115694323176 2.714062086984696 40 77 197
11.025354394689183 -0.9482920672829906 2.753050989499879 40 77 197
11.373000360134382 -1.0646297490140237 2.684123742971127 40 77 197
11.793843973311008 -1.17061901118061 2.8238694654258993 40 77 197
11.46460944166021 -1.3908458228290002 2.9277813009831224 40 77 197
11.401368138177135 -2.0991796376181613 2.6790953668463686 40 77 197
10.789708063520129 -2.390722625469193 2.8104594928124413 40 77 197
11.681734505259293 -2.5023259998882064 2.633064514159979 40 77 197
12.55099643695882 -2.2524283299904675 2.6739700391030876 40 77 197
11.56268536898129 -2.149789777619069 2.8917055071829005 40 77 197
12.104128739986985 -3.055631344873364 2.7534076536514847 40 77 197
11.49597695962821 -1.9522820947811026 2.4990737892882118 40 77 197
11.949707223170345 -2.1239071213996374 2.3274699317513 40 77 197
12.521554251439454 -1.0777257713344832 2.52331682570338 40 77 197
11.628931150717 -3.071022401706457 2.641270797061229 40 77 197
13.149811346101359 2.0655796172968173 0.607575680289258 40 77 197
13.881573573668895 1.4055399930309307 0.6797118338186194 40 77 197
12.875510045246532 1.9261047925711074 0.9203704906346624 40 77 197
13.675915565303354 1.2687391808515012 0.3605803692616744 40 77 197
14.043037053936896 1.5136200988092983 0.5734741733688717 40 77 197
13.302126741937021 1.4506578877056198 0.2766160697899075 40 77 197
13.060745239935319 2.2707874997239155 0.7226313552233281 40 77 197
12.877262126734031 2.144740408557392 0.920474011492058 40 77 197
17.755434850822407 -2.4429725980086046 1.6386333495923187 40 77 197
10.897720590976414 -2.768969162301601 2.7827431946396017 40 77 197
11.22840935575606 0.9482889897794834 3.0750406178042344 40 77 197
11.218907002179623 -0.7347077482979536 3.089267473669686 40 77 197
10.342118904191315 0.34753198059237594 2.6679435578301645 40 77 197
11.549470037494842 -1.4902430287637287 2.6540036576700285 40 77 197
11.555062517923297 -1.6751019779154772 2.6530917700618537 40 77 197
11.2978157035687 -1.349944833413804 2.5228892126394666 40 77 197
12.736268665765227 -2.7354084033473467 2.6459375841967927 40 77 197
12.424927780901388 -2.473276779515636 2.5343355025827403 40 77 197
14.657978508232555 0.9015088466689191 0.5094718467090416 40 77 197
14.127573846519827 1.0075120855177393 0.8045612018026022 40 77 197
14.1814934770657 1.1610110817910995 0.44564163358779724 40 77 197
13.25127860081087 1.322515694779013 0.844882998013168 40 77 197
12.71769590727299 2.282794275802788 0.9108944555155695 40 77 197
11.298255262945677 -1.2679293299745464 3.0120254639491693 40 77 197
11.057967993035174 -1.6470151134440436 2.406648150955678 40 77 197
14.657978508232555 0.9015088466689191 0.5094718467090416 40 77 197
12.295841709176358 1.4477511160151972 1.2569086659594086 40 77 197
9.68326501099289 0.5313212622557287 2.5814675545385644 40 77 197
12.233021765677995 -2.2968898694553097 2.2004454829458693 40 77 197
11.719777257228651 -1.7356719349005123 2.8436847686009497 40 77 197
10.428526399208721 0.8416354619754615 2.933501462542717 40 77 197
