13.674094245666568 1.2002266349091466 1.9269801133576814 219 170 61
13.870831747491888 0.9613546271867994 1.845914390758583 219 170 61
14.355242674344492 0.8009530044343379 1.8364017449132948 219 170 61
13.805100149140216 0.9157004074357404 2.0018496894676137 219 170 61
13.741713469288547 0.9820560081156146 2.085786726762262 219 170 61
13.287297396321515 1.0548520993440749 2.1052495033939778 219 170 61
13.760886378591623 0.6893005897743867 2.0033278414990225 219 170 61
13.447048667372073 1.7510229275198612 1.7781348639462802 219 170 61
11.364645090959572 2.064995098349949 1.4621904696338748 219 170 61
12.608502737554096 2.0260654372136946 1.3115807351913218 219 170 61
12.016427777072272 1.6943014532446847 1.9788279093264372 219 170 61
10.330174566967159 1.6068549765375588 1.8420797768764634 219 170 61
14.039395789738833 1.5122834500005877 2.2453381535977295 219 170 61
14.18851538854568 1.311229923889312 2.3301533548607516 219 170 61
14.120447978540561 1.4219669258623335 2.2407563590645503 219 170 61
12.893461020806635 1.311229923889312 2.2174113108765225 219 170 61
13.756262296990652 1.2749343578833212 2.0034830407867057 219 170 61
12.803665995767172 0.624312450000933 1.9523961370853857 219 170 61
13.00552375219702 0.5782966967333492 1.7852818710880423 219 170 61
13.20871601818789 0.624312450000933 2.022716019197835 219 170 61
16.62119435302477 -0.00508325689427015 2.4467982514626296 219 170 61
15.539720007912152 0.22149459669695878 2.535090128650141 219 170 61
15.44639384610305 0.10903062353640072 2.5438550176263592 219 170 61
13.618421896607375 0.20105277211911565 2.786358759973927 219 170 61
13.958940391460729 -0.00958851364594412 2.725546259014899 219 170 61
13.998578562731957 -0.18472554524249102 2.7191833924445215 219 170 61
12.304327485474623 -1.1732844854561388 1.7977130281012477 219 170 61
11.69720504493061 -1.1383181915680478 1.8987872855886265 219 170 61
10.717047163232357 -0.8962339505245538 2.1391232042154424 219 170 61
9.902761165044737 0.9361817653898237 2.4725948698949494 219 170 61
10.407621132427584 1.0803053463862538 2.5726567982683286 219 170 61
9.308737498890467 1.8389119425589042 2.5580242796310815 219 170 61
10.158194216553369 1.8389119425589042 2.6122933552217598 219 170 61
10.087306066967818 1.4418711736864704 2.6244328556832057 219 170 61
12.41546999671415 0.8398802094273712 2.8172564137129537 219 170 61
13.277318362714903 -0.014854541785991073 2.863758999005432 219 170 61
13.86573708373946 -0.03294699533390936 3.0228854706639483 219 170 61
13.86573708373946 -0.03294699533390936 3.0228854706639483 219 170 61
13.199285426885895 -0.6610005143926284 2.8853025192489286 219 170 61
13.31898524023175 -0.2817866725442657 2.852993287494958 219 170 61
13.081014901596035 -0.3797257526993252 2.9224451251316292 219 170 61
13.199285426885895 -0.6610005143926284 2.8853025192489286 219 170 61
12.691549226189537 -0.697931143604133 2.757779772816095 219 170 61
13.230529230960247 -1.077693705742833 2.8764407323653867 219 170 61
13.435161061711769 -0.5136221338084179 2.8251676315356042 219 170 61
13.905640934527703 -0.5709191083199701 3.000857555168545 219 170 61
12.875050023653998 2.5334627801357983 3.0126447768261526 219 170 61
12.80817434630426 1.9333396387716575 3.062524161227747 219 170 61
12.986867527890162 2.180368100411305 2.9578084988625073 219 170 61
12.931494969044971 1.2524849182842757 2.982484981218625 219 170 61
13.783187145999793 -0.08416090821079736 3.0948893731562825 219 170 61
13.835151388914632 -3.1018044196184786 3.043142918977382 219 170 61
13.835151388914632 -3.1018044196184786 3.043142918977382 219 170 61
13.198471608867912 -1.9894080498800666 2.885537920936822 219 170 61
13.003517519712405 -2.1552166387665945 2.9510431899594063 219 170 61
13.14399051877168 -1.3638514647260398 2.901881147236862 219 170 61
12.883449963454765 -2.481809618704614 3.0077104328749034 219 170 61
12.937305935131981 -1.7437232848475006 2.9797098211630972 219 170 61
12.948216164126043 -1.2682199156397644 2.9746293422403034 219 170 61
13.823329296022678 -1.0242934273638085 3.0522189044247487 219 170 61
13.875143202101063 -2.481809618704614 3.017330850861041 219 170 61
13.129215940536366 2.451816689751324 2.9065295834706113 219 170 61
14.441750691414986 -3.129183322809003 2.834968454294311 219 170 61
14.586998761987848 -2.701206178635336 2.80493802295514 219 170 61
13.551192525479994 -2.4036723600517984 2.799982733888499 219 170 61
14.774361104942965 -3.1314988432414914 2.77039977556709 219 170 61
14.480067263573403 -2.9043167789220803 2.82671804951213 219 170 61
14.211078950288886 -2.837495779945167 2.8912706150717282 219 170 61
14.586998761987848 -2.701206178635336 2.80493802295514 219 170 61
14.441750691414986 -3.129183322809003 2.834968454294311 219 170 61
14.441750691414986 -3.129183322809003 2.834968454294311 219 170 61
14.172035139905596 -3.1254893062080344 2.9022829215428847 219 170 61
11.086557543493837 -1.6032427349714 1.6401392141510263 219 170 61
10.746750124448916 -1.8932115996667045 1.7360773690357862 219 170 61
10.5012293585255 -1.8256533982356293 2.0421099959232407 219 170 61
10.770023262120846 -1.9260286720427398 2.0294317317922714 219 170 61
11.551128391596931 -2.1052120065802042 1.996308350561661 219 170 61
12.184952142636405 -1.089241975148597 2.6545609211104146 219 170 61
12.440075389324345 -0.9464785911836827 2.617148303965139 219 170 61
11.271732909547863 -1.4801466536193175 2.462095937094165 219 170 61
11.259198275652249 -1.621615421179087 2.4634752272316076 219 170 61
11.900664174622285 -1.6416677260114316 2.701792392363482 219 170 61
10.539806254048113 -1.49135113568164 2.268098622923916 219 170 61
11.33521631186264 -1.7610901715885101 2.455192545450047 219 170 61
10.126409279488671 -1.2125323583731777 2.30280757595306 219 170 61
10.526400092108316 -1.6153146206222344 2.2691659579499133 219 170 61
10.43199798070571 -1.0942856349148575 2.2767873336860465 219 170 61
10.846766791092135 -1.253913272542035 2.244621001717438 219 170 61
12.007940778693314 -1.2568098983119096 2.683173263658871 219 170 61
12.452065643518035 -1.659067414983169 2.8086257246538895 219 170 61
12.46340065007203 -1.4139324675337634 2.8060059460229296 219 170 61
11.888330570421575 -1.3139010475483202 2.0773824322576315 219 170 61
11.608640520963858 -1.2869582946275757 2.1932465666274803 219 170 61
10.754505329373725 -1.5000946276578992 2.1369004859874776 219 170 61
10.821023562124813 -1.7197594705899268 2.1329988993749196 219 170 61
11.706835045300947 -1.408985634131963 2.086005766875699 219 170 61
13.528948806916675 -2.282461458003807 2.62569477682251 219 170 61
14.087604012518097 -2.3923968111089624 2.705336390827393 219 170 61
14.649549759541756 0.8009530044343379 1.9023172767580312 219 170 61
14.445843358591516 0.9025236495995487 1.8346960195797961 219 170 61
14.382739902449915 0.855476950302243 1.983456076823669 219 170 61
13.741713469288547 0.9820560081156146 2.085786726762262 219 170 61
12.894566883946075 1.1341869207945674 2.1233757088884015 219 170 61
11.45199209676128 1.8685289387793644 1.5505502526948292 219 170 61
10.343835050780193 1.506415843070855 1.8417124722741764 219 170 61
10.861578657597336 1.9838358952500963 1.5494495541872677 219 170 61
15.35127807964437 -0.2099148447822639 2.444312319339259 219 170 61
16.034022254940076 -0.10889945035892716 2.491977415104511 219 170 61
15.999427638115332 -0.005610489060390459 2.4948293342822927 219 170 61
13.739940674102993 -0.416663897084412 2.7632365913046204 219 170 61
13.739940674102993 -0.416663897084412 2.7632365913046204 219 170 61
13.585639472568822 -0.011654295093717548 2.792921458864679 219 170 61
11.663378198487193 -1.059481806007103 1.722982225885707 219 170 61
10.226078570264018 -0.9888557714017833 2.1700950286996945 219 170 61
10.407621132427584 1.0803053463862538 2.5726567982683286 219 170 61
10.073297708047352 1.6432125840319474 2.6268830210582443 219 170 61
12.241792281589142 1.0625071653137745 2.8625154559133903 219 170 61
13.813110288872128 -1.8988750106000498 3.0608945721902394 219 170 61
13.783187145999793 -0.08416090821079736 3.0948893731562825 219 170 61
13.875143202101063 -2.481809618704614 3.017330850861041 219 170 61
14.019311033325474 -0.020477331367972883 2.9520218680690276 219 170 61
11.933349456155758 1.7531310693414153 2.975009941403958 219 170 61
13.003517519712405 -2.1552166387665945 2.9510431899594063 219 170 61
13.03605457209614 -0.8966688227586563 2.9385103469072633 219 170 61
12.875050023653998 2.5334627801357983 3.0126447768261526 219 170 61
13.199285426885895 -0.6610005143926284 2.8853025192489286 219 170 61
12.986867527890162 2.180368100411305 2.9578084988625073 219 170 61
14.058778992990332 -0.3797257526993252 2.9379092194255625 219 170 61
13.038587574241031 -0.020477331367972883 2.937569079645865 219 170 61
13.31420768534911 2.245964645012683 2.854204399905709 219 170 61
14.32001919886872 -2.592718668157093 2.8630685202951582 219 170 61
14.811817274861191 -2.9473689102682643 2.7639562295384494 219 170 61
13.338561985325052 -2.228441119000738 2.8480902069239145 219 170 61
12.132650584193156 -1.6830469751978094 1.551686227867955 219 170 61
10.993074503841681 -1.8012387486995223 1.9206662593527861 219 170 61
11.696286713860946 -1.5128548205629835 1.8988140028407485 219 170 61
10.993074503841681 -1.8012387486995223 1.9206662593527861 219 170 61
10.183513589802969 -1.8556978629616767 2.172953071709666 219 170 61
11.13259928292009 -1.146202227884278 2.224283073431652 219 170 61
12.149683976357323 -1.2233282682056128 2.065485214911219 219 170 61
11.422701859508997 -1.3914763897256952 2.2049775371141846 219 170 61
14.087604012518097 -2.3923968111089624 2.705336390827393 219 170 61
13.810974034703335 -2.2626718313470477 2.750501490725972 219 170 61
12.724039834568398 -0.9933730188639125 2.751505477478468 219 170 61
11.33521631186264 -1.7610901715885101 2.455192545450047 219 170 61
11.498030781963628 -1.8934942050787376 2.438087017580325 219 170 61
15.993234200948812 0.7995120829183225 1.8735355168470054 219 170 61
12.170132273227777 1.7830458448468611 1.9733746021398386 219 170 61
12.569305396513567 1.2198500938987578 2.1394132774636008 219 170 61
13.62636359426993 -0.22332751655051097 2.7847910105155176 219 170 61
11.663378198487193 -1.059481806007103 1.722982225885707 219 170 61
10.199811795441105 1.25039792706 2.6053593587741033 219 170 61
12.441583692884862 -0.8577671098584392 2.811070422789875 219 170 61
13.835151388914632 -3.1018044196184786 3.043142918977382 219 170 61
12.920570620553168 1.7531310693414153 2.9878435768183627 219 170 61
13.77293835490162 -2.991956640905341 3.1152447423537852 219 170 61
14.480067263573403 -2.9043167789220803 2.82671804951213 219 170 61
13.968858112975903 -3.118664394443003 2.97187393010008 219 170 61
14.118971875802519 -2.4251326739643373 2.9182070221552197 219 170 61
14.916370735152077 -2.775554189737161 2.746662175367516 219 170 61
14.008468221225245 -2.7213378647725426 2.9560991770194804 219 170 61
14.441750691414986 -3.129183322809003 2.834968454294311 219 170 61
10.239172426901764 -1.610403154626973 2.0551969936219523 219 170 61
11.122543957786384 -2.0194670974002373 2.013842051694701 219 170 61
11.912523862342187 -1.4446013497124017 2.6996813191739064 219 170 61
11.309564481648893 -1.3697753016895575 2.327964717505443 219 170 61
11.706835045300947 -1.408985634131963 2.086005766875699 219 170 61
10.846766791092135 -1.253913272542035 2.244621001717438 219 170 61
12.554631525375392 -1.1861351732984682 2.785757590656743 219 170 61
11.791731328562216 -1.1594201923482406 2.547024505912919 219 170 61
13.525987409792782 1.3531995740163696 2.0113607349741893 219 170 61
12.893461020806635 1.311229923889312 2.2174113108765225 219 170 61
12.768629239891295 -0.8279584357757248 2.574244819091229 219 170 61
13.77293835490162 -2.991956640905341 3.1152447423537852 219 170 61
14.172035139905596 -3.1254893062080344 2.9022829215428847 219 170 61
13.133242927161062 -1.6877392341066784 2.9052526626003203 219 170 61
13.198471608867912 -1.9894080498800666 2.885537920936822 219 170 61
14.019311033325474 -0.020477331367972883 2.9520218680690276 219 170 61
10.820373413782125 -1.2125323583731777 2.3716054564333486 219 170 61
11.791731328562216 -1.1594201923482406 2.547024505912919 219 170 61
11.372527412933241 -1.342202607061686 2.4511978765691245 219 170 61
13.435161061711769 -0.5136221338084179 2.8251676315356042 219 170 61
11.30250136835107 -1.9798731358445112 1.8182288809257643 219 170 61
9.308737498890467 1.8389119425589042 2.5580242796310815 219 170 61
13.391389797367086 -0.8577671098584392 2.8353075496282667 219 170 61
10.158194216553369 1.8389119425589042 2.6122933552217598 219 170 61
13.968858112975903 -3.118664394443003 2.97187393010008 219 170 61
11.400144070298918 -0.9597917836902636 2.1013052450420684 219 170 61
9.99931827713447 -1.7379307095653562 2.1856697357162775 219 170 61
14.774361104942965 -3.1314988432414914 2.77039977556709 219 170 61
11.846070660458697 1.9497603576035745 1.466620603748412 219 170 61
13.346068949076171 1.0254431195352305 1.8570310590064452 219 170 61
