15.993792947025407 0.740847508473529 1.0006441310252325 96 181 117
15.83193946315612 0.5325345257756386 0.5333758699699174 96 181 117
15.761614432378142 0.570080190086409 0.6410098127518431 96 181 117
16.33610725726891 0.12105687205846537 0.583534821299436 96 181 117
16.11906360412458 0.6328726973411082 0.5628138121720507 96 181 117
15.3339034247226 0.15547050400429563 0.4755011558326099 96 181 117
12.471578702032634 0.12105687205846537 0.8062649650016704 96 181 117
13.880770993072801 0.10897347051323324 0.8038105779742798 96 181 117
11.935181382357268 0.22945801626414503 0.8769198362047277 96 181 117
12.149998310227911 0.3326529408937225 0.8915393345497872 96 181 117
13.183546575978484 0.12105687205846537 0.7514945905587028 96 181 117
15.29557746310828 0.012537592806863533 0.4706116167436871 96 181 117
15.322558063886474 -0.13090595276605718 0.47406114099728974 96 181 117
11.684828870633451 -0.4581451573516699 0.8589614705965627 96 181 117
13.161925165163252 0.008751923361508483 0.8554315126086186 96 181 117
11.906004258132675 -0.21092376215166675 0.8748794936158587 96 181 117
13.025772674859878 -0.41278675314627855 0.8463130434950349 96 181 117
12.457626848780103 -0.10183485100273308 0.8051902566741379 96 181 117
11.906004258132675 -0.21092376215166675 0.8748794936158587 96 181 117
12.457626848780103 -0.10183485100273308 0.8051902566741379 96 181 117
11.047938208657289 -0.11456275113316466 0.8080891572712532 96 181 117
11.165178758239696 -0.10183485100273308 0.9346967855864903 96 181 117
15.43983182094855 0.9969159768501696 0.4886576778279115 96 181 117
15.43983182094855 0.9969159768501696 0.4886576778279115 96 181 117
15.073636002982221 0.9124002092804253 0.4407912950373574 96 181 117
15.767378485634973 1.047492720502311 0.38167118867971905 96 181 117
15.191593402777329 0.26950948920905066 0.2720660641729283 96 181 117
14.580973672117718 1.389030857257978 0.36261419802562256 96 181 117
12.713911710873877 0.8604340095037483 0.11300947113384616 96 181 117
14.624194857499825 -0.36981714594288073 0.37032591527636166 96 181 117
14.21868758000402 -0.2280006142056026 0.28806493277467743 96 181 117
15.442814149230424 0.01761783424498708 0.3253205812245242 96 181 117
14.075768865246749 -0.5776506640021835 0.25153878151433307 96 181 117
14.246170181458462 -0.7816526820528734 0.29450554036539456 96 181 117
14.246170181458462 -0.7816526820528734 0.29450554036539456 96 181 117
13.797961391866552 -0.7826071822747541 0.4139070346685931 96 181 117
14.483765412706141 -0.9272681278356047 0.3444899964754121 96 181 117
13.797961391866552 -0.7826071822747541 0.4139070346685931 96 181 117
12.6676614528145 0.09273502726022563 0.07419271310644905 96 181 117
12.81271420954538 -0.44089240143676844 0.16777279617327293 96 181 117
12.811004568946778 -1.1162105106286042 0.1669830052128437 96 181 117
12.6676614528145 0.09273502726022563 0.07419271310644905 96 181 117
12.80420057088814 1.6019553672087643 0.1638002959768886 96 181 117
14.589893321910052 1.777183793650761 0.36422221333668114 96 181 117
11.731927374034557 2.3460165570311164 0.13007863188535404 96 181 117
12.964491147579393 -1.593122657973645 0.22668683185770172 96 181 117
14.217912675593617 -0.6585026848121514 0.9182914295615282 96 181 117
14.309203992254178 -0.6079225345832494 1.0081578801810482 96 181 117
13.000519713060259 -0.7166821898831391 0.9433048490907757 96 181 117
12.71325868639569 -0.554392679209989 0.824342064269956 96 181 117
14.167198436601081 -0.7248180769387419 1.0018240280959547 96 181 117
12.71325868639569 -0.554392679209989 0.824342064269956 96 181 117
13.82043259935298 -0.7841709298285973 1.1510034096487876 96 181 117
13.022057575548299 -0.7840160544950995 1.036364576439083 96 181 117
14.126741589074426 -0.8372455624149595 1.2366675104087697 96 181 117
13.197661214852884 -0.7248180769387419 1.129840737906426 96 181 117
14.328774880748506 -0.6725944632484011 1.0895305106498996 96 181 117
13.831095507026369 -0.8372455624149595 1.3050230828289757 96 181 117
13.82043259935298 -0.7841709298285973 1.1510034096487876 96 181 117
16.516378282358968 -1.167592814305668 1.1575439807477301 96 181 117
14.347810760381233 -0.8847324012823385 1.3862513567653605 96 181 117
14.255230205951197 -1.0436196095318506 1.31311339133095 96 181 117
13.032814068091241 -1.0047010100248148 1.4451815166585198 96 181 117
14.266079369419414 -0.9421085609656913 1.2400561095520233 96 181 117
14.255230205951197 -1.0436196095318506 1.31311339133095 96 181 117
12.427915734036004 -1.072694810501727 1.6003460075557392 96 181 117
12.870750346902843 -1.072694810501727 1.8354919224528947 96 181 117
14.114171398373566 -0.8954954988831247 0.46226519134324245 96 181 117
12.716959798698253 -1.4363675082838678 0.5806381259903988 96 181 117
13.082835924618221 -1.4139779083006423 0.4752770751678139 96 181 117
12.716959798698253 -1.4363675082838678 0.5806381259903988 96 181 117
15.782100231553427 -1.1929248824460574 0.7420436613479857 96 181 117
15.562929823065497 -1.282949347822968 0.7265520291219487 96 181 117
14.838807162941942 -1.4097795607594492 0.94988986370357 96 181 117
15.002003234905475 -1.329242270715209 0.9576494100155514 96 181 117
15.73642775251185 -1.224733488865472 0.8289076164529918 96 181 117
15.516612238787431 -1.3080730369524143 0.8158446467894378 96 181 117
14.586288914134855 -1.4853322022974136 0.8494425138887711 96 181 117
15.516612238787431 -1.3080730369524143 0.8158446467894378 96 181 117
15.284651508992306 -1.3473073605382502 1.0479160944318122 96 181 117
15.029330180319624 -1.4985188218685381 1.0380962710944368 96 181 117
15.44201486267181 -1.4097795607594492 0.8971941508142761 96 181 117
15.817573426453617 -1.2517728167214524 0.9160042614226938 96 181 117
12.68271120386214 -1.5802055716327397 0.5765091413524559 96 181 117
12.68271120386214 -1.5802055716327397 0.5765091413524559 96 181 117
14.71225312237057 -1.5762565443497831 0.9437234381308448 96 181 117
14.71225312237057 -1.5762565443497831 0.9437234381308448 96 181 117
14.693875811381172 -1.5036975872550342 1.2500355078426921 96 181 117
14.460931589720188 -1.3628948396541771 1.3877113783939279 96 181 117
14.546997651373506 -1.4985188218685381 1.097348581983434 96 181 117
14.409870275623328 -1.5036975872550342 1.315940553150229 96 181 117
14.810636270982446 -1.3473073605382502 1.106446958287478 96 181 117
15.534192589298936 -1.4326081142879996 1.1296443034022625 96 181 117
15.294293623524013 -1.3628948396541771 1.193621836666868 96 181 117
14.293280863175372 -1.2057563845912016 1.3138149112552155 96 181 117
14.220387431789739 -1.4220582849733339 1.1635218349167977 96 181 117
13.920008183676305 -1.2057563845912016 1.4532259760053745 96 181 117
12.967021907222524 -1.1780681895163747 1.676428396140404 96 181 117
13.95877811129229 -1.5036975872550342 1.5254464075081866 96 181 117
14.06120156321749 -1.4326081142879996 1.5257769658430844 96 181 117
13.663773152074093 -1.3473073605382502 1.8197930502978659 96 181 117
13.705262667766643 -1.2750086960412754 1.7443879103570659 96 181 117
13.17866861809851 -1.7293731218579262 1.446578990915087 96 181 117
14.517067115224377 -1.575833706815643 1.0962920398238394 96 181 117
12.826244883569421 -1.8226196181369272 1.2836331169449913 96 181 117
13.76023562977 -1.653088534949463 1.2274062403237491 96 181 117
13.016032906685854 -1.575833706815643 1.4450187065398554 96 181 117
12.52672374618722 -1.8226196181369272 1.760910486397619 96 181 117
13.028827061051649 -1.653088534949463 1.6759254480969727 96 181 117
12.59286126232452 -1.8996338952852703 1.599958845418357 96 181 117
14.31485533699714 -1.5754716507206883 1.8082446340575231 96 181 117
13.742412757955757 -1.224733488865472 2.1365962721978153 96 181 117
14.866959595960736 -1.575833706815643 2.089253859609461 96 181 117
13.645924450225115 -1.2517728167214524 1.9750339943807955 96 181 117
14.587826088140748 -1.4924755610385818 2.1816577321030386 96 181 117
13.67309253924626 -1.653088534949463 1.8958927157892664 96 181 117
14.140021146341228 -1.4097795607594492 2.118838021366846 96 181 117
14.854826986241958 0.7938321797185947 1.0311564372432396 96 181 117
12.76106022577669 -0.3151617599537811 0.8278014675525787 96 181 117
12.424426385641329 0.009731380118469957 0.802618619671681 96 181 117
12.673706657320526 -0.1902290219465331 0.9244725595131529 96 181 117
11.32179003646365 0.22945801626414503 0.9448741689011692 96 181 117
15.43983182094855 0.9969159768501696 0.4886576778279115 96 181 117
14.053934414809385 1.418388164735721 0.45358755318098876 96 181 117
14.053934414809385 1.418388164735721 0.45358755318098876 96 181 117
14.155669379329996 1.263012990174593 0.4681143032878355 96 181 117
14.580973672117718 1.389030857257978 0.36261419802562256 96 181 117
15.480775599318173 0.21679437147561498 0.33251382905325977 96 181 117
13.755328831697458 1.2073213152738933 0.4067939336794744 96 181 117
15.073636002982221 0.9124002092804253 0.4407912950373574 96 181 117
12.838125069521228 1.149608061543118 0.17908221400965257 96 181 117
15.152907503397957 0.022093793359715373 0.26275950729715675 96 181 117
12.997997297922543 -1.2602291205820297 0.23760479951545344 96 181 117
12.6676614528145 0.09273502726022563 0.07419271310644905 96 181 117
14.483765412706141 -0.9272681278356047 0.3444899964754121 96 181 117
12.811004568946778 -1.1162105106286042 0.1669830052128437 96 181 117
12.811004568946778 -1.1162105106286042 0.1669830052128437 96 181 117
12.780436210249617 0.044907427463639904 0.15213850397458914 96 181 117
14.317722311491694 -0.45252097263371677 0.3105570348821539 96 181 117
13.548344654614212 -0.6372646810688392 0.3697304201886971 96 181 117
13.548344654614212 -0.6372646810688392 0.3697304201886971 96 181 117
14.21868758000402 -0.2280006142056026 0.28806493277467743 96 181 117
11.683664791098666 1.6305698785813527 0.0933336738802995 96 181 117
11.818710896689712 1.6019553672087643 0.17759824558475398 96 181 117
13.000519713060259 -0.7166821898831391 0.9433048490907757 96 181 117
13.558746568208097 -0.7840160544950995 0.9728530256633138 96 181 117
12.056588299648267 -0.554392679209989 0.8852677184379687 96 181 117
13.558746568208097 -0.7840160544950995 0.9728530256633138 96 181 117
13.132137758889142 -0.6404157018477017 0.8534589090466342 96 181 117
13.747355039227518 -0.9421085609656913 1.3780917442407858 96 181 117
13.145027292989427 -1.0047010100248148 1.7518665033618306 96 181 117
13.022057575548299 -0.7840160544950995 1.036364576439083 96 181 117
13.868667247487378 -1.0323062743258125 0.4253636897157702 96 181 117
15.060181364073898 -1.1929248824460574 0.7869317451707767 96 181 117
15.060181364073898 -1.1929248824460574 0.7869317451707767 96 181 117
14.741787373919074 -1.4924755610385818 0.9451744489984168 96 181 117
15.986768416457092 -1.4326081142879996 1.073051049454725 96 181 117
15.807789116487506 -1.3473073605382502 0.9930811784466169 96 181 117
14.741787373919074 -1.4924755610385818 0.9451744489984168 96 181 117
14.684336121451 -1.3953138263238876 0.8552996499819225 96 181 117
15.078777583412561 -1.224733488865472 0.8778166007003715 96 181 117
16.37534188196817 -1.3473073605382502 0.9419018844257936 96 181 117
12.68271120386214 -1.5802055716327397 0.5765091413524559 96 181 117
14.190797594226082 -1.5036975872550342 1.3841855708023156 96 181 117
13.08228025023369 -1.7293731218579262 1.598867559103452 96 181 117
12.317292024357089 -1.8226196181369272 1.5193977553086195 96 181 117
12.441314699466549 -1.1461089627377576 1.844859958526465 96 181 117
14.79120986942684 -1.4326081142879996 1.2522209931836272 96 181 117
12.910263635665572 -1.1780681895163747 1.521760444142847 96 181 117
12.80815774310082 -1.8996338952852703 1.7566837425324406 96 181 117
14.08827926426535 -1.575833706815643 1.1594730275604315 96 181 117
12.62467666336164 -1.7424341895115092 1.2789145755267308 96 181 117
13.927583541991606 -1.5754716507206883 1.5253447642422897 96 181 117
14.051753072176794 -1.4326081142879996 1.5969303827337555 96 181 117
14.303436070050621 -1.224733488865472 2.1956485757551336 96 181 117
11.78672311134214 -0.10183485100273308 0.8663958033045047 96 181 117
12.76106022577669 -0.3151617599537811 0.8278014675525787 96 181 117
12.575553799420973 0.10897347051323324 0.9185711021863134 96 181 117
11.32179003646365 0.22945801626414503 0.9448741689011692 96 181 117
13.546727853260457 -0.9272681278356047 0.3694223400167195 96 181 117
14.7190136752243 -0.7826071822747541 0.3865791462189879 96 181 117
12.700226075718055 -0.7735460763625832 0.10308019844164484 96 181 117
13.369051843305384 -0.45252097263371677 0.33341697236570084 96 181 117
12.780436210249617 0.044907427463639904 0.15213850397458914 96 181 117
12.838125069521228 1.149608061543118 0.17908221400965257 96 181 117
13.65444566952581 -0.7248180769387419 1.0635614681010677 96 181 117
13.97338167998621 -0.9421085609656913 1.307793892632398 96 181 117
15.516612238787431 -1.3080730369524143 0.8158446467894378 96 181 117
15.652996317325432 -1.4220582849733339 0.9866208007774226 96 181 117
14.55593812115151 -1.653088534949463 1.0976632254586691 96 181 117
15.332799901962307 -1.2057563845912016 1.1234330693638441 96 181 117
13.95877811129229 -1.5036975872550342 1.5254464075081866 96 181 117
15.761614432378142 0.570080190086409 0.6410098127518431 96 181 117
11.775838495829362 0.13613555827043086 0.7479343193684298 96 181 117
14.631379556320907 1.8543330337634858 0.5288151893197542 96 181 117
14.551113022234857 1.5835829487890376 0.3571660558941846 96 181 117
13.880934342639309 -1.0436196095318506 1.452893483938289 96 181 117
16.23549663731031 -1.329242270715209 0.8567308992784871 96 181 117
15.507755311213744 -1.2750086960412754 1.056188792748578 96 181 117
13.082835924618221 -1.4139779083006423 0.4752770751678139 96 181 117
14.852364240242755 -1.2299409946532331 1.4606374651314975 96 181 117
12.767463691009722 -1.2517728167214524 1.7572831798146282 96 181 117
13.221680475143534 -1.653088534949463 1.370327865851283 96 181 117
13.270057223320611 -1.4220582849733339 1.750141846328541 96 181 117
14.55069828165317 -1.295170343133932 1.4583440689521276 96 181 117
13.025772674859878 -0.41278675314627855 0.8463130434950349 96 181 117
13.369051843305384 -0.45252097263371677 0.33341697236570084 96 181 117
12.997997297922543 -1.2602291205820297 0.23760479951545344 96 181 117
14.741787373919074 -1.4924755610385818 0.9451744489984168 96 181 117
12.826244883569421 -1.8226196181369272 1.2836331169449913 96 181 117
14.509109703955994 -1.4326081142879996 1.3177220508667165 96 181 117
13.831095507026369 -0.8372455624149595 1.3050230828289757 96 181 117
13.443910600463637 -0.7841709298285973 1.2189804324190308 96 181 117
13.971887972085849 -1.8038441441336113 1.8886933060283835 96 181 117
14.015264559367628 -1.4985188218685381 1.9637871956334123 96 181 117
14.135697066139134 -1.7293731218579262 1.9602578642496407 96 181 117
14.582505214096631 -1.5754716507206883 1.874945273384165 96 181 117
16.80811384535737 1.576663379538602 0.7203269065877048 96 181 117
12.039206895577765 -1.9213121054771467 0.2605668798765173 96 181 117
14.257278219676383 -0.7841709298285973 1.0869099085985017 96 181 117
