12.183305670958536 1.7379104228730542 0.8376570312885645 166 131 107
13.765817316314449 1.75852680730866 0.6262941591496788 166 131 107
12.605898488917406 1.987202679642656 0.7581641442299742 166 131 107
11.964537676518066 1.945016632128423 0.9299655921724718 166 131 107
13.765817316314449 1.75852680730866 0.6262941591496788 166 131 107
12.605898488917406 1.987202679642656 0.7581641442299742 166 131 107
12.231686387259275 2.087671483308524 0.8412134884527092 166 131 107
11.899680764576319 1.987202679642656 0.8159785342700768 166 131 107
10.853968797930516 1.6274036275137984 0.9680559826089512 166 131 107
12.245701181685378 1.5210615744392482 0.9469829485920462 166 131 107
12.781272127566078 2.0393248336116794 0.6528165458189245 166 131 107
13.215282534175634 1.7848572220471608 0.566177561219075 166 131 107
12.695418896897129 2.123452172973077 0.972249655841862 166 131 107
10.469991216244013 2.6595637035222643 0.942592215836575 166 131 107
11.321266195746663 2.324853191440786 0.9961921644545609 166 131 107
11.341221660868966 2.402719475341836 0.8883154284283876 166 131 107
10.592911107975908 2.522035120384929 0.6924587173693253 166 131 107
10.884610695669458 2.560716493111893 0.9699919938047229 166 131 107
10.738576923731605 2.402719475341836 0.9606422691660542 166 131 107
9.361405577149068 2.9386886280495013 0.5137028509912416 166 131 107
9.669493533408685 -3.1303751037472765 0.7380776976675396 166 131 107
9.859369809919027 2.853629004542258 0.7590114707162778 166 131 107
10.02505351034941 2.8049241788511905 0.6210358095644989 166 131 107
9.713554402003808 3.0000561909874577 0.7430511101842227 166 131 107
10.498396541064846 -3.1330125549145684 0.9445561365401689 166 131 107
10.673537266977272 2.918802156041627 0.9563756029113378 166 131 107
11.8068197865433 -2.644418170181095 0.8085544131820844 166 131 107
11.83665783214519 -2.6950130232847247 0.9218833482439689 166 131 107
10.104840492027545 1.4214066650270443 1.4564298676581464 166 131 107
10.98621186044453 1.2323574425972557 1.279693745479631 166 131 107
10.710210110917913 1.3246451213230588 1.2719636757326596 166 131 107
10.586987400315875 1.2323574425972557 1.461659564299878 166 131 107
10.270516197531567 1.3246451213230588 1.6533457677001306 166 131 107
11.359192862072153 1.3463877273132006 1.7341088117249406 166 131 107
11.112361281383864 1.996888907773264 1.375802429818312 166 131 107
10.462364651125807 1.8180605386481012 1.3635168935835984 166 131 107
10.159704178429442 1.8444603689047654 1.1496737049803367 166 131 107
10.427468521883952 1.5210615744392482 1.2635997967943497 166 131 107
10.0059757618513 1.5210615744392482 1.4552948351547477 166 131 107
10.524048599743024 1.7213431637396277 1.266509787909306 166 131 107
10.962586320478245 1.996888907773264 1.4654129498409163 166 131 107
10.865628069459014 1.7213431637396277 1.1785911550345411 166 131 107
10.3031451353004 1.8180605386481012 1.458640447665558 166 131 107
10.006562872644727 1.6217116799404225 1.4553016422188538 166 131 107
11.093534658081687 1.6170590754239478 1.7380561131724785 166 131 107
10.939792504347812 1.6170590754239478 1.5567976875524772 166 131 107
10.939792504347812 1.6170590754239478 1.5567976875524772 166 131 107
11.183839268672266 1.7077457523689101 1.7366929831906195 166 131 107
11.280728599053576 2.123452172973077 1.1937647794496526 166 131 107
12.189046792797374 2.200580917119854 1.1342989459276251 166 131 107
11.254067641293812 2.200580917119854 1.3782887002856081 166 131 107
12.08188985491571 2.2699275644057675 1.3067586015328572 166 131 107
12.071892037555049 2.32891265010268 1.129766787243025 166 131 107
11.82469888418448 2.391405491892629 1.3876866675827464 166 131 107
12.446175041039027 2.218193688522911 1.5584920589672873 166 131 107
12.468056784176067 2.3320412812388676 1.7194710002722586 166 131 107
11.637588231116533 2.584064836694024 1.2964225248835288 166 131 107
11.161515394827303 2.66340233227867 1.2843962075562725 166 131 107
11.729536163109925 2.458144529075382 1.2088713661041866 166 131 107
10.778572839987632 2.842888810211276 1.1752480339596834 166 131 107
11.203331495355949 2.584064836694024 1.5571270020803927 166 131 107
12.205870084697855 2.584064836694024 1.979143314971175 166 131 107
10.373790564820244 -3.1339151274695465 1.158898603289045 166 131 107
10.550999883369531 2.9415844943353355 1.1662247184491592 166 131 107
11.366871578760597 2.7838810533601404 1.7339974981005946 166 131 107
11.216876495538337 2.7838810533601404 1.5571435095740476 166 131 107
11.35266962570006 2.869875553237727 1.2893512925683495 166 131 107
11.705831068723867 -3.135249628091011 1.385805873049817 166 131 107
11.136834096916303 2.960186323753051 1.2837434856421759 166 131 107
11.81141190583756 2.975651625717795 1.727803174848404 166 131 107
11.696825450669245 2.975651625717795 1.6432608096781887 166 131 107
11.45054204308738 1.6274036275137984 0.8960508773237523 166 131 107
12.634314443360196 2.1778692547469727 0.8693582197128915 166 131 107
12.781272127566078 2.0393248336116794 0.6528165458189245 166 131 107
12.919768817216752 2.087671483308524 0.7834828293991931 166 131 107
12.231686387259275 2.087671483308524 0.8412134884527092 166 131 107
11.075288087787456 2.652972478957502 0.5980290859988228 166 131 107
10.382495977461073 2.7374646387855135 0.49156947253702804 166 131 107
9.705904406906454 -3.131869504978502 0.8841357117143566 166 131 107
10.538992544901884 3.0330356144514625 0.9473397527095805 166 131 107
9.749800730479638 3.018709417320729 0.8878208405362666 166 131 107
10.710210110917913 1.3246451213230588 1.2719636757326596 166 131 107
10.300293772115593 1.3246451213230588 1.4586092693904256 166 131 107
10.745828198448132 1.9102879439395173 1.369061178672033 166 131 107
11.19574243196965 1.5210615744392482 1.0924896942452516 166 131 107
10.428031902152817 1.6217116799404225 1.2636169357699694 166 131 107
11.196267153852748 1.6217116799404225 1.092513992147766 166 131 107
10.707113938750267 2.123452172973077 1.3683216396603353 166 131 107
10.863816525985454 2.4731943853044793 1.0765827330780273 166 131 107
12.58152313211949 2.218193688522911 1.7181203479585505 166 131 107
10.529020602242072 1.9102879439395173 1.5562515165650639 166 131 107
11.303107395579195 1.6170590754239478 1.8254037424602687 166 131 107
10.247922561062706 2.7090658085271566 1.1535262698654127 166 131 107
10.451379744829524 1.945016632128423 1.1621397024038043 166 131 107
10.414872280100639 3.0443796222528112 1.160621276208048 166 131 107
11.274954222976824 2.7838810533601404 1.4683429587479966 166 131 107
13.028851102975624 1.8444603689047654 0.7918522666247019 166 131 107
10.137390302250951 2.7697682890654884 0.9185483160687605 166 131 107
11.710611095727845 1.8444603689047654 0.9136938356898815 166 131 107
10.102534680801542 2.7188188358931176 0.7840580991163769 166 131 107
12.294792043392054 2.038233405998482 0.9498535449807339 166 131 107
12.032118164547956 2.242383407635005 0.8262823560026238 166 131 107
12.328045124268613 1.7213431637396277 0.9517817222101174 166 131 107
9.895082021495146 2.89028575565172 0.8997089637867219 166 131 107
11.182263279640091 1.4349022907615472 1.7367165810129928 166 131 107
11.236908369806935 1.4349022907615472 1.3779910376672646 166 131 107
11.407330337241905 2.584064836694024 1.3809068942616087 166 131 107
10.827884749482193 2.038233405998482 1.1771488952365186 166 131 107
11.924839537235254 2.1509377334046187 1.4739445437916447 166 131 107
10.106584492380604 1.7213431637396277 1.4564496892996426 166 131 107
10.273375825449943 1.8180605386481012 1.6533227374776531 166 131 107
10.0762344788866 1.7213431637396277 1.6549411497974764 166 131 107
10.93925548018458 1.5256066090218492 1.556797000293763 166 131 107
11.801126526859266 2.200580917119854 1.211167122717685 166 131 107
11.628024547338583 2.391405491892629 1.5576262794285036 166 131 107
11.440128646056818 2.3962798561798158 1.1035337507515104 166 131 107
12.76669299035562 2.218193688522911 1.7956783975948072 166 131 107
10.428878019935718 -3.029192622717771 1.1612051811986528 166 131 107
11.600613799428615 3.061197300019449 1.4712287744318338 166 131 107
12.331520277819406 2.14750777072803 0.7343665694949608 166 131 107
10.469991216244013 2.6595637035222643 0.942592215836575 166 131 107
11.41008538142344 2.0771914006163983 1.4695605150576974 166 131 107
12.21830373848383 2.7838810533601404 1.9787030636976568 166 131 107
10.969093209838597 -3.134645886810088 1.2792261274262686 166 131 107
12.695418896897129 2.123452172973077 0.972249655841862 166 131 107
9.989217844484077 2.6390153735521507 0.4120501391558668 166 131 107
9.027034707765125 -3.128337945726079 0.6560420406762382 166 131 107
11.544174552969611 3.061197300019449 1.5575306144728336 166 131 107
11.86026087623087 2.2699275644057675 1.3882418976364574 166 131 107
11.116511737781337 2.869875553237727 1.375876169096486 166 131 107
10.522373790996236 1.4214066650270443 1.266459803011984 166 131 107
11.353505527664552 2.584064836694024 1.7341913558860071 166 131 107
12.046982116517654 2.391405491892629 1.3059751442075191 166 131 107
11.029757970296183 1.4349022907615472 1.5569118764016243 166 131 107
11.68008146171603 2.32891265010268 1.207267837145694 166 131 107
13.122621748321349 1.8769741395047645 0.6861159154908164 166 131 107
11.093005076741981 1.5256066090218492 1.7380641734845912 166 131 107
