8.656971338008734 -0.8838314733690611 1.29258316132633 108 33 185
9.652398642896436 -0.04695010835250517 1.845945716201109 108 33 185
9.262550286675381 -0.9534314036520877 1.746868852377069 108 33 185
8.595112012724869 -1.5377258308781152 1.7607019823029473 108 33 185
8.539522087287796 -1.155472348143117 1.882938118641507 108 33 185
8.685281671843464 -1.4203199517528797 1.7587067354362864 108 33 185
8.68918110981258 -1.0486186569196287 1.411590358099711 108 33 185
8.761256536327537 -1.7720325188709911 1.7570580388823374 108 33 185
6.900549484748093 -2.387302222769527 1.219044864835169 108 33 185
6.61683469519105 -2.1710426738127606 1.6650088711291429 108 33 185
6.68411066706608 -2.6007331236753526 1.5142840990787148 108 33 185
7.009303577650331 -2.9311000069839284 1.372979484485121 108 33 185
8.612314995499316 0.2880297981667585 2.447998434843476 108 33 185
10.110185880056616 -0.7977365108775981 2.0456506663082186 108 33 185
9.790015219262925 -0.2861570250248721 2.0625373934064966 108 33 185
9.977062939836541 0.06070993025484898 1.9423671447277469 108 33 185
9.214950822092156 0.07733128208827757 2.227041407759253 108 33 185
9.970643592237174 -0.04695010835250517 1.942618037100821 108 33 185
11.242417229553922 -0.6414459688812677 2.2006923988277802 108 33 185
9.289179317985743 0.10643780488705447 2.533212435327713 108 33 185
9.143417606542727 0.08958567499430557 2.380797427410544 108 33 185
9.078147236043941 -0.8838314733690611 1.9812567360025697 108 33 185
10.193236826411342 -0.6414459688812677 2.041466544477647 108 33 185
8.511188950782497 1.226226117341613 2.6805338278222615 108 33 185
9.470201847579963 0.9477862532500817 2.506285744110112 108 33 185
9.398114244039764 2.3858721480121687 2.7324639540051523 108 33 185
10.128210793032608 2.1083918582185257 2.5893148120122524 108 33 185
9.158750927500746 2.1619153391021886 2.7976892134213225 108 33 185
10.456398433022592 2.4949351396416084 2.5403115311140456 108 33 185
8.108168846281854 0.6014393890046429 2.7937117189848895 108 33 185
8.443966440470279 0.4450547313351606 2.696827354294168 108 33 185
8.752293067058591 -0.10153462389727762 2.627849052152211 108 33 185
8.752293067058591 -0.10153462389727762 2.627849052152211 108 33 185
8.858588074272465 -0.32377108327800064 2.6069695323577955 108 33 185
9.732395221715649 -0.32377108327800064 2.6593461374509872 108 33 185
8.770899652362365 -2.0360745057271106 2.9573577231580837 108 33 185
8.834308978508481 -0.8431193936888387 2.9221574198214046 108 33 185
10.008091623668685 -1.0872859106826303 2.863092032870635 108 33 185
9.541137158728061 -0.6389304317026581 2.6991646598527943 108 33 185
8.856024441806506 0.8852865898011155 2.911421168249453 108 33 185
9.752111081083532 0.35042024427274504 2.6554981524147827 108 33 185
8.645400536924937 1.1113120637104066 3.068738616907846 108 33 185
9.635744289556108 -0.10153462389727762 2.6788730640404266 108 33 185
9.2452761491309 -0.8186602997051815 2.7724440428199153 108 33 185
8.72771828084495 -0.328499336379805 2.9861337281163367 108 33 185
8.767610946312658 1.3942155407007886 2.959381599346996 108 33 185
8.663528840712068 -2.5976876429295013 3.044192810593284 108 33 185
9.349508310244909 -1.155472348143117 2.087949389976483 108 33 185
9.885701147279661 -1.3069330753790753 2.0573600980119364 108 33 185
12.817068930124572 -1.6560465980385293 2.41999923496223 108 33 185
10.707434076170758 -1.0280131973772069 2.5069414657741875 108 33 185
12.423222600180988 -1.5274604059857264 2.5964421163623372 108 33 185
12.485776987501431 -1.3746128887414713 2.5882362975719357 108 33 185
11.248159548721878 -1.099583225688522 2.444274179467917 108 33 185
12.22790422098364 -1.4004504498580153 2.4766090827871388 108 33 185
12.164023776266506 -1.5332823897957906 2.4833354008718667 108 33 185
9.836913099538702 -2.739043385588036 2.4573279626001248 108 33 185
9.638096834433428 -2.8956690310346107 2.4830231509150336 108 33 185
9.36398926920708 -2.4113929784169876 2.7409519167293475 108 33 185
8.803326914631599 -2.8934743545595145 2.93853982635702 108 33 185
9.052093545578527 -2.9827124471816844 2.832264926718939 108 33 185
10.356925023093797 -3.065532580178325 2.554458245975659 108 33 185
9.934586648669363 -2.8463120105048696 2.621803823417759 108 33 185
10.465275842426015 2.8747264159887562 2.539076128436393 108 33 185
9.520416633425812 2.7436812451387835 2.7037812178483946 108 33 185
8.909013048808356 -2.4462109044407248 2.8872797791411804 108 33 185
9.50021994944813 -2.7732832164860177 2.708344975193777 108 33 185
9.36398926920708 -2.4113929784169876 2.7409519167293475 108 33 185
9.701862080335543 -2.561941100541234 2.6653931840055543 108 33 185
9.175865086300231 2.61989684468134 2.7925186238045456 108 33 185
9.36398926920708 -2.4113929784169876 2.7409519167293475 108 33 185
9.846426478880481 3.022682529842064 2.6376697242828095 108 33 185
10.015656888191371 2.9371949845441683 2.8604624280772595 108 33 185
10.015656888191371 2.9371949845441683 2.8604624280772595 108 33 185
9.601821456047244 -2.5124389301445462 2.487920931605305 108 33 185
12.28198436791187 -1.7982235728789315 2.4710135494590033 108 33 185
12.91197462635332 -1.7720325188709911 2.411684877859698 108 33 185
10.480789494599211 2.7771360825722757 2.385146650790752 108 33 185
10.769168941573009 2.6540087576035836 2.3571818065968713 108 33 185
10.291540014888817 2.9417272158117234 2.2698407108211733 108 33 185
10.177958828076585 3.0578678945477047 2.417225641692982 108 33 185
8.313798132092183 -0.7135540337383972 1.5253702982047241 108 33 185
8.437303291285433 -0.8838314733690611 1.4067951700933918 108 33 185
8.546952201412088 -0.547312711037835 1.6436899868033172 108 33 185
9.267412008600335 -0.2861570250248721 1.1977513566164488 108 33 185
6.867838347955567 -2.6007331236753526 1.8092921533728625 108 33 185
8.135639817075383 -1.155472348143117 1.524374828790227 108 33 185
7.802269035815219 -1.2733921786967932 1.650661460768832 108 33 185
8.620776258743447 -1.6560465980385293 1.7601297644816345 108 33 185
7.061525252362657 -2.9311000069839284 1.8026290057579788 108 33 185
10.110261289277863 -0.17173749761435095 2.1605001695457937 108 33 185
9.668061473187317 -0.3933860989759052 1.9548521484811485 108 33 185
10.017256840049079 -0.052611142294301014 2.1667256324432667 108 33 185
10.023646335618071 0.0680214730118214 2.1662933968495666 108 33 185
9.136412549003902 -0.0693215471685877 2.3816031737729624 108 33 185
8.4803223439692 -0.08239824867712826 2.4669362498273193 108 33 185
8.419154954504009 1.492650068795767 2.7030512772881488 108 33 185
10.944318205450015 2.5844460911617655 2.4781043887548737 108 33 185
10.838095748430941 2.373090216119688 2.4907446231268713 108 33 185
8.880244166449534 0.35042024427274504 2.602865351447526 108 33 185
7.96782903404287 -0.189010288655372 2.8460885108478218 108 33 185
9.541137158728061 -0.6389304317026581 2.6991646598527943 108 33 185
9.050799073325848 -1.0872859106826303 2.8327127657386906 108 33 185
9.733025326270047 -1.3788379826068669 2.990724117570517 108 33 185
9.356575406088467 0.4450547313351606 2.7428268545394543 108 33 185
8.63799161737394 -1.0013854965425566 3.0816296258907587 108 33 185
9.235226083087541 -0.1321809302497947 2.775267158084386 108 33 185
9.033447976034855 -0.5622343916707133 2.838790119034182 108 33 185
9.336024290012366 -0.41276241976606465 2.748084140245511 108 33 185
9.745330823081959 -1.0486186569196287 2.0649949744167335 108 33 185
9.799552289234477 -1.099583225688522 2.3128361002507827 108 33 185
9.745330823081959 -1.0486186569196287 2.0649949744167335 108 33 185
10.501245599997741 -1.099583225688522 2.3830847400996698 108 33 185
11.389404740702897 -1.5332823897957906 2.429598292090155 108 33 185
10.707434076170758 -1.0280131973772069 2.5069414657741875 108 33 185
12.084383388387403 -1.6560465980385293 2.3653078878609306 108 33 185
11.798638061554467 -1.230459118006118 2.524488169335375 108 33 185
12.182171695621607 -1.6674440985606125 2.4814113996015035 108 33 185
12.440992426879578 -1.6823449020729182 2.5940914507511024 108 33 185
9.052093545578527 -2.9827124471816844 2.832264926718939 108 33 185
9.154908317174176 -2.655989198955257 2.7988631326767495 108 33 185
9.407990306753687 2.9911554360811756 2.730049633055331 108 33 185
8.810596803163602 2.8248779631961707 2.9345704583838645 108 33 185
9.701862080335543 -2.561941100541234 2.6653931840055543 108 33 185
10.127584145188823 -2.6652302226656066 2.5894152274757745 108 33 185
10.003345640922824 -2.387302222769527 2.4371795804455196 108 33 185
12.184997114056316 -1.7720325188709911 2.3569344208487193 108 33 185
12.538744967408116 -1.8320740834398583 2.581435217796111 108 33 185
9.999903827728202 -2.39598713519959 2.6105016068869604 108 33 185
10.386049552249093 -2.268754962319886 2.5502572763714784 108 33 185
10.281969517950422 2.912951784314166 2.405865725439901 108 33 185
9.445520661242094 -3.0768151186372905 2.3477668483642047 108 33 185
9.52868376100908 -0.1535359642537405 1.741901913658031 108 33 185
10.794442849235454 -0.547312711037835 2.231290377516233 108 33 185
10.660677732682153 2.720249585688469 2.512922731651072 108 33 185
8.717712117516541 1.0018599893213564 2.634923151182699 108 33 185
9.398114244039764 2.3858721480121687 2.7324639540051523 108 33 185
8.792771718743122 2.0027076825202386 2.9444553251215932 108 33 185
8.930546863991937 2.403918813351964 2.878163358208457 108 33 185
9.175865086300231 2.61989684468134 2.7925186238045456 108 33 185
9.123730719491782 -2.185844153316108 2.808572442534745 108 33 185
10.446905985599129 -2.8956690310346107 2.5416373195506425 108 33 185
8.880244166449534 0.35042024427274504 2.602865351447526 108 33 185
8.75960531038479 0.13105442275628268 2.6263716443565723 108 33 185
8.735051096120428 0.4153114848796228 2.9808658592745156 108 33 185
9.123730719491782 -2.185844153316108 2.808572442534745 108 33 185
9.401182391057615 -3.0249559140776965 2.731711928962552 108 33 185
6.507871037255649 -2.387302222769527 1.666591108790193 108 33 185
8.73136132600281 -1.0486186569196287 1.7577032964753139 108 33 185
10.363105094325059 3.0433201510079275 2.55356263384284 108 33 185
8.929234771119404 -0.189010288655372 2.8787087565008123 108 33 185
10.127584145188823 -2.6652302226656066 2.5894152274757745 108 33 185
9.36398926920708 -2.4113929784169876 2.7409519167293475 108 33 185
8.633330601867357 -1.5332823897957906 1.039037240784191 108 33 185
7.669900047276091 -1.4004504498580153 1.3902139959710782 108 33 185
10.128210793032608 2.1083918582185257 2.5893148120122524 108 33 185
9.109420644874536 -0.3933860989759052 1.7498604075951676 108 33 185
11.97178541903674 -0.7135540337383972 2.3749335020427917 108 33 185
8.35885478411099 0.844164942887293 2.718694301862678 108 33 185
9.154908317174176 -2.655989198955257 2.7988631326767495 108 33 185
8.670915939846802 2.4776925849574205 3.0358313265076124 108 33 185
9.856990044410523 0.07733128208827757 2.307506587146576 108 33 185
9.336024290012366 -0.41276241976606465 2.748084140245511 108 33 185
9.929941124688233 -1.4567261310396618 2.8920912619283023 108 33 185
