12.266066664750165 0.7696849093248175 1.3522823235325903 154 203 77
13.24426518541296 0.7696849093248175 1.1293126020367752 154 203 77
12.650450104209964 0.36977599087728524 0.816900930926109 154 203 77
13.354847214835072 0.36977599087728524 0.762284758583588 154 203 77
13.11725765265162 0.706098155119432 1.038336707252743 154 203 77
12.408001493466013 0.5832013000574628 1.1858754738612654 154 203 77
12.113220537499286 0.555130177584758 0.9887526342118523 154 203 77
13.65212454596462 0.706098155119432 0.9751865397705579 154 203 77
12.148913895607693 0.3342017730071823 0.990684876862347 154 203 77
13.288890610085524 0.5832013000574628 1.0459299522994665 154 203 77
12.611050992797527 0.27981633027363595 1.2764184091569342 154 203 77
12.460428448125938 0.42401930900014045 1.0069819699855294 154 203 77
13.022301386596318 0.42401930900014045 0.9420305166830678 154 203 77
12.021083221663837 0.38808119029904214 1.2615044097673798 154 203 77
11.697874745191594 0.30467551575289864 1.2526628264336794 154 203 77
13.710144492363748 0.9009993972071643 0.8872092535934721 154 203 77
12.754609417462454 0.9553394966878632 1.1110899985464338 154 203 77
13.503563591141356 1.002445386104266 1.1383682098141663 154 203 77
12.579438874441328 0.8874456899725292 1.2756564128464207 154 203 77
12.61793274323467 0.8314305090497222 1.1057201253630042 154 203 77
13.508207387929831 0.4133432332703002 0.661489827331235 154 203 77
14.504388319083525 0.6586100665768838 0.5099430954860553 154 203 77
14.310475992356238 0.4133432332703002 0.6185505194618991 154 203 77
13.805484038564387 0.4677005648851867 0.5651253037484912 154 203 77
15.22201093964656 0.8468278082497658 0.5887661173793756 154 203 77
14.903759917006086 0.6119320161455551 0.6724663650416581 154 203 77
14.419560536819736 0.67968775522518 0.6291016963517061 154 203 77
13.045388879975235 0.767580722203096 0.9433169469543637 154 203 77
11.30646073175298 0.706098155119432 1.6009581578401773 154 203 77
11.105771648851407 0.5071155154428908 1.4208507501263483 154 203 77
11.883536561676314 0.4661729671203777 1.5153106202759334 154 203 77
11.570234623256496 0.38808119029904214 1.4269127853070607 154 203 77
12.182056253275762 0.27981633027363595 1.4341855907986194 154 203 77
12.084468869893303 0.6523563787620544 1.599015780741841 154 203 77
11.518952899110491 0.5832013000574628 1.5135525640837342 154 203 77
11.980671830293154 0.4661729671203777 1.431874524460412 154 203 77
11.928120043610914 0.38808119029904214 1.854686345300836 154 203 77
12.835971435676052 0.6523563787620544 1.9157871348772115 154 203 77
11.478148041126701 0.5071155154428908 1.8661438868178868 154 203 77
11.550231002975357 0.9553394966878632 1.426661857667211 154 203 77
11.518149867619194 0.8314305090497222 1.7754642276106436 154 203 77
12.053551904661095 0.8874456899725292 1.5160940333092539 154 203 77
13.711503467970399 -0.07740093197447623 0.6803087994155469 154 203 77
13.699324641023031 0.0387151115727691 0.6792093872159545 154 203 77
13.796345859835052 -0.19147150971656568 0.6878734121689686 154 203 77
13.892581911080956 0.2649372079490249 0.6962602947122011 154 203 77
13.682760729632864 0.13799238179202705 0.787065452540891 154 203 77
13.796345859835052 -0.19147150971656568 0.6878734121689686 154 203 77
12.352401734052325 0.13799238179202705 0.9019980005290489 154 203 77
12.499919874439012 0.2384275197343551 0.9112907591827984 154 203 77
13.463248233732566 0.19932553017700674 0.5236710926396324 154 203 77
13.40122698618028 0.050430868304929544 0.5155999588061942 154 203 77
13.40122698618028 0.050430868304929544 0.5155999588061942 154 203 77
12.551097533269896 -0.14400423300491763 0.3792974686167526 154 203 77
13.98060751869715 0.17365804598902024 0.584581907507041 154 203 77
13.15824191521683 0.17365804598902024 0.6265337635753401 154 203 77
13.932876589416066 -0.08753742770794228 0.5793845261880675 154 203 77
12.643728920760568 -0.34771277413934476 0.397273202986557 154 203 77
13.35944075279587 -0.33751952052754997 0.6470513027561359 154 203 77
12.174296209360193 -0.6730924550828713 0.5042533414562302 154 203 77
12.81396553584021 -0.5254860264063909 0.4278284665919929 154 203 77
11.843453257363837 0.6949025297522136 0.17670589228914926 154 203 77
11.772901799955081 0.20535007174817305 0.13919881800250128 154 203 77
12.949905640856322 0.46675939932512606 0.8383969145776694 154 203 77
12.048167074151715 0.30467551575289864 1.173745633839148 154 203 77
12.724549702656354 0.3342017730071823 0.9249061220199779 154 203 77
12.368854302030844 0.6523563787620544 1.3541273063237445 154 203 77
12.068158300642754 0.5832013000574628 1.2627506402580004 154 203 77
11.928634992901673 0.5071155154428908 1.169540064852607 154 203 77
13.142082648901322 0.6347897300218364 0.9486428447920255 154 203 77
12.159545789118198 0.4661729671203777 1.350336600137994 154 203 77
12.905825765455225 0.8874456899725292 1.2014542643252117 154 203 77
13.632620412002895 0.8314305090497222 0.9742166224390119 154 203 77
12.543203315601945 0.9009993972071643 1.0111489959473468 154 203 77
14.818565866607523 0.7648259425239662 0.6652132343897477 154 203 77
12.69519164039325 0.6119320161455551 0.8202047653952536 154 203 77
14.833861559915647 0.7610637295766345 0.5483472318963147 154 203 77
13.126381593322492 0.8380271043694337 0.8504220109655162 154 203 77
11.940784255137237 0.4661729671203777 1.6833355535754246 154 203 77
12.109995909718332 0.8874456899725292 1.6817565230393576 154 203 77
12.086539548832532 0.27981633027363595 1.5162434800927138 154 203 77
12.304400647022833 0.6523563787620544 1.7622180545253092 154 203 77
12.45449693678974 0.3575151263284856 1.6786751434878204 154 203 77
12.193051318369193 0.6523563787620544 1.4343095503610377 154 203 77
16.011506547836582 1.4990176878802142 0.5489444647618058 154 203 77
16.005311878956487 1.6188607031347675 0.5483113636214809 154 203 77
14.359793206760063 -0.06936496837493904 0.7343255765202132 154 203 77
13.136439896710128 0.2384275197343551 0.8510938731113299 154 203 77
11.810679979522643 0.21666436081040813 1.1652989407166598 154 203 77
12.715757750423101 0.19849377031033322 1.1956614870951472 154 203 77
11.727993209803413 -0.34771277413934476 0.4302690923201184 154 203 77
13.59872131014823 0.33982698745922635 0.5406737421148632 154 203 77
13.59872131014823 0.33982698745922635 0.5406737421148632 154 203 77
14.824825222724668 0.17365804598902024 0.5473485313963359 154 203 77
11.270033691538961 -0.18321920632480318 0.3307934289196582 154 203 77
13.920891434239216 0.04380362739965007 0.5780673484033447 154 203 77
11.911324714792158 -0.5254860264063909 0.4626675734373261 154 203 77
14.170134562520754 -0.33751952052754997 0.6044957181416685 154 203 77
11.949876584305537 0.12745566528452443 0.22108102622059447 154 203 77
10.976406246474827 0.12745566528452443 0.24106015694151522 154 203 77
12.51063558584475 0.694772845410905 0.9119546657368619 154 203 77
11.955928270878175 0.42401930900014045 1.0777358608738938 154 203 77
11.424632040538947 0.30467551575289864 1.3358968858241211 154 203 77
13.031491810641496 0.5182233658139773 0.7359302313461958 154 203 77
12.63900281009405 0.706098155119432 1.1065564626433861 154 203 77
12.905825765455225 0.8874456899725292 1.2014542643252117 154 203 77
11.878900599323194 0.706098155119432 1.2576772936517988 154 203 77
12.088768966756417 0.7696849093248175 1.4331247005332854 154 203 77
12.142830217067539 0.27981633027363595 1.6814552533934541 154 203 77
18.921980526878755 1.9135441254204009 0.7643094961274863 154 203 77
13.296822874933154 0.297883203685236 0.6407925806288505 154 203 77
12.126598145501516 0.19849377031033322 1.3497276788912183 154 203 77
12.996148848482042 0.13799238179202705 0.8415920551645977 154 203 77
13.621738982832067 0.034685359202124455 0.782590639648581 154 203 77
12.499919874439012 0.2384275197343551 0.9112907591827984 154 203 77
14.359793206760063 -0.06936496837493904 0.7343255765202132 154 203 77
12.27452859530086 0.3547201638013825 0.3180229655197869 154 203 77
11.843453257363837 0.6949025297522136 0.17670589228914926 154 203 77
12.905825765455225 0.8874456899725292 1.2014542643252117 154 203 77
11.357192992347107 0.8314305090497222 1.6891448780269458 154 203 77
11.750278782676345 1.1483923050337572 0.1247068528278815 154 203 77
12.086282462593235 0.6347897300218364 1.0835221181312635 154 203 77
12.201070033471828 0.7696849093248175 1.7638595584924506 154 203 77
11.905260170974442 1.3194155941414984 0.20373667038993606 154 203 77
14.391891649535468 -0.4495837839179995 0.626455094371607 154 203 77
14.91896826524927 0.5810084966730671 0.5576160802826949 154 203 77
14.575866745953078 0.5182233658139773 0.6436914964645808 154 203 77
13.760002321515694 0.15380052063159322 0.6846529925258615 154 203 77
12.386789343529953 0.3575151263284856 1.5983268611619137 154 203 77
13.317891138429495 0.555130177584758 0.8629748368498357 154 203 77
