8.372223153955819 -0.2108093170620061 2.67603246842261 63 41 203
9.660107266662807 -0.4389140957771389 2.948818899295889 63 41 203
7.979610488210537 0.9229341964731932 2.786273922424411 63 41 203
7.661900485658822 -0.45244704440877437 2.5790388151586656 63 41 203
9.53766793670544 -0.8613164334326796 3.0326927790277507 63 41 203
7.7619018752194995 0.6268981956357967 2.8718217947467193 63 41 203
8.594119888181385 1.0630071589151884 2.9792863887641805 63 41 203
7.9479947552879615 0.07964758176994692 2.797153574542038 63 41 203
10.277337824808315 2.1970651871152747 2.745386204716846 63 41 203
10.632531946260935 2.0749644075910703 2.671912779555055 63 41 203
10.548607018590802 2.3731985058127036 2.6878382213831786 63 41 203
10.854231169533215 2.2632787567497403 2.467654222029721 63 41 203
8.79659852623123 3.0499970876005476 2.8729871422800892 63 41 203
9.764347612419627 3.0499970876005476 2.9001696951309697 63 41 203
9.605518424619977 -2.6058277967225654 2.980511201692924 63 41 203
9.924130120575688 -2.4863773058390426 2.8416900867848875 63 41 203
9.88748811843732 -1.686807173864736 2.853916379449078 63 41 203
9.653470055646457 -1.7505989804771784 2.9523735820356602 63 41 203
8.973629142417588 -2.4863773058390426 2.8087624372241558 63 41 203
9.024938775149401 -2.014580187647069 2.7926891358323727 63 41 203
9.519272395424265 -1.9623582162750592 3.0520895621518513 63 41 203
9.224909601867251 -2.2660980293599984 2.737290043897003 63 41 203
9.970549561567136 -2.014580187647069 2.8269835962767713 63 41 203
10.288150815848274 2.5542040975023697 2.7428812896552284 63 41 203
10.49134984899671 2.868024364343282 2.699160430253337 63 41 203
9.919568120511972 -2.5692263475141917 2.5963352294651676 63 41 203
9.143441369424165 -2.909310498323202 2.758648657384815 63 41 203
9.76199363420675 -1.4306399973807664 2.623559530678154 63 41 203
10.345843800017509 -1.1542478945883445 2.7298455496573446 63 41 203
10.231613812189558 -1.3943111017942151 2.7562091568598555 63 41 203
10.29049409814722 -2.177894220686388 2.539540477558689 63 41 203
10.012234092178197 -2.0229269391267257 2.581264222013549 63 41 203
9.878328167608059 -2.3055583622030498 2.4300134072803132 63 41 203
10.025211583627936 -2.0923057500856412 2.413185316317777 63 41 203
9.550182865351475 -1.795851911688322 2.4708391313552527 63 41 203
10.399726177353669 -2.212621601611395 2.373679949911911 63 41 203
10.272239004165396 -1.6268544239904552 2.5421315832146236 63 41 203
9.865157454750856 -2.291352626046881 2.6054969427010866 63 41 203
10.294891730204984 -1.9073428269247525 2.7413298585400527 63 41 203
7.35601664782963 -2.7266100140365244 1.221307319864762 63 41 203
10.517112051463869 2.5985948258859475 2.5088627324315325 63 41 203
10.864470015885274 2.4721697295117178 2.4664751325959515 63 41 203
11.057082941285824 2.6714933663829297 2.445003364330163 63 41 203
7.343205992310427 -2.7266100140365244 1.9154666261686224 63 41 203
7.3825171743813485 -3.0346305927511383 1.6360194266593175 63 41 203
9.02755719128237 -2.7780787945468592 2.0902291012348715 63 41 203
9.81201262824626 -3.0346305927511383 2.2923262980556816 63 41 203
10.172233372663472 -2.817889066085093 2.556673737562308 63 41 203
9.230335407037657 -2.866305927941314 2.349222476907695 63 41 203
10.808886175154697 2.8049347524445754 2.472924217278689 63 41 203
10.649176377749912 2.9520253164731 2.4921409808174664 63 41 203
10.016409408264805 3.101512215160067 2.580600176131113 63 41 203
10.08739412618538 2.9175146646273693 2.569498587865665 63 41 203
9.21623870928269 -2.994951444813945 2.5179178907399637 63 41 203
9.827944506045405 -3.0178792942140285 2.4359794608639724 63 41 203
10.552350065616432 3.1159479910732752 2.2321580479010934 63 41 203
9.932666685105758 -2.5234481776316096 2.423692079246302 63 41 203
9.50758499798359 0.30626214799105045 3.0670317308789423 63 41 203
10.905161498120536 2.5025470692113445 2.624824227696582 63 41 203
10.495946694521603 2.138482915574839 2.5116178297278133 63 41 203
8.188728948054848 -0.36498888542898156 2.484013865271676 63 41 203
9.224909601867251 -2.2660980293599984 2.737290043897003 63 41 203
9.738527680439699 -2.208854048172519 2.9111841183655685 63 41 203
9.112057007016631 3.077455335302398 2.7672916528880727 63 41 203
10.423116560368099 3.092258081001754 2.7131865000102335 63 41 203
10.151910944600234 -2.2660980293599984 2.7760488748852574 63 41 203
10.653425950231547 2.6685239402492242 2.668063322104614 63 41 203
11.216433741350722 2.5542040975023697 2.777500909136982 63 41 203
10.637284558557894 -1.7505989804771784 2.970056832341738 63 41 203
9.881653831564112 -1.2341182762697909 2.6026937614659276 63 41 203
9.736660845072539 -2.1381605251146474 2.1687366884246875 63 41 203
10.245524333798334 -2.42245631446958 2.5459580126896806 63 41 203
9.744021602075835 -1.6385334982803177 2.62680486022433 63 41 203
10.214468095266417 -1.656344664597129 2.760368280461635 63 41 203
9.57454407998621 -2.1214132006022974 2.659019994341143 63 41 203
10.29049409814722 -2.177894220686388 2.539540477558689 63 41 203
9.186001709987561 -2.6021459320119003 2.2101627927102303 63 41 203
7.8782847866818475 -2.3146611772971597 1.631909753357321 63 41 203
10.540021637899171 2.9774078462934934 2.3599919765691713 63 41 203
10.35523078711364 -2.409377412374136 2.3781401218741647 63 41 203
11.257952451259072 2.9968377975127054 2.2976517564416223 63 41 203
6.9280586686719765 -2.7266100140365244 1.640304543559406 63 41 203
9.47481023046844 -2.7266100140365244 2.3240860565439383 63 41 203
6.69953994618894 -2.5234481776316096 1.7937234235229647 63 41 203
11.3879825251665 2.553912774103298 2.4109524364213777 63 41 203
10.277337824808315 2.1970651871152747 2.745386204716846 63 41 203
9.552589038764552 -2.9617042120645323 2.6634256283623032 63 41 203
8.524497505226352 -0.45244704440877437 2.6416462359032225 63 41 203
9.792375073515514 -0.8175059161535432 2.888807414560531 63 41 203
9.686325129815799 -2.7498587866736717 2.637435071378117 63 41 203
8.573700130040836 1.832252681590651 2.9945425376013493 63 41 203
10.961703727372106 2.3806896110769027 2.8444002881433157 63 41 203
11.194392818361635 3.1159479910732752 2.30271227286109 63 41 203
10.255856038382312 2.747618139028891 2.5444732502690894 63 41 203
9.283073696415086 -2.6485294784490208 2.7228883402567896 63 41 203
9.793641890182695 -2.815372497447651 2.8883071421779407 63 41 203
9.67161035442575 -1.2093999587960635 2.9428179695795045 63 41 203
9.764347612419627 3.0499970876005476 2.9001696951309697 63 41 203
9.955675055415012 -2.0263346265036186 2.2797006997668494 63 41 203
9.302823691333526 -2.0923057500856412 2.3415671274220173 63 41 203
9.8282955922758 -1.840801083108946 2.61184356699545 63 41 203
6.55432362350521 -2.5234481776316096 1.4915548871412239 63 41 203
10.581960815529563 3.10784406344961 2.500552704108637 63 41 203
10.394578825758398 -2.659472876592061 2.5251190709883717 63 41 203
9.957983249176735 -2.866305927941314 2.4207859256796054 63 41 203
9.522553237790182 3.092258081001754 2.669547636354716 63 41 203
9.905199847797709 -1.3330370627412642 2.847933500068866 63 41 203
9.321276217845336 -2.902367258354905 2.199414667069431 63 41 203
9.657560043298451 -2.409377412374136 2.306485182166285 63 41 203
9.705254550987508 -2.212621601611395 2.3020455926931334 63 41 203
9.739375238129 -1.9528111395189256 2.4467219137912783 63 41 203
9.57454407998621 -2.1214132006022974 2.659019994341143 63 41 203
8.829104303873063 -2.815372497447651 2.8599215169863514 63 41 203
9.739375238129 -1.9528111395189256 2.4467219137912783 63 41 203
9.526195170688558 -2.4440439797668025 2.6687993574432425 63 41 203
7.983956275372588 -0.28592109259868953 2.7848099212861643 63 41 203
