11.219043324051041 1.5253236135322048 1.2216649515638442 91 55 182
11.972343600256936 1.7019225767527035 1.3314865941058631 91 55 182
12.733296907060616 2.2388316615812176 1.264634589613241 91 55 182
13.49812789257709 2.190946667329244 1.2824960101038818 91 55 182
14.054545548341022 2.017311961503066 1.1424473599703806 91 55 182
13.297877663254235 2.125200234595776 1.1984471439575213 91 55 182
12.468407714847633 2.2388316615812176 1.3411823963851335 91 55 182
13.095925818029434 2.017311961503066 1.3523679545755658 91 55 182
12.387096104408126 2.3555775263437657 1.3396478252223962 91 55 182
12.937676758756512 2.5403212819801513 1.1026564901726195 91 55 182
13.242448371439453 2.6575577578880356 1.1142596141172734 91 55 182
13.067915947670807 2.4723401351673084 1.1915648435234427 91 55 182
12.833034703083753 2.6575577578880356 1.1842600557341316 91 55 182
11.8013920725552 2.7349038079575574 1.3279507627349312 91 55 182
11.889344068324622 2.5403212819801513 1.3297829779609598 91 55 182
10.635917024450926 1.431250147822352 1.5860443485795614 91 55 182
23.306893650606096 1.4693505416585773 2.4642832591242 91 55 182
23.26484165168209 1.5378300016226212 2.4665339697965294 91 55 182
22.653702801017623 1.5353956658200247 2.500981720996423 91 55 182
22.00553660104119 1.339591973794283 2.6276003380125452 91 55 182
21.9154102525356 1.431250147822352 2.6349317029615844 91 55 182
23.504744754622777 1.4619105302751052 2.523951743499475 91 55 182
23.504744754622777 1.4619105302751052 2.523951743499475 91 55 182
12.039091280193185 0.1180635583404963 2.757557993832174 91 55 182
11.182279468897748 -0.7743000157560826 3.081612054084576 91 55 182
11.185078479900813 0.8368962822952587 3.0775802876797296 91 55 182
11.44378622861218 -0.18684517233530365 2.919285563642473 91 55 182
11.446521293702377 0.21110968238441435 2.918230955833676 91 55 182
11.185078479900813 0.8368962822952587 3.0775802876797296 91 55 182
11.446521293702377 0.21110968238441435 2.918230955833676 91 55 182
11.268574339264216 -1.2554004383020818 3.0040613139500927 91 55 182
11.44378622861218 -0.18684517233530365 2.919285563642473 91 55 182
11.446521293702377 0.21110968238441435 2.918230955833676 91 55 182
22.350546769066902 1.4168289234066458 2.695381062866141 91 55 182
23.341587697913358 1.316322288534328 2.7060220409749376 91 55 182
23.011440991013508 1.2517159413196897 2.6386754806366177 91 55 182
23.011440991013508 1.2517159413196897 2.6386754806366177 91 55 182
22.794945653746467 1.431250147822352 2.656221380972484 91 55 182
22.350546769066902 1.4168289234066458 2.695381062866141 91 55 182
22.306691962579887 1.5205603752369161 2.699508473114579 91 55 182
11.830414844128489 1.7019225767527035 1.7545930962632306 91 55 182
12.521423577791115 1.9444256596855864 1.4234893484683644 91 55 182
13.043443957736189 1.8446941102438874 1.5065183025836855 91 55 182
11.804727831709204 1.7860141685272206 1.584534509822767 91 55 182
12.112700171234387 1.867130267176759 1.6668905851641782 91 55 182
13.372422269596816 1.917023825946141 1.6578140981747918 91 55 182
11.601414100301913 1.6159281794883666 1.6711395230696793 91 55 182
13.248315399681825 2.0854506752823694 1.5830374650391132 91 55 182
13.422613105132383 2.0854506752823694 1.7325853912620848 91 55 182
13.170015867614014 2.017311961503066 1.813269069496348 91 55 182
12.522243122053391 2.125200234595776 1.4234990596168695 91 55 182
13.321780749830523 2.190946667329244 1.810452301127565 91 55 182
13.248315399681825 2.0854506752823694 1.5830374650391132 91 55 182
13.273790721159276 2.0854506752823694 1.5076352502962944 91 55 182
13.321780749830523 2.190946667329244 1.810452301127565 91 55 182
14.125595521165232 2.148720626748541 1.7965705807304138 91 55 182
12.942056246424585 2.190946667329244 1.5833271527462716 91 55 182
12.78576469522995 2.3002748030443025 1.5834803361242922 91 55 182
13.885792170801656 2.0854506752823694 1.875219689264072 91 55 182
11.575804400576114 2.4177583943802867 1.7586834278574854 91 55 182
11.519630386394667 2.4177583943802867 1.4105727362744214 91 55 182
11.402904237932539 2.4177583943802867 1.4972549500083625 91 55 182
11.54684046984037 2.5403212819801513 1.5848413586288401 91 55 182
12.277762405109756 2.4723401351673084 1.4205439553216472 91 55 182
12.196904964791498 2.3555775263437657 1.4195402406806406 91 55 182
11.74641249388801 2.5403212819801513 1.7559226537446246 91 55 182
12.41155709219476 2.5860191744427903 1.503240967387038 91 55 182
11.192005265353554 2.4876057920302737 1.8572355469527784 91 55 182
11.74641249388801 2.5403212819801513 1.7559226537446246 91 55 182
12.378772326876328 2.4876057920302737 2.091858252973836 91 55 182
12.273014630366632 2.5403212819801513 1.916790254123582 91 55 182
11.912584249453461 2.4876057920302737 2.0189891729715166 91 55 182
11.277815013374648 2.8054865860633997 2.9982626835793984 91 55 182
11.277815013374648 2.8054865860633997 2.9982626835793984 91 55 182
11.277815013374648 2.8054865860633997 2.9982626835793984 91 55 182
11.53713413075628 -2.6140392457164925 2.885943735218459 91 55 182
11.360629318566922 -2.3736158138582986 2.9544023446005276 91 55 182
11.184137854913596 -2.4087857070703795 3.0789060666795045 91 55 182
11.275039024096124 -2.842635093422119 2.999978870357324 91 55 182
11.452862979712524 -2.957758887938421 2.915806228171775 91 55 182
11.360629318566922 -2.3736158138582986 2.9544023446005276 91 55 182
11.360629318566922 -2.3736158138582986 2.9544023446005276 91 55 182
13.065249905331195 2.8149972522543303 2.767608665620341 91 55 182
13.065249905331195 2.8149972522543303 2.767608665620341 91 55 182
13.065249905331195 2.8149972522543303 2.767608665620341 91 55 182
12.986075181044834 3.0246046847186556 2.7834649685660113 91 55 182
13.533863503981319 2.42649358694993 2.314449479826474 91 55 182
13.533863503981319 2.42649358694993 2.314449479826474 91 55 182
14.55168500566221 2.5074563718973844 2.4450589625925327 91 55 182
13.69844387460952 2.5342965435590488 2.523265878779819 91 55 182
13.251633829405636 2.454313634980183 2.5723772146221706 91 55 182
13.69844387460952 2.5342965435590488 2.523265878779819 91 55 182
13.080628993415775 2.5074563718973844 2.3468074162023163 91 55 182
14.201722783627563 2.5993338575354263 2.475064624164434 91 55 182
13.281025195613578 2.438111035532029 2.4420932832872104 91 55 182
14.52486507359499 2.5342965435590488 2.5631854601314044 91 55 182
14.244616489226075 2.6452632649812404 2.594053520756858 91 55 182
14.244616489226075 2.6452632649812404 2.594053520756858 91 55 182
13.36711315299335 3.045651173552688 2.713737226737474 91 55 182
13.36711315299335 3.045651173552688 2.713737226737474 91 55 182
13.36711315299335 3.045651173552688 2.713737226737474 91 55 182
23.363185047997625 1.7860141685272206 2.6119525311259992 91 55 182
23.363185047997625 1.7860141685272206 2.6119525311259992 91 55 182
22.88614884828751 1.805736971812258 2.648719387565314 91 55 182
15.435152934463822 -0.385421850468667 1.9118098803447376 91 55 182
16.17113726518922 -0.44743992690397966 1.9617386449866245 91 55 182
15.480015937059232 -0.3201221223250715 1.9802111850385222 91 55 182
14.472335465063615 -0.8349606962426779 1.7910709195970909 91 55 182
14.60915647015628 -0.9341553602991962 1.7889744180678595 91 55 182
14.427014275003067 -0.8900121328887116 1.936720894604795 91 55 182
15.25737272703814 -0.8900121328887116 2.059434165604863 91 55 182
14.31060302806981 -0.9929168755590865 1.8659064502287772 91 55 182
15.452067223771008 -0.9929168755590865 2.052747394228313 91 55 182
15.003851488381356 -0.31965560895353873 2.314888391354997 91 55 182
16.395182537254165 -0.9504471166058326 2.239318058035354 91 55 182
16.29220992291691 -0.8900121328887116 2.168039603749162 91 55 182
7.931518965819467 -2.002716903268398 2.2794900676413237 91 55 182
7.931518965819467 -2.002716903268398 2.2794900676413237 91 55 182
13.348368147868015 2.017311961503066 1.2791671262345952 91 55 182
13.547872101127508 2.0854506752823694 1.3597666827806056 91 55 182
13.815756069938956 2.190946667329244 1.2130463435580165 91 55 182
11.972343600256936 1.7019225767527035 1.3314865941058631 91 55 182
13.34074554022071 2.7349038079575574 1.0326417477985808 91 55 182
23.39165932984412 1.4018112478122067 2.459789875151789 91 55 182
23.463047359990266 1.5353956658200247 2.5264579520035264 91 55 182
21.870682933418465 1.5253236135322048 2.638628969829433 91 55 182
21.9154102525356 1.431250147822352 2.6349317029615844 91 55 182
21.870682933418465 1.5253236135322048 2.638628969829433 91 55 182
22.140507574637585 1.2517159413196897 2.6169044516506053 91 55 182
23.504744754622777 1.4619105302751052 2.523951743499475 91 55 182
11.269507916646269 -0.3068470906214472 3.0034640623392828 91 55 182
12.039091280193185 0.1180635583404963 2.757557993832174 91 55 182
11.182279468897748 -0.7743000157560826 3.081612054084576 91 55 182
11.268574339264216 -1.2554004383020818 3.0040613139500927 91 55 182
11.27228526805284 0.3448282591533364 3.00170282200889 91 55 182
11.185078479900813 0.8368962822952587 3.0775802876797296 91 55 182
22.438925451970015 1.316322288534328 2.6872175455280987 91 55 182
22.350546769066902 1.4168289234066458 2.695381062866141 91 55 182
23.256639518566722 1.4168289234066458 2.7139381690229496 91 55 182
22.306691962579887 1.5205603752369161 2.699508473114579 91 55 182
22.881607940004475 1.339591973794283 2.649089013994504 91 55 182
12.785784899342996 2.017311961503066 1.58348031607993 91 55 182
12.170039958204613 2.2388316615812176 1.5018982117598119 91 55 182
13.956887182224637 1.917023825946141 1.873619640077385 91 55 182
13.956887182224637 1.917023825946141 1.873619640077385 91 55 182
13.170015867614014 2.017311961503066 1.813269069496348 91 55 182
13.29820295189388 2.0854506752823694 1.658300997655771 91 55 182
23.165022052328265 1.8446941102438874 2.5449074821603053 91 55 182
11.915709923114187 2.6575577578880356 1.5004252371775189 91 55 182
11.072093712358459 2.6152822274110408 1.6759539520310764 91 55 182
11.431312553687125 2.4177583943802867 1.6726378067530165 91 55 182
10.978283845802405 2.5658121382249326 1.9596496572139657 91 55 182
12.027460336724848 2.6575577578880356 1.4173925687773714 91 55 182
12.086721289930864 2.3555775263437657 1.501422508365044 91 55 182
12.753791187391206 2.7313391606433366 2.835811756658771 91 55 182
13.065249905331195 2.8149972522543303 2.767608665620341 91 55 182
12.753791187391206 2.7313391606433366 2.835811756658771 91 55 182
11.452862979712524 -2.957758887938421 2.915806228171775 91 55 182
12.986075181044834 3.0246046847186556 2.7834649685660113 91 55 182
11.186936400941924 2.3461951444325813 3.075039686738769 91 55 182
13.00476435415953 2.3553884489458303 2.352548720390411 91 55 182
13.799536067698142 2.5074563718973844 2.3985505883538356 91 55 182
14.229891150838435 2.42649358694993 2.366194704228915 91 55 182
13.36711315299335 3.045651173552688 2.713737226737474 91 55 182
15.817121723919273 -0.44743992690397966 1.9032528027083506 91 55 182
15.528573679808215 -0.2118315342670627 2.2842083272606044 91 55 182
14.60915647015628 -0.9341553602991962 1.7889744180678595 91 55 182
15.79486212695671 -0.9504471166058326 2.189614427201712 91 55 182
12.967570750421547 2.125200234595776 1.270340190118544 91 55 182
11.889344068324622 2.5403212819801513 1.3297829779609598 91 55 182
12.731644357100992 2.4723401351673084 1.2645935599264055 91 55 182
12.653687568433579 2.3555775263437657 1.2626452494429525 91 55 182
12.49044116558196 2.6575577578880356 1.258482521852624 91 55 182
12.46672005204312 2.4723401351673084 1.3411507545990657 91 55 182
11.683735629169538 1.4432146693606036 1.6704301655107239 91 55 182
23.39165932984412 1.4018112478122067 2.459789875151789 91 55 182
23.26484165168209 1.5378300016226212 2.4665339697965294 91 55 182
22.881607940004475 1.339591973794283 2.649089013994504 91 55 182
13.935856916862011 2.148720626748541 1.726577230184668 91 55 182
13.447998174281233 1.917023825946141 1.4337053719439556 91 55 182
12.993119744923854 2.190946667329244 1.6603610872581216 91 55 182
12.812159771930576 2.3002748030443025 1.5053563159086518 91 55 182
12.112700171234387 1.867130267176759 1.6668905851641782 91 55 182
11.431312553687125 2.4177583943802867 1.6726378067530165 91 55 182
11.604045228120057 2.5403212819801513 1.6711166943791307 91 55 182
11.042761318376067 2.6152822274110408 1.494851961239833 91 55 182
11.277815013374648 2.8054865860633997 2.9982626835793984 91 55 182
11.275039024096124 -2.842635093422119 2.999978870357324 91 55 182
11.452862979712524 -2.957758887938421 2.915806228171775 91 55 182
14.201722783627563 2.5993338575354263 2.475064624164434 91 55 182
14.201722783627563 2.5993338575354263 2.475064624164434 91 55 182
14.244616489226075 2.6452632649812404 2.594053520756858 91 55 182
23.363185047997625 1.7860141685272206 2.6119525311259992 91 55 182
22.88614884828751 1.805736971812258 2.648719387565314 91 55 182
15.109816431422828 -0.3201221223250715 1.9194613797046058 91 55 182
15.352102355928443 -0.3712360486169623 2.2103063071326767 91 55 182
15.09137678371035 -0.29344815933399826 2.2232185972836644 91 55 182
15.168260757586353 -0.9341553602991962 1.918061082541714 91 55 182
14.201891683761875 -2.408777955489272 1.6527200196010654 91 55 182
7.672511170925379 -1.8420317946822231 2.3088017937523846 91 55 182
14.15150927141006 -2.3088093409837094 1.5822561616917463 91 55 182
12.00221657022245 2.4177583943802867 1.2453200768160322 91 55 182
10.54344803127441 1.5253236135322048 1.5861780885044945 91 55 182
23.504744754622777 1.4619105302751052 2.523951743499475 91 55 182
23.463047359990266 1.5353956658200247 2.5264579520035264 91 55 182
11.185078479900813 0.8368962822952587 3.0775802876797296 91 55 182
11.703900387904998 0.15153699936514578 2.836149300080204 91 55 182
13.742752373290733 1.9857717229390062 1.6554635062532013 91 55 182
13.070888961543229 2.190946667329244 1.4297240807488032 91 55 182
11.945832643231903 1.7860141685272206 1.4163359503123598 91 55 182
11.691058258144057 2.5403212819801513 1.4129419820049673 91 55 182
11.51457001715714 2.4876057920302737 1.9406402303470447 91 55 182
13.281025195613578 2.438111035532029 2.4420932832872104 91 55 182
12.986075181044834 3.0246046847186556 2.7834649685660113 91 55 182
14.15150927141006 -2.3088093409837094 1.5822561616917463 91 55 182
12.35920316290815 2.293324855548118 1.1686053856811585 91 55 182
14.060937773378958 2.438111035532029 2.4878981866596037 91 55 182
11.186936400941924 2.3461951444325813 3.075039686738769 91 55 182
13.400923778039292 2.6452632649812404 2.555196593206143 91 55 182
11.270418496076495 -1.9115528753708904 3.002884079946308 91 55 182
11.712917607644135 2.42649358694993 2.124804844971294 91 55 182
22.946352995857453 1.6915644530008063 2.5590848110163598 91 55 182
14.589380693256839 -0.8404730222658209 2.083937970211637 91 55 182
23.011440991013508 1.2517159413196897 2.6386754806366177 91 55 182
11.661290362701642 1.7019225767527035 1.4988872964639295 91 55 182
11.53713413075628 -2.6140392457164925 2.885943735218459 91 55 182
23.034250177674018 1.7693059297795355 2.5533174125168507 91 55 182
12.96432516530932 2.5860191744427903 1.2702626225229423 91 55 182
11.27228526805284 0.3448282591533364 3.00170282200889 91 55 182
11.44378622861218 -0.18684517233530365 2.919285563642473 91 55 182
11.712917607644135 2.42649358694993 2.124804844971294 91 55 182
23.363185047997625 1.7860141685272206 2.6119525311259992 91 55 182
14.31060302806981 -0.9929168755590865 1.8659064502287772 91 55 182
8.37805278619604 -1.8420317946822231 2.3972205273899987 91 55 182
