9.901842246223811 0.4284145842726257 1.5947396691531774 191 17 151
9.530047709679874 0.3327912195291609 1.5956739568466447 191 17 151
9.075927958513038 0.12290990476920145 1.596919001143907 191 17 151
9.037348985960463 0.012474967562706746 1.4862750142097865 191 17 151
9.280248797025681 0.23042297913499651 1.4884923387368723 191 17 151
11.435214599820696 1.0685766128760845 1.1411876278087496 191 17 151
12.347943070509373 1.0349713657594968 1.2611285740239742 191 17 151
12.62271746289967 1.156753001392993 0.9084135538413175 191 17 151
12.033582892968424 1.156753001392993 0.9739879114258806 191 17 151
11.873501166453403 1.1937513525743915 1.1580350068573186 191 17 151
11.075547756283585 0.8847351576296847 0.7941266548601712 191 17 151
11.016648751584865 0.9576444519274134 0.9098254465211028 191 17 151
11.983650695451038 1.4476133742807245 0.7506564811790941 191 17 151
12.108536555054627 1.3285688316273134 0.7616485541419071 191 17 151
11.941486945773296 1.570255575372924 0.7468636262560848 191 17 151
12.020696125495823 1.2820011157292326 1.070804788235302 191 17 151
11.682447873305069 1.4717980864541045 1.0549181087966009 191 17 151
10.827620734175259 1.6796245867748392 1.009546974487899 191 17 151
11.738753925669975 1.2523143974319626 0.9568216925259119 191 17 151
12.012771354049079 1.4610167069162772 0.8681704329413564 191 17 151
11.405734461175403 1.3285688316273134 0.8221915397924521 191 17 151
10.789766308195931 1.5703625242293169 1.2145584564189327 191 17 151
12.012040982932168 1.6796245867748392 0.8681189444076025 191 17 151
11.35616497417813 1.3751205340248744 1.1379961501505003 191 17 151
11.22823367987254 1.570255575372924 0.8074034877040188 191 17 151
9.908865371506566 1.6796245867748392 1.1812650718547293 191 17 151
11.405734461175403 1.3285688316273134 0.8221915397924521 191 17 151
12.12060610598769 1.4305064135598113 0.6343066610550601 191 17 151
11.627727346916187 0.9154525481273431 1.418594232894693 191 17 151
11.94265731532762 1.2249264168883907 1.422637867993513 191 17 151
11.221776692541619 1.1937513525743915 1.322026027387603 191 17 151
12.189506940535306 1.147655375721907 1.5902454722069268 191 17 151
10.93935056726232 0.9881693496801057 1.500996999978965 191 17 151
14.169493258059957 1.0464964798795626 1.7293383219794631 191 17 151
12.609775681375478 1.147655375721907 1.8304133199125268 191 17 151
9.031256017899313 0.4745950654937743 1.4862178552997898 191 17 151
8.622001782678693 0.3708390017014741 1.4821929330662311 191 17 151
10.146978293511747 0.6521630834439914 1.693014548737831 191 17 151
9.083602118561918 0.4745950654937743 1.7074069678026575 191 17 151
10.189830555618675 1.6689353641984108 1.4958535608981094 191 17 151
10.14107589295781 1.5703625242293169 1.4954925819605478 191 17 151
10.26485748429953 1.5703625242293169 1.398195462118454 191 17 151
10.695495300195791 1.2820011157292326 1.4052105842090339 191 17 151
11.51112510128042 1.3923402433624374 1.7663798851538457 191 17 151
7.949856150658729 0.3382762962211734 0.9283913656730445 191 17 151
8.516746724524129 -0.12605784714542873 0.9773227536619334 191 17 151
8.369712071596753 -0.14677293300459246 0.8113129057180293 191 17 151
8.77987989353569 -0.21814558336002868 0.48607392974441943 191 17 151
7.893131871117725 -0.3045975441706003 0.9230028722117637 191 17 151
8.93653290849333 -0.44050631492863135 0.5182757517056927 191 17 151
8.028601179788325 0.15749037811657246 1.0829870771076404 191 17 151
8.396512442799594 0.1831771235021248 0.8143391202440906 191 17 151
8.986673606284823 0.48540895892997094 0.527977180897238 191 17 151
8.48637299403157 0.21871642005682387 0.6486210955851976 191 17 151
7.664911726530868 0.018706682441821307 0.9002741284013556 191 17 151
8.413908489727016 0.022443588663120746 0.6371727660674861 191 17 151
9.199834232433552 -0.6247637893637844 0.5664469984309847 191 17 151
8.809241688180453 -0.4482721733854302 0.8576819168443727 191 17 151
8.949057700620578 -0.3910348851141793 1.0095661828608855 191 17 151
9.267964932615376 -0.6604656902651005 0.7528965857348404 191 17 151
9.267964932615376 -0.6604656902651005 0.7528965857348404 191 17 151
8.371231536064583 -0.2872829889456316 0.38356765261666964 191 17 151
8.01831743174465 0.055986134201139195 0.2530606116177644 191 17 151
7.828450735727349 0.11138173126087189 0.12946085301059235 191 17 151
8.398027058247562 0.35458839986870755 0.39139821510486444 191 17 151
8.587871039517664 0.6127925431513109 0.44189648697181 191 17 151
8.045197850137434 1.568719596348104 0.2656733861164053 191 17 151
8.359283878608752 -0.9128622755145487 0.6282907016444604 191 17 151
8.81068535301007 -0.7655906732046708 0.4926505124008265 191 17 151
8.27136340672495 0.13808138662144834 1.356010982569226 191 17 151
8.11723929053829 0.13808138662144834 1.4766673708982445 191 17 151
10.574265918880604 1.858794115108418 1.498582997351911 191 17 151
11.015089882290557 1.947091079260226 1.4100573831050116 191 17 151
10.902607831876733 1.858794115108418 1.3145822366960072 191 17 151
10.457043183613612 1.765637174339399 1.4013986142290884 191 17 151
9.104852948530725 0.12290990476920145 1.4869031404590463 191 17 151
11.286028528926641 1.5701795453105738 0.6817972424655994 191 17 151
12.681977547327236 1.4610167069162772 0.8079582751808415 191 17 151
8.538605152175295 0.4181378308451478 1.1144211024621535 191 17 151
11.272287170548575 1.692913964200494 0.8111366296162094 191 17 151
10.78175052009886 1.570314918155848 1.0068699947120863 191 17 151
12.246991608729076 1.1112535546436366 1.1713515446154885 191 17 151
10.836412252216604 1.4717980864541045 1.2161597645602213 191 17 151
10.98060440991771 1.2161103881952247 0.9072701942418018 191 17 151
13.0389883138654 1.0754035165845672 1.8216800369861155 191 17 151
11.257048842656873 0.9881693496801057 1.3228219168127575 191 17 151
10.458721059575124 1.3751205340248744 1.4014260533344076 191 17 151
10.190691526154646 1.4717980864541045 1.495859904389792 191 17 151
11.308637753473244 1.1112535546436366 1.5032798479542946 191 17 151
11.419770870973306 1.1112535546436366 1.4158003956020795 191 17 151
10.313877674642555 1.4717980864541045 1.399023990899269 191 17 151
10.903050688902182 1.1937513525743915 1.5007642348064343 191 17 151
8.805431959056198 0.27094814987278243 0.49153793777125887 191 17 151
8.323265626048492 0.018706682441821307 0.8060011516191462 191 17 151
7.74438779348235 0.1831771235021248 0.9083872770677501 191 17 151
9.238684351538069 -0.3045975441706003 0.7495080913173016 191 17 151
8.586389912088572 0.3382762962211734 0.8350084571505741 191 17 151
7.951966196090781 0.016036468887440217 1.0778667993902842 191 17 151
9.42710952196347 -0.3606997999318975 0.6032965831492084 191 17 151
9.493609325595108 -0.4482721733854302 0.7779303238637213 191 17 151
8.89493364295183 -0.5233560592739818 0.7070004819173982 191 17 151
8.291125103197764 0.8116141117132815 0.3588678324085519 191 17 151
7.140882722065819 0.5066359658834432 0.3268034992243137 191 17 151
8.06651993835583 -0.4169013018393473 0.2752202318805795 191 17 151
10.899831476160069 1.947091079260226 1.5007435172694925 191 17 151
9.607077101935042 0.3327912195291609 1.6999203904653155 191 17 151
9.3311982039927 0.23042297913499651 1.7037602974574724 191 17 151
9.251872179642703 0.23042297913499651 1.5964221125581957 191 17 151
12.595007127195851 1.1122681279328552 0.8013368609232926 191 17 151
12.137357583888356 1.3542802508254386 0.8768307951010991 191 17 151
12.108536555054627 1.3285688316273134 0.7616485541419071 191 17 151
10.78175052009886 1.570314918155848 1.0068699947120863 191 17 151
12.3087736536188 1.1937513525743915 1.0835463282627849 191 17 151
10.313026988157745 1.6689353641984108 1.3990096809469896 191 17 151
10.861831002823351 0.8585602524021482 1.4077692163773168 191 17 151
13.324784000871404 1.008376699142846 1.7394823727165654 191 17 151
10.337261111907264 1.3751205340248744 1.4969243612054677 191 17 151
9.500651392137307 0.5683844929626998 1.5957509476012557 191 17 151
7.9062830357910965 0.8363519796871249 0.19071124321792546 191 17 151
8.735614544222992 0.0280456940311425 0.4763945539690415 191 17 151
8.678150969496006 -0.2632434210974438 0.9898172215120923 191 17 151
8.324793568055018 0.0373730026342522 0.3694991530212088 191 17 151
10.902607831876733 1.858794115108418 1.3145822366960072 191 17 151
12.313627857768168 1.2161103881952247 0.7789584828178236 191 17 151
11.970710174845603 1.570314918155848 0.8651913364022872 191 17 151
11.574595303303708 1.2820011157292326 1.1466976904019552 191 17 151
11.886547516003224 1.0685766128760845 1.0646290216052354 191 17 151
11.616240598910665 1.1112535546436366 1.3306431281176505 191 17 151
8.767256905484437 0.3708390017014741 1.3683337484202507 191 17 151
8.459857300993459 -0.17555141513386777 0.6444749587844489 191 17 151
7.86248282202221 -0.3606997999318975 0.748123208030801 191 17 151
8.535387917960975 -0.5609708683221905 0.42871546382177367 191 17 151
7.6113440336019815 0.15749037811657246 1.1993077906451928 191 17 151
8.196998358288267 0.014033290655636473 1.3540314440352996 191 17 151
10.058669864158576 1.786393835305991 1.1873711683913593 191 17 151
8.674283665764934 0.39940897950271054 0.6766833223815136 191 17 151
8.10764959543554 1.1269511798801544 0.29264789790883516 191 17 151
8.369712071596753 -0.14677293300459246 0.8113129057180293 191 17 151
10.148631536153168 0.4284145842726257 1.7930513862530562 191 17 151
11.982918549400392 1.692913964200494 0.7505909797285492 191 17 151
11.810519117591749 1.3751205340248744 1.0610570147360376 191 17 151
10.074077992315155 0.6521630834439914 1.5943302353997881 191 17 151
9.757592892840968 0.5683844929626998 1.8021173565128215 191 17 151
12.137357583888356 1.3542802508254386 0.8768307951010991 191 17 151
11.13846225158008 1.0180530236499277 1.0269970569906737 191 17 151
8.76848906469514 -0.7706094220878358 0.6899503333695325 191 17 151
