12.953455031033867 1.819958835293157 2.192906726882562 197 106 104
12.644614737092331 1.9096736588399918 2.115190486291449 197 106 104
12.489218008264912 1.9940646848489725 2.0311609678288898 197 106 104
12.573902190038158 1.6354545771418716 2.318384508614026 197 106 104
11.628167003780717 1.6291316497664454 2.068231140529812 197 106 104
11.916615553318143 1.6354545771418716 2.2568070944852447 197 106 104
12.181497261858285 1.845754014376881 2.239132793111137 197 106 104
11.861698638234353 1.6433121130781245 2.3755979842297723 197 106 104
13.10182307245763 2.169532608792926 2.2816455039718595 197 106 104
12.288105363832976 1.881413103438423 1.8637559347320949 197 106 104
11.291073798867558 1.7888618551856272 2.4296824010072813 197 106 104
12.500185843483584 2.2313698102015276 2.323865785169113 197 106 104
10.828924334168496 2.2480998212757064 1.8083804747734307 197 106 104
11.757178013558645 1.5347265888929695 1.877405779282769 197 106 104
11.846768559380102 2.382829887109282 2.058238852349706 197 106 104
11.477423776542537 2.5974103055762687 2.0753764546551707 197 106 104
11.50352729716302 2.636339164110678 2.286571626664906 197 106 104
13.01104068176935 -1.7502175385896344 0.7577119801310781 197 106 104
13.197458945149341 -1.8297658579386575 0.8758067414196563 197 106 104
14.12703220349807 -1.9587670079366213 0.738004695153631 197 106 104
14.12703220349807 -1.9587670079366213 0.738004695153631 197 106 104
6.160170654838922 -2.4508980353125103 1.82491909600247 197 106 104
12.996793028260646 1.2485843943288435 2.5177409580282015 197 106 104
13.576441018168207 1.2856441315509766 2.4606531325994645 197 106 104
13.859371343815075 -0.9537617393126704 2.7031801765304317 197 106 104
13.329548769319112 -1.0065023367042543 2.797599803560704 197 106 104
12.392722878955786 -1.0065023367042543 2.7703829969653935 197 106 104
13.079755047171655 -0.8610277774324007 2.855643991291979 197 106 104
12.624896265199794 -0.8400771233357418 2.725689181301595 197 106 104
12.786373722133261 1.653338659095108 2.5409828472386478 197 106 104
12.778880166686026 1.514726676461822 2.5418394030546847 197 106 104
12.60147549389964 1.6433121130781245 2.430639503807283 197 106 104
12.679999984243338 1.6848394372129825 2.7159569188638972 197 106 104
10.79239289779062 1.8350863362164305 2.928657514434672 197 106 104
10.624549313377354 1.246282629513108 3.0219869722090613 197 106 104
10.633561151370019 2.031114002927285 3.0151306180836013 197 106 104
11.179041498150143 2.0336757020419105 2.594721911862591 197 106 104
12.392370739595947 1.9337757398215414 2.770456004250725 197 106 104
11.32528213581075 2.252080827705141 2.769103878359058 197 106 104
13.574153806120437 2.13880696548903 2.460861125423859 197 106 104
13.090909386515843 1.9839847397296144 2.3882559405380244 197 106 104
15.22882341031965 2.819437567040698 2.667420804793784 197 106 104
13.661003271859729 2.636339164110678 2.4530487532569083 197 106 104
13.996930271745779 2.8594830866271916 2.541147408513239 197 106 104
13.263817024335621 2.5411441159441406 2.374457072844386 197 106 104
13.024706630056624 2.392689695152751 2.5147694463987382 197 106 104
12.686560387289148 2.304891268929714 2.422886593369398 197 106 104
14.188628500756126 2.7426973682344356 2.5216928479033713 197 106 104
14.227320574278265 2.9613976943235905 2.6509079693909423 197 106 104
13.874831001917018 2.9847048595324863 2.554121395284102 197 106 104
10.567379100778489 2.8153697449314112 3.082038544102773 197 106 104
14.308460213119076 -2.1702824136510865 2.8142418832319684 197 106 104
13.905713098601359 -1.1057223406906795 2.9144871831357206 197 106 104
13.507972584397685 -1.2861059192203395 2.762445511406766 197 106 104
13.507972584397685 -1.2861059192203395 2.762445511406766 197 106 104
15.402422775705771 -1.8918541725325864 2.8070744706534008 197 106 104
14.669870608511324 3.1150630060756384 2.597123884773231 197 106 104
13.824174971093282 3.1150630060756384 2.5596471445518545 197 106 104
14.523209298152736 -2.3287945842939486 2.773168615543624 197 106 104
13.762951452178841 -2.999863561238358 2.7183694654419446 197 106 104
14.7686492616535 -2.830627865122691 2.7322742327960357 197 106 104
20.108407825480015 -1.7816689180290612 1.0242374502250875 197 106 104
13.906166410306367 -1.8576855827880223 0.7203686004968938 197 106 104
12.790638083906451 1.7259646750361715 2.2020651679483327 197 106 104
12.156849584099906 1.9096736588399918 2.044765271314596 197 106 104
5.979391475611342 -2.4508980353125103 1.4952393538223436 197 106 104
13.429985005815935 -1.922513346292045 0.8901570510666926 197 106 104
11.758045785377812 2.312317599681135 2.161505448095241 197 106 104
12.978683321861501 2.312317599681135 2.2898436245664064 197 106 104
12.960898271597536 -0.9537617393126704 2.670421756642114 197 106 104
13.545674429356339 -0.8400771233357418 2.755519846179501 197 106 104
12.852250150009926 1.877320421123103 2.4082708981524377 197 106 104
12.84944371040953 1.3782253148686954 2.533854689655131 197 106 104
11.869148419700842 1.8684708618718884 2.6653961783361617 197 106 104
12.679999984243338 1.6848394372129825 2.7159569188638972 197 106 104
13.400129970022945 2.0815550146561668 2.363962975181397 197 106 104
15.6878499836733 2.8594830866271916 2.61324137105211 197 106 104
14.447155444336602 2.636339164110678 2.497044855876407 197 106 104
14.82314028184181 2.7667612839774085 2.7238815965302954 197 106 104
14.786007433528118 2.5744058450152085 2.5842880765588307 197 106 104
14.188628500756126 2.7426973682344356 2.5216928479033713 197 106 104
14.533509353352791 2.6896973267122943 2.612823042921198 197 106 104
13.18591843753006 -1.2166965859431027 2.8294252657563805 197 106 104
11.56575942593622 2.8153697449314112 3.087184697753112 197 106 104
15.120772105350163 -1.968523426297646 2.8656281396007133 197 106 104
15.231334695871114 -3.0489711621356212 2.5390025192919268 197 106 104
14.3978952725369 3.118148155454032 2.5016105989738993 197 106 104
13.741250102351948 3.10558811397028 2.7218892868221447 197 106 104
14.177924002579712 3.1110431327208485 2.6574694710245983 197 106 104
13.543176219325682 1.7649468167472016 1.6853957329686486 197 106 104
12.660750014599643 1.742514086569317 2.3120435478632704 197 106 104
12.43303865465717 1.9433293759998107 2.2232576825084585 197 106 104
11.852559223608074 1.9433293759998107 2.1561676816842494 197 106 104
12.472388615775271 2.169532608792926 2.220849201126854 197 106 104
13.731572084214514 -2.0093645471890738 0.9078156234066993 197 106 104
13.826342076867828 -2.103326935782527 0.7137660521864343 197 106 104
10.428241631312355 2.4569029567953717 1.9180235170401383 197 106 104
11.266889703869529 2.4569029567953717 2.08572587789825 197 106 104
13.29994050537347 -0.6880432742898139 2.8038690315639774 197 106 104
14.717616157884406 2.9847048595324863 2.5917897990059795 197 106 104
11.864426203861795 2.1980020054706104 2.910358092504592 197 106 104
10.736116495617221 2.496201103787595 2.954441294778448 197 106 104
14.70790148575947 2.930078432791418 2.7419019153949704 197 106 104
11.626259622036152 2.031114002927285 3.0259791373775498 197 106 104
15.120772105350163 -1.968523426297646 2.8656281396007133 197 106 104
15.537895675062257 -2.066676374022092 2.782832970289088 197 106 104
14.578007568452017 -2.5946445242356666 2.763551291826924 197 106 104
13.921635236955973 -1.3517250471340994 0.9184328289765473 197 106 104
13.009022780991225 2.4569029567953717 2.2878038865915125 197 106 104
14.073147416722778 -2.1372650616705053 0.8344465347985576 197 106 104
12.697136421193603 1.531194411991522 2.207459352200641 197 106 104
13.15828214881687 2.3869900766225656 2.3828122174481283 197 106 104
12.065887351145625 1.7888618551856272 2.4838517151030475 197 106 104
14.70790148575947 2.930078432791418 2.7419019153949704 197 106 104
11.677931773979447 1.9672081248889466 2.5281409409793705 197 106 104
9.807491002987483 1.3892158872141738 2.911333665093481 197 106 104
15.331113877146743 -1.694326851582684 2.82072471058591 197 106 104
11.297653381913785 2.5411441159441406 2.189091113869699 197 106 104
13.484604460145633 2.4738301941198095 2.4691030429749548 197 106 104
10.670570542717407 3.0159499007588364 2.990277336236626 197 106 104
13.574153806120437 2.13880696548903 2.460861125423859 197 106 104
12.560351396164533 2.1242122096506697 2.737481821842772 197 106 104
14.690200201838936 -3.0368612141805342 2.5948427273484236 197 106 104
12.852250150009926 1.877320421123103 2.4082708981524377 197 106 104
