13.808420192533953 1.5305813358756906 1.0826292618242643 35 25 225
12.68128243783991 1.5305813358756906 1.2931165316741002 35 25 225
12.284538858719603 1.5305813358756906 1.4503332135670457 35 25 225
13.282456788713466 1.5336283177228531 1.6857678871049688 35 25 225
14.533143505822022 1.2177438760775896 2.0363160044028823 35 25 225
14.184585422390553 0.8448813095127435 2.5190750729486524 35 25 225
13.384878716429673 0.8448813095127435 2.4754985182177798 35 25 225
15.078314644731549 1.1880552931245616 2.683505699843138 35 25 225
14.18830811527447 1.1880552931245616 2.6523318108807175 35 25 225
15.266434979144185 -1.192502762950929 1.341075286999625 35 25 225
14.641029779118744 -1.2337538517648217 1.1874403163504348 35 25 225
15.904117715972752 -1.2565220190994715 1.151403116787872 35 25 225
15.264593839367285 -1.323317232976187 1.2038620049586966 35 25 225
14.935036338503236 -1.323317232976187 1.2664022158344992 35 25 225
14.462028942563252 -1.323317232976187 1.398723680981591 35 25 225
14.572269090742765 -1.3788511896182518 1.1102658310472173 35 25 225
14.910496990617824 -1.4550163181574391 1.0455698173206338 35 25 225
14.843931417013216 -1.5325523759771504 1.0429690647800973 35 25 225
15.04338861764378 -1.3788511896182518 1.050681706335718 35 25 225
14.156218132134706 -1.3788511896182518 1.173588945144425 35 25 225
14.435040902567119 -1.4550163181574391 1.1055439658184063 35 25 225
14.868287167597886 -1.5353183857861736 1.1935971758350195 35 25 225
15.067421958869355 -1.3924420087960825 1.1988276441218384 35 25 225
14.253453406149719 -1.5353183857861736 1.3244226224705011 35 25 225
14.253759523062888 -1.3924420087960825 1.3961837585782741 35 25 225
14.218549680438239 -1.0684458473707437 1.8945820214500098 35 25 225
13.120915687369742 -1.2075858075779535 1.8426933010274538 35 25 225
12.57498797332513 -1.2835376073685536 1.7728640739857005 35 25 225
13.29150271821007 -1.3048719945146234 1.610210854829497 35 25 225
13.038274157825073 -1.1357725699747987 1.6109767696678912 35 25 225
13.269949650158214 -1.1357725699747987 1.762146702102056 35 25 225
13.90266199870369 -1.463330602451193 1.5365330668229835 35 25 225
14.0467831404914 -1.3924420087960825 1.6080905669825323 35 25 225
13.500843624898378 -1.2835376073685536 1.992308304576946 35 25 225
13.740687776194944 -1.3048719945146234 1.8301396320108583 35 25 225
13.142713162262842 -1.3788511896182518 1.6869958572280388 35 25 225
14.576466404995175 -1.5293188656294983 2.195381189174866 35 25 225
24.022926456247887 -1.3873683531311976 2.2200328147195645 35 25 225
12.68204650969376 1.6125989903725502 1.2931337050473355 35 25 225
13.222162347135614 1.7739107166924724 1.2254293546537511 35 25 225
13.166597856429153 1.791508031414235 1.0565598516179193 35 25 225
13.400719114685128 2.0978512895301757 1.308386881537003 35 25 225
13.60068696994538 1.9954331034997075 1.3877065741412842 35 25 225
13.076956526663068 1.9252482707383731 1.4576651828773541 35 25 225
12.535493416263257 1.6940589825224954 1.773509563924358 35 25 225
12.372999225637129 1.6940589825224954 1.6942603880798774 35 25 225
12.766652364440219 1.8512246960453922 1.4549032075511448 35 25 225
12.450522821964576 1.7739107166924724 1.532534998170182 35 25 225
12.930795023760556 1.7739107166924724 1.8467948582672506 35 25 225
13.657891801187114 1.609431959441931 1.8317483724069141 35 25 225
14.744991717818275 1.8512246960453922 2.106280506616236 35 25 225
5.112774086023022 2.815806918982163 2.3311857658470587 35 25 225
5.112774086023022 2.815806918982163 2.3311857658470587 35 25 225
5.728580704529705 3.088744452432123 2.4810827326152864 35 25 225
5.7261270456143665 3.1004481631851233 2.233663988079768 35 25 225
5.7261270456143665 3.1004481631851233 2.233663988079768 35 25 225
15.85905897150441 1.8512246960453922 2.2149523715358415 35 25 225
15.668132372937297 1.7739107166924724 2.2241358942505256 35 25 225
15.367427356244841 1.9540301430599536 2.239202160155639 35 25 225
12.832066918929096 1.777882145386401 2.532404497940921 35 25 225
12.753139300035334 1.6416092965977043 2.5413319894832926 35 25 225
12.98773732478615 1.906815262321316 2.515431172627756 35 25 225
13.317563547858324 1.9562304189035424 2.616553118041045 35 25 225
13.165793536489776 1.8101795453276264 2.6368087554817317 35 25 225
13.664165790981789 1.777882145386401 2.5742928372532328 35 25 225
13.165793536489776 1.8101795453276264 2.6368087554817317 35 25 225
13.165793536489776 1.8101795453276264 2.6368087554817317 35 25 225
15.775363942833696 1.9026272328216611 2.3898352339324607 35 25 225
14.074494198625462 2.074350226008316 2.415413993732619 35 25 225
16.417932582185617 1.9954331034997075 2.18962534602265 35 25 225
16.779984793764292 2.0614353981872493 2.1743424174817 35 25 225
16.659525315361392 2.1230954403695947 2.1078931985322766 35 25 225
17.13356831307874 2.18040513969097 2.0914967836244647 35 25 225
17.095714290965766 2.1620466273649814 2.233915297303521 35 25 225
17.13356831307874 2.18040513969097 2.0914967836244647 35 25 225
17.192651601330425 2.1230954403695947 2.1578887272551492 35 25 225
16.779984793764292 2.0614353981872493 2.1743424174817 35 25 225
15.170967395142377 2.163233359373368 2.433481622677356 35 25 225
16.93846271673256 2.2667874187806993 2.2411876498589067 35 25 225
19.5008910783538 2.4500264082115573 2.023162619060256 35 25 225
14.464407081473727 -1.7505090038966176 1.3280886479704364 35 25 225
14.254133204339356 -1.6076752785978548 1.3244346159924836 35 25 225
14.366946950216086 -1.6105502994267316 1.103163212939811 35 25 225
14.936690467091214 -1.6796485501766794 1.1954107989612583 35 25 225
13.515074705449452 -1.8381279918594808 1.3865335149009128 35 25 225
13.902348150948269 -1.6076752785978548 1.4644081243200024 35 25 225
13.902348150948269 -1.6076752785978548 1.4644081243200024 35 25 225
14.11786254791115 -1.7505090038966176 1.4660381935797457 35 25 225
14.329459945422963 -1.8195936482343575 1.4675906726312329 35 25 225
13.669914597608075 -1.9091850980247438 1.68249532985102 35 25 225
14.664805028098682 -1.9091850980247438 1.9569915822112365 35 25 225
13.598952295581846 -1.6105502994267316 1.9099125365195695 35 25 225
14.015893368250175 -1.613911183077608 2.1374370052402862 35 25 225
13.958454755455728 -1.9768628229992795 1.6083266735352733 35 25 225
13.95675369878476 -1.9768628229992795 1.536665911423525 35 25 225
14.592902701964348 -2.040823543851637 1.7446134012491463 35 25 225
15.84659726027814 -2.10088614556473 1.9268476567852397 35 25 225
15.002529317349028 -1.9768628229992795 1.947855069742885 35 25 225
12.204809720882764 1.5305813358756906 1.5317643151438258 35 25 225
12.444372608525889 1.5305813358756906 1.3704730918202355 35 25 225
15.078314644731549 1.1880552931245616 2.683505699843138 35 25 225
14.935977248851374 -1.2565220190994715 1.3358982301220501 35 25 225
14.014916739329857 -1.4550163181574391 1.1693556314227578 35 25 225
15.067421958869355 -1.3924420087960825 1.1988276441218384 35 25 225
14.934744185702922 -1.463330602451193 1.1953594433727284 35 25 225
14.156218132134706 -1.3788511896182518 1.173588945144425 35 25 225
14.322763511121456 -1.463330602451193 1.3256394011756623 35 25 225
14.776049778179829 -1.3048719945146234 1.1170962999511622 35 25 225
13.917720875387937 -1.2835376073685536 1.086795075987083 35 25 225
14.461057194746981 -1.3924420087960825 1.3280312939941008 35 25 225
13.289716293308265 -1.3048719945146234 1.5349521212359656 35 25 225
13.790813406788562 -1.1357725699747987 1.9050093143491613 35 25 225
13.518839270118965 -1.3048719945146234 1.758581419306617 35 25 225
13.5866544723436 -1.2337538517648217 1.5357358259551173 35 25 225
24.11849046392705 -1.4457697011483142 2.16605256732403 35 25 225
13.60068696994538 1.9954331034997075 1.3877065741412842 35 25 225
13.400719114685128 2.0978512895301757 1.308386881537003 35 25 225
12.99179811736902 1.6125989903725502 1.2190424058450975 35 25 225
12.70459698158455 1.791508031414235 1.1251453807534215 35 25 225
14.744991717818275 1.8512246960453922 2.106280506616236 35 25 225
12.289980654421491 1.6940589825224954 1.6134246551958753 35 25 225
5.84704576741717 2.815806918982163 2.4554254356076126 35 25 225
14.074494198625462 2.074350226008316 2.415413993732619 35 25 225
16.779984793764292 2.0614353981872493 2.1743424174817 35 25 225
16.659525315361392 2.1230954403695947 2.1078931985322766 35 25 225
17.095714290965766 2.1620466273649814 2.233915297303521 35 25 225
16.779984793764292 2.0614353981872493 2.1743424174817 35 25 225
16.93846271673256 2.2667874187806993 2.2411876498589067 35 25 225
15.170967395142377 2.163233359373368 2.433481622677356 35 25 225
14.868938856015408 -1.6076752785978548 1.1936145393906523 35 25 225
15.070637064021623 -1.7505090038966176 1.1989108713787697 35 25 225
14.366946950216086 -1.6105502994267316 1.103163212939811 35 25 225
14.464407081473727 -1.7505090038966176 1.3280886479704364 35 25 225
13.669914597608075 -1.9091850980247438 1.68249532985102 35 25 225
13.593071558804263 -1.9091850980247438 1.5357523842754017 35 25 225
13.974786707350619 -1.6796485501766794 1.464961663174264 35 25 225
13.29977511787129 -1.6105502994267316 1.838945842562739 35 25 225
13.963487705049669 -1.6105502994267316 1.9775007661885864 35 25 225
14.801507100898275 -1.8381279918594808 2.0272287384779157 35 25 225
13.499227603231024 -2.0744059853739003 1.6096040406187397 35 25 225
15.84659726027814 -2.10088614556473 1.9268476567852397 35 25 225
13.828298630376166 0.9428831863307068 2.5559281055365206 35 25 225
14.015202014398168 -1.5293188656294983 2.137468390506616 35 25 225
13.904369672939591 -1.463330602451193 1.6084727276956068 35 25 225
14.030466347004852 -1.3048719945146234 1.8990842220953406 35 25 225
14.223251545611955 -1.2075858075779535 2.047291363856059 35 25 225
14.324725703729886 -1.323317232976187 1.467556442058557 35 25 225
13.810852102804587 -1.2337538517648217 1.7545651266565279 35 25 225
13.495890080661468 -1.1357725699747987 1.834955255590925 35 25 225
14.366272490265333 -1.5325523759771504 1.1031395047148111 35 25 225
13.069284514778992 1.6940589825224954 1.2212175464172699 35 25 225
13.076956526663068 1.9252482707383731 1.4576651828773541 35 25 225
12.452429638099677 1.7739107166924724 1.6128682140348407 35 25 225
5.844641841933286 2.8844984817777224 2.217929123841322 35 25 225
5.844641841933286 2.8844984817777224 2.217929123841322 35 25 225
5.728580704529705 3.088744452432123 2.4810827326152864 35 25 225
5.7261270456143665 3.1004481631851233 2.233663988079768 35 25 225
12.98773732478615 1.906815262321316 2.515431172627756 35 25 225
15.324294488917387 1.987604124485501 2.3277853593147397 35 25 225
12.98773732478615 1.906815262321316 2.515431172627756 35 25 225
17.13356831307874 2.18040513969097 2.0914967836244647 35 25 225
17.192651601330425 2.1230954403695947 2.1578887272551492 35 25 225
15.069969869369709 -1.9091850980247438 2.0185002155231406 35 25 225
15.397898081351425 -2.040823543851637 1.9377071126611316 35 25 225
14.592902701964348 -2.040823543851637 1.7446134012491463 35 25 225
13.828298630376166 0.9428831863307068 2.5559281055365206 35 25 225
13.831246872786577 -1.5353183857861736 1.5363560849159308 35 25 225
14.868287167597886 -1.5353183857861736 1.1935971758350195 35 25 225
15.199866151602894 -1.2565220190994715 1.2718711621847918 35 25 225
14.843931417013216 -1.5325523759771504 1.0429690647800973 35 25 225
12.454686498800791 1.6125989903725502 1.7748432818398687 35 25 225
13.23831353677927 1.7739107166924724 1.9195384635343167 35 25 225
12.753139300035334 1.6416092965977043 2.5413319894832926 35 25 225
14.655596754533788 1.987604124485501 2.2781657206711916 35 25 225
13.165793536489776 1.8101795453276264 2.6368087554817317 35 25 225
15.78004282017538 -1.6796485501766794 1.077218980867793 35 25 225
14.022451224664177 -1.9091850980247438 1.3202775893889913 35 25 225
14.11786254791115 -1.7505090038966176 1.4660381935797457 35 25 225
15.002529317349028 -1.9768628229992795 1.947855069742885 35 25 225
14.262832573882584 -1.8195936482343575 1.6075253880458733 35 25 225
13.831246872786577 -1.5353183857861736 1.5363560849159308 35 25 225
5.728580704529705 3.088744452432123 2.4810827326152864 35 25 225
14.837077619892144 2.074350226008316 2.460182854991307 35 25 225
13.664165790981789 1.777882145386401 2.5742928372532328 35 25 225
14.599733129795764 -1.6796485501766794 1.2591788946606828 35 25 225
14.435040902567119 -1.4550163181574391 1.1055439658184063 35 25 225
13.11655741291028 -1.1357725699747987 1.687228622627792 35 25 225
12.689952637659037 1.8512246960453922 1.5332572427793578 35 25 225
16.109907847887378 1.9252482707383731 2.2033087552376984 35 25 225
13.317563547858324 1.9562304189035424 2.616553118041045 35 25 225
14.159195939104757 -1.1660068933825138 1.395005470297838 35 25 225
14.744991717818275 1.8512246960453922 2.106280506616236 35 25 225
13.590071646524466 1.6416092965977043 2.5829079552981797 35 25 225
14.375804035724558 1.6940589825224954 1.0238770300798379 35 25 225
16.109907847887378 1.9252482707383731 2.2033087552376984 35 25 225
14.530410457226845 -1.6076752785978548 1.2576417604545331 35 25 225
