12.66632126599696 0.10933978018372888 2.456719715450491 64 152 147
12.958896921321296 0.34634365991275495 2.4295263906248503 64 152 147
13.430290092739074 0.5076619045532831 2.5063055291999534 64 152 147
10.845417214038823 1.6113240127313093 3.060821258589601 64 152 147
12.84089764747992 0.1743268837180582 2.738168571535318 64 152 147
12.94748276287894 0.360998131242062 2.7192981790311785 64 152 147
13.821722922207808 2.8867908495142265 2.171298428934359 64 152 147
14.361040098857028 2.8301584054612325 2.0648556975301453 64 152 147
11.158563876456828 2.3973819613209932 2.8910092036341783 64 152 147
12.62043900618647 2.706774622230492 2.781284585749073 64 152 147
12.266822281730818 2.622906786454697 2.649283156127055 64 152 147
12.016031269536349 2.735874637907172 2.9561705053218263 64 152 147
14.615449860881494 2.3677775595161323 2.403320149911246 64 152 147
13.888380059563135 2.736514688089638 2.3551249480444825 64 152 147
14.061011202651756 3.054688109533517 2.3429475738809087 64 152 147
12.521868041860952 2.8404824821891963 2.612557444494002 64 152 147
13.365669761478294 3.045126555634246 2.3949516168015155 64 152 147
12.411628489275158 2.997728013595121 2.627953431274542 64 152 147
13.468102526892464 2.937052084618488 2.386768494935941 64 152 147
11.051904863748804 -0.1023062146574159 1.6441579484350632 64 152 147
11.877159581480537 -0.015777524544171764 2.4064942685778745 64 152 147
11.68374105219627 -0.33548976875886144 2.1930479974683177 64 152 147
11.848728741231804 -0.5194045324344658 2.0832909656282785 64 152 147
10.353955807446216 -0.012611170221194139 1.8456431534620745 64 152 147
13.12311977965982 -0.8053115821001823 2.6904348844760735 64 152 147
12.859940200761347 -0.018042469803757972 2.569185287357082 64 152 147
12.228374917603618 -0.3628945983872528 2.8792741522557446 64 152 147
11.252930486704434 -1.5821386628558318 2.860107187950872 64 152 147
12.5712305730781 -0.8118483864129796 2.7918218388015212 64 152 147
10.810847193655905 -1.8457665879541252 3.129514066531919 64 152 147
13.874468067305283 -0.2962326391838026 2.5890790987525296 64 152 147
13.576954921586157 -0.4921633165601208 2.8038795515225208 64 152 147
12.038534435714803 -1.1448194077980378 2.946456564686322 64 152 147
14.062439569601077 -0.42185352239515733 2.567766307026774 64 152 147
14.701614178491237 -0.796832916806732 2.396901702980745 64 152 147
11.331319515689549 -2.6693770846255367 1.465588860973343 64 152 147
12.171452533511026 -3.13115127907502 1.7200634463858642 64 152 147
13.520135059691862 -3.1302051911802637 2.1866570019689053 64 152 147
12.224417592091056 -2.9513012813061357 1.9752097530894528 64 152 147
12.308057514536513 -2.7515458913264226 2.062414743548236 64 152 147
11.993970601028057 -2.9513012813061357 1.2139325670022045 64 152 147
12.38496064737544 -2.511962278400887 2.362215392350837 64 152 147
10.852077066448556 -2.7515458913264226 1.5532926632640232 64 152 147
12.328137891815468 -2.586067797657798 2.6400888679098244 64 152 147
11.773453579562984 -2.4551789920729243 2.5557300104216463 64 152 147
12.254118430528637 -2.3451404212712057 2.651219503115839 64 152 147
12.113283674611449 -2.7421461472422344 2.673462504402574 64 152 147
12.531141536304554 -2.869562162753255 2.8007003648158357 64 152 147
11.908685259015316 -2.3144731852802 3.0128031550332914 64 152 147
12.377800403654218 -2.530678005769829 2.837544166626227 64 152 147
12.588140662175277 -2.3415525433074165 2.788157533114706 64 152 147
12.257786909981505 -2.848176424052067 2.4986123560310594 64 152 147
12.431862561651933 -2.9572014546180405 2.625075703897443 64 152 147
13.337633623357007 -3.12768486908879 2.3972260417867677 64 152 147
13.505375065762506 -2.91053532583399 2.3838390858024376 64 152 147
12.769255724114041 -2.6637396079349167 2.5803026972308656 64 152 147
13.698412249780182 -2.80854463597558 2.3690605280639563 64 152 147
12.757586955475952 -2.611224602419714 2.448007198855982 64 152 147
12.995205922613984 0.2628954778996884 2.553228583257063 64 152 147
12.48837700669139 0.2170623733770764 2.81048864821469 64 152 147
13.129583671885378 0.524813553713479 2.6894197835102256 64 152 147
13.904599647583305 2.7731573849323037 2.2570036160719784 64 152 147
13.856171917777429 3.06907394920341 2.0845869352540665 64 152 147
14.982942716717057 2.2411236986606147 2.284646100259721 64 152 147
13.497790096611832 3.0332101574015256 2.4995532725559038 64 152 147
11.92972179985615 -0.14040530005596732 2.401634192000332 64 152 147
12.280918012020896 -0.3739792437917818 2.3708275626648136 64 152 147
13.186888275294056 -0.5618993407804694 2.6805542345825706 64 152 147
12.254699256118007 -1.2714789576068029 2.8713896227698634 64 152 147
12.508486929172307 -0.2766533878795945 2.805843188799851 64 152 147
13.077257253327181 -0.6344588801327358 2.4191030298181566 64 152 147
13.504941020204058 -0.5347991486227812 2.4988454476921467 64 152 147
11.999884133944542 -1.5874737161419263 2.9634868922681794 64 152 147
13.319332295989367 -0.6220649106648738 2.8641693140779685 64 152 147
12.252326517508699 -2.6693770846255367 1.9742350256101207 64 152 147
12.99649755841719 -2.6255762520366437 2.215467500762137 64 152 147
13.354522131158653 -3.1290705812204616 2.2912238368658295 64 152 147
13.522054072796132 -2.932861652446714 2.280399216666913 64 152 147
13.016346543589611 -3.0399392697795578 2.121389444817951 64 152 147
12.561948465497345 -2.802961572718564 2.6071250740120684 64 152 147
11.748259563570082 -2.029120328605091 2.7392374481595243 64 152 147
13.516398280910808 -3.0024103342131996 2.4977143163826296 64 152 147
11.978326213774615 -2.9216596169045537 2.696261824612169 64 152 147
12.234586918172894 -2.5419770463250146 2.5011477444611456 64 152 147
11.954583891186404 -2.4825621752310862 2.7004410479598526 64 152 147
13.827353596557257 -2.770617860566035 2.46832443011846 64 152 147
12.660207371955066 -2.6567755611257255 2.773037213452487 64 152 147
10.703886002384419 0.08751981613818066 1.9347278152961083 64 152 147
9.987573021563422 1.5897096079078397 2.952773000958303 64 152 147
12.654372708771614 3.06907394920341 1.8766279647010626 64 152 147
14.147891246464999 3.062528742209727 2.2430000243741772 64 152 147
12.710068322387984 2.6971325116729785 2.5877532694830396 64 152 147
14.158414231229782 2.9569493283693404 2.336269615518085 64 152 147
12.511068028225289 2.928228650939655 2.8052524911759447 64 152 147
11.369353776136931 2.186970716027526 2.8266262098167507 64 152 147
11.957324696084148 2.9696721744771906 2.6999558645048403 64 152 147
13.459025406139032 -0.6933755482224089 2.6413838780251666 64 152 147
12.184796519772057 -2.4902466468148834 2.1638526159204163 64 152 147
12.260484068514788 -1.8906924288987572 2.8696913431909397 64 152 147
12.044423070296759 -2.024085787350467 2.9439982519400734 64 152 147
10.894676792579599 2.440363496239807 3.0168769312202195 64 152 147
11.020101629148634 2.075510829376501 2.946037814104333 64 152 147
11.891342271727142 2.5226798315787664 2.711842007813115 64 152 147
12.036930358961605 -2.636424558830326 2.947131951533267 64 152 147
12.860456344510936 -0.2229719109422752 2.7346202516824407 64 152 147
11.306821952048118 -3.0399392697795578 1.3758812755684287 64 152 147
13.033345200906076 2.8812281162113482 2.5488569006276687 64 152 147
11.902729471087 -0.8623313948828086 3.0167262710827836 64 152 147
12.98624964672556 -0.4045528646082581 2.712702771772941 64 152 147
13.094929234559865 -2.8396529258353476 2.209828088090662 64 152 147
11.875335704467506 -0.599444736342782 1.9878255947658177 64 152 147
12.97483674568107 2.78525587148711 2.7146304315010967 64 152 147
14.12412175035983 2.907162003792678 2.073912631782586 64 152 147
12.843867418082867 -0.6676312378684575 2.737627204858247 64 152 147
13.276962132786092 -2.7132561395535166 2.296363439192741 64 152 147
12.785025430762428 0.6273136239655599 2.7485330375234085 64 152 147
14.063736418188327 2.803955892532812 2.1595598005156056 64 152 147
11.808788828192053 -2.8655829333875418 1.8110647215872717 64 152 147
13.738516537699756 0.12488660028201384 2.605343880108057 64 152 147
11.570643328553958 -1.5793896099879818 2.7769913302430362 64 152 147
