6.030146338283909 1.2988695430077022 1.0794750075413981 24 10 238
5.874230666633203 1.487412740865223 1.0652177059412324 24 10 238
6.376323074828216 1.8221594166167805 1.4378884590758823 24 10 238
7.225770189491638 0.8769928692141281 0.8358966852235088 24 10 238
7.397723425579601 2.7304090669505627 0.3890213213954399 24 10 238
7.945338958170943 2.0424176261138434 0.15911649815773207 24 10 238
7.336575599866507 2.2084964702384537 0.3681559570586288 24 10 238
8.926053523410209 1.2061862013820832 0.1348897598680228 24 10 238
7.164737219792602 1.4673114424664662 0.6166904851947974 24 10 238
5.851616763217811 1.9351724348328352 0.8538599221756901 24 10 238
7.307090962994179 0.9783289552125857 0.35754942645102694 24 10 238
6.810165257994048 2.0373160918349553 0.53890432388108 24 10 238
9.029424701446304 0.6657286113798827 0.20247485494425188 24 10 238
9.55210282145761 0.31617322650326857 0.3871971077345539 24 10 238
9.605461195489685 0.20374107640589276 0.6150929117862622 24 10 238
10.301793260810134 -0.5764226859728527 0.5382920716230957 24 10 238
9.964591407505276 -0.48759783839870424 0.6644034775125349 24 10 238
8.736818222724198 0.0223754975885101 0.6705779376849037 24 10 238
9.670254193507573 -0.5012972107241397 0.4161364649221703 24 10 238
9.722964189659988 -0.3331765031168067 0.6319964575563622 24 10 238
10.068261771694042 -0.4012216112291199 0.498082446903418 24 10 238
9.172984174221114 0.04998854388125584 0.2682305455450605 24 10 238
9.670254193507573 -0.5012972107241397 0.4161364649221703 24 10 238
9.580134829337897 -0.16045792544683019 0.6113412103195421 24 10 238
9.526634604199604 -0.2508768179282423 0.38058761845657346 24 10 238
9.009209461815766 0.027426335900571454 0.5140253191161063 24 10 238
8.367358438420315 -1.4231770446911802 0.3552246446269021 24 10 238
9.41056361646626 -1.1102726365109892 0.3484646224464875 24 10 238
7.364808921594919 -2.8124405135096433 0.3779693610913776 24 10 238
7.914702125188531 -2.147906982691753 0.13284075817952637 24 10 238
8.8561549663441 0.2765241032363165 0.050262235386650665 24 10 238
8.76183408437532 -1.4608797197775838 0.4615638371834162 24 10 238
9.002477937175053 -0.5515184048897068 0.18733523060568572 24 10 238
8.864276724673953 2.9323180977938947 0.06601134669366056 24 10 238
8.001836133603433 3.0644695861833444 0.19833339156640492 24 10 238
8.891432879435765 -1.9558620835906917 0.490055603359913 24 10 238
8.086999382687086 -1.866351965010629 0.2452696638025209 24 10 238
9.154324567899101 -0.9208041635054778 0.26071155659239115 24 10 238
9.002477937175053 -0.5515184048897068 0.18733523060568572 24 10 238
7.888201073728169 -1.7172096459721076 0.520143235861365 24 10 238
7.8790732396564955 -1.4608797197775838 0.5181169759666941 24 10 238
6.78109434593024 2.4079671854661946 1.137852885228269 24 10 238
7.454807327052099 2.6309434762453257 1.0288894108623106 24 10 238
8.56598464749353 2.9945526245360097 1.1053015367993833 24 10 238
7.904120610939731 2.829345456773956 1.0627727053807123 24 10 238
8.362362243393154 2.868421519350097 1.2236546616987436 24 10 238
8.640340234658101 -2.315070822654339 0.6563730363355916 24 10 238
9.452270667776162 -2.315070822654339 0.5917671546990554 24 10 238
7.946155095416695 -2.657433666418604 0.5327389264590106 24 10 238
7.708405647204016 -2.4380697536845046 0.8911334590387254 24 10 238
8.278179303385157 -2.951751708057763 0.5972787259666061 24 10 238
9.08781445077881 -2.463284577393895 0.5291417366030242 24 10 238
8.232326724193891 3.1150292605582237 0.5890396157770675 24 10 238
7.770735583926354 -2.9004291217833513 0.4931094260287188 24 10 238
8.37313913822628 -2.4380697536845046 0.7981089015296731 24 10 238
8.13635361480066 -3.0260856974613883 1.213586411162653 24 10 238
7.360948028144329 -2.5335030919413604 1.1739679298462893 24 10 238
8.016692461604551 -2.8984128227530843 1.3385736183349968 24 10 238
8.493123233900018 3.1255512417089317 1.1009875868415577 24 10 238
11.948888416913947 -3.0658196131651216 1.3303923452184268 24 10 238
17.89565778094991 -1.2023258087791648 2.580840077813594 24 10 238
18.5932392839526 -1.3038500263287625 2.6237028814252725 24 10 238
15.998311648135838 -1.8825121909509452 2.815462617292697 24 10 238
17.573566845340576 -1.6351281051802113 2.6107413571296876 24 10 238
16.840546167651716 -1.9286124901874655 2.690366682504566 24 10 238
15.541457053505034 -1.9832219032295482 2.7159937978786943 24 10 238
16.331044818871703 -1.8320900741235635 2.7597751692050316 24 10 238
15.541457053505034 -1.9832219032295482 2.7159937978786943 24 10 238
17.573566845340576 -1.6351281051802113 2.6107413571296876 24 10 238
15.998311648135838 -1.8825121909509452 2.815462617292697 24 10 238
16.90585801434798 -1.8527616145756134 2.563095811977038 24 10 238
17.573566845340576 -1.6351281051802113 2.6107413571296876 24 10 238
18.537756826475214 -1.3660958199082696 2.7529129168409496 24 10 238
11.683410041791111 3.0449811950452914 1.6698187053426825 24 10 238
18.070537756021743 -2.590840858580289 2.4707866054493053 24 10 238
18.252548801788905 -1.3297842210543296 2.5504359968533064 24 10 238
18.095396649122556 -1.5274931108322642 2.563501901951968 24 10 238
17.451793159627215 -1.8255004094205338 2.5168148674166235 24 10 238
18.016729127481856 -1.3511999451147882 2.474559085218629 24 10 238
17.857501801216298 -1.5314694152891408 2.4859654534116515 24 10 238
17.921445608762525 -1.7143042452885773 2.4813402805035354 24 10 238
18.03668854783296 -1.8029587460238885 2.473155016519144 24 10 238
17.86153105543135 -1.6233249913985426 2.4856722101420847 24 10 238
17.921445608762525 -1.7143042452885773 2.4813402805035354 24 10 238
17.856453360446512 -2.004258553912023 2.486041797444382 24 10 238
18.080736863485164 -1.8629020065781634 2.385571713699095 24 10 238
18.065437614903182 -1.8413533330628045 2.308828422440475 24 10 238
17.626939767018733 -1.9177574112477198 2.5031651433763984 24 10 238
18.221820713746656 -2.076142064018776 2.301050462194108 24 10 238
18.579582547893306 -2.009402176019065 2.3575106875592633 24 10 238
8.146862087645248 1.8341400374849552 0.2730835169202477 24 10 238
9.954835370210963 0.24805092108459284 0.4767086494034442 24 10 238
9.07792960105735 0.24805092108459284 0.5272766650220045 24 10 238
7.535280361078072 1.4345189732472017 0.4313798825029419 24 10 238
6.020665055427793 2.0361954643758335 1.25934581616338 24 10 238
7.313231923471773 3.0943970803132244 0.35979026767395444 24 10 238
8.562112834491606 0.03542098958954009 0.41219819369960653 24 10 238
7.90560488936607 -1.1174205737045526 0.12393220918249616 24 10 238
9.457113882269955 -0.5764226859728527 0.5925286787065416 24 10 238
9.48681809653879 0.03542098958954009 0.3699560489823247 24 10 238
9.540541602193013 0.0223754975885101 0.6053951431653236 24 10 238
7.549666200350951 -2.5107629605747266 0.4355011911222822 24 10 238
8.218484049949629 -2.267580498393014 0.30264318426744796 24 10 238
8.867119907750542 -1.2180081490022414 0.48489068577189454 24 10 238
9.121485608891048 -2.156345483025113 0.5354207119566182 24 10 238
8.022944424789529 -1.9558620835906917 0.5487554185611345 24 10 238
9.892208880382618 0.027426335900571454 0.46430042520877024 24 10 238
9.362571080143846 -0.6584846228325972 0.3340689515735913 24 10 238
8.241487324727844 2.9725752141313517 0.9423659060657257 24 10 238
6.991224636009202 2.7071420927250354 0.8051439805578726 24 10 238
7.5049458760546335 2.9010478680681535 0.6780205851826797 24 10 238
7.721870384186838 3.1075977204994105 0.48120146413299697 24 10 238
8.278179303385157 -2.951751708057763 0.5972787259666061 24 10 238
8.443062351073326 -2.751742763118267 0.6254131355746508 24 10 238
16.47696965954838 -1.1081604648664045 2.495411125743828 24 10 238
18.489252773814666 -1.4113202109058973 2.6336611173855244 24 10 238
16.40277372629935 -1.8863409956549269 2.6119063052077025 24 10 238
18.030402625812208 -1.3914858923746132 2.6814480062997688 24 10 238
17.978858137061735 -1.5165197866580507 2.687266663120004 24 10 238
16.457428290583294 -1.9832219032295482 2.741083356222927 24 10 238
11.771541024160467 3.1310956513399577 1.754905798619024 24 10 238
15.392327930645159 -2.2027950640105676 2.7378978514704104 24 10 238
15.392327930645159 -2.2027950640105676 2.7378978514704104 24 10 238
18.57679585128824 -2.6702403715050496 2.5249148343598873 24 10 238
17.793965364673525 -1.702368157479967 2.4028224390245847 24 10 238
17.729561790180004 -1.5347771783567508 2.4068193678250376 24 10 238
18.095396649122556 -1.5274931108322642 2.563501901951968 24 10 238
17.263026246222843 -1.8029587460238885 2.4372462588375994 24 10 238
17.856453360446512 -2.004258553912023 2.486041797444382 24 10 238
18.903566031774975 -2.076142064018776 2.340471484408593 24 10 238
17.672009430315754 -1.9686571678038418 2.4104309250585416 24 10 238
7.544824132061927 1.752020032322762 0.4341198608104871 24 10 238
6.561448488509899 1.2988695430077022 0.9446898929570804 24 10 238
5.960604196822139 1.1280908555109475 1.2561002746879393 24 10 238
8.078096183624345 -1.3467619537448592 0.24082710834341334 24 10 238
8.277170912030057 -2.156345483025113 0.5970995828390956 24 10 238
8.258979751723482 -0.3471699874291861 0.3179712296859163 24 10 238
10.068261771694042 -0.4012216112291199 0.498082446903418 24 10 238
8.770043191787384 -1.7172096459721076 0.4634421641423588 24 10 238
8.702002362078131 -0.8700871741221207 0.4475425664640196 24 10 238
9.051127245376025 -0.19585697628133214 0.522168546008544 24 10 238
8.898793742582122 -1.1174205737045526 0.11004053099904346 24 10 238
8.502971796048362 -2.070639890617581 0.39598997346526144 24 10 238
8.375954172552449 -1.7669408011570418 0.35798084616767134 24 10 238
7.160698049642341 -2.315070822654339 0.827652868365543 24 10 238
8.140047239289803 -2.7287618598989116 1.078838565802707 24 10 238
8.720226553778824 -2.5796894445741994 0.6681755628346832 24 10 238
8.089697204467068 3.1255512417089317 1.2114330355593395 24 10 238
8.122944800775116 -2.985211170747311 0.7676234781200878 24 10 238
17.616423290889056 -1.3660958199082696 2.731399117487914 24 10 238
16.127302832605768 -2.055966786671298 2.792585154482334 24 10 238
16.138087175832023 -2.049757890657442 2.64062742366459 24 10 238
18.016729127481856 -1.3511999451147882 2.474559085218629 24 10 238
17.86153105543135 -1.6233249913985426 2.4856722101420847 24 10 238
17.910028600281358 -1.7840266738834967 2.395735233366804 24 10 238
18.099372943634567 -1.6286311452301399 2.5631652660932462 24 10 238
18.533847382609625 -1.4511502609404963 2.4398825494844667 24 10 238
18.146610119396424 -1.4272308768578077 2.559190536210112 24 10 238
17.626939767018733 -1.9177574112477198 2.5031651433763984 24 10 238
17.44006869944823 -1.888054944484647 2.425382311931231 24 10 238
7.657449252613676 1.141732337287403 0.46483181180097927 24 10 238
8.04900185079858 -2.63196349410487 0.2256388674811501 24 10 238
7.613754829008597 2.451883322695123 0.4532540460458762 24 10 238
6.311285962356187 2.259975272022085 0.6956024669035246 24 10 238
7.801937768597256 2.837372465179072 0.5005007349777293 24 10 238
8.423883614484819 0.44678855167394177 0.6222533724788155 24 10 238
8.079129422402149 2.5219135787073994 0.24134729541386318 24 10 238
9.240486425258874 0.43269353884723416 0.2936370359977874 24 10 238
8.290915602124832 -2.816421008632917 0.7883944046803067 24 10 238
9.807856660215858 -0.7193401294939579 0.6437244721256862 24 10 238
17.332661752388642 -1.7286022922052156 2.526409822739621 24 10 238
9.214156930811873 -0.3471699874291861 0.28403430453925615 24 10 238
8.076210927862277 3.1197949188749936 0.761608633844599 24 10 238
10.62468793299787 -0.7193401294939579 0.5872053220886227 24 10 238
18.88078959892879 -2.7899695121781782 2.502553588994024 24 10 238
18.376900509113668 -2.540470589026026 2.540429345515663 24 10 238
17.982860200098482 -1.643266605931353 2.686811208035526 24 10 238
8.960332567723485 0.0848601378817917 0.16063904831366557 24 10 238
17.034221240064557 -1.9525785634476587 2.0700197541424186 24 10 238
9.051127245376025 -0.19585697628133214 0.522168546008544 24 10 238
8.573000105370022 -2.664746348071252 0.820592004961888 24 10 238
