5.972127605939403 1.1297869208822064 1.8007858937918573 251 11 124
6.414664579364002 1.296076226514902 2.122367293807914 251 11 124
11.84365665930681 0.46580106865039617 2.4822888841720547 251 11 124
12.195054805324808 0.2931586088277712 2.4459517872604675 251 11 124
12.122732718796414 0.2602306182043412 2.3319167209521545 251 11 124
12.0499930742338 0.16664359743130353 2.4604985362941516 251 11 124
11.933547784460309 -0.08719610506990198 2.3471290686097306 251 11 124
12.0499930742338 0.16664359743130353 2.4604985362941516 251 11 124
12.0499930742338 0.16664359743130353 2.4604985362941516 251 11 124
11.933547784460309 -0.08719610506990198 2.3471290686097306 251 11 124
11.389517865834488 0.03986017421757117 2.5355973502263227 251 11 124
11.455921867399244 0.19176663751167106 2.5272825042230873 251 11 124
12.007009446881275 -0.09877883599211607 2.4649276784339564 251 11 124
12.244467689164557 -0.11389479512439858 2.5796372982217375 251 11 124
12.10996479110088 -0.22868224867963957 2.4544110218823794 251 11 124
12.29366579283453 -0.35121519952989205 2.436398406639242 251 11 124
10.891341781886608 0.7382705007248516 2.8283762268758146 251 11 124
11.16178807660293 0.5753961450620924 2.7606017264646834 251 11 124
11.16178807660293 0.5753961450620924 2.7606017264646834 251 11 124
11.081109474715202 0.3907913269756955 2.5770093508756853 251 11 124
11.937918058909938 0.3907913269756955 2.6218449024156536 251 11 124
11.850981947420024 -0.30758612574304534 2.634811874638113 251 11 124
11.42285366539154 -0.3705907233256864 2.7070928301316535 251 11 124
11.789692912262593 0.22565823374537952 2.644256714648469 251 11 124
10.72866707443547 0.4692616690422617 2.879200999186314 251 11 124
11.003112489255127 0.34681616478284316 2.79839527847209 251 11 124
11.725179331236758 0.04712122068691856 2.6544890133984462 251 11 124
10.933958836368873 0.07410510626367199 2.8165571849330973 251 11 124
11.632289927993869 0.10377754913898642 2.9253781349981978 251 11 124
11.653031380422625 -0.2902948978807623 2.917418754987702 251 11 124
10.956022417812761 -0.20980872816114746 2.8106332324375947 251 11 124
10.956022417812761 -0.20980872816114746 2.8106332324375947 251 11 124
11.189541729296026 -0.4637116522364572 2.561888941821355 251 11 124
11.42285366539154 -0.3705907233256864 2.7070928301316535 251 11 124
10.795981259093415 -0.6118121587686851 2.8569094181922257 251 11 124
11.589302156738986 -0.8656922564787072 2.942970878892029 251 11 124
11.61742472517708 -0.5489437988486149 2.672300703937374 251 11 124
11.001644546653154 -0.8350153224672132 2.7987688715664425 251 11 124
10.819981306535457 -1.0751855245219208 2.8494251424011487 251 11 124
12.05730562206091 -0.5950502823926783 2.126570728151813 251 11 124
10.361241326496195 -1.4028463725208409 2.11466753164619 251 11 124
9.709888816503414 -0.9840507353501703 2.155753782496336 251 11 124
9.709888816503414 -0.9840507353501703 2.155753782496336 251 11 124
9.532699011386326 -1.3816369948755645 2.1681148200467857 251 11 124
9.129891794248632 -1.1481115949553369 1.9478478626138027 251 11 124
10.775685259855843 -1.4198117220489948 1.9875008918661645 251 11 124
12.190920714622003 -0.5097263132854541 2.2191148346210046 251 11 124
11.985533060860927 -0.5234885253504836 2.467161798120836 251 11 124
11.032888481206433 -0.695581390427636 2.583948245221792 251 11 124
10.665853973386811 -0.8212918175207891 2.6418435657977763 251 11 124
10.355905089653016 -0.9079657264990191 2.361496142832422 251 11 124
9.927553813405734 -1.0885382168698885 2.5722337832911415 251 11 124
10.597878931728054 -1.267838571575925 2.65372082924623 251 11 124
10.382497470478135 -0.9850601536499486 2.694382011225668 251 11 124
12.613545070851677 -0.5950502823926783 2.193969354232968 251 11 124
10.28588193087279 -1.218016445599121 2.3684005527600385 251 11 124
12.48432925217122 -0.4154314571014812 2.3046760259734143 251 11 124
12.48432925217122 -0.4154314571014812 2.3046760259734143 251 11 124
5.453249822571014 1.4793732158571273 1.8231239029410522 251 11 124
6.859262942877775 1.8087364997085946 1.9222592943738195 251 11 124
11.682785505691207 2.1625385081064348 2.9065094935816878 251 11 124
11.854251976183997 2.410447984426366 2.852238190127313 251 11 124
12.084714251096523 2.2286779178226315 2.7938680361256782 251 11 124
11.395822297616865 -0.994299829137157 3.06390456579359 251 11 124
11.955674252667489 -2.3137095824342744 2.824987135424726 251 11 124
11.698996595868767 -1.7575103766747007 2.90079225071675 251 11 124
11.374611837537794 0.492211803573189 3.0934817369079335 251 11 124
12.205488911910491 -2.4796050374645406 2.7675219916701552 251 11 124
11.531281305917195 2.4493508647663154 2.9697546163899005 251 11 124
11.505805055099021 -1.8598600436266528 2.983020359520478 251 11 124
11.395822297616865 -0.994299829137157 3.06390456579359 251 11 124
13.182060914130801 -2.9789213457808765 2.7868845791478747 251 11 124
12.476349294374296 -2.6871934510344953 3.0057727528440608 251 11 124
12.517721395957828 2.4493508647663154 2.9834151634367228 251 11 124
13.275906798711032 -2.77368065288024 2.768265631578716 251 11 124
13.275906798711032 -2.77368065288024 2.768265631578716 251 11 124
13.182060914130801 -2.9789213457808765 2.7868845791478747 251 11 124
12.456978780227058 2.9729014280983606 3.0176692772117524 251 11 124
13.163728900264095 3.0844350447509785 2.790663904514822 251 11 124
13.53955580152177 3.094776814572883 2.7213448524381074 251 11 124
9.429112534303504 -1.5086025957325009 2.1756066114773223 251 11 124
9.747594647562055 -1.8852529414436408 2.1531941167236814 251 11 124
9.538332593818836 -1.7644143391671367 2.167713127056757 251 11 124
10.266018437971281 -1.5157020593049226 2.1202860640829817 251 11 124
10.335029898830436 -1.8237330948481543 1.8013226179205772 251 11 124
10.623024792995293 -1.9173485994583468 1.7949645369073113 251 11 124
11.972864850751295 -1.708344907966905 2.820633625729315 251 11 124
12.223793119163263 -2.163149859598733 2.763725765426829 251 11 124
10.154354809047241 -1.4870261255492698 2.538234671257925 251 11 124
10.156118073894891 -1.660757099365226 2.5379827631461485 251 11 124
17.2253443810494 -2.4923897256625684 2.1453611617980903 251 11 124
6.441758231233561 1.3382675376356497 1.626936299100392 251 11 124
12.195054805324808 0.2931586088277712 2.4459517872604675 251 11 124
11.608409643346903 0.3352697520904675 2.508897815656095 251 11 124
11.683898746995538 0.410737546086632 2.368334442295408 251 11 124
12.42892090401956 0.3352697520904675 2.5564919250579274 251 11 124
11.683898746995538 0.410737546086632 2.368334442295408 251 11 124
12.345442899110653 -0.2624633858000489 2.5667787938903848 251 11 124
12.0499930742338 0.16664359743130353 2.4604985362941516 251 11 124
12.007009446881275 -0.09877883599211607 2.4649276784339564 251 11 124
12.10996479110088 -0.22868224867963957 2.4544110218823794 251 11 124
11.16178807660293 0.5753961450620924 2.7606017264646834 251 11 124
11.481679019028013 -0.46388447707827934 2.9967500586093823 251 11 124
11.068757771485588 -0.4637484347090298 2.7821662680282127 251 11 124
11.745756754414272 -0.13444007216731557 2.651191755826507 251 11 124
11.068757771485588 -0.4637484347090298 2.7821662680282127 251 11 124
11.481679019028013 -0.46388447707827934 2.9967500586093823 251 11 124
12.363649733662838 -0.46368463624087325 2.1112540179950816 251 11 124
9.225705247198567 -1.260528908903615 2.0632050171390492 251 11 124
12.554568491593674 -0.4636945335699132 2.4123223984917024 251 11 124
11.985533060860927 -0.5234885253504836 2.467161798120836 251 11 124
10.665853973386811 -0.8212918175207891 2.6418435657977763 251 11 124
10.22352737440425 -0.937361528006967 2.528484550844374 251 11 124
10.665853973386811 -0.8212918175207891 2.6418435657977763 251 11 124
11.916564344968803 2.006734369481159 2.835162773713441 251 11 124
10.728830701276369 -1.3967248450305774 2.8791442217235774 251 11 124
11.78568343767228 -2.0764606426476235 2.872469310489122 251 11 124
11.505805055099021 -1.8598600436266528 2.983020359520478 251 11 124
12.854880233466762 3.0682392298594765 2.8636259095966827 251 11 124
12.734915619756359 -2.5364992413707204 2.8988146911181287 251 11 124
12.969729703628682 -2.681925176176744 2.8341151971790355 251 11 124
13.163728900264095 3.0844350447509785 2.790663904514822 251 11 124
12.637052839096134 -2.855203127869239 2.932361543556044 251 11 124
10.266018437971281 -1.5157020593049226 2.1202860640829817 251 11 124
10.684156754856609 -1.5213479520158388 1.9912959524111735 251 11 124
10.623024792995293 -1.9173485994583468 1.7949645369073113 251 11 124
9.429112534303504 -1.5086025957325009 2.1756066114773223 251 11 124
10.619525156365471 -1.99732203116646 2.2130897245480075 251 11 124
11.026820919959533 -1.4426515359853933 2.7924281650194236 251 11 124
12.05758290360176 -1.9562035196989906 2.8001303011427714 251 11 124
10.154354809047241 -1.4870261255492698 2.538234671257925 251 11 124
5.630463647382617 1.296076226514902 1.8150175445484142 251 11 124
11.513023074940902 0.4667604846473316 2.6905119288901322 251 11 124
11.46062745715876 0.17268778113152466 3.0099397189487256 251 11 124
11.526621808993928 0.7039982334515389 2.9720996975104854 251 11 124
11.913294730669207 0.030468221672460157 2.348799931161925 251 11 124
11.16178807660293 0.5753961450620924 2.7606017264646834 251 11 124
11.986880514683099 0.034537326708311056 2.4670212077307796 251 11 124
11.29228245717115 0.05761330257009539 2.732718881145431 251 11 124
12.037131473411943 -0.20249913638465666 2.3387130256352275 251 11 124
11.711961038561538 -0.4001178434854166 2.496937113321984 251 11 124
9.901548058882343 -1.094022403559169 2.268513834173324 251 11 124
12.819572857970925 -0.5097263132854541 2.281333350922565 251 11 124
10.665853973386811 -0.8212918175207891 2.6418435657977763 251 11 124
12.181020523901044 -0.5648389582486367 2.327368306814883 251 11 124
10.18980208185412 -1.1936354764691206 2.7355922387356593 251 11 124
5.987100454810471 2.0173606208089194 1.8002004036423522 251 11 124
11.441102353813992 1.2049732012254206 3.0235246771635165 251 11 124
11.698996595868767 -1.7575103766747007 2.90079225071675 251 11 124
12.617929032686023 3.039280803271889 2.9396234631720026 251 11 124
10.137900683417914 -1.72537209352665 1.805888741845417 251 11 124
9.431011394725017 -1.6375969137050908 2.175467446047146 251 11 124
10.50480131151651 -1.4694688939482872 2.6706901351085888 251 11 124
17.78863090393342 -2.4923897256625684 2.1925677590402497 251 11 124
17.930654555319656 -2.480283926463077 2.0559242499562456 251 11 124
10.933958836368873 0.07410510626367199 2.8165571849330973 251 11 124
11.986880514683099 0.034537326708311056 2.4670212077307796 251 11 124
11.068757771485588 -0.4637484347090298 2.7821662680282127 251 11 124
11.359254892303829 0.2737384802289605 2.7193186168991312 251 11 124
11.653031380422625 -0.2902948978807623 2.917418754987702 251 11 124
11.003112489255127 0.34681616478284316 2.79839527847209 251 11 124
11.97679506193472 0.14729844369999065 2.343589174320435 251 11 124
10.250615047164105 -1.3181734840328125 2.524738532610127 251 11 124
12.573772852374873 -0.3758290071683324 2.1962445751134734 251 11 124
5.456532449298222 1.6689688216252923 1.8229688009813323 251 11 124
9.7828445209466 -1.6299741001805526 2.0328935861559434 251 11 124
12.221927241331915 -0.3126107959274385 2.3242136108150073 251 11 124
10.891341781886608 0.7382705007248516 2.8283762268758146 251 11 124
11.068757771485588 -0.4637484347090298 2.7821662680282127 251 11 124
11.313647266763365 -0.16394800422180061 2.7283822917048495 251 11 124
12.221927241331915 -0.3126107959274385 2.3242136108150073 251 11 124
11.513023074940902 0.4667604846473316 2.6905119288901322 251 11 124
10.052433245540806 -1.99732203116646 2.1333505012403338 251 11 124
12.468236882694233 -2.3254055940355434 2.7170604121776356 251 11 124
12.873652053748435 -2.9338585876430843 2.8585608474469373 251 11 124
11.504248659650424 -1.3007305663970816 2.9838686139909636 251 11 124
9.487726770584384 -1.7427259656213467 1.9329559369785083 251 11 124
10.684156754856609 -1.5213479520158388 1.9912959524111735 251 11 124
