8.050227884040586 1.329698155603775 2.2981314747021573 15 25 39
6.194523303582896 1.8325396975067056 1.7908987269060062 12 27 41
7.1179325620716325 1.3638719675810846 1.7619642434203477 5 12 20
6.862111843734821 1.5071693522732474 1.6221803119190508 7 17 29
6.436150158538039 1.6671296737063164 1.146854466676957 11 23 36
8.050227884040586 1.329698155603775 2.2981314747021573 15 25 39
7.3046761735184385 1.6671296737063164 2.2091125004821994 10 28 41
7.448946503850414 1.8325396975067056 2.194818199472445 8 28 41
7.775621135898669 1.795648134832931 2.0165616194488143 14 29 45
7.637524077328776 1.653113116079979 2.025219701059122 14 29 43
8.232839669080978 1.3638719675810846 2.1278281372622967 17 23 29
8.464699581174518 1.2286573124280717 2.110857041618505 16 22 28
8.37217824646953 -0.024982192157456052 2.264401625263261 15 54 77
8.37217824646953 -0.024982192157456052 2.264401625263261 15 54 77
8.257527078604998 -0.5266954124769965 2.276001561567061 23 65 92
8.904588889718314 -0.6758973241859136 1.9567959276997808 116 135 153
8.689555708006868 -0.653318494631535 2.234404535554277 32 64 89
6.2211778228744405 -1.9303990995007028 2.345658949389275 81 127 160
6.929820955232828 -1.2385259290738517 2.453374345388448 75 114 147
6.618761466076929 -1.6621292780241437 1.9341608760163322 121 157 186
6.17990885173043 -1.679698292470895 2.1441770998004603 110 135 163
6.618761466076929 -1.6621292780241437 1.9341608760163322 121 157 186
6.7491468579599125 -1.34183809558478 1.9268250891303633 118 122 145
6.349786093480115 -1.8650969880804047 2.1269957069799883 65 110 142
6.120388763546024 -2.7711798469815028 1.793609493503095 104 150 177
5.570955359650116 -2.6994337311851595 2.006744447524045 66 113 140
5.563036808148207 -2.535908246063756 1.634194022965289 41 87 114
6.698649748116172 -2.175211632733618 1.9296299039505032 44 84 113
5.643171845668503 -2.279123857654481 1.812812859216909 29 72 99
5.7142167922072264 -2.535908246063756 1.809744863415455 89 135 165
6.997147528696205 -2.279123857654481 2.242131142582946 73 119 148
5.3130648923777475 -2.416113531047558 2.0294781526114054 66 113 143
9.813617269202195 0.8407979501072412 2.58888841016157 20 53 80
10.20679057731304 0.713430545002033 2.529282831304484 9 37 55
10.246241211181964 0.9534011723024679 2.5238221702245034 21 55 79
9.856574147285407 0.8288689241967409 2.412746707364994 8 32 46
9.167967279704719 2.0580719182659286 2.5013844380465855 13 48 76
9.66951389816225 1.6868733526046238 2.613543948291466 14 52 77
8.918384605560977 1.2823777652195585 2.539963650267525 7 42 63
8.639419773443882 1.4963101374842047 2.396885421224232 4 27 43
9.66951389816225 1.6868733526046238 2.613543948291466 14 52 77
9.759225327465202 1.2823777652195585 2.5979912021528238 14 51 75
8.918384605560977 1.2823777652195585 2.539963650267525 7 42 63
9.543486994276648 2.159663396773203 2.6366427500411636 19 65 92
9.32467876082979 1.957703670346202 2.6808795397972887 23 66 94
8.820124942835088 1.6868733526046238 2.5563879299140146 8 42 64
9.518481447994688 1.8325396975067056 2.453469168669818 8 40 63
9.20285901001181 1.4577806906460848 2.7083106472881484 12 53 81
9.209838433730141 1.716724092369126 2.7066753534853976 39 83 111
8.681776833713032 2.159663396773203 2.580892147745114 21 63 89
8.440659865978427 1.957703670346202 2.6281830896845166 18 60 86
8.402686991598951 0.1531738824785325 2.427979753410371 17 64 95
8.440876647369404 -0.21039141927802188 2.42276993349956 12 61 96
8.701844271088783 -0.06592620717692906 2.857256064407185 53 104 140
9.874218897603303 0.5693628856294114 2.579017426317768 13 59 94
8.362223007516972 -0.02957563008094254 2.4335866798289194 21 68 99
7.747076784100531 -0.06592620717692906 2.8210382645037884 59 111 148
8.198189655658867 -0.32582205600312253 2.6833650425968107 21 72 107
8.398329511207095 -0.5614140056123863 2.6371944552008753 44 94 126
8.33488412976453 -0.8805567442385364 2.4374268405577 93 126 153
8.33488412976453 -0.8805567442385364 2.4374268405577 93 126 153
8.794417743054016 -0.7534273612134967 2.37795800569173 54 91 117
8.365528886133218 -0.9142365011888627 2.6443435881957633 60 114 150
8.367804878860605 -0.6191175164607818 2.4328078136561846 35 78 106
8.83256694890084 1.4185093548504841 2.8103598392700215 19 63 92
8.83256694890084 1.4185093548504841 2.8103598392700215 19 63 92
8.405800902004245 1.0918705202467807 3.028863447637984 22 75 111
8.563636135163348 1.338163218104975 2.919047708499608 47 97 131
7.493044022025145 -0.11154139921344015 2.9475690550579996 76 131 168
8.554076728916916 -0.6799077492390608 2.924041225131579 47 102 139
8.443976474473107 -1.211693147930533 2.9942210381623298 27 83 120
8.443976474473107 -1.211693147930533 2.9942210381623298 27 83 120
7.367103822620126 -0.3535456413916842 3.078504038760519 72 127 163
8.571136089966881 1.8684760804158822 2.9152134087358834 45 96 129
7.563703710426446 2.6491906882489107 2.904690765382535 37 93 127
8.538999287893754 2.6491906882489107 2.932178967119728 54 109 144
8.839838738578482 1.7669783202521316 2.807976098652444 57 105 135
9.186934687837258 2.305357338170714 2.71207296959574 43 91 120
8.499184301290917 -3.0391480335274217 2.955502795257327 50 106 141
8.768088941418755 -2.1973961404420495 2.8324544692332845 66 124 158
8.64585875823637 -1.8262234295535915 2.8803252493707587 76 133 168
8.451582616215298 -2.0232511250761047 2.9882774774746976 33 92 127
8.451582616215298 -2.0232511250761047 2.9882774774746976 33 92 127
8.014929418232198 -1.433801294691855 2.7321529347888114 56 111 148
8.13084150392729 -1.144427905705857 2.7004549625387537 50 104 140
8.13084150392729 -1.144427905705857 2.7004549625387537 50 104 140
8.154514922039114 -2.030347718686158 2.694346024556923 46 101 135
7.614744481965888 -1.705585793986711 2.5575310445448385 85 125 159
9.496322133278422 2.205627212032851 2.45631220757201 12 46 72
11.225675885071816 2.6719285702394386 2.284935305613606 24 64 89
10.577678812453401 2.6123779262070066 2.3393425571699327 30 71 97
8.7450122378109 2.205627212032851 2.383877323116172 2 34 57
10.597683900605437 2.6719285702394386 2.2135707258438275 11 44 66
8.213807512574995 2.9103586238770243 2.679525057065972 50 107 140
10.203280058834972 2.822361657382433 2.529772860145486 49 102 134
10.07117415735024 2.991903203877883 2.548725295866378 48 100 130
9.51463498910204 2.468945146978437 2.64215629576962 42 90 119
10.203280058834972 2.822361657382433 2.529772860145486 49 102 134
9.265522323350408 2.6652200521979155 2.6939144534846595 60 110 140
9.08257418476858 -3.0965051141136537 2.7378888819548255 12 69 101
10.075697186300104 -2.826744343375828 2.760391407439721 65 118 151
10.009897543998934 -3.0965051141136537 2.7771428265847558 73 127 163
10.009897543998934 -3.0965051141136537 2.7771428265847558 73 127 163
10.924166971689093 2.7825216110541158 2.3091134780104503 49 91 116
10.924166971689093 2.7825216110541158 2.3091134780104503 49 91 116
10.996081530600652 2.733367733062634 2.4334695936926 47 93 120
18.251386734515822 -1.3178515555213002 1.8115886384065092 18 38 43
18.84210584415812 -1.331238445513824 1.6959735403584189 8 26 31
19.337744246158028 -1.2302289406191744 1.48549412056095 51 71 76
18.8503133343274 -1.7110662141423263 1.803794005712396 6 22 27
18.216314053396083 -1.5468072347994672 1.6451084558398046 3 18 24
18.368736556830182 -1.491903105623975 1.6992170274087541 4 21 27
18.730196815124287 -1.491903105623975 1.8053161319808586 8 25 31
18.64482281446488 -1.7110662141423263 1.7515853694107022 4 20 26
19.351089183292704 -1.600236204956843 1.4335491327348273 0 15 21
19.23979073688898 -1.600236204956843 1.4850587659130854 0 15 21
19.139228114399778 -1.868103319069338 1.6940202820875634 0 15 19
19.248041012187947 -1.601856255889062 1.9071325924391833 5 25 28
7.29587444948929 1.4963101374842047 2.210007860240086 11 26 40
6.436150158538039 1.6671296737063164 1.146854466676957 11 23 36
6.519250645272728 1.984587373515881 1.7797683969778948 12 27 40
7.399688441380682 1.795648134832931 1.8943224266745873 10 29 45
8.118384016172843 1.5071693522732474 2.136633148324805 16 29 41
6.862111843734821 1.5071693522732474 1.6221803119190508 7 17 29
7.384880089814749 1.2286573124280717 1.75497317846156 5 11 17
8.667474161004659 -0.7594585267718915 2.0968895469520534 102 128 150
6.224419525600723 -2.0319371307101335 1.9583649128561689 48 90 118
6.609046325118889 -1.5001854197637672 1.934719892407858 113 123 150
7.300426238014887 -1.5100199348883552 1.7571286567526667 46 53 74
6.7776480700964505 -1.81944596616933 1.9252617396004426 120 162 192
8.450739230346512 -0.17845087446883737 2.256697101373609 3 42 67
8.74756785514223 -0.401941366954142 1.964101572305977 10 46 67
6.423019423823049 -2.279123857654481 2.1199231299930292 56 99 128
8.747060306441005 1.329698155603775 2.383629875714966 5 29 46
8.639419773443882 1.4963101374842047 2.396885421224232 4 27 43
10.211219269040768 1.2129280544122953 2.728538654226134 9 51 79
9.95559988021721 1.1044822112381767 2.566183622483646 7 44 69
8.939972820119701 1.8834422850755115 2.536455218596286 7 40 63
10.246241211181964 0.9534011723024679 2.5238221702245034 21 55 79
9.660157808449428 0.7274037674059138 2.2884150136997343 28 45 54
8.043539863892228 -0.45330380515183344 2.481210217788165 56 105 136
8.198189655658867 -0.32582205600312253 2.6833650425968107 21 72 107
8.740736168631377 0.3317935929014176 2.8424079960437547 39 89 122
8.041172090937323 -0.7256566375677196 2.7246966459019015 39 92 125
9.874218897603303 0.5693628856294114 2.579017426317768 13 59 94
8.959422913409666 2.0743698658051892 2.771386689463312 65 113 143
8.576581996108352 -2.503175472950279 2.9124728763909 51 107 141
8.576581996108352 -2.503175472950279 2.9124728763909 51 107 141
8.83256694890084 1.4185093548504841 2.8103598392700215 19 63 92
7.67577153324563 -1.3718071037456663 2.8503135381804756 56 110 146
8.576581996108352 -2.503175472950279 2.9124728763909 51 107 141
7.796727429718615 -0.984332110554587 2.802380555983983 57 110 146
8.499184301290917 -3.0391480335274217 2.955502795257327 50 106 141
8.41344155630695 2.1627456152916857 3.0211072043986484 40 94 128
7.538175095296395 0.5289416580693477 2.9191511418910157 34 89 125
8.373029545514136 -2.8639538294215714 3.0714621668594364 45 100 136
9.186934687837258 2.305357338170714 2.71207296959574 43 91 120
8.554076728916916 -0.6799077492390608 2.924041225131579 47 102 139
9.000438528310006 -2.441371345757166 2.7598168934453646 37 91 125
8.081027080907225 -2.441371345757166 2.7136963842049475 42 93 128
8.694416822880653 2.2755888038441605 2.8601938871981103 65 116 149
9.915071561832066 2.326965384336779 2.406162987074526 12 44 66
9.987931669878817 2.5376277472914195 2.3981356585375773 15 51 75
11.225675885071816 2.6719285702394386 2.284935305613606 24 64 89
9.859343488649985 2.3190757799502215 2.5814147857421466 26 71 100
11.295671032699069 2.6123779262070066 2.4030313971052397 32 75 103
10.577678812453401 2.6123779262070066 2.3393425571699327 30 71 97
11.225675885071816 2.6719285702394386 2.284935305613606 24 64 89
10.203280058834972 2.822361657382433 2.529772860145486 49 102 134
10.203280058834972 2.822361657382433 2.529772860145486 49 102 134
9.11984259037209 2.9103586238770243 2.7284269495601814 52 108 139
10.07117415735024 2.991903203877883 2.548725295866378 48 100 130
9.519541156961399 -3.1063742047537053 2.641212452714352 30 83 113
19.14084552802054 -1.2799710522396837 1.4320319081146768 47 64 70
19.278310287713214 -1.2302289406191744 1.5372003159849643 48 68 73
18.94154660494591 -1.601856255889062 1.8572759812027968 7 23 27
18.74048566033079 -1.6567177988894186 1.8051849650679443 7 22 26
18.705888580440753 -1.331238445513824 1.5361718344847737 0 18 25
18.52337382103381 -1.491903105623975 1.7527839345013454 5 22 29
19.16900695448474 -1.5480587786587194 1.589183683610144 2 18 23
19.176702860542868 -1.5480587786587194 1.537022240568874 1 18 24
19.406008414844234 -1.6522539211177714 1.4339399906884156 0 13 19
19.453497444734406 -1.9176363828660763 1.6920197206472365 0 11 15
19.139228114399778 -1.868103319069338 1.6940202820875634 0 15 19
7.203742669913099 -1.0411803353873494 2.408351790980012 69 107 136
8.257527078604998 -0.5266954124769965 2.276001561567061 23 65 92
8.298816076891296 -0.9467775487593268 1.9866455915329668 51 59 79
9.732933735163122 1.984587373515881 2.4270903654428277 3 32 57
9.987818533657267 2.0580719182659286 2.561229253015105 18 54 80
9.001394562707777 1.984587373515881 2.3542325910727233 2 25 41
9.701831474146715 0.9211470988655093 2.28467178440619 14 29 41
8.440659865978427 1.957703670346202 2.6281830896845166 18 60 86
8.939972820119701 1.8834422850755115 2.536455218596286 7 40 63
9.916913272401734 0.6149319337232904 2.405957743238891 13 33 47
9.20285901001181 1.4577806906460848 2.7083106472881484 12 53 81
8.117184775615996 -0.046771571885471305 2.7040317307409167 50 99 132
7.493044022025145 -0.11154139921344015 2.9475690550579996 76 131 168
8.538999287893754 2.6491906882489107 2.932178967119728 54 109 144
8.158864120257928 0.23956149067866558 2.693235979812157 37 86 118
8.022942327880791 -1.747451285436749 2.729857552849294 30 85 121
8.365528886133218 -0.9142365011888627 2.6443435881957633 60 114 150
8.36535198020952 -0.3535456413916842 3.0860407651974935 46 102 138
8.709395129828014 -0.7437440897738613 2.575862166103824 70 114 146
8.768088941418755 -2.1973961404420495 2.8324544692332845 66 124 158
8.563636135163348 1.338163218104975 2.919047708499608 47 97 131
7.747076784100531 -0.06592620717692906 2.8210382645037884 59 111 148
10.914006099725635 2.3320895530657464 2.3099610170983436 3 34 57
9.02783246453176 2.3190757799502215 2.5225253319094483 10 51 76
10.257139660162844 2.733367733062634 2.370016632605192 51 97 124
9.265522323350408 2.6652200521979155 2.6939144534846595 60 110 140
18.69799889302048 -1.331238445513824 1.5896469207034358 0 13 22
18.828778711640396 -1.3178515555213002 1.914928319089233 31 51 56
8.064224914301825 -0.32392552434230665 2.1409043387377213 0 36 59
6.793447467143715 -1.4664507497747172 2.4781614309221798 93 129 163
8.402686991598951 0.1531738824785325 2.427979753410371 17 64 95
7.563703710426446 2.6491906882489107 2.904690765382535 37 93 127
10.042833719141909 2.118829677030317 2.3922090014543422 6 37 60
7.606301565700154 -1.4664507497747172 2.55921247009235 90 126 160
8.576581996108352 -2.503175472950279 2.9124728763909 51 107 141
9.209838433730141 1.716724092369126 2.7066753534853976 39 83 111
9.859343488649985 2.3190757799502215 2.5814147857421466 26 71 100
9.915071561832066 2.326965384336779 2.406162987074526 12 44 66
8.118384016172843 1.5071693522732474 2.136633148324805 16 29 41
6.892908961654127 1.653113116079979 1.4767128556986653 9 21 34
6.38715382281949 1.984587373515881 1.6260050514888245 12 27 40
8.198189655658867 -0.32582205600312253 2.6833650425968107 21 72 107
8.014929418232198 -1.433801294691855 2.7321529347888114 56 111 148
8.117184775615996 -0.046771571885471305 2.7040317307409167 50 99 132
8.709395129828014 -0.7437440897738613 2.575862166103824 70 114 146
9.662866500655776 1.480993442483524 2.6147245254776497 15 53 77
8.812836886608327 1.480993442483524 2.5576371320796856 7 41 64
10.246241211181964 0.9534011723024679 2.5238221702245034 21 55 79
9.303983229826795 1.2129280544122953 2.685381548872356 22 65 91
8.635393651986346 -0.378365845076583 2.3973913702105776 4 54 89
9.519541156961399 -3.1063742047537053 2.641212452714352 30 83 113
10.430019127995857 2.6697749433137186 2.4994401837559996 50 96 124
7.933138029950185 1.4963101374842047 2.311347546000741 13 25 37
9.813617269202195 0.8407979501072412 2.58888841016157 20 53 80
18.140425375026517 -1.4298016564287823 1.8703108096357088 9 26 33
11.141905093521466 2.4257769300836567 2.4183183425354744 16 53 77
8.83256694890084 1.4185093548504841 2.8103598392700215 19 63 92
