11.989911148838615 1.7441111683404595 1.4062874548879472 118 40 176
11.85381938482437 1.404105758428315 1.4894194908312155 118 40 176
12.825494276773458 1.168295576324316 1.7302516552157645 118 40 176
12.192301222752548 1.3219789518875704 1.738609403808825 118 40 176
11.988814033828596 1.404105758428315 1.7414854563609412 118 40 176
11.736193539327616 1.48856118082715 1.6592227753128466 118 40 176
11.696909490286206 1.5742060625381444 1.659520535793618 118 40 176
11.873356614148 1.7441111683404595 1.6581986331095562 118 40 176
11.873356614148 1.7441111683404595 1.6581986331095562 118 40 176
12.34908418865053 1.2431355004319626 1.654823499790429 118 40 176
12.34908418865053 1.2431355004319626 1.654823499790429 118 40 176
12.674605802607966 1.2431355004319626 1.8127178482241906 118 40 176
12.39859206050815 1.3219789518875704 1.818214773241937 118 40 176
12.078244522515691 1.48856118082715 1.8249199703566505 118 40 176
12.084820909242502 1.6598010740879525 1.8247786266581048 118 40 176
12.211566207487762 1.7441111683404595 1.8220852680898971 118 40 176
12.417801821226224 1.8260091482214567 1.8178240415885454 118 40 176
11.104232280406 1.668107257655019 1.3006361482758442 118 40 176
11.097074789079603 1.4808799545050304 1.3004575266682803 118 40 176
11.097074789079603 1.4808799545050304 1.3004575266682803 118 40 176
11.075277764697072 1.5745261976369251 1.8485161927674112 118 40 176
10.843841643468927 1.5745261976369251 1.7597148081090002 118 40 176
11.430450590871892 1.4808799545050304 1.9317111436431542 118 40 176
11.437399458493532 1.668107257655019 1.9314818327575896 118 40 176
8.981856236177702 1.5767694046350749 2.3077973166184966 118 40 176
12.374793046734826 1.90455757601639 1.6546485210824025 118 40 176
13.164133416685699 2.0490509229062543 1.649609851265286 118 40 176
13.164133416685699 2.0490509229062543 1.649609851265286 118 40 176
14.198326992057229 2.1143167707636166 1.859061794307716 118 40 176
14.514315876056417 2.1143167707636166 1.9251645996813787 118 40 176
14.056525620456538 2.0490509229062543 1.9372415331224764 118 40 176
13.46997255251198 2.0490509229062543 1.7981732394780325 118 40 176
12.93573629758121 2.2010102071292112 1.1769866240520972 118 40 176
13.211944850817646 2.086647634735802 1.185657863528373 118 40 176
12.713432043379939 2.265373482191422 1.4157277722254582 118 40 176
13.10651332451023 2.1548346011867956 1.3427101478030525 118 40 176
11.770400716687067 1.9333204769203713 1.316276334550925 118 40 176
11.770400716687067 1.9333204769203713 1.316276334550925 118 40 176
13.832672988956984 2.4303680525830806 1.2801868148062023 118 40 176
13.258343905993485 2.3235101305349284 1.4980563026771068 118 40 176
14.23788551744471 2.3759421696641216 1.3611170445780219 118 40 176
13.804530241913596 2.3235101305349284 1.2795770433945888 118 40 176
13.926091050167283 2.3759421696641216 1.5734128564245784 118 40 176
10.726282668739993 2.7928195914495304 1.4808431973223244 118 40 176
13.685664040021276 2.2173909340584155 1.7945281570298386 118 40 176
12.809066922762726 2.1548346011867956 1.6517992827826713 118 40 176
11.07727548067412 2.617145869596952 2.147112534258271 118 40 176
11.399184135932295 2.5829134753529086 1.9327466351553229 118 40 176
12.301054465099003 2.5072845545691655 1.9926270731248295 118 40 176
13.263839379407441 2.3235101305349284 1.6490161841492745 118 40 176
10.609752917785071 2.6664217402215455 1.861047698604474 118 40 176
11.106063379792227 2.7928195914495304 1.8477260298584832 118 40 176
10.211032805968731 2.7577584562608477 1.872731455316286 118 40 176
11.113080484488362 2.7077805830275214 1.664194947007247 118 40 176
11.673831619234072 2.822214337571877 1.6596963967932659 118 40 176
11.250485937561923 2.7077805830275214 1.7528085182152755 118 40 176
11.823091173890877 2.6664217402215455 2.106636263214457 118 40 176
11.823091173890877 2.6664217402215455 2.106636263214457 118 40 176
12.699396659442575 1.168295576324316 1.4948487072217473 118 40 176
12.021083859336821 1.3219789518875704 1.5738275047241608 118 40 176
12.065626097711249 1.3219789518875704 1.6568023778512384 118 40 176
12.825494276773458 1.168295576324316 1.7302516552157645 118 40 176
12.39859206050815 1.3219789518875704 1.818214773241937 118 40 176
11.859965681280997 1.404105758428315 1.6582975704049256 118 40 176
11.736193539327616 1.48856118082715 1.6592227753128466 118 40 176
12.680613591599512 1.3219789518875704 1.8947485329656142 118 40 176
11.055519965420821 1.5745261976369251 1.2994157431270832 118 40 176
11.437399458493532 1.668107257655019 1.9314818327575896 118 40 176
11.557497474755136 1.3887843893161635 1.9275652467701772 118 40 176
13.612530457895433 2.1143167707636166 1.5734731275490705 118 40 176
14.719780643908154 2.1748171950550774 1.8485734124595539 118 40 176
12.736363522642907 1.9790559395753862 1.6522626973230874 118 40 176
13.763965177965828 2.1143167707636166 1.7192958242411147 118 40 176
13.832672988956984 2.4303680525830806 1.2801868148062023 118 40 176
13.263839379407441 2.3235101305349284 1.6490161841492745 118 40 176
14.008251179022981 2.2745550798448857 1.644851675993319 118 40 176
11.084607480119807 2.5829134753529086 1.8482762481299073 118 40 176
11.810605223657547 2.7928195914495304 2.0113424666832325 118 40 176
11.106063379792227 2.7928195914495304 1.8477260298584832 118 40 176
11.989911148838615 1.7441111683404595 1.4062874548879472 118 40 176
12.705133901969953 1.168295576324316 1.6524633900589205 118 40 176
12.211566207487762 1.7441111683404595 1.8220852680898971 118 40 176
11.74296148573007 1.6598010740879525 1.6591716784197879 118 40 176
12.198546549252825 1.404105758428315 1.8223592731734402 118 40 176
12.417801821226224 1.8260091482214567 1.8178240415885454 118 40 176
11.055519965420821 1.5745261976369251 1.2994157431270832 118 40 176
11.006293291548992 1.3887843893161635 1.3914325737881919 118 40 176
10.843841643468927 1.5745261976369251 1.7597148081090002 118 40 176
14.056525620456538 2.0490509229062543 1.9372415331224764 118 40 176
12.374793046734826 1.90455757601639 1.6546485210824025 118 40 176
12.803376253109535 2.1548346011867956 1.4954666720046113 118 40 176
13.344615853843225 2.2173909340584155 1.5735268687572728 118 40 176
10.726282668739993 2.7928195914495304 1.4808431973223244 118 40 176
12.431770183132295 2.0127559940053446 1.246306548957782 118 40 176
10.73307466865096 2.7928195914495304 1.6675119069531605 118 40 176
11.790431499374948 2.5829134753529086 2.0121492793760787 118 40 176
11.042410158568677 2.5289472317128365 2.0444036664731158 118 40 176
7.417120651623066 2.406719090310045 2.317235090565876 118 40 176
14.193066867367154 0.9289708741043413 1.213526920021145 118 40 176
12.078244522515691 1.48856118082715 1.8249199703566505 118 40 176
11.465726326752925 1.8488035443252417 1.3093568595945617 118 40 176
11.390112095223465 1.5745261976369251 1.9330482259613853 118 40 176
11.390112095223465 1.5745261976369251 1.9330482259613853 118 40 176
13.947028837599008 2.1143167707636166 1.7902661306607677 118 40 176
13.368276147395822 2.3235101305349284 1.4233807684998132 118 40 176
12.905753691477198 2.265373482191422 1.3390977216144588 118 40 176
10.93799492379711 2.6664217402215455 1.9487604554397233 118 40 176
13.287643506246985 2.4303680525830806 1.4982169788730897 118 40 176
12.149970611601482 2.0127559940053446 1.324395419437085 118 40 176
11.042410158568677 2.5289472317128365 2.0444036664731158 118 40 176
11.823091173890877 2.6664217402215455 2.106636263214457 118 40 176
7.417120651623066 2.406719090310045 2.317235090565876 118 40 176
12.472880833028952 1.2431355004319626 1.734799799886242 118 40 176
11.084607480119807 2.5829134753529086 1.8482762481299073 118 40 176
11.430450590871892 1.4808799545050304 1.9317111436431542 118 40 176
12.085365121423694 1.8260091482214567 1.6566615576537673 118 40 176
11.74296148573007 1.6598010740879525 1.6591716784197879 118 40 176
