8.410608700427368 1.3707417083146314 1.2836579648520612 114 26 185
7.222440335876304 1.3427054449813587 1.3782666551733525 114 26 185
8.333990663813767 1.3427054449813587 1.0171484542268874 114 26 185
6.959159801130821 1.4837011999049563 1.65972315353259 114 26 185
12.100257612775676 1.9885699204725713 1.1098670926581664 114 26 185
8.55869007670178 0.8402483643906827 2.6683482048749636 114 26 185
8.55869007670178 0.8402483643906827 2.6683482048749636 114 26 185
8.639809148962291 0.48645323223752335 2.650328365849763 114 26 185
9.341350661302508 -0.026253601326382766 2.7454830562738257 114 26 185
9.003051162205711 -0.03633204928832244 2.848087049933469 114 26 185
9.38464745337197 0.24619300518541193 2.7345930302972543 114 26 185
8.124535263162858 -0.39807621459628645 2.786627608133267 114 26 185
8.318491305261585 -0.6776043198125468 2.7282815292157663 114 26 185
6.5497245759447935 2.025327922776735 2.1560319985071033 114 26 185
5.931032473577861 1.6379303342172493 1.5063515868311703 114 26 185
6.951789230965578 1.469047078673191 2.118171153324464 114 26 185
6.93696414605451 1.6379303342172493 2.119474240247146 114 26 185
6.655613729750211 1.30574400491747 1.9750778066529455 114 26 185
6.487780219113184 1.469047078673191 1.986172471759733 114 26 185
6.280398628671372 1.8030974331326521 1.831368481878657 114 26 185
6.925213437395318 1.2549611531317626 2.3007626314461236 114 26 185
7.587948118520826 1.848249475618998 2.4044466572074654 114 26 185
8.049618649031084 2.1212866293238015 2.5359840615258267 114 26 185
8.309348583427603 1.066636069644916 2.7307975494199757 114 26 185
8.162932682845296 1.7066145521199003 2.774147040167497 114 26 185
7.614826639403214 2.260617684796042 2.624174839734631 114 26 185
8.27209574633543 2.0190050296024142 2.7412624629088445 114 26 185
8.309348583427603 1.066636069644916 2.7307975494199757 114 26 185
8.27209574633543 2.0190050296024142 2.7412624629088445 114 26 185
7.810394506230285 1.9143351374120223 2.581747900772784 114 26 185
7.708052039211893 1.4176162333647322 2.603305305952305 114 26 185
7.4687923118458 1.6515616693612913 2.422193861958748 114 26 185
8.210413536585921 2.4699759743239 2.7594051692667763 114 26 185
7.8627408922079915 1.7762386095574634 2.8914556150036272 114 26 185
7.875823530661598 1.264321234396737 2.885034528598632 114 26 185
7.62854261925129 1.2549611531317626 2.3986040138004 114 26 185
6.880470573231969 1.848249475618998 2.306597040484493 114 26 185
6.764072678893794 1.4484937291282027 2.3222898422130376 114 26 185
8.970539536421363 0.8713907144135007 2.8603267584480068 114 26 185
8.03741966025721 2.78044878340288 2.8171284913696377 114 26 185
8.639625358373314 -0.1556460292096956 3.0708907849913403 114 26 185
7.822049951891382 -2.4769832128484426 2.912701963342717 114 26 185
8.060928203486295 -2.713222455953972 2.808566782897567 114 26 185
7.797821281820476 2.566574256229996 2.9264444460274333 114 26 185
8.686420550474827 0.983283955846835 3.016034751373505 114 26 185
8.812480010067235 0.5141543692857712 2.9311374005621396 114 26 185
7.745659500426555 -3.0739730289839597 2.9598146711002244 114 26 185
7.745659500426555 -3.0739730289839597 2.9598146711002244 114 26 185
7.910726373181099 -1.7581309619863148 2.868722666209204 114 26 185
7.910726373181099 -1.7581309619863148 2.868722666209204 114 26 185
7.47960818898106 -1.0928674419439477 2.656884865343335 114 26 185
7.31660677940438 -1.6984024908110447 2.701056613681781 114 26 185
8.76635775457347 -0.05895534999195969 2.957381799572658 114 26 185
7.47960818898106 -1.0928674419439477 2.656884865343335 114 26 185
7.330664138572257 -1.378368208511256 2.6970064020180704 114 26 185
7.438200912606686 -1.9948517578355434 2.6675644581151117 114 26 185
7.438200912606686 -1.9948517578355434 2.6675644581151117 114 26 185
6.645004323807692 -1.6358519401300298 1.9757610101013006 114 26 185
7.052962396551999 -1.9455189392010208 1.9510944507945822 114 26 185
7.060511644834164 -1.2659662188000411 2.283743563267535 114 26 185
6.887599058495815 -1.6485741935784364 2.3056603529957327 114 26 185
7.060511644834164 -1.2659662188000411 2.283743563267535 114 26 185
7.515789254927842 2.3016030195226365 2.073038449778861 114 26 185
8.460128890975506 2.55769143209825 2.469085654218373 114 26 185
7.98621830405616 2.434048098722953 2.547546328564015 114 26 185
8.555991379941318 2.6304232556773903 2.6689645574974357 114 26 185
8.056986342302967 -2.402749341460506 2.5346646296859667 114 26 185
8.412648902315938 -2.8298732097360384 2.7034612984924706 114 26 185
8.341668729954563 -3.113748567749782 2.7219912580284213 114 26 185
7.737452548037997 -2.263350241764977 2.3834059286577363 114 26 185
7.507965526919808 1.2103215980596833 1.3856750360736019 114 26 185
6.944350451233864 1.628231527341308 1.659913299779778 114 26 185
8.27287133843923 0.6318881631155469 2.74104098225711 114 26 185
8.913869966358982 0.6786258609630227 2.5956298392872563 114 26 185
8.639809148962291 0.48645323223752335 2.650328365849763 114 26 185
8.124535263162858 -0.39807621459628645 2.786627608133267 114 26 185
9.047966947107941 0.3347414884807317 2.832085035016861 114 26 185
9.003051162205711 -0.03633204928832244 2.848087049933469 114 26 185
8.497880629339292 -0.2949484404371561 2.682519537758642 114 26 185
8.901160193215677 -0.02055178432127411 2.5979845733274285 114 26 185
7.1086760694163145 1.30574400491747 2.104773946800158 114 26 185
7.1086760694163145 1.30574400491747 2.104773946800158 114 26 185
6.764072678893794 1.4484937291282027 2.3222898422130376 114 26 185
7.694684157980458 1.6721151908648249 2.6062219566737577 114 26 185
6.748835251896009 1.6515616693612913 2.324401580142555 114 26 185
8.175534963094899 1.3661723507764858 2.7701630925302663 114 26 185
7.4687923118458 1.6515616693612913 2.422193861958748 114 26 185
8.162932682845296 1.7066145521199003 2.774147040167497 114 26 185
8.014642739027494 0.8713907144135007 2.8256867189219284 114 26 185
7.976013565050935 2.2034648250600615 2.8408569681374436 114 26 185
7.976013565050935 2.2034648250600615 2.8408569681374436 114 26 185
8.498333135881266 2.260617684796042 2.682411827350119 114 26 185
7.361486717796075 2.0190050296024142 2.688296976596034 114 26 185
7.92372978460688 -1.2905158224910573 2.862918714541077 114 26 185
8.061724111354183 -0.9175916900611951 2.8082814882504574 114 26 185
7.822049951891382 -2.4769832128484426 2.912701963342717 114 26 185
7.822049951891382 -2.4769832128484426 2.912701963342717 114 26 185
8.639625358373314 -0.1556460292096956 3.0708907849913403 114 26 185
6.902530169344835 -1.4529935928696311 2.303707216223284 114 26 185
6.769094865246709 -1.098449105648204 2.134705279845943 114 26 185
6.978036261915812 2.1764803421252434 2.1158801946202312 114 26 185
8.40181280716881 2.2866943939785926 2.4778499552802704 114 26 185
7.679121509220795 2.6304232556773903 2.609648540723044 114 26 185
8.460128890975506 2.55769143209825 2.469085654218373 114 26 185
8.390125913653856 2.8811254600938825 2.7092267205699345 114 26 185
8.056986342302967 -2.402749341460506 2.5346646296859667 114 26 185
10.618843129447246 -3.128802821131047 2.3708705194969424 114 26 185
7.737452548037997 -2.263350241764977 2.3834059286577363 114 26 185
12.100257612775676 1.9885699204725713 1.1098670926581664 114 26 185
8.175534963094899 1.3661723507764858 2.7701630925302663 114 26 185
6.280398628671372 1.8030974331326521 1.831368481878657 114 26 185
7.694684157980458 1.6721151908648249 2.6062219566737577 114 26 185
6.471892321677881 1.6379303342172493 1.9872554380210734 114 26 185
6.655613729750211 1.30574400491747 1.9750778066529455 114 26 185
7.330664138572257 -1.378368208511256 2.6970064020180704 114 26 185
7.86143570184566 -0.5991387138180239 2.8921062764227967 114 26 185
7.31660677940438 -1.6984024908110447 2.701056613681781 114 26 185
7.6890136472879105 -2.2298488573234314 2.607466585485262 114 26 185
7.986822844437264 -3.102142859554821 2.8365234644190815 114 26 185
6.5497245759447935 2.025327922776735 2.1560319985071033 114 26 185
7.31660677940438 -1.6984024908110447 2.701056613681781 114 26 185
6.334501012020872 -1.472185406108198 1.8290918723274763 114 26 185
6.97794953590469 -1.4245923237865965 2.5066629608598765 114 26 185
7.353507590345092 -2.100422826721835 2.4402781168437238 114 26 185
7.090837456139161 -1.8996029521344329 2.4853589303744386 114 26 185
8.056986342302967 -2.402749341460506 2.5346646296859667 114 26 185
8.412648902315938 -2.8298732097360384 2.7034612984924706 114 26 185
7.8339680048644915 2.025327922776735 2.370484174512533 114 26 185
8.55869007670178 0.8402483643906827 2.6683482048749636 114 26 185
7.797821281820476 2.566574256229996 2.9264444460274333 114 26 185
8.060928203486295 -2.713222455953972 2.808566782897567 114 26 185
6.778656247022688 -1.7961303284546724 1.9673245002270785 114 26 185
8.27209574633543 2.0190050296024142 2.7412624629088445 114 26 185
7.065095159693363 1.8030974331326521 2.108425150630257 114 26 185
7.4825637682287836 1.4484937291282027 2.420095388772957 114 26 185
7.849838736389546 1.1813173030599489 2.5737809350061336 114 26 185
7.706514607655472 -1.9187668699625053 2.989919037868764 114 26 185
8.812480010067235 0.5141543692857712 2.9311374005621396 114 26 185
8.27287133843923 0.6318881631155469 2.74104098225711 114 26 185
7.6890136472879105 -2.2298488573234314 2.607466585485262 114 26 185
