9.095284191774045 0.3303187206821812 1.864960271338521 30 45 62
8.836154071011782 0.21791731325756192 1.8738568198591599 30 45 63
9.485746298944083 0.09965497581587754 2.0815646680896993 33 49 68
9.92606012410511 -0.01913474561282114 1.9459524351599549 35 49 65
9.697404578571584 -0.2584439520224917 2.0693752488067165 24 37 50
10.307834232327505 -0.11447776366665371 1.5355813582707547 18 31 42
8.915790246341102 -0.2584439520224917 1.871065051011959 15 27 38
10.047905316276266 -0.14194752860308368 2.1664148879064085 39 54 71
8.600236257495672 0.28453801909516513 2.2855838854408996 41 57 75
8.646976418543549 0.3352072543842195 2.445824183236174 43 59 79
8.266587538116614 0.42524989677000713 2.166320856953996 44 59 76
8.59006302572494 0.6308838059971291 2.2866121858925714 41 55 69
8.783958457702207 0.2469011756301064 2.126926843595165 39 54 73
8.194059251887916 0.49467741806190935 2.3294539076440324 54 70 88
9.424621135737677 0.5880610182301329 1.9669937405376192 33 46 61
8.324668865159957 2.5587893662008567 2.732303782463799 29 45 63
8.97737507512731 2.1970922867471985 2.588118647749486 27 42 58
8.324668865159957 2.5587893662008567 2.732303782463799 29 45 63
9.203687925270161 1.9217740786191022 2.5495191939627855 21 34 48
9.105736859545654 0.6845100235465994 2.819364746772632 7 21 39
9.922201054776542 1.728290559881248 2.626974526329002 21 34 49
9.885372084721617 0.9758054772830369 2.916993144918454 5 20 37
10.044855628235787 1.4880975399959075 2.855681315151581 26 41 59
10.044855628235787 1.4880975399959075 2.855681315151581 26 41 59
8.673850111041551 2.792901969911741 1.8797132826330198 46 65 86
9.248038599519926 2.7462817926032637 2.226281377430224 61 81 100
9.234090116728094 2.6862629231629715 2.3728119843277526 81 100 117
8.99331096847728 2.878366849619374 2.2482469202010122 38 57 79
8.97098963622578 2.498295499940623 2.5892716787757966 18 34 51
9.819907909702732 2.6841142481442652 2.062595588018244 54 71 87
8.97896678473524 2.835327312842417 2.40265039700521 42 61 82
9.226995167988807 2.910990384819025 2.09734943846937 43 63 84
8.976231264780273 2.936520771334412 1.6418307101341227 30 50 71
9.702579510916019 2.7303154998981585 1.7403341089271955 43 61 80
9.33386669942146 2.936520771334412 1.8572254847225627 42 60 81
8.376668727468758 -0.3489638601061388 2.7182213814492755 65 84 104
9.887696331449398 -0.16125142606246348 2.306685955888281 44 60 77
7.96005285608381 -0.2710776374355552 2.556750261878354 69 88 105
8.295490023635121 -0.05458740802067909 2.7404897986930066 43 59 80
8.249483061592791 -0.7724069145592386 2.7538509418441373 94 113 130
7.915528598685088 0.1920495991686969 2.5653010147555744 29 45 67
8.454410071548146 -0.03374942175031477 2.4735636850804217 52 70 90
9.669093281218254 -2.9148599597468765 3.0602022046422923 82 98 118
9.717377718728438 -0.14223383033498838 3.0129520296512764 61 77 97
9.750590007323488 0.5883449756674436 2.9888609017054972 108 124 143
9.25936825148355 0.2492764633312697 2.7728858223899735 58 73 91
8.709981097654675 2.3201532771021065 3.012124782272677 121 139 159
8.854136790096016 2.7053551749359723 2.919714357947694 129 147 167
9.799149578260863 -3.0418602331894937 2.9594694483650605 74 92 114
9.145192964011658 -2.7393640827493275 2.8066826129858904 54 76 99
8.642061523895496 -0.6467747537969977 3.1076542105057086 48 67 89
8.80378805083858 -0.7616321906297231 2.946680141309544 61 81 100
8.642061523895496 -0.6467747537969977 3.1076542105057086 48 67 89
9.326734615423106 -2.4748551088388897 2.7546223992491834 120 142 164
8.940024800528883 -1.9091622995307898 2.8805221000328385 126 146 164
8.992224879395055 -1.0550574676216151 2.8596109263645775 99 119 136
8.75046394178893 -2.147840907050643 2.9804406250650057 42 62 81
10.036442643296306 -2.252394411559193 2.858546789272387 39 59 82
8.844945811776181 3.0205074736161017 2.261815291744194 45 66 88
8.830360624510302 2.9997676787931007 2.4213126265505793 43 65 88
8.065638417047358 -3.110954894240694 2.3446564562528356 59 83 107
9.05734737500289 -2.780623924435493 2.393201585583855 82 107 131
9.597836122116814 -3.1188419456163303 2.198550688323359 40 62 86
8.793673464282445 -3.110954894240694 2.4260796583889226 50 72 97
8.793673464282445 -3.110954894240694 2.4260796583889226 50 72 97
9.078784036400108 -2.8995355939087544 2.5702973892667513 60 83 107
9.72458271843588 -2.830335638961293 2.3219820863931666 68 92 115
11.05294428390812 3.06526997985019 1.3553520012742832 25 45 62
9.936412302961626 3.0574899281451584 1.736307096809682 28 49 68
10.915520864351766 -3.0327257201491324 1.4456093145065898 36 54 69
10.853348400497214 -3.1251801960711836 1.4448883889786879 26 45 60
10.64616841923736 -2.922290176994257 1.919450469140802 70 90 107
9.736987954934364 -2.8982019130072025 1.953610974234437 56 77 96
10.646937319167746 -2.8982019130072025 2.1287555222371384 84 106 125
9.986474859473118 -3.0081541566145766 2.0536816510280405 53 75 96
10.348297812181002 -3.094703817770627 2.7686864433798903 47 66 90
9.670571139429235 -2.617511993676379 2.675054582183904 74 97 120
9.49560540067027 -2.8387459628239267 2.713086806605676 52 74 97
9.49560540067027 -2.8387459628239267 2.713086806605676 52 74 97
10.363654663125114 -2.5536787230669997 2.5560303732548446 57 82 106
9.99400289297901 -0.12674917399776367 1.943276603237087 42 56 71
11.340205284577026 -3.0327257201491324 1.2697203177434158 31 49 60
11.675876240114645 -3.0327257201491324 1.1878347237204845 32 46 59
8.324668865159957 2.5587893662008567 2.732303782463799 29 45 63
8.954155894874548 0.48619872096308925 1.9890766089141403 35 50 67
9.810838334700222 1.4431457462248687 2.953109902797128 15 30 48
10.048982105051175 1.9217740786191022 2.605084028371903 21 34 49
9.810838334700222 1.4431457462248687 2.953109902797128 15 30 48
8.708161648177738 2.6907080891089112 2.6403853764423353 45 64 81
8.543667266577067 2.6862629231629715 2.2913447422807027 71 90 108
9.702579510916019 2.7303154998981585 1.7403341089271955 43 61 80
8.645024737247743 2.606792697258973 2.4460945695268834 64 83 100
7.874580448133397 -0.04171207927393462 2.573352505571921 56 75 94
8.444968201376867 0.1313039691170052 2.3016534999448064 39 55 75
8.043664994639142 -0.484798294992082 2.8222862930659005 57 77 96
8.492562947683783 0.15601728982216612 2.46789049546618 36 52 72
8.036537709719056 -1.0550574676216151 2.824979684310647 96 116 133
9.669093281218254 -2.9148599597468765 3.0602022046422923 82 98 118
8.679389560635684 1.2938547498704929 3.042819081261476 116 132 152
8.923076388238243 -0.07893628430839453 2.8877287039434143 57 74 95
9.641545379485072 -0.6467747537969977 3.1111735631632573 70 86 106
8.720014427758603 -1.374484702128893 3.003568331880225 73 93 112
9.675017987949516 1.2938547498704929 3.053011801200982 110 126 146
8.893963501880267 -2.5538293821578453 2.9006675215620996 34 53 77
9.492211858122973 -3.121436537459769 1.964016892830829 32 54 74
9.788337129977462 -3.1234999718668064 1.6359284953893407 18 38 56
9.039771629004072 2.9705382569560324 2.5770467162165516 65 83 104
9.526209199989632 3.0479488620056006 1.9625369113883344 40 62 83
9.971917465036183 -3.021679830101006 1.7357123820132483 24 43 59
10.152984997349886 -2.8982019130072025 2.0451025255091784 80 102 121
9.08244813184265 3.035975085175909 2.106625902193831 41 63 86
10.34730554728582 -2.922290176994257 1.8284963148398639 80 100 116
10.117306144119857 -3.1234999718668064 1.8344926744851366 45 66 86
8.554852630426597 2.926367002069298 2.6741413038495594 89 107 128
9.039771629004072 2.9705382569560324 2.5770467162165516 65 83 104
8.830360624510302 2.9997676787931007 2.4213126265505793 43 65 88
9.49560540067027 -2.8387459628239267 2.713086806605676 52 74 97
9.670571139429235 -2.617511993676379 2.675054582183904 74 97 120
9.424070123238426 -3.094703817770627 2.7300179865692127 46 65 89
9.670571139429235 -2.617511993676379 2.675054582183904 74 97 120
9.675015447171019 -0.12674917399776367 1.846855839261483 40 53 66
9.846793800040755 -0.23150133271557977 1.841917201005098 27 40 51
8.659275101751973 0.5501375645929304 2.1359019040786897 35 48 63
9.424621135737677 0.5880610182301329 1.9669937405376192 33 46 61
8.184001349856956 2.7462817926032637 2.031316358485116 44 63 84
9.941354302768506 2.957019752418379 1.5342826201765298 31 51 68
8.97896678473524 2.835327312842417 2.40265039700521 42 61 82
9.0805292252325 -2.252394411559193 2.82778584473978 131 153 173
10.027726563551685 -3.077791744042765 2.8615507303807606 64 83 106
9.894213569163032 -0.07893628430839453 2.9131145425368223 59 74 93
8.91022310931895 -1.4636986496059754 2.8933493173507583 97 117 134
9.26162749289328 -2.713165834063017 2.540280964843239 79 103 126
9.479486303205215 -3.115480862579832 2.3464072299449112 44 66 91
9.72458271843588 -2.830335638961293 2.3219820863931666 68 92 115
11.068063063500405 -2.942097759594279 1.4473435478759147 45 64 76
9.918480522810203 -3.121436537459769 2.0572791830455506 40 63 85
9.77474558187721 0.19494570952544235 1.8439666272516844 27 43 61
11.64556728972132 3.06526997985019 1.1867860355295903 28 47 63
8.658271714384968 2.0914757806393838 2.444263435872366 22 35 48
10.117665591225583 1.1587344361534297 2.8321414405107443 30 44 58
9.216568426449218 2.8300102770087845 1.531409770868433 31 49 69
8.59922598127531 2.3459423341302186 2.6640196964705183 21 37 55
8.76717000566396 2.910990384819025 1.9985773377223888 44 63 85
8.77096134517058 0.1920495991686969 2.6274685933943123 45 60 78
8.574497256823651 -0.5924210623875976 2.669622652331425 70 89 106
8.534077214052964 -0.22114321718273822 2.4618199127619227 74 90 107
10.48827202358728 -3.0081541566145766 2.138225109055308 68 91 112
8.672784729198863 -2.9148599597468765 3.0508278443336 32 51 74
9.943508958123632 -2.4408680407753582 2.623197332217094 45 68 93
11.105157799115101 -2.942097759594279 1.718752183637319 43 62 78
8.959233672184894 0.3530807491934202 2.872614032338912 108 123 141
10.047905316276266 -0.14194752860308368 2.1664148879064085 39 54 71
8.783958457702207 0.2469011756301064 2.126926843595165 39 54 73
9.334089715432732 2.3486439627322535 2.5290570084402226 27 42 57
8.08097573063292 0.40662832814023414 2.534521295768717 61 76 94
8.726583512839655 -0.14223383033498838 2.9982508881762393 55 73 95
10.259734329328737 -2.4748551088388897 2.7914137599983193 46 68 91
8.870294089484771 -2.9402787530329646 2.4161974754557924 58 82 106
8.720014427758603 -1.374484702128893 3.003568331880225 73 93 112
9.250636823291604 2.5587893662008567 2.7753364832376026 20 36 54
11.617773527528863 -3.1251801960711836 1.1858191696563813 24 40 54
9.003937768669338 -3.104531846355758 2.5833624697147703 45 67 92
9.401195465421315 0.5133646094984917 2.735628271438748 14 27 45
