10.135037030568487 0.8637241259093458 2.149873349466838 45 52 30
9.529991427748875 0.7798017861813509 2.191977267697615 45 53 31
9.644445522863068 0.6792345598707981 2.3168905678204887 45 54 31
10.349307284645064 0.6792345598707981 2.387906258673118 44 53 30
10.896795583286169 1.245737261569315 2.3357940123965664 46 50 31
10.979324257595206 1.2819782056031017 2.2096174289634964 47 50 31
10.89445447663631 1.0263413224844085 2.2154158163079787 47 51 31
10.519896874468209 1.1304058928229876 2.2424597848842414 47 51 32
10.343379146873612 0.8793681414136237 2.3885171447332065 44 53 31
10.997033546117398 1.1995733214052189 2.4609309644012343 49 56 35
10.997033546117398 1.1995733214052189 2.4609309644012343 49 56 35
10.997033546117398 1.1995733214052189 2.4609309644012343 49 56 35
12.078002744066561 1.7001709994825858 1.8688141936216014 38 43 21
11.057456124565553 1.727148285773231 2.0962431844141185 47 48 30
11.506606100989819 1.5168274505134511 2.175996540994267 46 48 31
11.13462667931224 1.7123946165995587 1.894946520842895 46 49 28
10.717836653554043 1.6465599885169167 2.493772649631725 50 58 36
10.718811996966897 1.4918100312007379 2.4936524197674372 47 55 34
10.707778556157443 1.7681560087822779 2.35288137352663 48 53 33
10.791752813014146 1.7452992032172743 2.222589374687378 48 51 31
11.348619723312126 1.5023778640068735 2.423526951843381 46 53 33
11.339121160821396 1.6286720895791942 2.298987097172502 47 52 32
11.101892124361743 0.9027851029356206 2.6058522224867775 46 56 34
11.53103873728644 1.6465599885169167 2.546129189939513 53 62 39
11.545692893083087 1.2435105159883895 2.722479586799746 52 62 41
11.003977619789488 1.4773924777555199 2.621035662675833 51 62 40
11.545692893083087 1.2435105159883895 2.722479586799746 52 62 41
11.095423901360546 1.300393082934771 2.6068350271868623 50 60 39
11.626926673674182 -0.04782265573103271 1.7041945957217397 8 10 12
11.797308790633464 0.03899861696628707 1.7883557130861532 6 9 9
11.012791459461281 0.28020636829066803 2.2073622561272286 48 60 44
11.104567213407144 0.15120817995649347 2.093785061953161 47 54 46
11.558882594332198 -0.05785902959856119 2.172871170343943 54 62 55
11.012791459461281 0.28020636829066803 2.2073622561272286 48 60 44
10.727860126748341 0.3850500685373563 2.1141510418680003 48 57 41
11.383230190155267 0.052723775463527495 2.295537273372063 45 54 43
11.278725637016993 0.25204244633930745 2.0849051802327265 48 55 46
11.898759975823948 -0.48589712283792424 1.6167345714793921 8 10 12
11.56119984561237 -0.6031752565575221 1.6180768474473388 9 11 13
11.716961418258947 -0.13393012376386274 1.703163492326266 7 10 11
11.802377474492472 -0.21808949799601982 1.6171099872371577 9 12 14
11.716961418258947 -0.13393012376386274 1.703163492326266 7 10 11
10.761008777660418 -0.39527740468912914 2.112291502055394 54 62 56
11.47961025322756 -0.18025443771174438 2.288127146720243 47 56 50
12.160357042231173 -0.18025443771174438 2.3501357041556634 44 55 45
11.568068897051898 -0.3573373824141442 2.0708345713977985 0 4 1
11.732285935421451 -0.23809576034336657 1.9687288304646309 1 7 5
11.301259089365528 -0.2620507149843781 2.083779458092393 4 9 6
11.308940787775771 -0.39527740468912914 2.188139560578741 49 57 52
11.56884075237518 -0.5283188417321447 1.8823616204967784 2 5 4
11.386388948939926 0.05972812015631788 2.4197383909245493 49 60 47
10.543192430832129 0.43051333330734964 2.240704504686613 50 58 41
10.459661328383742 0.4182286956433723 2.5271301223946843 50 59 40
10.924902721034286 0.3152217278118655 2.333327058858016 48 59 41
11.469441673183955 0.19060471259004153 2.4115510222534615 51 61 44
10.495517082931247 -1.146062654033903 2.5223047964267655 56 63 52
9.688559433692182 -0.7060075559459772 2.059244541522604 63 71 65
9.588540432968134 -0.789052900878687 2.187613940421734 50 58 51
9.688559433692182 -0.7060075559459772 2.059244541522604 63 71 65
9.691809865098787 -0.6903133687991494 2.312382711406225 56 64 55
11.482742499093426 -0.2036340671967844 2.410257720006125 44 55 46
9.588540432968134 -0.789052900878687 2.187613940421734 50 58 51
9.695980165467734 -0.8884403128493783 2.311988804071384 52 60 51
10.591775871193423 -1.0788621693644946 2.363820846751823 51 58 48
10.30115490472385 -0.967812355241819 2.259456278060267 53 60 52
9.893286262593657 -0.7884932778146271 1.9374214899702433 50 55 52
11.8480909512429 -1.3137600868130799 2.1561919496140565 58 61 57
11.8480909512429 -1.3137600868130799 2.1561919496140565 58 61 57
12.01308722301988 -1.2496008531610232 1.9589231693253117 9 11 12
10.96661155569544 -1.2498214462794954 2.329700159371802 53 59 47
10.77004888355535 -1.4286034140471782 1.7148791888424455 11 13 14
11.504234955938196 -1.3959568301872807 2.286261393459988 53 58 48
10.59007928883189 -1.5174013702135127 2.0145238255570073 86 87 79
11.416063850004317 -1.5111710069131175 2.292993381745168 55 55 44
10.874492636113944 -1.3959568301872807 2.2167964865947174 60 65 58
11.479233104674034 0.09924587513901074 2.7356706471031935 52 63 46
11.031811679727193 0.08132342173837767 2.6166514613171366 52 63 45
11.907716018006946 0.08132342173837767 2.6587510702854904 55 66 50
11.124382435775448 0.12724646872073966 2.8178299138020995 55 65 50
12.314267919855332 0.609156857815261 2.78658934470167 54 63 46
11.376541367103483 0.9416202226434575 2.7572145858282853 51 62 41
11.638152841902006 0.7765854165013054 2.7049894760470607 51 61 41
12.154956001728294 0.3914929182331627 2.82382354027878 54 64 47
11.117513568014783 0.25715398979055654 2.6034900198929565 52 61 43
12.406303634101766 -0.08441368463204721 2.586943501941273 58 69 56
11.911988153430633 -0.0996390230833592 2.6580673829959856 62 73 60
11.483664644764614 -0.1215322529197259 2.734773706729021 56 67 54
12.338186751697283 -0.95539127667636 2.78139624991825 61 70 56
11.139434673752543 -0.6669215535535334 2.600201974676564 60 69 59
12.08838663005886 -0.7933853047157746 2.8410162815216626 61 70 57
11.658700572317882 -0.2338554522293104 2.530154537114929 49 62 51
12.490721791133577 -0.2338554522293104 2.5761284923166983 64 75 63
11.222985635798272 -0.41600483620464795 2.792594317590866 53 64 51
10.862101263053475 -0.5147022147135467 2.644292573951518 63 74 62
12.65384889531528 -0.3734287514146493 2.5561275764764084 64 76 65
12.08838663005886 -0.7933853047157746 2.8410162815216626 61 70 57
11.40426093981135 -0.6283905589167678 2.751249524283874 60 70 57
11.40426093981135 -0.6283905589167678 2.751249524283874 60 70 57
11.198427808552495 1.1580296111334898 2.7986715048814435 53 64 43
10.816949674933081 0.7798017861813509 2.3429047037608095 44 52 30
10.638612926809882 0.7785525708470634 2.5036778868616256 45 55 33
9.644445522863068 0.6792345598707981 2.3168905678204887 45 54 31
10.141086958853176 0.6968865214847525 2.149483327972029 46 55 34
10.896795583286169 1.245737261569315 2.3357940123965664 46 50 31
10.997033546117398 1.1995733214052189 2.4609309644012343 49 56 35
10.248718824200829 0.5994848629928377 2.2636748129208737 46 55 34
11.995793361830403 1.613528690403405 1.8709199398522298 35 43 38
11.506606100989819 1.5168274505134511 2.175996540994267 46 48 31
10.967599739265982 1.6225586793296776 2.10100014207838 48 51 32
11.92595066344334 1.4272374960880485 2.0545113377007445 41 49 26
11.34004306842979 1.5104546125199203 2.2989146101632087 47 51 31
12.078002744066561 1.7001709994825858 1.8688141936216014 38 43 21
11.095423901360546 1.300393082934771 2.6068350271868623 50 60 39
11.531945302283367 1.4918100312007379 2.5460131649689424 49 59 36
11.53103873728644 1.6465599885169167 2.546129189939513 53 62 39
11.460421033477369 0.04270476275785258 1.9787217528793177 8 14 10
11.101730425300218 0.04270476275785258 1.8959423160397828 14 20 16
10.83435908263871 0.1686576418218945 2.2195921416922446 47 55 43
11.557316288344422 -0.4086154528008744 1.7050029052341555 8 10 11
11.382558175357275 -0.32580350730610014 1.7964177647839599 8 11 11
11.037486010555138 -0.6560186903933654 1.8035996759393478 9 11 12
11.649443241268159 -0.16164829207060902 2.167538847482237 44 52 47
10.761008777660418 -0.39527740468912914 2.112291502055394 54 62 56
11.824182374841014 -0.2620507149843781 2.1575329495991924 25 33 29
11.382165938078487 -0.23809576034336657 1.887648041761455 5 10 9
11.65689549442646 -0.2912136097422455 2.2749353342438763 50 58 54
9.85586112622844 0.4871881474073719 2.297240239875224 47 56 36
10.004196874493358 -1.0068834153152324 2.4254216764416636 52 60 49
11.659980115868931 -0.3274193430645706 2.3934740777710335 50 61 53
11.482742499093426 -0.2036340671967844 2.410257720006125 44 55 46
9.588540432968134 -0.789052900878687 2.187613940421734 50 58 51
9.899651619915982 -0.7898595576355325 2.437641867778964 55 63 53
10.578186100068354 -0.7172618053115484 1.91267483013663 2 3 3
9.046948425084054 -0.789052900878687 2.097325732949341 55 63 57
10.30115490472385 -0.967812355241819 2.259456278060267 53 60 52
11.057017673860983 -1.2048352176526522 2.454258878006345 52 59 47
9.904185189961932 -1.0788621693644946 2.2929132496401623 51 58 49
10.761696823112237 -0.7880822785896365 1.7149917915136375 7 10 10
12.099511034871567 -1.2185705315380786 2.142479052588551 3 6 4
10.781728104504296 -1.373365373102466 2.3460907389464776 53 57 45
10.740287228139563 0.7765854165013054 2.6656075629402407 48 58 37
11.561618903487165 0.31086378116782054 2.7193982929019906 52 61 43
11.561618903487165 0.31086378116782054 2.7193982929019906 52 61 43
11.658700572317882 -0.2338554522293104 2.530154537114929 49 62 51
11.750662776088923 -0.5147022147135467 2.6849018182664213 64 75 63
12.01085715456028 -0.9137524144053407 2.6426177215699096 62 71 58
11.563813256492006 0.06887524181011304 2.541958632297654 52 62 45
12.167507485506974 -0.41600483620464795 2.820702106416424 59 69 56
11.563813256492006 0.06887524181011304 2.541958632297654 52 62 45
12.402201774667036 0.06887524181011304 2.5874775910238634 53 65 49
11.479233104674034 0.09924587513901074 2.7356706471031935 52 63 46
11.40426093981135 -0.6283905589167678 2.751249524283874 60 70 57
12.159130155033612 -0.07321737962074956 2.473691448279048 48 59 47
11.198427808552495 1.1580296111334898 2.7986715048814435 53 64 43
10.52914161173419 1.07231612493728 2.3698796101295567 45 52 30
10.342355331502079 0.5348052816457399 2.1368218759922843 48 56 39
10.614962538876908 1.6364205929577285 2.361605424770743 48 55 34
11.995793361830403 1.613528690403405 1.8709199398522298 35 43 38
10.717836653554043 1.6465599885169167 2.493772649631725 50 58 36
10.812670286306544 1.34073230544261 2.4822702906761207 48 53 33
11.275164728062196 1.1390732252485667 2.5805041345986917 48 57 36
11.457840821347379 1.4565643272194737 2.740036907501774 54 64 43
10.827331187643166 1.0570719423097241 2.6502414066338345 50 60 39
11.018764631257419 0.047188713037171336 2.0982803691306384 51 59 52
11.30244418368358 -0.5283188417321447 1.7980450202134561 9 12 12
10.263166732057284 0.3598070626993305 2.3968925252976656 49 58 39
11.558882594332198 -0.05785902959856119 2.172871170343943 54 62 55
11.278725637016993 0.25204244633930745 2.0849051802327265 48 55 46
11.308940787775771 -0.39527740468912914 2.188139560578741 49 57 52
11.56884075237518 -0.5283188417321447 1.8823616204967784 2 5 4
10.303630816927607 -1.2048352176526522 2.392641737318009 50 57 46
11.556157331419277 -0.14649886958764008 1.9751442493819786 0 3 1
11.481687470941635 -0.4463111180586147 1.9779214294632077 4 9 7
10.449341792718307 0.28020636829066803 2.130329874830704 48 57 45
12.01308722301988 -1.2496008531610232 1.9589231693253117 9 11 12
11.677685130858995 -1.2852304793042941 2.2734241476623556 53 57 49
10.761696823112237 -0.7880822785896365 1.7149917915136375 7 10 10
10.59007928883189 -1.5174013702135127 2.0145238255570073 86 87 79
11.728992738828822 0.4974432821792634 2.6886766241920634 52 61 42
11.139434673752543 -0.6669215535535334 2.600201974676564 60 69 59
11.128955277983726 -0.15565628219502708 2.8166076700348714 54 64 50
12.334909785314231 -0.6283905589167678 2.782102293885508 58 68 56
11.66871580703204 -0.7911231452713853 2.6994098339412065 64 73 60
12.169592588555163 -0.4335432809990144 2.619184888367892 73 84 73
12.406303634101766 -0.08441368463204721 2.586943501941273 58 69 56
11.428800675831978 1.3938944740379322 2.2920120171786955 47 50 31
10.979324257595206 1.2819782056031017 2.2096174289634964 47 50 31
10.141086958853176 0.6968865214847525 2.149483327972029 46 55 34
10.726481991336156 0.9984922226185352 2.492708370821125 45 54 32
11.169649147488023 1.1304058928229876 2.312598942949765 47 51 31
10.812670286306544 1.34073230544261 2.4822702906761207 48 53 33
10.75362421586939 -0.6560186903933654 1.6216304741900673 11 13 15
10.745010956999293 0.19060471259004153 2.3494450294504254 51 61 46
10.77004888355535 -1.4286034140471782 1.7148791888424455 11 13 14
10.449341792718307 0.28020636829066803 2.130329874830704 48 57 45
11.930056309527624 -1.129589790680889 2.05433055350613 2 4 4
10.745010956999293 0.19060471259004153 2.3494450294504254 51 61 46
10.236742614009277 0.9604794216570194 2.264646460481498 45 52 30
10.614962538876908 1.6364205929577285 2.361605424770743 48 55 34
10.710707067690256 1.3707392343983729 2.352609796852179 46 50 31
9.046454920724042 -0.6903133687991494 2.2307798088689665 59 67 59
9.96041777607646 0.5592627143637254 2.430486679428481 47 57 36
12.073629213810102 -0.06463968176822997 2.35725754307471 45 55 45
11.999884281502228 -0.2743465943659059 2.6442982243863735 74 85 73
11.574813807374582 -0.33117774948420964 2.716867687197075 61 72 60
10.638612926809882 0.7785525708470634 2.5036778868616256 45 55 33
11.464859845045773 -0.05236471137296827 1.9785544382889608 1 4 2
11.97779235358197 0.6528394622820869 2.6477069178435233 49 59 38
11.13462667931224 1.7123946165995587 1.894946520842895 46 49 28
10.69966526912191 1.6286720895791942 2.229173104223831 47 51 32
11.5429411010625 0.1370103123124275 1.9756342619242373 30 35 30
11.728992738828822 0.4974432821792634 2.6886766241920634 52 61 42
