10.448699850926834 1.2685572093852915 1.5234951205225826 113 211 93
9.68427165227117 1.447960140132816 1.2016744947915585 113 211 93
10.48514201270272 1.3624355905529821 1.3306288127174328 113 211 93
9.848779126847974 1.3399692166455586 1.2081282230283623 113 211 93
11.098114526210967 1.7585764079306307 1.9888803437973162 113 211 93
13.279254772495431 2.1049178514005713 2.0828094850974135 113 211 93
8.02667106867602 1.151183419407716 1.8883070453232564 113 211 93
8.972714337998358 -1.2019033227157232 1.853846148740598 113 211 93
8.147951157532544 -1.095471057193723 2.156776261122185 113 211 93
8.557914949567367 1.2770372543714466 2.125303127380636 113 211 93
8.076262250394544 1.2770372543714466 2.0198411957778486 113 211 93
8.901101362449532 -1.9163902126841914 1.856187028494001 113 211 93
9.813345457812758 -1.880679014986806 1.829017650390405 113 211 93
8.901101362449532 -1.9163902126841914 1.856187028494001 113 211 93
9.405675468184924 -1.8021809431484404 2.0703877524508187 113 211 93
8.138551620157928 -1.279881404377865 2.0161563515367815 113 211 93
8.56706410639271 -1.8336594025111408 2.1246418592245573 113 211 93
8.77245834115243 -2.07619952369609 1.981935700374824 113 211 93
8.929210275602246 -2.1784714016823417 1.855263538535017 113 211 93
9.279371184308552 -1.4339447490209791 2.0778316085049937 113 211 93
7.414002032745154 1.5493113234002012 2.407802993699436 113 211 93
8.385818280924212 1.2312427202120597 2.2870698613390603 113 211 93
10.512555390948112 1.082299173278434 2.7004096505944197 113 211 93
10.17771902036628 0.9528797665608468 2.7762347086121517 113 211 93
7.46686636328091 1.7488554091143338 2.399985693321904 113 211 93
9.889629752902044 2.3378947879189687 2.8621294470042207 113 211 93
9.889629752902044 2.3378947879189687 2.8621294470042207 113 211 93
9.204386817861975 2.1392520558944064 2.749519642439737 113 211 93
10.97198833165406 1.2134481912894082 2.849087615667302 113 211 93
10.745076619537258 1.0576502952374889 2.930226915145935 113 211 93
10.157041631220789 -2.1283975621733506 2.7815940992951007 113 211 93
9.979587186214621 -1.535677732983918 2.832267490706314 113 211 93
9.762514222424072 -1.9842583781335237 2.911824677459924 113 211 93
9.904208756310565 -2.3198847983966653 2.857045064631118 113 211 93
9.762514222424072 -1.9842583781335237 2.911824677459924 113 211 93
10.758496456234939 -1.0729339324292813 2.924490235406088 113 211 93
10.594641885412624 -2.282348590031721 3.0121069813776566 113 211 93
10.587830252728498 2.318202724319193 3.0171451382213017 113 211 93
10.55061525765423 1.4605866506879215 3.0495427697889363 113 211 93
10.60795999094546 0.7165711856678387 3.0027979310084025 113 211 93
10.675249890092166 -3.12254295103342 2.9632594151729896 113 211 93
10.506551571510968 -0.3261007465933407 3.130875266010992 113 211 93
10.557450901358385 -1.46820503586 3.042776649090483 113 211 93
9.196713948370432 2.545252788340388 2.75154235518755 113 211 93
10.128743446007109 2.545252788340388 2.7890913664227366 113 211 93
9.990389112759928 -2.7977295823183503 2.8289019535376765 113 211 93
10.142978765339375 -2.5283801606945597 2.785295781181907 113 211 93
10.472186275065589 -2.6597433708173046 2.708644768954576 113 211 93
11.232447465311909 -2.967566953439631 2.5797850994570832 113 211 93
10.88362772816209 -2.747292187372572 2.632972420561458 113 211 93
10.88362772816209 -2.747292187372572 2.632972420561458 113 211 93
10.317473263854476 2.898888897053608 2.7423215371372174 113 211 93
9.983165199715236 2.8200027170734727 2.831147977205248 113 211 93
9.834985136875641 -2.4792826873797065 2.6156804998392214 113 211 93
11.742333652079775 -3.1363598478271224 2.5141730740503156 113 211 93
11.232447465311909 -2.967566953439631 2.5797850994570832 113 211 93
9.936585480665817 -3.1291260868228474 2.8461090921532755 113 211 93
8.978853858058745 -1.697085440772742 2.2309177951393173 113 211 93
10.378046856756356 -1.6815072280905203 2.248358076461935 113 211 93
9.92363982416212 -1.8021809431484404 2.158956770892873 113 211 93
9.691211006789787 -2.1436564434838794 2.3067908361357 113 211 93
9.334500716834132 -2.0177801454723525 2.3419718803340506 113 211 93
9.235041376417197 -1.930403506755523 2.5196844179103506 113 211 93
9.64774965362693 -1.0897357655204551 2.6501457914290425 113 211 93
9.479754243892883 -1.3031796584901156 2.684354460736823 113 211 93
9.45722341999481 -1.7886219155568719 2.6892206717178713 113 211 93
8.875409973400503 -1.5531266685427172 2.393563307237053 113 211 93
9.946752441595121 -1.3544864537890293 2.5966331286928925 113 211 93
9.479754243892883 -1.3031796584901156 2.684354460736823 113 211 93
9.603423450064302 -2.009422293249705 2.658839926763642 113 211 93
9.849487758598999 -2.19275408363464 2.613149273963161 113 211 93
10.188183167392415 -2.3381953073213206 2.5587178078324753 113 211 93
9.68427165227117 1.447960140132816 1.2016744947915585 113 211 93
11.120459653683277 1.4702000011094802 1.436037200408784 113 211 93
9.872826413234758 1.1412000662515773 1.6220653219678973 113 211 93
9.673150978570218 -1.2396491074848408 1.7271154880648476 113 211 93
9.692968791067841 -1.5589923620398651 1.9408871854537098 113 211 93
8.56706410639271 -1.8336594025111408 2.1246418592245573 113 211 93
8.42283378681867 -2.07619952369609 1.8728886351100251 113 211 93
8.84201643001125 -1.9609326940547933 2.1055235990354273 113 211 93
9.213761268978184 -1.5575236525142084 2.0817914186638395 113 211 93
9.256352622241067 -1.6815072280905203 2.0792134809781535 113 211 93
9.405675468184924 -1.8021809431484404 2.0703877524508187 113 211 93
9.852138018022256 -1.977624781505932 1.6221730758866428 113 211 93
10.358594885084502 1.2985442035028103 2.733015438883267 113 211 93
8.23201006036658 1.7488554091143338 2.4821325832114094 113 211 93
9.932678796140493 0.7503468294553095 2.847403973510268 113 211 93
9.889629752902044 2.3378947879189687 2.8621294470042207 113 211 93
8.191984825805607 1.3873231609690595 2.307856537548891 113 211 93
10.17771902036628 0.9528797665608468 2.7762347086121517 113 211 93
10.745076619537258 1.0576502952374889 2.930226915145935 113 211 93
9.740478440983212 2.6706781217550986 2.9217056388239553 113 211 93
10.018923472749238 -1.8569603171076126 2.820209319885784 113 211 93
10.718620088711953 2.6706781217550986 2.9420566182174515 113 211 93
10.60795999094546 0.7165711856678387 3.0027979310084025 113 211 93
10.564135496067484 -0.03258347546297901 3.0365872262713234 113 211 93
9.338631110996431 2.347210097796428 2.5043720620059475 113 211 93
9.558567601565512 2.6744044737836314 2.6678715117012834 113 211 93
9.338631110996431 2.347210097796428 2.5043720620059475 113 211 93
9.460835261137248 2.3441425780222427 2.6884357492645035 113 211 93
10.472186275065589 -2.6597433708173046 2.708644768954576 113 211 93
10.88362772816209 -2.747292187372572 2.632972420561458 113 211 93
11.787898167465586 -2.992408785700304 2.5088622095454727 113 211 93
10.324463267884617 -2.8815060117936375 2.74071998222752 113 211 93
9.834985136875641 -2.4792826873797065 2.6156804998392214 113 211 93
9.483684173200738 -2.3321261966574562 2.6835129507739346 113 211 93
11.232447465311909 -2.967566953439631 2.5797850994570832 113 211 93
10.73484614216238 2.9470948783913737 2.6584138434186926 113 211 93
10.8971384941855 -3.1291260868228474 2.872835113711421 113 211 93
9.827199349306193 -2.4519055095212496 2.4399659332745336 113 211 93
10.188183167392415 -2.3381953073213206 2.5587178078324753 113 211 93
8.934939812826375 -1.5556375478885685 2.2347388811833966 113 211 93
10.134408612428755 -2.252016710268035 2.2678562849878103 113 211 93
9.074482711815056 -1.874746585879716 2.370213280623568 113 211 93
9.082913743870467 -1.7463571025318159 2.5434467396996547 113 211 93
8.943502392820752 -1.3894680152346615 2.385394157526453 113 211 93
9.41554075293351 -1.5443741993094855 2.698417186148256 113 211 93
10.543407050279228 1.2685572093852915 1.4286129028135413 113 211 93
10.503596611072593 -1.880679014986806 2.014171777185604 113 211 93
8.428201822832822 -1.4147897059809083 2.1348631882111153 113 211 93
9.889629752902044 2.3378947879189687 2.8621294470042207 113 211 93
10.01861425562798 1.2134481912894082 2.820302039043745 113 211 93
7.651193399244492 1.9351821834316147 2.3740505487759433 113 211 93
10.725204233524854 1.9976934155357895 2.939043392523844 113 211 93
10.688467556449467 1.5165368440054563 2.956524484818424 113 211 93
10.543922091440463 -3.1012357021955594 3.0566966910757616 113 211 93
10.725348657534923 -2.640885570329674 2.9389778336728356 113 211 93
10.458399062025629 2.6744044737836314 2.7115058756469583 113 211 93
10.272409559598241 -3.1323279008722653 2.7528501314391045 113 211 93
10.142978765339375 -2.5283801606945597 2.785295781181907 113 211 93
11.232447465311909 -2.967566953439631 2.5797850994570832 113 211 93
10.946221766949215 -2.7977295823183503 2.8570084989277484 113 211 93
9.45722341999481 -1.7886219155568719 2.6892206717178713 113 211 93
9.479754243892883 -1.3031796584901156 2.684354460736823 113 211 93
10.736721606343515 -1.9163902126841914 2.2217595785627102 113 211 93
10.134408612428755 -2.252016710268035 2.2678562849878103 113 211 93
8.437278682013723 -1.2350012278587563 2.2817727439890136 113 211 93
9.41554075293351 -1.5443741993094855 2.698417186148256 113 211 93
9.722140546067294 -1.5184558327221886 2.93031073910352 113 211 93
10.946221766949215 -2.7977295823183503 2.8570084989277484 113 211 93
9.809366926095203 1.2371766807002953 1.313722048008077 113 211 93
8.392815069546172 1.151183419407716 2.001744078835065 113 211 93
10.614758706115103 -0.7524640905943794 2.9982857562265455 113 211 93
9.812954243443944 2.490909522021579 2.6195613888359355 113 211 93
9.762514222424072 -1.9842583781335237 2.911824677459924 113 211 93
