10.6727162455435 1.5782526260280134 1.8517481687223531 50 57 202
10.065653317367373 1.5790583313137934 1.9750582769514138 50 57 202
11.173560443838065 1.3658535199772965 2.1333320377722775 50 57 202
11.48708514602647 1.1270609857062084 2.2216057261075006 50 57 202
10.360526205387238 1.3418385111691788 2.183627547232617 50 57 202
10.18068444359696 1.5800592499733848 2.1961035846828154 50 57 202
13.260447333809624 0.019649580917602442 1.7958533453425067 50 57 202
13.187308657434128 -0.13429108759435765 1.7199175306084762 50 57 202
12.782739686754804 0.12569742900025985 2.2429264965436926 50 57 202
13.390331915501196 -0.07503615819025873 2.3037689203435034 50 57 202
12.935274978569177 -0.062485957156600165 1.9642579793304977 50 57 202
12.306841818103235 -0.24628267598619327 1.9855506061908108 50 57 202
12.306841818103235 -0.24628267598619327 1.9855506061908108 50 57 202
13.371945952137144 0.025587581797893947 2.3050074720702547 50 57 202
12.56522023931651 -0.1584998051744505 2.0649237706087553 50 57 202
12.50634274603452 0.1142953194319613 2.067461613186091 50 57 202
12.166420033319001 -0.3609507753129794 2.0826674735727573 50 57 202
12.066290743241323 -0.44610418446672023 1.9943453841252956 50 57 202
12.987347435719256 -0.5532367792007727 1.7222310681770452 50 57 202
11.494053613228257 0.8178537190845243 2.464609705965795 50 57 202
10.795089072965547 0.6228017327191526 2.3998623675967097 50 57 202
10.698718496265885 0.5509563110500414 2.279003311903587 50 57 202
10.600651148941585 0.9744837552391592 2.1677875997587703 50 57 202
11.07390595884336 0.812526184330322 2.250335638084503 50 57 202
11.226838283009476 0.7255666410486848 2.3587995770209815 50 57 202
11.780981983561901 0.4393502621963123 2.434851710589086 50 57 202
12.035900760970426 0.5023281006804338 2.5453655305940273 50 57 202
10.732884704339178 0.8178537190845243 2.4062097105625297 50 57 202
11.639522195584997 0.734630504746955 2.2116703890351097 50 57 202
13.485711316004853 -0.19322387033730992 2.401642515505469 50 57 202
12.647602729002347 0.02845353671144543 2.357987574710687 50 57 202
13.019576652212045 -0.33361173418323653 2.4417483423118926 50 57 202
11.804870070794573 0.36359375515777914 2.574849700597036 50 57 202
12.939783830184593 -0.2985316835785996 2.335576535822115 50 57 202
11.423242603668424 1.219840782679231 2.629740625967262 50 57 202
10.926380893155159 1.5830212420843335 2.5321425663816957 50 57 202
10.965075612074703 1.4241831587255098 2.5271057056227115 50 57 202
11.609226263930912 1.010496201719119 2.4523586284292933 50 57 202
10.808440152537031 1.44416232036355 2.3985152295636736 50 57 202
10.790976573622748 1.0749807139539658 2.2717040851531025 50 57 202
10.808440152537031 1.44416232036355 2.3985152295636736 50 57 202
13.544140063847786 -0.09387624150272744 2.513498714481287 50 57 202
12.93556658701943 0.05153809371475288 2.750578129595808 50 57 202
13.544140063847786 -0.09387624150272744 2.513498714481287 50 57 202
14.796134811077714 -0.24703566587964218 2.6379952456380757 50 57 202
14.451790017733698 -0.21689287007563093 2.5454823762623744 50 57 202
12.393350787507977 0.825783690928642 2.6557522226723838 50 57 202
12.113961366374557 0.968679137140988 2.70141835770776 50 57 202
13.000217243945013 0.6923806438414005 2.73868594871575 50 57 202
13.598095576135611 0.30934257501177603 2.8338435251802623 50 57 202
13.474756742928482 0.6567899136629478 2.8640844892474755 50 57 202
13.287331176798544 0.08665476967220793 2.918903219244272 50 57 202
12.4202971961151 -0.9597467740182569 2.868263990684188 50 57 202
12.434581453978293 -0.5383797960955768 2.8641958581842055 50 57 202
12.706923297629139 -0.41869857462941784 2.7968379065415547 50 57 202
12.434581453978293 -0.5383797960955768 2.8641958581842055 50 57 202
12.706923297629139 -0.41869857462941784 2.7968379065415547 50 57 202
12.882466765035462 -0.6106482696998824 2.7607012707019374 50 57 202
13.56068965128783 -0.18789777294119192 2.8426438713411675 50 57 202
11.742267873971569 -0.6754807939311037 2.438721684203566 50 57 202
12.17204967093721 -0.5720874347472138 2.0824076487768646 50 57 202
12.14872287370186 -1.00459535094782 2.2851765378261364 50 57 202
11.374668349735378 -0.6927238227448612 2.229153280354888 50 57 202
11.465358725194344 -0.770187397048507 2.3381011744592097 50 57 202
11.727140373011167 -0.862332856795293 2.4402456525037794 50 57 202
11.567604946279346 -0.6009218140819625 2.3296110219520347 50 57 202
11.270925918836282 -0.7670419320237484 2.489634420446661 50 57 202
12.23651866606871 -0.6473177597781323 1.9880823929722489 50 57 202
11.9111347203734 -0.7724126189544445 2.1947671256005465 50 57 202
11.997770666161406 -0.8502252213125188 2.2961393767737825 50 57 202
11.742267873971569 -0.6754807939311037 2.438721684203566 50 57 202
12.192479975353484 -0.5396674923700111 2.2820685559896794 50 57 202
12.815008362286033 -0.7148765922656171 1.968156853365959 50 57 202
12.581566275960213 -0.7740698890312132 2.064224018522094 50 57 202
12.868012393714373 -1.0246681710786967 2.0522904467548595 50 57 202
13.512052693163715 -1.103009639441303 2.2006747159338023 50 57 202
12.8095088790484 -1.0580679549037164 2.2412646911304166 50 57 202
13.147594108722352 -0.9011851226521108 2.1285900652413074 50 57 202
12.148958472199453 -0.9716889931025998 2.531787725795002 50 57 202
12.199006284805163 -1.2099015131749282 2.3956120168358077 50 57 202
12.379101682409374 -1.161855510797647 2.505662123761942 50 57 202
11.819459936152604 -1.3051673415236464 1.912375347276025 50 57 202
13.390372664713587 -1.2207194273246604 2.117317993972491 50 57 202
11.584360489036483 -1.3759339589422064 2.1111275315479676 50 57 202
12.129132793694579 -1.3759339589422064 2.181887279200386 50 57 202
13.180610161393268 -1.188068933043416 2.21912968794785 50 57 202
12.918258414756002 -1.279364540202205 2.234606381669666 50 57 202
13.286537979166656 -1.4655905884678735 2.418212744323929 50 57 202
12.667309139707596 -1.3543096751651764 2.3564275159857697 50 57 202
12.868679670286571 -0.9080975187195904 2.7633857045901875 50 57 202
12.228309197330944 -0.7622566929339265 2.6819649237751917 50 57 202
10.591864189495869 1.2303864948733052 2.1683516077406417 50 57 202
12.973479247651492 -0.06818928293646496 2.1369851400478517 50 57 202
12.328338462736802 0.22334478988819711 2.1706119329417097 50 57 202
12.391532436734401 -0.22635595959341182 1.729572772422311 50 57 202
11.84274097439393 -0.524857406583913 1.823349428696957 50 57 202
12.207864326289831 -0.3303637685809688 1.90108674054793 50 57 202
11.07390595884336 0.812526184330322 2.250335638084503 50 57 202
11.924120055361902 0.9293618292166318 2.5593235068981635 50 57 202
11.134205279315124 0.6491452251505918 2.245968001724785 50 57 202
11.03638126737945 0.3896721811538139 2.253085628261901 50 57 202
11.494053613228257 0.8178537190845243 2.464609705965795 50 57 202
11.072728603383112 0.7125698785204946 2.51345876648855 50 57 202
10.939353833165102 1.3115910672860365 2.3855803536381535 50 57 202
11.310484105065264 1.1335101912051213 2.485066018252195 50 57 202
10.572809911707353 0.9038683831452932 2.2892472378208835 50 57 202
14.796134811077714 -0.24703566587964218 2.6379952456380757 50 57 202
12.393350787507977 0.825783690928642 2.6557522226723838 50 57 202
12.613915577489566 -0.7540979296186686 2.8179960997049944 50 57 202
13.305834061130312 -0.24984660738704959 2.9128433311242854 50 57 202
12.786621862328541 0.5214392842352107 2.779880094212069 50 57 202
12.224006218063694 0.42931764881407514 2.68267658913507 50 57 202
12.434581453978293 -0.5383797960955768 2.8641958581842055 50 57 202
14.15241371022399 -0.08340794872408284 2.456517656228699 50 57 202
12.649590787511722 -0.9754793149018401 2.1533453704652747 50 57 202
13.180610161393268 -1.188068933043416 2.21912968794785 50 57 202
11.9111347203734 -0.7724126189544445 2.1947671256005465 50 57 202
12.277130714475351 -0.6009218140819625 2.38875149044096 50 57 202
11.612603042647555 -1.3936718692330718 1.9187153630154656 50 57 202
12.857208273848912 -1.2482021806987573 2.3417578943467863 50 57 202
11.991820533011921 -0.7053005368603397 2.090866451478078 50 57 202
12.148958472199453 -0.9716889931025998 2.531787725795002 50 57 202
12.530427025652077 -0.3974505616648234 2.2590534316725925 50 57 202
12.646769408057658 -0.9011851226521108 2.061453340577318 50 57 202
12.47649141757911 -1.1019437406468284 2.371848392830381 50 57 202
11.977008232449789 -0.8414068401438989 2.091574813575809 50 57 202
12.24817829673954 -0.9403207403164149 2.391277868738798 50 57 202
10.591864189495869 1.2303864948733052 2.1683516077406417 50 57 202
12.723619145500596 0.025587581797893947 2.246629322045422 50 57 202
12.445909333660728 0.023246042671801893 2.070095181707734 50 57 202
13.483064898890865 -0.1741651317339546 2.29759411940891 50 57 202
12.408725972369423 -0.14540168954048321 1.8115962380704544 50 57 202
12.684436709782707 -0.14540168954048321 1.8882333666303124 50 57 202
13.278987678025452 -0.05766206592647911 1.7955337136382492 50 57 202
11.63346703861212 1.0630193056964783 2.598441276965141 50 57 202
10.926380893155159 1.5830212420843335 2.5321425663816957 50 57 202
10.769182641907669 1.5813361056169262 2.4024915858641136 50 57 202
11.158698223511259 1.1876838877209273 2.3649570232137904 50 57 202
13.374614356227072 0.02845353671144543 2.4107865398540906 50 57 202
11.896376469803997 0.7125698785204946 2.5628750822193136 50 57 202
11.09414110847364 1.2724081314373161 2.510806058254243 50 57 202
13.404622949677092 0.2086135400537626 2.672927097143252 50 57 202
12.238126171085655 -0.7370604527174787 2.927693415477889 50 57 202
13.343954419193345 0.4051889150212669 2.9008804035256466 50 57 202
12.613915577489566 -0.7540979296186686 2.8179960997049944 50 57 202
13.348257065378341 0.04284926456701764 2.6813375885545536 50 57 202
12.729270077824765 -1.3759339589422064 2.24627343132566 50 57 202
12.652637757386396 -1.0440101742529833 2.4769326813877264 50 57 202
11.460816907347413 -1.4763175714224328 2.117606662990414 50 57 202
12.762724041819375 -1.327393515691495 2.4660010290336727 50 57 202
11.920283010820855 -0.3974505616648234 2.1942147281187334 50 57 202
12.948247510597916 -1.103009639441303 2.138224205890531 50 57 202
11.270925918836282 -0.7670419320237484 2.489634420446661 50 57 202
11.465358725194344 -0.770187397048507 2.3381011744592097 50 57 202
11.459132141464872 -0.6274287331923019 2.1176961625464656 50 57 202
12.974484122706837 0.10478280759593402 1.963003843239648 50 57 202
12.588955443999483 0.06464083720614704 2.8239608798750413 50 57 202
12.504686345018722 -0.8414068401438989 2.160999129315382 50 57 202
12.868679670286571 -0.9080975187195904 2.7633857045901875 50 57 202
12.916241268681258 0.021297067028044854 1.964869769922936 50 57 202
13.01409370417273 -0.26996295031898804 2.2288589720593124 50 57 202
12.99372281783787 0.24938750286892164 2.73986021966563 50 57 202
12.686222085958988 -0.3609507753129794 2.15144423234171 50 57 202
12.646769408057658 -0.9011851226521108 2.061453340577318 50 57 202
10.539587982875124 1.4713262130924813 2.0606914026136005 50 57 202
12.32732517958728 -1.279364540202205 2.1706681465444593 50 57 202
11.733147187832838 -0.4888052109426765 2.103537727897465 50 57 202
11.576520348175405 0.584000517379865 2.606645162209594 50 57 202
11.709190480080759 -0.8799852340419922 2.5878225531359615 50 57 202
12.070090840389625 -0.40987009131635355 1.7338385520497415 50 57 202
13.226133277667705 -0.9754793149018401 2.216524742881476 50 57 202
10.22220228210665 1.4593692272998806 2.1931744449087964 50 57 202
13.120780782916015 -1.1491001124359397 2.322421924595089 50 57 202
11.564519599285912 -0.5396674923700111 2.2165167819010705 50 57 202
