20.62937596623306 -0.6275265136112691 0.8195430530217784 241 118 76
20.64135464518325 -0.5573069982910709 0.9455879303849768 241 118 76
21.026761449448607 -0.9555225329301433 1.1763414893021673 241 118 76
21.026761449448607 -0.9555225329301433 1.1763414893021673 241 118 76
20.70221572217499 -0.9244935570070929 1.116718637205498 241 118 76
17.056191457713137 -0.7268217221107147 1.8633704734428158 241 118 76
13.955943007201567 1.9467945224309218 1.9310254406502763 241 118 76
13.64466586580266 1.8736453588545539 1.939632382513361 241 118 76
9.472067114523172 0.12406570765195765 1.774837770560083 241 118 76
10.914849621188399 0.8467815658673482 1.6551219903934808 241 118 76
10.560091218572888 0.7814649796301099 1.850891971207736 241 118 76
11.218719433750712 0.9748349476764393 1.7427232287459113 241 118 76
11.233804539587771 0.5888778888139089 1.7424900626548419 241 118 76
11.65404565557554 0.6602944358009355 1.5638726263375768 241 118 76
10.115965811976114 0.5603639822937654 1.8635444957919614 241 118 76
9.91520947971771 0.3295269511401699 1.7655985098620919 241 118 76
9.403424568725217 0.016059722291955958 1.7763484767146858 241 118 76
10.4608898028537 -0.485142226268575 1.4673041715372643 241 118 76
9.433686817367716 -0.1985771049135008 1.6684010948281267 241 118 76
9.163376555094699 -0.3345744087813027 1.89503233444278 241 118 76
10.749348024907183 2.3995230776294303 1.7503103588123796 241 118 76
10.749348024907183 2.3995230776294303 1.7503103588123796 241 118 76
11.245572708852801 2.857877132282397 1.563621132519894 241 118 76
10.37056401488277 2.612077814583431 1.7569424845741533 241 118 76
11.045626591309505 2.9452049040176025 1.6541212682859807 241 118 76
11.066290730135798 2.6577393369337274 1.5635048870972577 241 118 76
10.677347599869464 2.7410500102899142 1.657002300903948 241 118 76
11.615504479166896 2.7747714000029076 1.4776231302483065 241 118 76
10.15340136266316 2.700943487309854 1.862433390978187 241 118 76
10.770591290278947 2.531566931770767 1.6562541642078255 241 118 76
10.895421285673965 3.0356678199867777 1.6552727153650886 241 118 76
10.482471143659591 -2.067288459874075 1.8530226603880648 241 118 76
10.729612677501587 -2.7669185325096937 1.3756397059415713 241 118 76
11.149320627047794 -2.9716817126553883 1.3830755466627085 241 118 76
10.99539331035348 3.1279000354419066 1.380415610142709 241 118 76
10.018286570251506 -3.0548170883789965 1.763568871994799 241 118 76
10.222541301109182 3.1265024213033317 1.860403635366386 241 118 76
9.646191928370994 -2.728796573080127 1.6662442385939833 241 118 76
10.829601024081622 -3.062820156411427 1.5633455238566503 241 118 76
10.258532437732915 -2.637482612127895 1.3665541367453569 241 118 76
9.967466445533391 -2.4976500446040624 1.3605017673611637 241 118 76
9.431440184105025 -2.4306579583849652 1.8854948050061722 241 118 76
10.440605736938753 -2.284196147412167 1.4671023833629075 241 118 76
10.045632576884763 -2.637482612127895 1.562764045742563 241 118 76
9.69428471060525 -2.3520583586687325 1.6657692946347278 241 118 76
11.61752871761886 1.0535518617029298 2.008034109800462 241 118 76
11.277977329216894 0.7814649796301099 2.022153718510686 241 118 76
11.336222243289324 1.0023831684420828 2.120176947769228 241 118 76
10.47317389919479 0.4119394378765439 2.2925072306544894 241 118 76
10.65082494835741 0.6204255794610208 2.160074219653552 241 118 76
11.142970679339149 0.7808281439291632 2.2407600187879324 241 118 76
10.672258937825859 0.7064403563937206 2.0498547462715404 241 118 76
10.815869513132142 0.5223942285321758 2.264952313294982 241 118 76
9.621853446778951 0.3663600600061252 1.9903297261495299 241 118 76
10.881778117699072 0.5893007550506135 2.385844968832577 241 118 76
10.286970953501413 0.3332724079495082 2.4493851970756255 241 118 76
9.621853446778951 0.3663600600061252 1.9903297261495299 241 118 76
10.054653048122667 0.15799824387604958 2.329760254564423 241 118 76
10.12551774458252 0.1829378402209116 2.4688478501532845 241 118 76
9.80423505408967 0.2560476642973236 2.096421323727464 241 118 76
10.784256832810444 0.7799452445952786 2.3954902148749975 241 118 76
11.466601836269078 1.0391061156845627 2.333172089479627 241 118 76
12.10124108509595 1.548468985994857 2.284213524049381 241 118 76
12.159300850326721 1.4399024462286556 2.280088235479216 241 118 76
12.298664908757296 1.3343418292015614 2.2704024171871877 241 118 76
12.298664908757296 1.3343418292015614 2.2704024171871877 241 118 76
12.11522263410193 1.0944308084296288 2.2832151405189496 241 118 76
12.140492511150642 1.4240549030578393 2.395983244352454 241 118 76
12.140492511150642 1.4240549030578393 2.395983244352454 241 118 76
13.052378378502002 1.5422247087681906 2.5618002237273254 241 118 76
12.42348908427079 1.2716651368420764 2.495482784079469 241 118 76
11.62006535765088 0.9709821314763094 2.4458508182928096 241 118 76
11.940221110206744 0.8859495857325301 2.5512459288236213 241 118 76
11.544402035545215 0.7786395223881363 2.6045615119292505 241 118 76
11.544402035545215 0.7786395223881363 2.6045615119292505 241 118 76
11.218941883669713 0.9130377628026879 2.6554838939539844 241 118 76
10.487023962124795 0.343977103500452 2.8110465711115786 241 118 76
10.83449274084032 0.2665196624229322 2.7276217915265457 241 118 76
11.223972405346254 0.642681689907544 2.6546363633543653 241 118 76
11.223972405346254 0.642681689907544 2.6546363633543653 241 118 76
10.98553115482578 0.4723038651331016 2.697365978071761 241 118 76
10.642994568471128 0.590514107391844 2.7706989970502995 241 118 76
9.987591675411734 1.3946693448677279 3.024594345941214 241 118 76
9.987591675411734 1.3946693448677279 3.024594345941214 241 118 76
10.739802016813197 -0.11773940267129115 2.3999791865028186 241 118 76
10.456742436655418 -0.4308992583687651 2.430026708982525 241 118 76
9.536272479996622 -0.49102507741063683 2.1127989884776066 241 118 76
10.060277209766586 -0.5556375653459491 2.329230142717757 241 118 76
10.864975175214093 -0.25164307148097664 2.3874874659506125 241 118 76
10.713240595836693 -0.5013394002728733 2.554492033365904 241 118 76
10.706960780850517 0.020516990393129007 2.4033337004764412 241 118 76
10.159186114603054 -0.25164307148097664 2.3200454485446826 241 118 76
11.353757479948417 -0.3419153780409573 2.63346892157539 241 118 76
11.202639533526785 0.028397999407182968 2.658245130957197 241 118 76
11.234031810343556 -0.16230354171608952 2.6529479007979853 241 118 76
10.504721281789838 -0.6822071026650817 2.0581567797628892 241 118 76
10.627357285099237 -0.9854875474094901 2.05205057935734 241 118 76
9.852659168374172 -0.6637107260118369 2.2152767217545803 241 118 76
10.774533453890022 0.035147515839080656 2.740476112411419 241 118 76
11.731731858235763 -0.19998154270514448 2.7672554419791147 241 118 76
11.846428600688803 -0.4149622422708061 2.743336516237384 241 118 76
12.014074480267846 -0.8769565276697743 2.7113789203589813 241 118 76
12.929679372060939 -0.8769565276697743 2.7436409289787247 241 118 76
12.262111192604998 -0.698812300287777 2.9045810779763297 241 118 76
12.064089197346183 -1.460947633198901 2.9865133634386813 241 118 76
12.528005609707886 -1.517815912362123 2.8285901178112685 241 118 76
12.528005609707886 -1.517815912362123 2.8285901178112685 241 118 76
12.257511426027657 -1.499295500776019 2.9061396507455655 241 118 76
12.45245795405399 -0.9128348784227353 2.84791390062319 241 118 76
12.58409654786605 -1.2677984537107965 2.815098605233424 241 118 76
13.460190328910791 -1.210570709084404 2.6584153874675276 241 118 76
12.925317176908576 -1.3275178722624352 2.744444522182719 241 118 76
12.371027597378353 -0.9871579142039967 2.652271081345907 241 118 76
13.34930450700083 -1.4355828498391627 2.408425067889958 241 118 76
13.28348599616999 -1.1333782990164751 2.5357482383663097 241 118 76
13.503266851759763 -1.4186129837061725 2.512636777865552 241 118 76
13.050544638490875 -1.1833474436827804 2.4342152741140684 241 118 76
14.32399520792677 -1.4186129837061725 2.55371932966216 241 118 76
12.213348202105719 1.7877208046026383 2.3895457453213425 241 118 76
12.680922297808088 1.9641076889607576 2.2452951392327245 241 118 76
12.41830711861276 1.8673970006906377 2.262321400547876 241 118 76
13.015269069593007 2.0536525386381936 2.2249188690596466 241 118 76
12.399891650201507 1.9013327773064466 2.3735985529741357 241 118 76
11.97957129953823 2.0067579296030904 2.2930376096236778 241 118 76
11.49751500906162 1.6575624139946206 2.216560990869572 241 118 76
12.043798809564564 2.058959413776695 2.404718908529707 241 118 76
12.41830711861276 1.8673970006906377 2.262321400547876 241 118 76
12.432160146452 2.0536525386381936 2.1610424353572935 241 118 76
13.075015103870612 1.6816630326007491 2.559161817756487 241 118 76
13.34686844275318 1.9436314129465355 2.5289266944295132 241 118 76
13.4349909270901 1.699511652747632 2.6620026770761664 241 118 76
14.185373442996069 2.06831645507476 2.7158899714979854 241 118 76
13.4349909270901 1.699511652747632 2.6620026770761664 241 118 76
13.699702860745171 1.997592412632992 2.6260830449096426 241 118 76
14.790800551755366 2.1638721605809113 2.796603089106912 241 118 76
14.766975241745975 2.449233051567011 2.8011211967378298 241 118 76
14.135641951263539 2.560743011096263 2.723716596945332 241 118 76
15.055065473826298 2.560743011096263 2.7506755861275556 241 118 76
14.878149569717007 2.7205162956015725 2.7806205796297156 241 118 76
11.502675189590372 2.3309472065279904 2.1113409361372613 241 118 76
13.888943267781933 2.050234218891243 2.011071885445596 241 118 76
9.866045746577123 2.9020892058653116 1.9793173790843401 241 118 76
11.580228071060759 2.3267217103109807 2.323843124884498 241 118 76
11.080103352355279 2.473831672149143 2.0308286199356225 241 118 76
10.558084273330737 2.797913208170763 2.05547992115707 241 118 76
10.30424581036514 2.9020892058653116 2.068496821039102 241 118 76
10.817398243907938 2.9020892058653116 2.1498150654819606 241 118 76
10.909439706735247 2.406207672171121 2.144309204423428 241 118 76
11.059459821502287 2.5579823478684403 2.1355717147636475 241 118 76
10.898110172184907 2.700943487309854 2.0391201742429357 241 118 76
11.249847377269223 3.01182716093984 2.2332561766657806 241 118 76
10.817398243907938 2.9020892058653116 2.1498150654819606 241 118 76
14.206213021087889 2.94607467259272 2.7126662318732295 241 118 76
12.083906124493323 -2.6985067693802094 2.9763533657717716 241 118 76
10.791503867619117 -2.0070056773087086 2.736784239005224 241 118 76
11.422694122107272 -2.5564789594670763 2.843612208162525 241 118 76
10.693159316031101 -2.346199975488937 2.758816992519656 241 118 76
11.002181345337679 -2.1985972365760826 2.694196903696478 241 118 76
12.088576706642636 -1.976569275596438 2.974052353763166 241 118 76
12.55158807433268 -1.7744953491284743 2.822835914513735 241 118 76
11.589753487535553 -1.9581844688041383 2.448988805969172 241 118 76
10.854861448669377 -2.181444022965425 2.261966131383902 241 118 76
11.389949397209124 -1.8270984232689462 2.4704090910966805 241 118 76
10.839979157606955 -2.2346340695883704 2.537145303352493 241 118 76
10.53155779106278 -2.093516417912594 2.5809486329802893 241 118 76
11.028057295107276 -2.01646453311716 2.5128771020813443 241 118 76
11.51810054291434 -2.181444022965425 2.3289109088425266 241 118 76
12.018123209081281 -1.7956209951898174 2.407076469951521 241 118 76
12.207650228423004 -1.9128455593650173 2.3900448530486154 241 118 76
11.205331203110688 -2.067288459874075 2.0252987123736323 241 118 76
12.202148960339523 -1.8767057574080845 2.277078186523979 241 118 76
12.694078291326704 -1.7709369276889044 2.3498911325057508 241 118 76
10.000824272371618 -2.1190834184866527 1.973490962339879 241 118 76
11.696192755161182 -2.2573013089851535 2.4380922230291677 241 118 76
11.389949397209124 -1.8270984232689462 2.4704090910966805 241 118 76
11.870712890669228 -2.0766626684669767 2.4209338750833007 241 118 76
11.187532968555313 -1.9252517906330535 2.6608240981707083 241 118 76
11.876596729286154 -3.0327125176044847 2.420369953065835 241 118 76
11.265845064658455 -2.9083295851019217 2.350331278176299 241 118 76
10.96255429845768 3.1265024213033317 2.0361486761730916 241 118 76
10.519063424206866 -2.6826448125652553 2.1684716321913653 241 118 76
11.116936319957059 -2.9547193448603553 2.0291876173313357 241 118 76
10.473737284694323 -2.8280230905619135 2.059725315215387 241 118 76
9.80592736380641 -2.9340486660644607 1.981972781263508 241 118 76
11.472733031782923 -2.790856031887079 2.332661856615299 241 118 76
12.686867032387148 -2.6842717117370767 2.6073967833615814 241 118 76
13.425809916947417 -2.625903147096977 2.520610626467641 241 118 76
12.165733536609341 -2.8755061872434617 2.524127045883963 241 118 76
12.217997545830794 -2.521529896281327 2.389139033057922 241 118 76
10.417121026141789 -2.5848547018481547 2.062618997888301 241 118 76
9.793037657440191 -2.2728601759784817 1.9825467615198076 241 118 76
10.228846955551784 -2.4306579583849652 2.072506121081191 241 118 76
11.426011576655608 -2.351348174752294 2.3365701347837633 241 118 76
13.344273901993748 -1.449164634361204 2.3028518032684606 241 118 76
14.748983238671952 -1.4840763130338128 1.9108478201074564 241 118 76
13.43602618905933 -1.5519746000513241 2.201123088718596 241 118 76
12.926590349947473 -1.4602770889619499 2.1356324358532484 241 118 76
12.665460914876826 -1.6513872965719378 2.246271637319354 241 118 76
12.17237510801633 -1.7510836598335173 2.175409453662521 241 118 76
11.647847309190727 -1.9385380065089548 2.006817816048302 241 118 76
11.361377922917786 -1.8472946321412587 2.0185985093202943 241 118 76
12.065458016146653 -1.6513872965719378 2.1815451236568704 241 118 76
11.846043040910288 3.12906072075772 1.4794415071388485 241 118 76
13.955943007201567 1.9467945224309218 1.9310254406502763 241 118 76
9.644465626687548 0.22924897609789185 1.7711403841191913 241 118 76
9.968758512764094 -0.5340861953895973 1.867998353023912 241 118 76
9.723040843220375 -0.5340861953895973 1.7694995927473753 241 118 76
10.077927135222563 -0.6196009775315794 1.5627897856112383 241 118 76
9.984939419859392 -0.7603535774875818 1.6629967173427902 241 118 76
10.160794575740612 -0.3963686549802958 1.7608319141884357 241 118 76
11.565403899234182 2.7747714000029076 1.563819559545064 241 118 76
9.38086037273023 -2.5848547018481547 1.7768500097283209 241 118 76
9.946390232841528 -2.206640578437427 1.7649800220534968 241 118 76
10.581009912474757 -2.150484644080601 1.5631704707291167 241 118 76
10.797032932390085 3.1279000354419066 1.5633230488910208 241 118 76
10.835799148654935 3.1279000354419066 1.6557386503463054 241 118 76
10.20281804724945 -2.8582610853347563 1.562887794338123 241 118 76
9.635308214039412 -2.5848547018481547 1.8786150467863374 241 118 76
10.581266996729541 -2.7669185325096937 1.4684856936020325 241 118 76
9.791131522120367 -2.4976500446040624 1.6648270980155335 241 118 76
10.965457127937695 0.9199984795628267 1.9363039705338094 241 118 76
10.39019592084714 0.21707976334794746 2.6030077122254984 241 118 76
11.142970679339149 0.7808281439291632 2.2407600187879324 241 118 76
11.300829916654823 0.6926034686654311 2.3472761997309446 241 118 76
10.217226126520286 0.289742700284408 2.314774278436729 241 118 76
11.128484024365916 0.6729112506994406 2.5005704200066527 241 118 76
9.993784345963158 0.46809296665983846 1.9737910500077946 241 118 76
10.925416817802901 0.1829378402209116 2.5259141784996952 241 118 76
9.568337717366257 0.289742700284408 2.237800875729879 241 118 76
11.635554044613267 0.5439811043299968 2.591546019594423 241 118 76
11.909118223452356 1.233874181699034 2.1907648705546277 241 118 76
12.159300850326721 1.4399024462286556 2.280088235479216 241 118 76
12.280070023515615 1.3065850816563094 2.383755227623703 241 118 76
11.678914126854087 1.1399934096624251 2.1023085158661243 241 118 76
12.298664908757296 1.3343418292015614 2.2704024171871877 241 118 76
11.870678975916348 1.1493677276372476 2.4209371282296175 241 118 76
13.052378378502002 1.5422247087681906 2.5618002237273254 241 118 76
13.106225341597348 1.4038819226898402 2.5555561995448266 241 118 76
12.101899875383664 1.0903289211806992 2.5315945688999753 241 118 76
13.412961737816717 1.537580456822475 2.6651702070967698 241 118 76
10.057860052908657 0.7614031499468891 2.9754186945006427 241 118 76
11.544402035545215 0.7786395223881363 2.6045615119292505 241 118 76
10.385796648084535 0.7724282252545271 2.840740519408047 241 118 76
10.63768930819519 0.9599000185229892 2.771983540454332 241 118 76
10.888939121274957 0.7765116228069222 2.716384721008409 241 118 76
11.544402035545215 0.7786395223881363 2.6045615119292505 241 118 76
10.98553115482578 0.4723038651331016 2.697365978071761 241 118 76
9.567220149614416 0.018016802562164792 2.1108523002824615 241 118 76
9.743735309753415 -0.22203430434200155 2.1000267165523936 241 118 76
9.279103121512364 -0.22203430434200155 2.0068662324357374 241 118 76
11.02169439041709 -0.2901083930738315 2.513671468351906 241 118 76
11.202639533526785 0.028397999407182968 2.658245130957197 241 118 76
12.318544840465739 -0.7417204078703438 2.6603328130522157 241 118 76
11.731731858235763 -0.19998154270514448 2.7672554419791147 241 118 76
13.106846782408873 -0.9942803938154922 2.972226530158461 241 118 76
11.701674845759058 0.035147515839080656 2.773849026389449 241 118 76
12.71880683457203 -1.0510552706270286 2.785140365080098 241 118 76
12.480702394855456 -0.524108127679967 2.8405211462317865 241 118 76
12.318544840465739 -0.7417204078703438 2.6603328130522157 241 118 76
11.846428600688803 -0.4149622422708061 2.743336516237384 241 118 76
12.71880683457203 -1.0510552706270286 2.785140365080098 241 118 76
13.801177504801368 -1.396821345461376 2.6132515980995166 241 118 76
13.476367915346282 -1.3267494263671544 2.3980162188615792 241 118 76
13.078319419608249 -1.2595602688948757 2.5587783316368045 241 118 76
13.056507400251794 -1.1443824823580682 2.7211343958098526 241 118 76
11.69640565940032 2.1617470882710643 2.3145732507543446 241 118 76
12.125653567147308 1.6575624139946206 2.282472355030185 241 118 76
12.08168726942439 1.9641076889607576 2.1806050815957096 241 118 76
12.399891650201507 1.9013327773064466 2.3735985529741357 241 118 76
12.106792955817033 1.6681478761907897 2.399002520911705 241 118 76
13.502270418889077 1.977057294234786 2.024607127070476 241 118 76
12.855459115819151 1.9287272182450188 2.1391427463160806 241 118 76
12.541940606671908 1.9436314129465355 2.483060407761314 241 118 76
13.173741252859898 1.8169283217910666 2.547880103282826 241 118 76
11.846892697825895 2.2332642055858853 2.4232263156288654 241 118 76
14.878149569717007 2.7205162956015725 2.7806205796297156 241 118 76
14.9489800365535 1.906428703138656 2.7682713000953036 241 118 76
13.531090859271155 1.854980443797617 2.6485213556357663 241 118 76
15.055065473826298 2.560743011096263 2.7506755861275556 241 118 76
11.279438330622938 2.3995230776294303 1.9256722231863632 241 118 76
10.630897880287304 2.6526231537534777 2.1613278332873804 241 118 76
10.909439706735247 2.406207672171121 2.144309204423428 241 118 76
11.171671783035347 2.995404416608942 2.3586973383650682 241 118 76
11.080103352355279 2.473831672149143 2.0308286199356225 241 118 76
15.543697083862876 2.626657414106367 2.8571931215586823 241 118 76
12.55158807433268 -1.7744953491284743 2.822835914513735 241 118 76
12.195291116789338 -2.3407210788005477 2.928445359413321 241 118 76
12.088576706642636 -1.976569275596438 2.974052353763166 241 118 76
12.281613289387376 -1.8428658236715363 2.898094339428005 241 118 76
12.281613289387376 -1.8428658236715363 2.898094339428005 241 118 76
12.55158807433268 -1.7744953491284743 2.822835914513735 241 118 76
11.512269770444156 -2.1190834184866527 2.2155955597477752 241 118 76
11.322962789615925 -2.146187028152947 2.4778935940060096 241 118 76
12.591591838821405 -1.6604451411571999 2.357960679547789 241 118 76
12.202148960339523 -1.8767057574080845 2.277078186523979 241 118 76
11.472733031782923 -2.790856031887079 2.332661856615299 241 118 76
10.762595298439747 -2.9340486660644607 2.153147671554982 241 118 76
10.99463209681464 -3.0548170883789965 2.0346841980178345 241 118 76
11.343371659470227 -2.9340486660644607 2.226840765094094 241 118 76
12.99398689897201 -2.8755061872434617 2.568698612555722 241 118 76
11.691365420645669 -2.4445774668125204 2.4385791036924362 241 118 76
10.750852647757371 -2.2728601759784817 2.1538671280819126 241 118 76
10.142805058568264 -2.351348174752294 2.1939476812719363 241 118 76
12.831195746838965 -1.3506857110261612 2.235965199020822 241 118 76
12.642090869607545 -1.5500647076896548 2.2477536175345474 241 118 76
13.488341674284134 -1.4602770889619499 2.1982961358551014 241 118 76
12.17237510801633 -1.7510836598335173 2.175409453662521 241 118 76
11.157484917153399 -1.7510836598335173 2.027395121974397 241 118 76
11.633060333522755 -1.7510836598335173 2.1046276098964007 241 118 76
11.828758656521767 -1.8472946321412587 2.0948766407018 241 118 76
11.989940883033022 2.9614802828518396 1.5640665950633699 241 118 76
11.900604922835871 3.044588956291746 1.4798615116437455 241 118 76
20.586848645973262 -0.5905837772577609 0.8822821814538504 241 118 76
19.797796267454057 -0.6791591391370184 0.9144786474247243 241 118 76
14.018600529448058 2.0159559549998174 1.854152309154343 241 118 76
11.266059111939818 0.7166918547971459 1.8329119204141593 241 118 76
11.59924582127211 0.7819460368099446 1.6501356835565162 241 118 76
10.020135895461939 -0.3963686549802958 1.6626719406213035 241 118 76
10.04961651242443 -0.9020990883269422 1.6624016653443316 241 118 76
9.729949800196213 -0.6822071026650817 1.8755241664284101 241 118 76
11.121280629315255 2.531566931770767 1.8364061801104814 241 118 76
9.182771653423075 -2.5848547018481547 1.5620092723003773 241 118 76
12.498347136785277 1.196106886538052 2.365476053368246 241 118 76
10.83449274084032 0.2665196624229322 2.7276217915265457 241 118 76
12.082342365789959 1.5457297906891876 2.40120996243071 241 118 76
11.218941883669713 0.9130377628026879 2.6554838939539844 241 118 76
11.163459782525454 0.8559476244197886 2.129679789799943 241 118 76
10.220382118405457 1.0597781470016903 2.898267211041272 241 118 76
11.538579569552473 0.7799452445952786 2.4543513508628503 241 118 76
13.28348599616999 -1.1333782990164751 2.5357482383663097 241 118 76
9.603959578677003 -0.103497699413869 2.108560495942829 241 118 76
12.318544840465739 -0.7417204078703438 2.6603328130522157 241 118 76
12.870713373956626 -1.5287202750868616 2.754684442433608 241 118 76
12.314834458016094 -1.171271456760944 2.887462719005267 241 118 76
12.667765014659233 -0.7273252524469636 2.796123520187938 241 118 76
10.456742436655418 -0.4308992583687651 2.430026708982525 241 118 76
13.9241179931864 -1.2595602688948757 2.598315432274144 241 118 76
11.701674845759058 0.035147515839080656 2.773849026389449 241 118 76
10.774533453890022 0.035147515839080656 2.740476112411419 241 118 76
12.58409654786605 -1.2677984537107965 2.815098605233424 241 118 76
10.040235205897572 -0.834979591176779 1.971819484232276 241 118 76
12.689194011539138 2.012272932166916 2.0561084190277397 241 118 76
10.017156587855249 2.1769692028337544 3.00170919243225 241 118 76
10.919058754330953 2.612077814583431 1.9379307020734058 241 118 76
12.332946409985658 2.1027827379481083 2.2680653022931208 241 118 76
10.390736130254789 2.4153282307767916 2.2995113875662003 241 118 76
15.817647033163476 2.7205162956015725 2.8029509035219107 241 118 76
11.497308426437955 -1.9128455593650173 2.3306246500856984 241 118 76
11.589753487535553 -1.9581844688041383 2.448988805969172 241 118 76
11.589753487535553 -1.9581844688041383 2.448988805969172 241 118 76
10.53155779106278 -2.093516417912594 2.5809486329802893 241 118 76
11.229273652744029 -2.3503435581721552 2.4886360851204468 241 118 76
12.500090275665938 -2.8322749505485 2.633221701002644 241 118 76
11.964329449690275 -2.4306579583849652 2.2941605597481924 241 118 76
11.002181345337679 -2.1985972365760826 2.694196903696478 241 118 76
11.859395213681767 -1.975872536794849 2.1937610939526806 241 118 76
11.113531780021232 3.1226318394463566 2.363969041316068 241 118 76
11.780472812391668 -2.0210739787107994 2.3080273811846155 241 118 76
10.371349375061797 -2.728796573080127 1.9583211464314456 241 118 76
13.344273901993748 -1.449164634361204 2.3028518032684606 241 118 76
10.018286570251506 -3.0548170883789965 1.763568871994799 241 118 76
9.710917050233965 -2.3520583586687325 1.4592793983119052 241 118 76
10.011582340193801 -2.9547193448603553 1.662750657916399 241 118 76
9.787537863477404 2.797913208170763 1.873674101884459 241 118 76
9.440801439357715 -0.09232081258154691 1.775523092108634 241 118 76
10.46655210721214 2.830667763026977 1.7552156349777146 241 118 76
11.297091771921654 2.857877132282397 1.4749890562318466 241 118 76
10.444695986841149 2.9257462029792043 1.8540715363272542 241 118 76
9.693676024308514 -0.09232081258154691 1.876701335172576 241 118 76
11.538579569552473 0.7799452445952786 2.4543513508628503 241 118 76
11.227328087919954 0.9414642004634396 2.23482173178589 241 118 76
12.018089710316694 0.8683242664302494 2.4070795564502063 241 118 76
10.22590388244666 0.4800922507535202 2.896101467241971 241 118 76
9.75062960336112 -0.3769662301400096 2.2231641244574476 241 118 76
13.332972748841932 -1.3678458060923895 2.6769294468883746 241 118 76
10.865959269222582 0.02382273495058928 2.5336922040136765 241 118 76
10.898321386253842 -0.13649770619344845 2.529437498840861 241 118 76
13.493113875187968 2.050234218891243 1.9439774141643564 241 118 76
12.232044516814444 1.764631687670907 2.274995067577012 241 118 76
10.920762754080346 2.3267217103109807 2.2569840111064314 241 118 76
14.415833598793938 2.206147903167397 2.68190022712717 241 118 76
10.642522688879712 2.8727485138815005 2.2785874898629053 241 118 76
11.171671783035347 2.995404416608942 2.3586973383650682 241 118 76
12.41830711861276 1.8673970006906377 2.262321400547876 241 118 76
10.143067579292826 3.01182716093984 2.0771508980665088 241 118 76
13.173763081531789 -2.744218991266515 2.547877648304494 241 118 76
11.223535200960463 -3.045009570575284 2.2350862230148234 241 118 76
10.844455631159054 -2.521529896281327 2.2627602340352633 241 118 76
9.696490427729305 -2.8280230905619135 1.8766096703569792 241 118 76
11.62584701393773 1.0140309534619707 2.5929092350803526 241 118 76
11.028057295107276 -2.01646453311716 2.5128771020813443 241 118 76
9.634695801815145 0.13900408293020214 2.106658979053825 241 118 76
11.192113482695078 3.1247870941508613 2.237286387630332 241 118 76
10.979928777521298 2.4933019251945576 2.252578995971466 241 118 76
11.589753487535553 -1.9581844688041383 2.448988805969172 241 118 76
11.332230835129801 -2.2728601759784817 2.2275977698244978 241 118 76
11.311766274432259 0.4695217258990145 2.4791602841006144 241 118 76
11.12369105941812 -2.625903147096977 2.3630418640629682 241 118 76
10.547598450638649 0.39141046798313267 2.578531058553804 241 118 76
13.118178803816544 -1.7096187276790529 1.717632710283648 241 118 76
15.224312496485455 -1.4129905184876805 1.9701321306001391 241 118 76
13.776831140470177 -1.4695353916678364 2.096986578044808 241 118 76
10.677347599869464 2.7410500102899142 1.657002300903948 241 118 76
11.138904860255588 -2.0766626684669767 2.361658174678351 241 118 76
10.282039094400039 2.7578235979467154 2.1842493732073573 241 118 76
12.87199194787711 -1.5519746000513241 2.1383226919490568 241 118 76
15.011969211021746 2.311896760446383 2.7577013215207264 241 118 76
11.47176589513311 1.548468985994857 2.2182534460798977 241 118 76
14.098722785029327 -1.4602770889619499 2.2557441331075685 241 118 76
10.047755441307988 3.024947787501676 1.7629964159227711 241 118 76
13.628894930953718 -1.2971177583468758 2.50007471243481 241 118 76
