11.09625043456493 0.8987779554203686 0.6140574708525459 167 106 119
11.410770890181526 0.3824442859316524 0.48980355908606693 167 106 119
10.349556302624828 0.6463993408958065 0.5027014520388947 167 106 119
11.236174674917786 0.6463993408958065 0.4598094262823219 167 106 119
11.094180667788525 0.6770682380193883 0.6137927832170328 167 106 119
11.236174674917786 0.6463993408958065 0.4598094262823219 167 106 119
8.405902609158318 0.5426494546910746 0.7640920581155899 167 106 119
8.520552306759452 0.0005625896242253359 0.7780327223632972 167 106 119
7.914906229973513 0.19880154392203023 0.6969548999186475 167 106 119
8.102621159351095 0.3824442859316524 0.7241908702480412 167 106 119
7.851051624246462 0.0006755503235771791 0.6871816591229982 167 106 119
11.931315177962304 -0.4649402076149886 0.38248632281657546 167 106 119
8.704630276350338 -0.19750280258250713 0.6230301783462437 167 106 119
11.409591413256303 -0.381280809481105 0.48960962217451026 167 106 119
11.541426175582897 -0.7874334387116937 0.51063210784903 167 106 119
11.234377917317923 -0.6453212273850302 0.45948636010892957 167 106 119
11.931315177962304 -0.4649402076149886 0.38248632281657546 167 106 119
9.662797106121078 -0.24515974423679998 1.018545110818282 167 106 119
9.132476054484377 -0.4055010647424186 0.9823506107201916 167 106 119
9.1777634666622 -0.24515974423679998 1.1114404411287797 167 106 119
9.445878107794364 -0.35920843683411885 1.1254326801672603 167 106 119
8.780264038509141 -0.24515974423679998 1.2137041620415543 167 106 119
9.5076490187133 -0.5199918960933866 1.0084581796137826 167 106 119
9.809071526124084 -0.46429253017358374 1.143034126021535 167 106 119
8.08999678014647 -0.32222735953553294 0.8936196770655691 167 106 119
8.578641068930049 -0.1651327585901806 0.7848807939757458 167 106 119
7.914056013441683 -0.19750280258250713 0.6968265521470027 167 106 119
9.032143961660056 -0.4645081155573683 0.8339571085561248 167 106 119
8.751362954811253 -0.32222735953553294 0.8044474264353285 167 106 119
8.751362954811253 -0.32222735953553294 0.8044474264353285 167 106 119
8.100960039476922 -0.381280809481105 0.7239590140705016 167 106 119
9.411317416890245 -0.5891249109244475 0.8699325027328544 167 106 119
8.264156592982534 -0.5891249109244475 1.0559676543603702 167 106 119
10.351774953033468 0.9308413756616648 0.5030911277285413 167 106 119
11.77087320420425 1.5756921689108454 0.3470357479040267 167 106 119
11.77087320420425 1.5756921689108454 0.3470357479040267 167 106 119
10.841818768641438 3.14075562737776 0.37981615438218264 167 106 119
10.120285894844292 2.6792266860894665 0.4598118043336587 167 106 119
9.345322764997226 2.680497505052862 0.2437145148721503 167 106 119
9.29130392137104 3.13992672556571 0.2191139473578196 167 106 119
10.50557042433826 2.678800681361771 0.6949538340391962 167 106 119
9.711904083323775 2.7618551354905745 0.5901597607686241 167 106 119
9.555854326065802 2.944303503519488 0.5653151458693366 167 106 119
10.36561279145437 3.140922378897925 0.5055116107413156 167 106 119
10.414060570452477 2.944303503519488 0.5138540982643632 167 106 119
9.969954840685725 -2.898550033366094 0.4283596605188771 167 106 119
9.344602695491892 -2.6831733289635706 0.2434044280521615 167 106 119
9.610452618423002 -2.8227950737275767 0.3372265990611602 167 106 119
9.069823254135123 -2.898550033366094 0.47417362642808536 167 106 119
9.503413624267008 -2.361912346712212 0.30347176431318484 167 106 119
9.233361513477076 -2.680568539116129 0.5076016795938726 167 106 119
9.762588872384889 -2.1638283206474886 0.37917570941641104 167 106 119
9.762588872384889 -2.1638283206474886 0.37917570941641104 167 106 119
8.37356908220725 -2.680568539116129 0.5656839777286274 167 106 119
10.785818626334832 -2.1143911172453005 0.5719622302954113 167 106 119
9.703420931906937 -1.9549112488734188 0.5888532303927434 167 106 119
9.22838592628528 -2.0386948893357806 0.5066314924731526 167 106 119
8.72711797740508 -2.9455928798695337 0.6266076190613564 167 106 119
8.119017664415479 -2.8213226708590087 0.8964902210647331 167 106 119
8.778197622470861 -2.8213226708590087 0.8073859400717749 167 106 119
8.989047069207658 -0.46429253017358374 1.4515745870800447 167 106 119
8.591256964793995 -0.35920843683411885 1.4460262375702886 167 106 119
10.097538601202814 -0.78655974580469 1.3644178736362258 167 106 119
10.813005401294392 -0.7198075230928421 1.3782510109903607 167 106 119
11.09625043456493 0.8987779554203686 0.6140574708525459 167 106 119
10.778031995728236 1.0335599669631996 0.5708389750154307 167 106 119
10.778031995728236 1.0335599669631996 0.5708389750154307 167 106 119
8.647387887139416 0.0006755503235771791 0.6137570155037491 167 106 119
10.682698380273209 0.7882745565013213 0.5567876014115868 167 106 119
11.236174674917786 0.6463993408958065 0.4598094262823219 167 106 119
7.851051624246462 0.0006755503235771791 0.6871816591229982 167 106 119
7.903684898251691 0.16622733337660314 0.8745192833878274 167 106 119
8.405902609158318 0.5426494546910746 0.7640920581155899 167 106 119
11.234377917317923 -0.6453212273850302 0.45948636010892957 167 106 119
9.151892165152182 -0.5416580677548886 0.6881452957094272 167 106 119
12.138762410278204 -0.6453212273850302 0.4229433827191433 167 106 119
9.1777634666622 -0.24515974423679998 1.1114404411287797 167 106 119
8.799692600165029 -0.5891249109244475 0.9568957215228681 167 106 119
8.85487706907448 -0.2785957160935393 0.9612809734475157 167 106 119
10.883673567309446 1.8201802465584938 0.3893361853537984 167 106 119
9.970629747949413 2.8969735523532605 0.4285078712990563 167 106 119
9.711904083323775 2.7618551354905745 0.5901597607686241 167 106 119
9.284854183485955 3.141033727582004 0.7053820662825234 167 106 119
10.264515620234606 2.820315949481385 0.6662883391767044 167 106 119
10.888147833068594 2.8969735523532605 0.39033655211768503 167 106 119
8.896957860350716 -2.7630120253353243 0.6525163386785755 167 106 119
10.017352019649328 -2.3600115610247014 0.4386065077323118 167 106 119
9.233361513477076 -2.680568539116129 0.5076016795938726 167 106 119
9.233361513477076 -2.680568539116129 0.5076016795938726 167 106 119
9.610452618423002 -2.8227950737275767 0.3372265990611602 167 106 119
9.610452618423002 -2.8227950737275767 0.3372265990611602 167 106 119
8.885811602180736 -2.864474078498799 0.9637095805780376 167 106 119
8.715754519956393 -3.0005563263873243 0.9500922716424219 167 106 119
11.933186696936678 -0.9841305651828336 1.1320613824569479 167 106 119
8.102621159351095 0.3824442859316524 0.7241908702480412 167 106 119
12.301100840230294 -0.381280809481105 0.45136946375436776 167 106 119
8.874900519175663 -0.381280809481105 0.6492570679441793 167 106 119
8.772001020245257 -0.35920843683411885 1.332670753199424 167 106 119
8.85487706907448 -0.2785957160935393 0.9612809734475157 167 106 119
9.809071526124084 -0.46429253017358374 1.143034126021535 167 106 119
8.85487706907448 -0.2785957160935393 0.9612809734475157 167 106 119
9.411317416890245 -0.5891249109244475 0.8699325027328544 167 106 119
9.462935779792842 -0.2785957160935393 0.8745261865101105 167 106 119
9.175483871835265 2.602403870409685 0.6912664703611486 167 106 119
10.36053147588877 -2.2178307534675374 0.5046247819766939 167 106 119
9.764940886060858 -2.5573667146153305 0.37977974074967313 167 106 119
10.785818626334832 -2.1143911172453005 0.5719622302954113 167 106 119
8.125118676351372 -2.7630120253353243 0.7273157719028336 167 106 119
9.703420931906937 -1.9549112488734188 0.5888532303927434 167 106 119
9.345322764997226 2.680497505052862 0.2437145148721503 167 106 119
9.151892165152182 -0.5416580677548886 0.6881452957094272 167 106 119
9.014271140751063 -0.5199918960933866 1.1024488885833916 167 106 119
9.332881790540519 -3.0005563263873243 0.8628199009439901 167 106 119
10.36561279145437 3.140922378897925 0.5055116107413156 167 106 119
9.344602695491892 -2.6831733289635706 0.2434044280521615 167 106 119
9.338189770287714 -2.9775159920608276 0.7120633027154774 167 106 119
8.799692600165029 -0.5891249109244475 0.9568957215228681 167 106 119
10.264515620234606 2.820315949481385 0.6662883391767044 167 106 119
8.704630276350338 -0.19750280258250713 0.6230301783462437 167 106 119
9.132476054484377 -0.4055010647424186 0.9823506107201916 167 106 119
9.032143961660056 -0.4645081155573683 0.8339571085561248 167 106 119
9.014271140751063 -0.5199918960933866 1.1024488885833916 167 106 119
9.610452618423002 -2.8227950737275767 0.3372265990611602 167 106 119
10.559950910889553 2.8207868720909297 0.3060779642155363 167 106 119
10.017352019649328 -2.3600115610247014 0.4386065077323118 167 106 119
