8.256061680944464 -2.9741275056159178 1.3029284920741964 10 70 215
7.407113563079799 0.09384261562188863 1.8183266737180706 10 70 215
7.203460075669666 -0.04571408987575897 1.6841539370771996 10 70 215
7.175331618196334 0.16076163931657972 2.5156143468909415 10 70 215
7.98752791693277 0.2656046315053898 2.2177922431450416 10 70 215
7.774254238143578 -0.06342705082179795 2.4157772857979567 10 70 215
6.2445169106994785 -0.5736038140634413 1.3798425592719878 10 70 215
6.746298698954247 -0.5736038140634413 2.001201504911868 10 70 215
9.076659324298157 -0.8063135446523259 2.420079316944909 10 70 215
7.879922166910947 -0.25220912621707825 2.400792108477449 10 70 215
8.644744073255584 -0.6758085487118574 2.4788690001323883 10 70 215
6.8243068495303785 -1.1414326387292086 3.088856037658067 10 70 215
5.915055382366837 2.472088555915145 2.957234325027296 10 70 215
6.879313026425511 1.530047507532396 2.5778509232330964 10 70 215
6.918862963484062 -0.27715108625026935 2.9679521188742024 10 70 215
6.421233368439309 0.6613038935973967 2.703496929530665 10 70 215
6.421233368439309 0.6613038935973967 2.703496929530665 10 70 215
6.647246279487755 0.21048048063691965 2.6357596543005024 10 70 215
6.235894672718548 0.3033640178472762 2.772002719589196 10 70 215
7.3217983299667475 1.5148299883798773 2.767275699037894 10 70 215
6.502199077523932 1.1645746905568615 2.6776272772528906 10 70 215
9.52738292322462 -1.3582254720449527 2.53264123873847 10 70 215
9.495895108092952 -1.7290705026901136 2.5374125747817438 10 70 215
9.698996138605084 -1.1872316804742131 2.507711495211443 10 70 215
7.037386525177695 -0.8568686880859003 2.8894239658425924 10 70 215
9.009873179361131 -2.689461458887014 2.1345865794926624 10 70 215
9.262051837128613 -2.402967399547457 2.1174643071990014 10 70 215
9.637039128953427 -1.9050901556104225 2.51651037217595 10 70 215
9.938961095337879 -2.814117536081465 2.326316180774293 10 70 215
10.211440726515088 -2.1966414783188 2.4423041730042616 10 70 215
9.314563785183468 -2.5047556942678284 2.2449953425206752 10 70 215
8.444569132817525 -2.9741275056159178 1.910628583721533 10 70 215
7.895069305528034 -1.6863218360326022 1.9353461830947087 10 70 215
6.731805091565892 -1.2432638535460796 1.6921340921359578 10 70 215
6.684875549997732 -1.2432638535460796 1.5430913449250352 10 70 215
7.37856377105097 -1.6863218360326022 1.5456965763380308 10 70 215
10.282250264118137 -1.2432638535460796 2.434155702285925 10 70 215
8.551915294789623 -1.1088933155757057 2.1688204899919907 10 70 215
8.669826550703494 -1.3910386633921579 2.3059432700800233 10 70 215
10.007505920933305 -1.5503612176698751 2.319883815947018 10 70 215
9.544371735325614 -1.2432638535460796 2.3660117558837954 10 70 215
9.300324207264714 -1.5471325518920434 2.39315176258162 10 70 215
10.007505920933305 -1.5503612176698751 2.319883815947018 10 70 215
9.424438275916733 -1.4151474580727672 2.235713218340263 10 70 215
9.02717557576087 -1.2854071084405472 2.1333752237975077 10 70 215
6.987109283259518 -1.9940533110269953 1.6876798008354064 10 70 215
7.4088161492516535 -2.1174684869687277 1.545799087407352 10 70 215
7.649448602393946 -1.8181475723509737 1.415232902406233 10 70 215
10.404406401363918 -1.941786325599776 2.2849704433516544 10 70 215
10.721575063106084 -2.0546216508487904 2.259604280534471 10 70 215
9.778651946606315 -1.941786325599776 2.207619445135318 10 70 215
10.45118016490656 -1.9940533110269953 2.4154559578615755 10 70 215
10.766971074002758 -2.1174684869687277 2.383013444595943 10 70 215
7.796466158588277 0.12993570688124584 2.4125726294145378 10 70 215
8.274688168313629 0.22984899609841306 2.049943698493297 10 70 215
7.8172176008054555 -0.05313456897304521 2.2343558365088816 10 70 215
6.892297009841765 -0.21253386249412426 1.9914976901631303 10 70 215
7.945485521019538 0.3141017377297743 2.3918135130903133 10 70 215
8.311284840192064 -0.5110773639403928 2.532116070034343 10 70 215
6.235894672718548 0.3033640178472762 2.772002719589196 10 70 215
5.9654741335718935 0.5295268888227086 2.9163750940008937 10 70 215
5.855542750880665 1.3518288077793352 3.023586261022425 10 70 215
9.205454261236953 -1.0368189507236176 2.4043163020345175 10 70 215
9.471846833132355 -0.9415786365297736 2.541100479730388 10 70 215
8.491804842543814 -1.0368189507236176 2.325065974391315 10 70 215
9.698996138605084 -1.1872316804742131 2.507711495211443 10 70 215
9.458938874674468 -1.542692533122705 2.5430959582393484 10 70 215
6.139086206068673 2.7927692609740498 2.8151214885543414 10 70 215
7.25027932407309 -2.3093772483062875 1.6834188004435957 10 70 215
10.313400576663367 -2.6245013295440707 2.4306306993520392 10 70 215
9.281880681347122 -2.814117536081465 2.2478123268318813 10 70 215
10.628923792191133 -2.3093772483062875 2.396818328715349 10 70 215
10.628923792191133 -2.3093772483062875 2.396818328715349 10 70 215
9.969490316968384 -2.5047556942678284 2.3234355530820814 10 70 215
9.877905772078169 -2.0620891550589864 2.483469085984657 10 70 215
12.175109786936492 -2.3093772483062875 2.508392560390422 10 70 215
9.304301434427227 -2.9741275056159178 2.114703369003417 10 70 215
10.042443628250592 -1.6863218360326022 2.3166535582628027 10 70 215
7.297008921032761 -1.1088933155757057 1.8221417095590815 10 70 215
9.369926952285073 -1.3910386633921579 2.3851871185524525 10 70 215
10.223828420423562 -1.855297261080758 2.4408648044245362 10 70 215
7.950758654980194 -1.941786325599776 1.4211735810180002 10 70 215
10.488018244912281 -2.224828708979035 2.278080618596746 10 70 215
9.575640683007494 -2.0546216508487904 2.097653909347832 10 70 215
8.858069380525729 -1.2432638535460796 2.28689045330597 10 70 215
9.867567483110408 -2.224828708979035 2.200971132007013 10 70 215
8.66267072587671 -1.9940533110269953 0.9290864438643798 10 70 215
6.050447294053447 -0.8063135446523259 1.7058776818163293 10 70 215
7.839307789662393 0.10898997856156718 2.2321546457653803 10 70 215
8.108471974043916 -0.424416719618879 2.370470244416178 10 70 215
6.158955856395969 0.9686662839521809 2.805723525898512 10 70 215
8.119023177970428 -2.689461458887014 1.9248408788536289 10 70 215
8.117677513798668 -2.402967399547457 1.796265681826526 10 70 215
10.400728730678125 -3.099952813106024 2.285276986822372 10 70 215
8.228342171571724 -2.8534116400290173 1.6699848309898528 10 70 215
10.176009694161396 -1.8181475723509737 2.3045938791190723 10 70 215
8.858069380525729 -1.2432638535460796 2.28689045330597 10 70 215
10.042443628250592 -1.6863218360326022 2.3166535582628027 10 70 215
11.16369855278652 -2.224828708979035 2.3462227168467362 10 70 215
10.090895317125472 -1.7043788456266429 2.456629902451514 10 70 215
10.176009694161396 -1.8181475723509737 2.3045938791190723 10 70 215
9.02717557576087 -1.2854071084405472 2.1333752237975077 10 70 215
7.771935404794077 -1.8181475723509737 1.8064815477501206 10 70 215
7.850580874687882 -1.5503612176698751 1.9375096011509159 10 70 215
7.795628485200007 -0.5736038140634413 2.2365228482381783 10 70 215
6.625603755538424 -0.3617491024983775 1.6940888422851947 10 70 215
7.658933347449306 -2.689461458887014 1.6773861428573955 10 70 215
5.885747579853218 -2.7743644079926875 2.9861891210582536 10 70 215
7.018751682598906 1.4815203241094506 2.8999434809630835 10 70 215
7.330941553060572 -1.5503612176698751 1.5455334923319268 10 70 215
7.35754012858569 -0.21253386249412426 2.1158817490616193 10 70 215
6.944444425137865 -1.4584289934857935 2.9480758651796863 10 70 215
9.753399574371942 -2.9502368962403214 2.344392141504315 10 70 215
7.932913764874756 -1.4151474580727672 1.9335263374910816 10 70 215
7.419043387480246 -1.4151474580727672 1.545833553559028 10 70 215
8.352012081977232 -0.8063135446523259 2.3409113119236107 10 70 215
8.644235768906903 -0.25220912621707825 2.4789443456300675 10 70 215
