16.557907378747515 1.4750915371575988 1.5962335990887573 175 213 61
16.543265011733045 1.5961755846711567 1.6568069370326166 175 213 61
16.54309069541361 1.6566607792190404 1.5962563866945652 175 213 61
16.276190200996794 1.8488758537974244 1.7201040995868433 175 213 61
15.913739334982681 1.6621788173903584 1.7874681214678265 175 213 61
14.416521872931616 1.3815202316391522 1.8824908293842788 175 213 61
14.537930506023374 1.5276569963671789 1.952924991577098 175 213 61
15.450211294330716 1.6756474335430793 2.071823008813669 175 213 61
15.760141635418881 1.8191981063928389 2.061084858454342 175 213 61
15.881209479797597 1.9530629631696044 1.9870351323155124 175 213 61
15.142630600720274 1.5996799497044407 1.8670787266437752 175 213 61
15.831964491484278 1.8026691555491858 1.920285126841683 175 213 61
15.855932074692909 1.5978146365750068 1.788270728710455 175 213 61
16.077550103299902 1.8670130306963908 1.9147237478659798 175 213 61
21.21153727982547 -0.21632849966795786 1.6851883646802317 175 213 61
19.276359873066255 -0.4043229721217228 1.6967305859068396 175 213 61
21.23513274794464 -0.17801793732744958 1.9278067671725458 175 213 61
21.432764181259646 -0.12198527538117515 1.8265112649357658 175 213 61
21.092284571057878 -0.12814846371074431 1.930334071972008 175 213 61
22.195986743816448 -0.2270089685337637 2.0091534806847435 175 213 61
20.17293212651445 -0.4043229721217228 1.8947371444199452 175 213 61
19.427309003364538 -0.4043229721217228 1.747819105074067 175 213 61
19.988432230952093 -0.3376136123395517 1.74279931560688 175 213 61
20.42101574662166 -0.28892080939507525 1.8906608540838807 175 213 61
20.556881244418236 -0.3552777771007746 1.9928675487248426 175 213 61
22.275163647180577 -0.23877771063140707 2.1091577804601487 175 213 61
11.816119063513653 0.5944038006529891 1.7771595757077232 175 213 61
13.30623784465979 1.0501035245216663 1.6778031566224567 175 213 61
12.238683803338334 0.8960361513630459 1.4414303012437015 175 213 61
12.598214459407536 0.568029855962314 2.2006952047841586 175 213 61
12.040931976237571 0.6465144110531831 2.037814933669508 175 213 61
12.994612662407812 0.2529549642726735 2.2758159262479496 175 213 61
12.396484647319408 0.47760542832252 1.850402183331545 175 213 61
12.608381287596547 0.34808257561467587 2.200107530378027 175 213 61
12.641905801421325 0.21068062874081905 1.928069831489762 175 213 61
12.311032091738712 0.40023362803307594 1.9381215614281568 175 213 61
14.22280764934687 0.48082981514403755 2.393086663903407 175 213 61
13.940396401346142 0.3849291611613842 2.415162010376428 175 213 61
14.49908036322508 0.28097762494602113 2.4778872448005047 175 213 61
14.163666707797459 0.4370833013819499 2.2985079962014723 175 213 61
14.067276381759575 1.291241841063838 1.966407880687373 175 213 61
13.506270347949728 1.1181283592265734 1.9042834345565738 175 213 61
13.204551493806813 0.9637639492496516 2.078626643538357 175 213 61
12.434486369801748 0.7784295834678111 2.113435563114087 175 213 61
13.043678133785159 0.8489790865148594 2.2726194768750205 175 213 61
13.480273951003188 1.1204606932431271 2.2455450781550175 175 213 61
13.329126899613495 1.2413794209731346 2.161278170486532 175 213 61
13.174001042150966 1.2094433857984417 2.2642855802125643 175 213 61
12.836936172136289 1.009884574697882 1.8405642067852301 175 213 61
13.060247198443097 0.841077960766523 2.0847862279042975 175 213 61
12.201864061361311 0.841077960766523 1.9415664958338918 175 213 61
13.508201234805508 1.009884574697882 1.9837563907891758 175 213 61
13.329126899613495 1.2413794209731346 2.161278170486532 175 213 61
13.212761011827016 1.1181283592265734 1.83270763671169 175 213 61
12.799349153365185 1.2413794209731346 2.0963329355557025 175 213 61
13.834615593316814 1.2094433857984417 2.3199009214127737 175 213 61
14.933728030076217 1.1240510521409481 2.553050629888502 175 213 61
13.619660234355496 1.0210224237336338 2.442077388691536 175 213 61
13.987802802255427 0.9295125420404564 2.411355763257462 175 213 61
13.84810267445292 0.9884881122243762 2.3189956202625073 175 213 61
13.476144305649512 1.0752733567473831 2.3449312447921886 175 213 61
15.151928491804549 0.35992236609297446 2.6589494426492015 175 213 61
14.458998142078475 1.0656445867884405 2.604226183605789 175 213 61
14.677737780052283 0.7759091007720852 2.5797169789099965 175 213 61
14.267000623374887 0.8594886384437438 2.498973126455711 175 213 61
14.745082389910818 0.417630087179721 2.7145906339101127 175 213 61
14.601629291055609 0.6491339595543514 2.7367230494002177 175 213 61
14.871488948893735 0.7738142187350743 2.6962769037334557 175 213 61
14.142611309352107 0.4299626109407225 2.5108157793497354 175 213 61
13.92366704451919 0.7773623435250435 2.416515311041948 175 213 61
14.752825596197466 0.5973032747475855 2.571683642765957 175 213 61
15.202459970699604 0.8741496091575841 2.6526437186478082 175 213 61
14.961809375996745 0.4299626109407225 2.5502445102734983 175 213 61
14.421063076315471 0.5333838601076174 2.484835743198775 175 213 61
14.480754727159901 0.4859911294667115 2.601709995751295 175 213 61
14.396318013636604 0.4955830817646824 2.7714124429548295 175 213 61
14.396318013636604 0.4955830817646824 2.7714124429548295 175 213 61
14.10994294865353 0.6050038938914404 2.8278440388410537 175 213 61
13.718225145618513 0.7069638957814097 2.327819989952138 175 213 61
14.76213622260426 0.6255804573592818 2.4554224688173916 175 213 61
12.68060336056172 -0.12047779021888423 1.604013992009373 175 213 61
12.686820580099617 -0.12047779021888423 1.5251538074424424 175 213 61
12.872702196687563 0.12682688409504225 2.005492419743474 175 213 61
12.841586842845947 0.1529234431838505 2.2859999818352703 175 213 61
12.79659549415193 0.041145256108774786 2.008255684240538 175 213 61
12.935236318455638 -0.049403162448690634 2.1818310578649065 175 213 61
12.386753370504278 0.04502855439774376 2.1157609756919946 175 213 61
12.490130498813407 -0.1307666166193297 1.9326098113761452 175 213 61
12.847004936224947 -0.157649569561499 2.2856337095324397 175 213 61
12.651077198157218 -0.21450810824441038 1.9277992262602277 175 213 61
12.16642476375475 0.12682688409504225 1.8558358623063258 175 213 61
13.523602367255485 -0.157649569561499 2.341505871865497 175 213 61
13.510004789490015 -0.060890955248091315 2.4517793366223715 175 213 61
13.672388795817021 -0.2574883067397456 2.330992175886738 175 213 61
13.446004320799128 0.049720590591406696 2.347125222582866 175 213 61
13.447729421403952 -0.054549391169414166 2.346999254445537 175 213 61
14.166287860535077 -0.054549391169414166 2.3973921959267934 175 213 61
14.362093363281128 0.17041746259475055 2.490180294605088 175 213 61
13.718565239586567 -0.06889829874153038 2.5544587634599942 175 213 61
13.969140432059595 0.3910768002684116 2.86056461071207 175 213 61
15.485180455926352 0.19237529975099935 2.619362345273793 175 213 61
15.025528762946653 -0.2274239304208452 2.675258815497171 175 213 61
15.025528762946653 -0.2274239304208452 2.675258815497171 175 213 61
13.899038772769389 0.13234230834187513 2.8786011628951744 175 213 61
13.53443550323579 1.4209524233010995 2.242347703414354 175 213 61
15.119448025376425 1.683982150380694 2.1615344492346513 175 213 61
14.58613805761515 1.683982150380694 2.104563973346737 175 213 61
14.241052816554824 1.6072240511524716 2.203501746696773 175 213 61
13.908837017312234 1.3495266245637012 2.133595748491161 175 213 61
13.401994702950194 1.3495266245637012 2.070446404802577 175 213 61
14.121033435484106 1.444694457871982 2.0428562205969794 175 213 61
13.846471841783755 1.3667527002394253 1.9730770058610414 175 213 61
14.908512576707412 1.71934966530287 2.4435193251814966 175 213 61
14.846791895400953 1.6149027182177869 2.448488977108586 175 213 61
15.043799690834032 1.620097921653232 2.5421766908502272 175 213 61
15.120941564893991 1.3863213990874463 2.534750550934505 175 213 61
15.374266519936263 1.4931466261470558 2.6320373007679745 175 213 61
14.854287949280979 1.6072240511524716 2.257817869825012 175 213 61
14.174339811789968 1.4054141858752942 2.3967754910980767 175 213 61
14.095966262605012 1.610697510963784 2.302794572829739 175 213 61
13.679246537435425 1.2751563368477852 2.4369165190254787 175 213 61
14.455589610534364 1.2751563368477852 2.4817437558870363 175 213 61
13.889816689890372 0.7646563615709443 2.8810786804371715 175 213 61
15.124200147226908 1.1914857615974102 2.6624601865362316 175 213 61
14.723716395316881 1.1302928991677772 2.717791206076751 175 213 61
13.889816689890372 0.7646563615709443 2.8810786804371715 175 213 61
14.10250379480227 0.9320726459846653 2.829473900689083 175 213 61
14.701576565343315 2.144615332950958 1.9484555533106007 175 213 61
13.787057787617043 2.0901765106330568 2.2278676034974088 175 213 61
14.827923597574152 2.1869146520831237 2.094954384281501 175 213 61
14.35377304233966 2.1204408154241157 2.1141585097601627 175 213 61
15.430350825631198 2.045909594790986 1.9999893730477218 175 213 61
15.436020987322426 1.8382038954519926 2.147843213438233 175 213 61
14.701576565343315 2.144615332950958 1.9484555533106007 175 213 61
15.491802385072976 1.9382816259193085 2.224508312009665 175 213 61
15.044032232388808 1.7784669097312535 2.2475146005057223 175 213 61
14.686817446286009 2.1978920516928997 2.4617089597664132 175 213 61
15.156133220326398 2.1045191984205864 2.531413928146233 175 213 61
14.494636850317859 1.9169692222783843 2.373108982124015 175 213 61
14.973696449499304 1.7976436674103484 2.340556798661923 175 213 61
14.42728870268726 1.8486940516624903 2.484276203807057 175 213 61
14.131209138535542 2.352264082279222 2.3005559300036076 175 213 61
15.231183291751742 1.8486940516624903 2.524401690969475 175 213 61
14.893612544969967 2.0512735812201375 2.444712582602325 175 213 61
13.783020060628456 2.1395322675444604 2.3233876756268206 175 213 61
14.494636850317859 1.9169692222783843 2.373108982124015 175 213 61
14.338052561963396 2.4238458156955582 2.3844727405863817 175 213 61
15.543392607306684 2.1694530600809228 2.612891359976799 175 213 61
13.860360601414937 2.3442352580359214 2.889174034364452 175 213 61
14.683975925979805 2.712832261634654 2.7238306575974356 175 213 61
14.616349771727222 2.350821101028498 2.586423950223415 175 213 61
14.680619629644887 2.5325394625528608 2.579405249005145 175 213 61
13.50600834909374 -2.7881796837529618 3.0294307314395033 175 213 61
13.513775869742506 -1.8387838353088661 3.0244382591548042 175 213 61
13.729714138265194 -2.0828727483309533 2.92918069753005 175 213 61
13.88218019802092 -1.688958995472662 2.8831503137195584 175 213 61
13.514674890803002 1.1955428740614482 3.0238743965435044 175 213 61
13.43612107213036 2.2908797745285017 3.0943697733260205 175 213 61
13.508625210161128 1.8467876436476944 3.027723787198521 175 213 61
13.504290693310965 2.8172743420524093 3.03056570591742 175 213 61
14.582326066424148 -1.8221479982471007 2.739823186219402 175 213 61
13.294944676640009 -1.874639576171961 2.777018304385416 175 213 61
14.036090092440565 -1.6348273604401176 2.6571683712276895 175 213 61
14.041912527095748 -1.481851252000941 2.6563810285829788 175 213 61
14.607709750349422 -1.3635661096936453 2.5873783000175052 175 213 61
13.600199656136065 -1.646379730809386 2.722125045679279 175 213 61
14.527842905244153 -1.626335040748362 2.5963255190221757 175 213 61
14.321272512735982 -1.7356853986457426 2.4939280144119524 175 213 61
14.338385313226459 -1.3873031055900877 2.4923520547942064 175 213 61
14.169026834848921 -1.6630038438399166 2.815236937996246 175 213 61
13.600199656136065 -1.646379730809386 2.722125045679279 175 213 61
13.667550927333806 -1.8221479982471007 2.7112078992829494 175 213 61
14.137730373823945 3.034092232102819 2.821841929243932 175 213 61
13.193920166616094 -3.0237244929569314 2.797640357437613 175 213 61
13.716996405831713 2.5933510250592877 2.9335234649829984 175 213 61
13.859484003915483 -2.98971182107044 2.8894193781400195 175 213 61
14.20665427631008 2.819017369526882 2.8074998681563477 175 213 61
13.193920166616094 -3.0237244929569314 2.797640357437613 175 213 61
14.211551953099052 -2.809602030032158 2.806508422492948 175 213 61
14.085026176025499 -2.172324044982978 2.83334277841476 175 213 61
14.290713069816466 -2.3410780114221965 2.790947679941337 175 213 61
14.353208815870344 -2.6227062854560215 2.779230731823954 175 213 61
13.93311491559349 -2.722398648544464 2.8696652144328003 175 213 61
13.868726256689142 -2.334961356788623 2.886845818255524 175 213 61
13.111456041789873 -3.0602554989168382 2.628195737341825 175 213 61
13.991160233949083 -3.0602554989168382 2.6633064773161803 175 213 61
14.548729958010052 2.8754959297792535 2.7452933956870043 175 213 61
14.481434244833755 3.0538194893307016 2.7565507366274966 175 213 61
14.067195185584149 -2.6981966443575414 2.5181940674866023 175 213 61
14.064101787472346 -2.9085808870762557 2.653397122415016 175 213 61
14.001972368797636 -2.5650450278229053 2.6618191518313754 175 213 61
13.70376559915677 -2.9390765956174345 2.556083754754922 175 213 61
14.207228916461066 -2.767024424221602 2.6347536504736206 175 213 61
12.36389500461731 -2.2771042211417187 2.214581111755362 175 213 61
12.996626257669547 -2.216236485744912 2.178526233221765 175 213 61
14.28641398717387 -2.4459856509076876 2.62485872906188 175 213 61
14.350344065062222 -2.594043325877869 2.4912549094267913 175 213 61
14.217673913742413 -2.431008739843556 2.5036219416972316 175 213 61
14.01695343790021 -2.124990822187713 2.6597691145419113 175 213 61
13.874999480535372 -2.166134618614651 2.5377247111340613 175 213 61
14.28641398717387 -2.4459856509076876 2.62485872906188 175 213 61
13.653885501347881 -2.2179465417556523 2.713393180519435 175 213 61
14.236743321845328 -1.9258065907490634 2.631032224611796 175 213 61
14.350344065062222 -2.594043325877869 2.4912549094267913 175 213 61
13.889909882961678 -1.9522106408012094 2.419262334142082 175 213 61
14.454596640811078 -1.847257466994745 2.4818323020752184 175 213 61
13.888447344905124 -1.8818052458345633 2.536322490398988 175 213 61
13.59116329917905 -2.1018138972229203 2.444572861909686 175 213 61
13.435395159544305 -2.263927595009767 2.458538059262535 175 213 61
13.807188925185418 -1.9834894010604611 2.6896814567167606 175 213 61
13.433883138858704 -2.2455042669487186 2.587112639795028 175 213 61
13.427582297690881 -2.431008739843556 2.4592534200138285 175 213 61
15.538510785364434 -0.26640281261708365 2.760047485688379 175 213 61
15.538510785364434 -0.26640281261708365 2.760047485688379 175 213 61
15.471022223311474 0.08521500938528381 2.7710720495721497 175 213 61
15.85995290723072 -0.563045602456844 2.7123478023666574 175 213 61
15.471022223311474 0.08521500938528381 2.7710720495721497 175 213 61
15.85995290723072 -0.563045602456844 2.7123478023666574 175 213 61
15.140523131485311 -0.11369928698913316 2.832094076797165 175 213 61
15.472521547263787 -0.09346061357116384 2.7708226784026415 175 213 61
15.534031486959616 0.25865085849499586 2.7607668493505697 175 213 61
16.284057069538328 -0.5033858955403546 2.8145877226268103 175 213 61
15.668175127411345 -0.424553100765511 2.73992382948255 175 213 61
15.904736335825758 -0.4020969844548053 2.8943640550177445 175 213 61
17.009106320821655 -0.8782978989956712 2.7060479823022354 175 213 61
16.111626256089757 -0.6810237275826514 2.6793996901792276 175 213 61
16.711173011990226 -0.778968338127346 2.7460933568187587 175 213 61
14.918425389536328 1.1438408233644444 2.882670597119503 175 213 61
14.717534117490837 1.0024612124355448 2.9405621678211054 175 213 61
16.426151876207093 1.824187592007341 2.7899741751740175 175 213 61
16.786067766569904 1.7863688797777946 2.735539740461471 175 213 61
16.417609301770028 2.2229126272189226 2.7913952475372112 175 213 61
16.04636199571326 2.2496227990838027 2.6876319298812796 175 213 61
16.174140509981555 2.056411928321123 2.671700761420683 175 213 61
14.570550472730414 -2.320533960636817 2.99826314929245 175 213 61
15.838041229046619 -0.7739305610354744 2.9116408680016845 175 213 61
14.515460698586047 0.2927789616635184 3.0275328557941323 175 213 61
15.709778979242063 -0.5330254644579243 2.9496052636387575 175 213 61
15.838041229046619 -0.7739305610354744 2.9116408680016845 175 213 61
16.027786633510104 -0.9384050634295706 2.865582778640946 175 213 61
15.644512174570709 -0.19994506819730665 2.972406777552694 175 213 61
14.98153387525861 -1.5278048130208297 2.0137432167237383 175 213 61
14.27846828059059 -1.6070775157288173 2.201581636988644 175 213 61
14.079647741462718 -1.6041826426502552 2.0443575358597275 175 213 61
14.968096280659148 -1.4343830015391383 2.251596330245448 175 213 61
14.938046752517273 -1.7186364787096402 2.441166114708067 175 213 61
14.13048290752078 -1.6105217810940542 2.300601902663603 175 213 61
14.954453777617317 -1.406205375414632 2.4398656821609745 175 213 61
14.123258758503372 -1.6146881205512513 2.4007068251152126 175 213 61
14.876448605628031 -1.6146881205512513 2.4460922251166135 175 213 61
14.954453777617317 -1.406205375414632 2.4398656821609745 175 213 61
13.101870561726528 -1.7966772927335757 2.1729498644143903 175 213 61
14.525012597348796 -1.9154134313096276 2.3709481539352892 175 213 61
13.82511142077673 -1.9154134313096276 2.320540395480384 175 213 61
22.04534548172007 -0.7823338359857716 2.481999001131068 175 213 61
21.97011711764962 -0.7375475013569203 2.348878118153669 175 213 61
21.459789463732875 -0.7826242240282587 2.372592623063616 175 213 61
21.509059760177717 -0.6881672317686061 2.370228447222161 175 213 61
13.840355924728192 2.7499235744096104 2.4233348509768726 175 213 61
13.255249223738048 2.81949228576736 2.165018503767148 175 213 61
13.551945896699243 2.7357415713580098 2.1502981446179654 175 213 61
13.54976306168315 2.884436402007499 2.339632763818587 175 213 61
14.209431555135861 2.297110484758975 2.0396825478327685 175 213 61
14.064018795233652 2.3527293512938035 2.126650069675711 175 213 61
13.632213744556669 2.470605290232502 2.0612511382612437 175 213 61
14.1976752948458 2.4858060536937714 2.2963762174520936 175 213 61
13.770271535965419 2.56480547055382 2.324254992460364 175 213 61
13.77006211614418 2.6148804047979235 2.228820080522716 175 213 61
14.12476752823968 2.6528323818553794 2.400590055988781 175 213 61
13.91433948093544 2.657602764852781 2.1333462943140944 175 213 61
14.410971641685956 -2.8503844037740493 2.485744621384934 175 213 61
14.619250940243877 -2.745224664359716 2.4674460145695956 175 213 61
13.406322938264497 -3.091415551916782 2.2499658842810293 175 213 61
13.406753138196343 -3.079522203921182 2.4611677499998352 175 213 61
12.800031842633913 3.0958584926248567 2.189249235736412 175 213 61
13.329998792964778 3.091010470776814 2.355707647951796 175 213 61
13.329998792964778 3.091010470776814 2.355707647951796 175 213 61
12.64327292104156 3.0850139796786533 2.4115569824114185 175 213 61
13.403077013286829 2.986057010868917 2.3502753216834193 175 213 61
12.72029699966153 2.967931217748406 2.4048165770312395 175 213 61
15.861086478951425 1.5332260717784185 1.7881989206015525 175 213 61
15.850594062369547 1.7257935981825103 1.7241443830628962 175 213 61
14.61214925099882 1.453963149412925 1.9508845625186764 175 213 61
15.523468179843695 1.6684523822879087 1.9275374384641604 175 213 61
16.562669217458016 1.4750915371575988 1.5358396829197125 175 213 61
16.077370737541894 1.9289284095922703 1.849377336023157 175 213 61
20.39534115130267 -0.27491655860116154 1.6405326010029748 175 213 61
21.344027026069405 -0.16953748497690727 1.7794441380972523 175 213 61
22.013982673185943 -0.17801793732744958 2.0130326897019555 175 213 61
21.423754508002922 -0.2270089685337637 1.9245248124610348 175 213 61
21.09822201188824 -0.2270089685337637 1.8800472700718271 175 213 61
13.881223793421869 1.1501320695141035 1.746111537128101 175 213 61
12.145868163235226 0.7792465807996097 1.6880712209532722 175 213 61
11.470331635791345 0.7166995585133334 1.695012770816085 175 213 61
12.375561476680405 0.8960361513630459 1.7677053347897325 175 213 61
11.884993821939318 0.7166995585133334 1.8627815240802026 175 213 61
11.988295375388882 0.40023362803307594 1.8601925045547223 175 213 61
12.62295014127085 0.22992459418136516 2.104456470578005 175 213 61
12.76856314330142 0.5192658604104227 2.0977317769972434 175 213 61
13.88005219752126 0.34808257561467587 2.316861085653757 175 213 61
13.865843784932675 1.1181283592265734 1.9724826378718208 175 213 61
13.114374597564705 1.1585349126117548 2.0824574282293975 175 213 61
13.494374440212328 1.1909646521215058 1.9842053834513156 175 213 61
13.575751234951436 0.7784295834678111 2.2399312223414753 175 213 61
13.480273951003188 1.1204606932431271 2.2455450781550175 175 213 61
12.748250664163525 0.9637639492496516 2.010029992827975 175 213 61
14.274354049105845 0.694022172935882 2.4982853134280667 175 213 61
15.326607988360594 1.0656445867884405 2.6376302229672923 175 213 61
14.601629291055609 0.6491339595543514 2.7367230494002177 175 213 61
14.931554065977977 0.9916255299498942 2.6879217471383696 175 213 61
14.334656631266714 0.6759861275724686 2.618966577233268 175 213 61
14.871488948893735 0.7738142187350743 2.6962769037334557 175 213 61
14.319360866250728 0.7705324012629176 2.785518147205097 175 213 61
14.396318013636604 0.4955830817646824 2.7714124429548295 175 213 61
14.142611309352107 0.4299626109407225 2.5108157793497354 175 213 61
14.10994294865353 0.6050038938914404 2.8278440388410537 175 213 61
11.929743901898684 -0.1307666166193297 1.7751660992178164 175 213 61
12.91070800306799 -0.19791892564539348 1.681094554050442 175 213 61
13.820549132351223 -0.18368451959387383 1.6012732475760632 175 213 61
11.9382954731814 -0.21450810824441038 1.690119943197212 175 213 61
12.632135300523549 -0.23407718618366702 2.1040269066034183 175 213 61
12.08587133509411 0.041145256108774786 1.8577894177797976 175 213 61
12.465362596625678 0.1386657645212868 2.111942570025743 175 213 61
12.765294631879783 0.049720590591406696 2.2912030843538354 175 213 61
12.872702196687563 0.12682688409504225 2.005492419743474 175 213 61
12.16642476375475 0.12682688409504225 1.8558358623063258 175 213 61
12.087790547688778 -0.04514362100938114 1.857742557728941 175 213 61
12.933442860195777 0.04502855439774376 2.181928192774527 175 213 61
14.177620002200433 -0.049403162448690634 2.297631628000708 175 213 61
13.585529942125476 -0.17566335691232857 2.44506829679864 175 213 61
13.508287641877429 0.05550308268130446 2.4519334293706763 175 213 61
14.177620002200433 -0.049403162448690634 2.297631628000708 175 213 61
15.020896491791133 0.2207230411982462 2.67587184586772 175 213 61
15.159581425701761 -0.3660825349315698 2.6579868745923667 175 213 61
14.246791486485805 1.5201512369960188 2.203206415687354 175 213 61
14.322518982179941 1.4338384139700173 2.1993372893011385 175 213 61
13.68738202603952 1.3291856360809027 2.2334975986831074 175 213 61
14.523047399609677 1.6043066953277667 2.1071332877659517 175 213 61
14.528674685146258 1.52420424996656 2.1069030551688286 175 213 61
13.456211351782644 1.4054141858752942 2.3463805934610233 175 213 61
14.583870138110921 1.3623170512934661 2.5900251106136176 175 213 61
14.455589610534364 1.2751563368477852 2.4817437558870363 175 213 61
14.78857776692029 1.5153266947850546 2.3527614656266405 175 213 61
15.104715383033131 1.7365714534530161 2.536299675061731 175 213 61
15.049232255282606 1.5022763348371375 2.541648581075883 175 213 61
14.139084574746736 2.2349491844409597 2.1233554848017615 175 213 61
14.209837441138847 2.1660969187051915 2.205113498772275 175 213 61
14.064223837966876 2.2896969033958516 2.2127525883337 175 213 61
14.074399807126486 2.0070552338930234 2.3041722482329012 175 213 61
15.236778644899093 1.8602709248296772 2.237394412952156 175 213 61
14.074399807126486 2.0070552338930234 2.3041722482329012 175 213 61
14.205919880676017 2.218861321353732 2.2958615597155254 175 213 61
14.291885101626473 1.8206411694868683 2.387897343721237 175 213 61
14.895363591661056 1.9996066391254494 2.556920742028687 175 213 61
14.42728870268726 1.8486940516624903 2.484276203807057 175 213 61
14.678842966059 2.50563021603307 2.4623812051086524 175 213 61
14.345125699353588 2.6306602771659504 2.780719999154756 175 213 61
14.614565294984844 2.3516544911593473 2.4678473724537877 175 213 61
15.015798290932457 2.4351766415443397 2.5449113503187384 175 213 61
13.88218019802092 -1.688958995472662 2.8831503137195584 175 213 61
13.43784744150975 -2.2451887905968664 3.091725266948392 175 213 61
13.576430780330318 2.335975234504436 2.9901994941223298 175 213 61
13.581555725399594 -2.320533960636817 2.9877458050514467 175 213 61
13.43612107213036 2.2908797745285017 3.0943697733260205 175 213 61
14.533468333985292 -1.493623575027801 2.5956877739493684 175 213 61
14.26274205947257 -1.502648153484054 2.499372070940705 175 213 61
14.52484761291883 -1.4658563576750514 2.7492415068271376 175 213 61
14.519218844104993 -1.646379730809386 2.750179427070842 175 213 61
13.682687394046642 -1.626335040748362 2.5584111261015754 175 213 61
14.118738957644513 -1.3329082714867957 2.6461595497167183 175 213 61
14.174794664550495 -1.4428856856214687 2.8140368265321833 175 213 61
12.876790098908518 2.945084998946774 2.5137499896938507 175 213 61
13.1839861477134 2.9154349969898528 2.6185213724336815 175 213 61
13.62889567060691 -3.071180945549684 2.564421162256585 175 213 61
14.207228916461066 -2.767024424221602 2.6347536504736206 175 213 61
12.802519753706214 -3.071180945549684 2.5217872782137776 175 213 61
13.561565065564464 -3.045329237468328 2.7285599728532426 175 213 61
14.077573855159791 -2.5057169936125225 2.8350097598734045 175 213 61
13.647299336875758 -2.9285237731153897 2.959287897382435 175 213 61
13.646197732411503 -2.4684283518724897 2.7146290996059 175 213 61
14.001972368797636 -2.5650450278229053 2.6618191518313754 175 213 61
13.70376559915677 -2.9390765956174345 2.556083754754922 175 213 61
12.800707701048921 3.077406723986023 2.5219856743000846 175 213 61
13.561565065564464 -3.045329237468328 2.7285599728532426 175 213 61
13.722068852277129 -2.579496459612199 2.9317797752049395 175 213 61
13.93311491559349 -2.722398648544464 2.8696652144328003 175 213 61
13.92811932969056 2.733779566894897 2.870954511739594 175 213 61
12.524842002075363 -2.194955654521121 2.308182247099789 175 213 61
13.933286906748213 -2.5015945257528145 2.415736474979022 175 213 61
15.032782066994836 -2.431008739843556 2.5432501645104235 175 213 61
13.937901812985249 -2.34445886816592 2.6707301985953134 175 213 61
14.694833863552756 -2.527693240045921 2.5778717287623074 175 213 61
14.29375742570029 -2.2455042669487186 2.623955326176139 175 213 61
14.440269321470677 -2.0534715246915427 2.606406853800097 175 213 61
13.795134426782939 -2.346603888337056 2.5461689418886735 175 213 61
16.21892187245581 -0.77715845157293 2.826642487734502 175 213 61
15.538510785364434 -0.26640281261708365 2.760047485688379 175 213 61
15.207953021080336 -0.32095482241450624 2.818516347753429 175 213 61
15.472521547263787 -0.09346061357116384 2.7708226784026415 175 213 61
16.159335390034965 -0.32095482241450624 2.838164781761189 175 213 61
15.668175127411345 -0.424553100765511 2.73992382948255 175 213 61
16.731274709339317 1.6352847590978274 2.7432254780807668 175 213 61
16.899958246350103 1.928139219277218 2.7201406250084745 175 213 61
16.23888473760024 2.0660653960877617 2.8228907647071186 175 213 61
15.8877384455475 1.3312684587665295 2.708542682103361 175 213 61
14.701614154332992 -2.579496459612199 2.945947189126552 175 213 61
14.507392026614736 -1.8387838353088661 3.0324953826608043 175 213 61
14.72466255067843 0.5195904515262942 2.938200213981217 175 213 61
14.658174566694738 0.18262490120864425 2.961512641699197 175 213 61
14.938046752517273 -1.7186364787096402 2.441166114708067 175 213 61
14.821481528224068 -1.5155707498173916 2.350559058242827 175 213 61
13.779292033630801 -1.6932590235947405 2.1395378680135657 175 213 61
13.55229794935112 -1.7047636021776025 2.241300585386708 175 213 61
14.895017647648023 2.2476763462304583 2.016500444746836 175 213 61
14.403364045899801 2.6148804047979235 2.2837795195489496 175 213 61
14.12476752823968 2.6528323818553794 2.400590055988781 175 213 61
14.053586383377867 2.6978732104679475 2.3055074598836622 175 213 61
13.782183137104406 2.4087558562246474 1.9750625696771635 175 213 61
14.060060605320308 2.4153548411825017 2.2129739703380285 175 213 61
14.879675196408828 2.585385725836693 2.1723806406686754 175 213 61
15.72910723676093 1.6621788173903584 1.7253382793477345 175 213 61
16.20111361421239 1.9881045383058567 1.7835651833963455 175 213 61
14.995557471571852 1.6756474335430793 2.0132996258839047 175 213 61
15.881027896501621 2.0152599135997993 1.9191594151021838 175 213 61
16.54820532818985 1.5355043086771727 1.6567811958667857 175 213 61
20.061612062791927 -0.4259296473570632 2.0039816171858584 175 213 61
12.392508839084444 0.6626238259858707 1.7674325243523659 175 213 61
11.983651595409688 0.31745404318079407 1.9486551310070555 175 213 61
13.064019793650054 0.6465144110531831 2.1749425733903367 175 213 61
15.299203134003715 0.28097762494602113 2.518164275386908 175 213 61
13.940396401346142 0.3849291611613842 2.415162010376428 175 213 61
14.371657126389756 0.2529549642726735 2.382001587375359 175 213 61
13.870817491327795 0.568029855962314 2.31747660931819 175 213 61
13.630001627050724 1.2682893300436429 2.0613378027584033 175 213 61
13.114374597564705 1.1585349126117548 2.0824574282293975 175 213 61
13.188163728356578 0.9884881122243762 2.263393270002808 175 213 61
14.00747878742142 1.2188631819197413 1.8919139912658245 175 213 61
13.902707224401995 1.1710158786876776 2.4182183614203656 175 213 61
13.259575486362102 0.9295125420404564 2.361027770546549 175 213 61
14.961809375996745 0.4299626109407225 2.5502445102734983 175 213 61
14.594440764262538 0.8960146710983424 2.7378739544378 175 213 61
13.906251272427054 0.9551159317172255 2.5344745752436686 175 213 61
14.421063076315471 0.5333838601076174 2.484835743198775 175 213 61
14.396318013636604 0.4955830817646824 2.7714124429548295 175 213 61
14.945603376542328 0.5570795462079688 2.6859976347413155 175 213 61
13.92366704451919 0.7773623435250435 2.416515311041948 175 213 61
15.612316271337152 0.3157506024313126 2.6053823836184082 175 213 61
14.002799030853609 0.6255804573592818 2.4101604342611935 175 213 61
13.510004789490015 -0.060890955248091315 2.4517793366223715 175 213 61
13.718565239586567 -0.06889829874153038 2.5544587634599942 175 213 61
14.955725519460692 0.07231693180931137 2.684618264551412 175 213 61
14.95727649706966 -0.07932541168810729 2.6844074153422315 175 213 61
14.23344381921867 0.1529234431838505 2.392282470330811 175 213 61
15.444466755493162 1.3623170512934661 2.6239611188244143 175 213 61
15.495208746377305 1.9804896199133284 2.070233386564925 175 213 61
13.84224020927443 2.8193508417562883 2.541164014517154 175 213 61
15.687806143166037 1.9111349066593994 2.1374306436976678 175 213 61
14.494636850317859 1.9169692222783843 2.373108982124015 175 213 61
14.852296520095596 1.509487453058241 2.4480428664088043 175 213 61
14.455589610534364 1.2751563368477852 2.4817437558870363 175 213 61
15.019696609889488 2.2674380876699547 2.5445293638669773 175 213 61
14.101763975191156 1.5153266947850546 2.3024252210589946 175 213 61
14.628163827876246 1.9541000771529493 2.4666838289229065 175 213 61
13.695302118968025 1.444694457871982 1.9777782498726335 175 213 61
13.807188925185418 -1.9834894010604611 2.6896814567167606 175 213 61
14.067195185584149 -2.6981966443575414 2.5181940674866023 175 213 61
14.590912827645587 -1.7571276169377057 2.5892411071902677 175 213 61
13.850616809116378 -2.8137346231544993 2.5402813888325952 175 213 61
14.257009809898692 -1.6198299889544931 2.499909783965868 175 213 61
13.600199656136065 -1.646379730809386 2.722125045679279 175 213 61
14.036090092440565 -1.6348273604401176 2.6571683712276895 175 213 61
13.989502146098463 3.06744036651667 2.6635351462756236 175 213 61
13.450792878676195 -2.0490399421876373 2.3467756765040733 175 213 61
13.857810161004677 3.002999848088182 2.889888593033581 175 213 61
14.097002777778751 -1.9972721987677435 2.5152594266229156 175 213 61
16.111626256089757 -0.6810237275826514 2.6793996901792276 175 213 61
14.646187825172444 -1.7350679833498954 2.9660651047980244 175 213 61
15.534031486959616 0.25865085849499586 2.7607668493505697 175 213 61
14.32269085362948 -1.8194736710553525 2.38560840839093 175 213 61
14.188127276851652 -1.7186364787096402 2.3957220788476077 175 213 61
14.881942260719619 -1.5097853905760943 2.445650049214112 175 213 61
14.76131464797733 2.4034803071810926 1.8749740298014732 175 213 61
14.904045961244933 2.2036548930397353 1.8719691336550324 175 213 61
12.87476451680781 2.8554489032846835 2.391686174413815 175 213 61
13.028738479981582 2.90818877360444 2.1768129274659564 175 213 61
13.406753138196343 -3.079522203921182 2.4611677499998352 175 213 61
12.326886696155176 3.000779391816043 2.1187076705557955 175 213 61
12.326886696155176 3.000779391816043 2.1187076705557955 175 213 61
15.64655176053559 1.7363118336145815 1.9246072939635246 175 213 61
15.75940970980393 2.0739822696289925 1.7896243104420844 175 213 61
14.934196537434303 1.6018218323972195 2.015247427071757 175 213 61
16.006829231080193 1.8875963552347013 2.052876777558723 175 213 61
20.57791052926476 -0.2270089685337637 1.7873334975933426 175 213 61
21.15951806004407 -0.16953748497690727 1.7331925749052322 175 213 61
19.520720043798697 -0.3552777771007746 1.8522081614238333 175 213 61
12.939225523741806 0.9443608802027568 1.6033498184579695 175 213 61
14.112900046412648 1.1240510521409481 2.5137042017440683 175 213 61
13.267968306162983 1.0385118220190492 2.164370910094497 175 213 61
12.79840812903285 -0.04514362100938114 2.0081894478121 175 213 61
15.150127398872431 2.4510529749440306 2.6591763785740286 175 213 61
12.937960469992726 1.3048233699223748 2.279547769550158 175 213 61
14.342135099376968 2.2801600462279286 2.3841715631377043 175 213 61
14.335788266382998 2.5986150995734265 2.4925907704100565 175 213 61
15.245793723403144 1.762242958065893 2.155987100925684 175 213 61
14.725921042188965 1.238314571671146 2.5745409929554235 175 213 61
14.91597761276993 1.6937491085510494 2.254429796216782 175 213 61
15.099152497893783 2.0807040157291943 2.084600733915797 175 213 61
13.438454956557251 -2.0617663929066854 2.7499896074516093 175 213 61
13.948169941423277 -1.9534980191376583 2.8658207535420903 175 213 61
14.989684049500772 -1.7848822587608373 2.680032103681605 175 213 61
14.633797149382037 -2.346603888337056 2.584504651610186 175 213 61
14.321272512735982 -1.7356853986457426 2.4939280144119524 175 213 61
13.645599466272811 2.9469218291127754 2.9599648752895065 175 213 61
13.508625210161128 1.8467876436476944 3.027723787198521 175 213 61
16.542520458646 1.9865974692421073 2.771274896590114 175 213 61
14.717534117490837 1.0024612124355448 2.9405621678211054 175 213 61
16.4651092040463 -0.9010382413035393 2.7835804397203683 175 213 61
15.800291631263365 2.128772657164895 2.7206733437939468 175 213 61
14.32269085362948 -1.8194736710553525 2.38560840839093 175 213 61
14.105680538754267 -2.005187862754375 2.3021759517146974 175 213 61
14.881942260719619 -1.5097853905760943 2.445650049214112 175 213 61
14.33744917320979 2.585385725836693 2.1148463458865097 175 213 61
12.64327292104156 3.0850139796786533 2.4115569824114185 175 213 61
14.765280155680953 2.303038244754211 1.874889721589582 175 213 61
14.19747217944534 2.539179155989048 2.205754448164913 175 213 61
20.63139624432918 -0.27491655860116154 1.7373879763637805 175 213 61
14.52484761291883 -1.4658563576750514 2.7492415068271376 175 213 61
14.498476398228807 1.8861758111158886 2.278120571938198 175 213 61
14.480754727159901 0.4859911294667115 2.601709995751295 175 213 61
12.919941342632717 0.4370833013819499 2.182660522597348 175 213 61
13.496307028989476 1.0812765737811159 2.0666359655511077 175 213 61
13.641522820471343 0.9105863243019244 2.236123934929035 175 213 61
13.014097471996992 -0.14296377565429982 2.17759277798402 175 213 61
13.51914085485169 0.4370833013819499 2.243247188514884 175 213 61
14.211551953099052 -2.809602030032158 2.806508422492948 175 213 61
15.538510785364434 -0.26640281261708365 2.760047485688379 175 213 61
14.582599387484095 0.751101707546624 2.992647207712784 175 213 61
16.37015417751837 1.64701753671234 2.7994201446480806 175 213 61
16.468664458307657 -0.6555284426686725 2.783003873348064 175 213 61
14.284191918877731 -1.5203547965444626 2.2012890316563327 175 213 61
21.732888776866407 -0.7327957909648586 2.4273499183538485 175 213 61
13.5101773366437 1.2188631819197413 1.7509784927968093 175 213 61
14.745082389910818 0.417630087179721 2.7145906339101127 175 213 61
13.134080691139223 -2.348085969340236 2.370723088034094 175 213 61
14.327334155538978 0.8741496091575841 2.619854477510012 175 213 61
14.160959802958216 1.7053497300558047 2.298678288834276 175 213 61
14.01695343790021 -2.124990822187713 2.6597691145419113 175 213 61
11.65185051414217 0.31745404318079407 1.8688012695620049 175 213 61
14.353208815870344 -2.6227062854560215 2.779230731823954 175 213 61
16.736159527647846 1.4812175148031774 2.7425325511132974 175 213 61
16.031438872056395 -0.6137136972479926 2.864779589196228 175 213 61
16.031438872056395 -0.6137136972479926 2.864779589196228 175 213 61
14.085452170916508 -1.5243766102362908 2.044146371676666 175 213 61
13.76770440674147 2.7879556775259027 2.3244299209928223 175 213 61
15.435086862804066 2.164348679018248 1.7942996097420771 175 213 61
13.48285667449158 -2.962589658879009 2.454223534137237 175 213 61
15.573873850264874 1.7483454451065734 2.067479717148608 175 213 61
15.913376908697739 1.7881699949630254 1.6602203642032718 175 213 61
12.381649326145155 0.5944038006529891 1.9359278870483303 175 213 61
14.169026834848921 -1.6630038438399166 2.815236937996246 175 213 61
15.042690363326006 2.257993175496519 1.7324509060045978 175 213 61
