8.909221619377782 0.3321446361904784 1.6373700339845378 163 74 137
9.210650143170287 2.816375515150491 1.7445872724910667 163 74 137
9.572527703959413 2.715817197364329 1.7379541807078345 163 74 137
8.652798816246976 3.0374377823773093 1.5237053560151437 163 74 137
8.812952850074298 2.924220907327511 1.5245617360998622 163 74 137
9.703838586865386 -0.4540421502240947 1.8412628825714876 163 74 137
8.795073942423002 -0.01206499499912313 1.8700299347277607 163 74 137
9.422837356826458 -0.010782086095923977 1.633736326273993 163 74 137
10.094666913067915 -2.6060135189221962 1.4309286945344712 163 74 137
6.657282589700909 -1.9731214429025539 1.6599419514027884 163 74 137
10.122173254513177 -2.6060135189221962 1.7287987655480792 163 74 137
7.5833673202718455 -1.654578612837758 1.9197243069121113 163 74 137
9.49937768121093 -2.795347004984821 1.8472355101824667 163 74 137
7.339810496343054 -2.3041647759385637 1.9318236701962594 163 74 137
7.993305225938124 -1.9213126188266298 1.9011278783885932 163 74 137
8.066945366062674 -2.216425592505142 1.897999387273678 163 74 137
10.093305666733569 -2.829003914326722 1.5304300913930071 163 74 137
10.978229246574084 -2.737699101441587 1.255213608628694 163 74 137
11.86230380873614 -2.7722938634257326 1.2794530490567524 163 74 137
11.377860375698102 -2.7722938634257326 1.6229107163742995 163 74 137
10.556909407491894 -2.737699101441587 1.7222408736199382 163 74 137
8.823167918906304 0.20129633365771152 2.607123592657114 163 74 137
9.435231885775655 0.5088251575863056 2.715776028319082 163 74 137
8.396496499264211 0.425055594686004 2.1495439943849277 163 74 137
9.285816612187105 0.25812380951340896 2.7527687128361893 163 74 137
11.222578024553094 2.8967413101715884 2.8049604103017622 163 74 137
9.736386518906487 0.5694548241047229 2.9695694234175405 163 74 137
8.88898584420765 2.777067625829223 1.9868700763775313 163 74 137
8.614920705110196 2.8966742667417034 2.0009716672384568 163 74 137
8.451014623827646 3.023845764928379 2.009889026292653 163 74 137
9.478119982655166 -0.5531137205516125 2.7059068645342554 163 74 137
10.556662666583804 -0.9824269814804344 2.521729868389304 163 74 137
10.18182228036111 -0.6492406565042793 2.4123954576288122 163 74 137
9.55321548564844 -0.37088838337158536 2.4894374023429195 163 74 137
10.947824839592073 -0.6492406565042793 2.473291861805888 163 74 137
9.655902097243997 -0.023021173328988023 2.6678982989215196 163 74 137
9.30910574612121 -0.613593305612785 2.5245942562955914 163 74 137
9.60599752934562 -1.0619499994449229 2.3271981870379883 163 74 137
10.68961262361289 -0.9456269555277296 2.360700712164471 163 74 137
11.031635678924957 -0.7612335361193739 2.2113207422676684 163 74 137
9.307629611710748 -0.31295957100200256 2.747087616012893 163 74 137
8.846121803301273 -0.24508263681263984 2.6027561159165153 163 74 137
10.490357619204913 -0.7498766992847984 2.5306416632140802 163 74 137
9.19131379355834 -0.015832612216834394 2.370677175746347 163 74 137
10.809192862248228 -1.195517965054011 2.4897083739660713 163 74 137
9.760008344592388 -0.9824269814804344 2.4621738705781397 163 74 137
10.588488952903766 -0.6033319132326235 2.1272580782586736 163 74 137
9.539982928753979 -1.7151903010118943 2.692179071194403 163 74 137
9.868978812509432 -2.1351598553296776 2.6273711341348593 163 74 137
11.152217118743197 -2.046154865793306 2.823480067710607 163 74 137
10.178820172927386 -1.1457979657637185 2.8005782535406025 163 74 137
10.440493464871631 -1.4726986486836646 2.735815312408275 163 74 137
10.526688440796843 -1.2410575149126637 2.717160007923458 163 74 137
11.37462095280453 -1.7151903010118943 2.768640700371105 163 74 137
9.695360326586957 -0.07211208403305296 2.995927160336132 163 74 137
11.470603126270266 -1.9419799153644686 2.7478075254077554 163 74 137
10.750911894871585 -2.1351598553296776 2.6731373857714447 163 74 137
9.828444686541328 -1.381029008851859 2.92211908167421 163 74 137
9.757192284626184 -0.6653259232304323 2.9577012875197544 163 74 137
11.126263698219844 -1.1457979657637185 2.8306416821996314 163 74 137
10.768768166785097 -2.5376515249338065 2.9605052211479563 163 74 137
10.961710728275284 -2.740394660288178 2.8813778726259742 163 74 137
9.66413656461818 -1.2195211003747968 3.019913337101072 163 74 137
9.949059929322226 -2.2204577491393245 2.8731296641004263 163 74 137
10.15758473937907 -2.4611706266286664 2.80651903836995 163 74 137
11.880306243658213 -3.1025599572324216 2.9211000007892527 163 74 137
12.187583850802342 -2.8444099738112945 2.827858725874279 163 74 137
10.091015567170977 -1.3022935619970282 2.5896700918869726 163 74 137
10.010697463100646 -1.6871708720644156 2.60284127103398 163 74 137
10.324704945836102 -2.0415801874035604 2.55394077177946 163 74 137
7.201766979799996 -2.184854911548387 2.0930805905133565 163 74 137
7.218349239683762 -1.3446793591513724 2.0917588057485412 163 74 137
7.8018031439429745 -1.8266996534643283 2.200208017359677 163 74 137
10.546284599522277 -1.5047383820597193 2.5231099996680726 163 74 137
8.478100462558196 -1.654578612837758 2.143267865538066 163 74 137
10.955088267395123 -1.3022935619970282 2.6375497315730603 163 74 137
7.511970668775255 -3.1262225685414333 2.0694697133539797 163 74 137
9.401811428456709 -2.548015354214281 2.5108275095833434 163 74 137
8.186163658320401 -2.782390143418649 2.3229146157592737 163 74 137
7.912502550216391 -3.12347668413724 2.3557830768405172 163 74 137
7.912502550216391 -3.12347668413724 2.3557830768405172 163 74 137
9.777364039099268 -2.413041198612492 2.4599791433726086 163 74 137
8.498003580701647 -2.6355458988675178 2.2891115986546744 163 74 137
9.023648085188192 -2.585322521403831 2.1047732593873474 163 74 137
10.574104845619946 -2.6964258617834407 2.020093895690265 163 74 137
10.179701838297229 -2.6964258617834407 1.9314928724301814 163 74 137
8.71798258110296 -2.9761489604764164 2.267262718884635 163 74 137
7.5916067301561485 -2.9761489604764164 2.063765876591145 163 74 137
9.081043360804987 2.816375515150491 1.5259276041039351 163 74 137
8.946444292382042 2.924220907327511 1.749774344852579 163 74 137
8.617370860116717 -3.129798135611202 1.6396282429107978 163 74 137
10.235670942478752 -0.31857453630117966 1.8268849448929831 163 74 137
10.884197806235973 -2.652988546520315 1.6252767017239163 163 74 137
8.79194881953619 0.546873360798808 2.1204284761884065 163 74 137
8.980284110672947 0.4070641740251384 2.5782662414548203 163 74 137
8.571475607809008 0.16478850410328136 2.4482938310435927 163 74 137
9.929979264083215 0.3577646775193737 2.880205423714009 163 74 137
10.943195294645923 2.808395533973553 2.8878103568006974 163 74 137
11.913810768443987 2.808395533973553 2.908885517955951 163 74 137
9.384089550852591 -0.20107058927677174 2.5134180794726584 163 74 137
9.55321548564844 -0.37088838337158536 2.4894374023429195 163 74 137
10.277930770172839 -1.1304761621859853 2.5608078094439857 163 74 137
9.242790680956828 -0.029781334800999683 2.7642937767544162 163 74 137
9.25651331055426 -0.17032876382516562 2.3634533007612673 163 74 137
10.110037410195858 -0.7184094659099043 2.820298532145228 163 74 137
9.783175326658535 -0.396694050523103 2.179327910496436 163 74 137
10.004121864180425 -0.9456269555277296 2.290280202610876 163 74 137
10.705999965868882 -1.0406954261434433 2.6814966957144106 163 74 137
10.09607520456508 -0.6033319132326235 2.043053718984333 163 74 137
10.177891582355425 -2.2906813111981403 2.5759599969054374 163 74 137
12.278030977870248 -2.2677893880111606 2.8058954558924176 163 74 137
12.13813868365021 -3.1134064723853454 2.8406671215995085 163 74 137
9.695360326586957 -0.07211208403305296 2.995927160336132 163 74 137
10.554116368075062 -1.9419799153644686 2.7114453009714365 163 74 137
10.91646267097435 -2.2204577491393245 2.897430200979227 163 74 137
10.768768166785097 -2.5376515249338065 2.9605052211479563 163 74 137
10.00106641500337 -1.491838756404606 2.6044545378881816 163 74 137
8.116991927070003 -1.7919168593282133 2.029306302668434 163 74 137
7.092058939861153 -1.5047383820597193 2.1020076635951757 163 74 137
7.941551299850046 -2.103410195949333 2.040240255375155 163 74 137
7.988146595049021 -2.947270799980736 2.3463654984212496 163 74 137
8.403715701340753 -3.12824565683457 2.0125341469765643 163 74 137
9.968782899079407 -2.7127789403680063 2.6099174214264043 163 74 137
8.648724233527291 -3.1262225685414333 2.2739783818058146 163 74 137
11.000658284983476 -2.6060135189221962 2.001479350809777 163 74 137
8.75984601724596 0.48468483575175697 1.8712707993125697 163 74 137
8.840279194452837 0.10652579466132397 1.8684528028560972 163 74 137
9.447886488734289 2.715817197364329 1.5276708723892332 163 74 137
9.703838586865386 -0.4540421502240947 1.8412628825714876 163 74 137
8.724852745588521 0.37316710611609977 1.9951980416637363 163 74 137
8.005125914620029 0.33788339036402454 2.344287848482698 163 74 137
8.549391561117796 0.13941705485756814 2.283869665769514 163 74 137
7.5648472497286665 3.006198788374431 2.065667141274587 163 74 137
10.622105202521974 -2.6060135189221962 1.9158284591723729 163 74 137
9.413906930241172 -2.4024302981959615 2.206926777816417 163 74 137
11.661375793829649 -1.9731214429025539 2.5367699585677728 163 74 137
10.815563923640555 -1.847321454710468 2.9382274739441403 163 74 137
9.757192284626184 -0.6653259232304323 2.9577012875197544 163 74 137
8.606446520698938 -1.7919168593282133 2.13368659294669 163 74 137
8.899775823088298 -2.83318878874326 2.250300045219776 163 74 137
11.651929897696029 -2.1351598553296776 2.7118967659397044 163 74 137
10.449719520180846 -1.7151903010118943 2.7337651314829396 163 74 137
10.089653828215063 -1.4413781468626465 2.826424926601479 163 74 137
9.187426142181463 -2.7020949207499902 2.225257921102806 163 74 137
10.6664724051367 -2.0670634595964303 3.023898316872691 163 74 137
10.004382232567854 -2.6060135189221962 1.530071100583105 163 74 137
10.210070852897077 -2.829003914326722 1.7274272524735497 163 74 137
10.530538681824263 -2.737699101441587 1.436753679599849 163 74 137
9.643130026395234 1.1486269811769816 3.0392590920287206 163 74 137
8.911725661982105 -2.5091469144172667 2.2492172751098662 163 74 137
9.695360326586957 -0.07211208403305296 2.995927160336132 163 74 137
8.066031648664653 -1.9731214429025539 2.1765545492319287 163 74 137
8.038349774553916 -3.1262225685414333 2.1789417310903874 163 74 137
9.688252639629052 -0.7498766992847984 2.4713964701164013 163 74 137
10.853677793051755 -1.9731214429025539 2.4843566961138857 163 74 137
11.053470604437662 -1.7607675351986976 2.8518336340400148 163 74 137
10.546284599522277 -1.5047383820597193 2.5231099996680726 163 74 137
8.781775268644964 -0.14768101531674596 2.121138317290426 163 74 137
9.55321548564844 -0.37088838337158536 2.4894374023429195 163 74 137
10.144619701543903 -0.5058865199730374 2.1547123952316003 163 74 137
11.421610298571533 -0.9456269555277296 2.4223697399104194 163 74 137
9.446178173358836 -0.9114757893697542 2.7132283104952575 163 74 137
7.8032200897776045 -2.216425592505142 1.7763464404044513 163 74 137
10.631621917360464 -1.3446793591513724 2.5119182466301253 163 74 137
10.624137346894114 -0.7566352870490939 2.366939060984575 163 74 137
10.98144624936453 -1.8740706920758838 2.633215070492251 163 74 137
11.338636643089423 -2.2677893880111606 2.7768378271840555 163 74 137
10.111396404020164 -0.8781042504399833 2.5864053046593245 163 74 137
8.788723166280048 3.0374377823773093 1.753021958742447 163 74 137
9.978284934090201 -0.21985413202437795 1.8336449813303923 163 74 137
