18.73470796469882 -0.7831052934738892 1.1225049129653446 160 130 110
17.42032563207097 -0.9134377991694383 1.2118152095895915 160 130 110
17.986125206364164 -0.9032430390453275 1.3964407092713111 160 130 110
11.077485368285188 -2.643672634475024 1.189702394514614 160 130 110
7.232657410399913 -0.7798552914435629 1.8337314572000938 160 130 110
7.298785564476653 -0.7798552914435629 1.2760727718856284 160 130 110
7.205729888311956 -0.9798604854480744 1.4147152520220747 160 130 110
12.09575631888687 -1.4319498803799222 2.5266485728467107 160 130 110
12.101411895781897 -1.719340409079466 2.525987200294082 160 130 110
11.075339999619546 -1.3766178087255583 2.672682545097609 160 130 110
11.607656450304392 -1.8293131144333301 2.7856036902764796 160 130 110
11.561542448806437 -1.5795437068333913 2.7964901176741224 160 130 110
11.981643070866893 -1.7783527674436974 2.709391565095568 160 130 110
11.936973913220747 -1.5777626057392833 2.7175765266080383 160 130 110
12.8893565015338 -1.5757466600211407 2.5756774173051697 160 130 110
11.087353929423314 2.188300827482785 2.2401971241777963 160 130 110
10.734237489552624 2.546038910174604 2.3951200681608453 160 130 110
11.5757436749886 2.2759940439548028 2.207236249363777 160 130 110
9.928422934938741 2.3507864984607965 2.336366503101938 160 130 110
10.476234989997986 2.2616529065722215 2.287248559729467 160 130 110
13.214741043487763 2.2432998021365758 1.790488872007536 160 130 110
13.134682627629017 2.35317369475153 1.791850115105783 160 130 110
12.130243377940097 2.2294371714811687 1.896369622148723 160 130 110
11.285260767422146 2.672232853072793 1.6488429696148492 160 130 110
11.077474031587595 2.5152957787608416 2.2409030562059717 160 130 110
11.564856271550374 2.5485379262030965 1.9129206614648797 160 130 110
11.005843124728703 2.428099655417997 2.1344177893847287 160 130 110
11.773493930202644 2.4186169394098527 1.9981681346439188 160 130 110
10.655163693245498 2.615039704060897 2.2727167553386862 160 130 110
10.648477139964053 2.7165718409370565 1.9437421663865393 160 130 110
11.071042543093107 2.6285967746746017 1.9288513254450745 160 130 110
9.966657741134414 -2.9917450826737415 2.4826244156356623 160 130 110
9.847716101652026 2.5912380052299273 2.498380996213404 160 130 110
10.39451475016879 2.668464447166056 2.431161664990845 160 130 110
10.142387258473029 2.808319787694766 2.4605645556476565 160 130 110
10.142387258473029 2.808319787694766 2.4605645556476565 160 130 110
9.9253304287341 3.126851317363451 2.4880197038094494 160 130 110
11.786030526824286 -2.9533939710885027 2.093108967562848 160 130 110
11.515287956950706 -2.9331319012948436 2.2111217473755307 160 130 110
10.83401328587036 3.021634170977069 2.1444736670723854 160 130 110
12.215530051003679 -2.970101454551031 1.9817479185830225 160 130 110
10.722495671936477 2.8121359962140184 2.0432887003367886 160 130 110
11.665694714412616 -3.051047415375464 2.099057083983342 160 130 110
11.392092622610408 -3.0410889638271907 2.2192032143693177 160 130 110
10.577772328805105 3.1305206085012234 2.2789196507824894 160 130 110
10.563172278832482 3.128946738139972 2.4127968870606944 160 130 110
11.536787504860808 -2.68643700877217 1.8230903978428485 160 130 110
10.831970855709129 -2.5622039224934463 1.6521160918116882 160 130 110
12.11700300801283 -2.507284631361451 2.1746119161194204 160 130 110
11.72279570498665 -2.829873476345913 2.1979972506518646 160 130 110
12.023951922425983 -2.3650267304524273 2.179959671882672 160 130 110
11.648648876118315 -2.5320992547913104 2.3137460386015007 160 130 110
12.270072550639338 -2.76993568557012 2.0705452919650478 160 130 110
12.01024652329056 -2.733037522815179 2.180756038715477 160 130 110
12.622804183611956 -2.3650267304524273 2.24497732693987 160 130 110
11.472178934009527 -2.5622039224934463 1.9157991070583076 160 130 110
12.104259706750016 -2.4427409101529887 2.279698469118273 160 130 110
11.823489957409063 -2.76993568557012 1.9962431175656086 160 130 110
12.372069509971743 -2.643672634475024 2.1604603448865314 160 130 110
9.813919624172373 2.8779451660840807 2.701765576824138 160 130 110
9.753722407320966 3.1195451321523446 2.7150694563690725 160 130 110
9.974514323031277 2.6637981168321407 2.6687058074881875 160 130 110
9.428083513402637 -2.8499007788482897 2.7989035971936547 160 130 110
9.11033763664087 3.097889174869932 2.916189270251052 160 130 110
12.565658970104673 -2.2762547769125723 2.4755299986296455 160 130 110
13.241630731969972 -1.9844972571622486 2.535082453677215 160 130 110
11.69147176084996 -1.9022391081256937 2.5774557355642416 160 130 110
11.758044928229056 -2.4811013826384585 2.568569577173906 160 130 110
13.208193867752419 -2.1242265497019543 2.689266342063978 160 130 110
12.245119913112859 -2.3716957157906533 2.664878915305633 160 130 110
11.80603073820124 -2.458453731944396 2.4221119354933416 160 130 110
11.747564788962542 -2.258484929683398 2.569953662328704 160 130 110
12.768184154768113 -2.2885641627401228 2.3398694329768808 160 130 110
11.21911001485379 -1.963494081336877 2.647986166949903 160 130 110
12.433061522282095 -1.9844972571622486 2.4892205850126805 160 130 110
12.743173446192005 -2.6341525055267687 2.4579987521319135 160 130 110
18.731534242817787 3.069286876688659 0.9351999006649149 160 130 110
9.441554802698052 -1.5746356164453676 1.2339985681623842 160 130 110
9.87175850292594 -1.6863390368283977 1.1402536034847184 160 130 110
10.087807870231774 -1.574248244688823 1.7582440788942146 160 130 110
11.56436360782426 -1.4736573769585886 2.1041783235800646 160 130 110
8.710646754964365 -1.2121201559285986 1.324933006040639 160 130 110
12.661850630011006 -1.574248244688823 2.242515547054698 160 130 110
11.047314809568439 -1.574248244688823 2.0283176211279756 160 130 110
11.937608079331936 -1.7007893579158182 2.4096205140123166 160 130 110
12.656928055732605 -1.5751209184895194 2.4664069565149296 160 130 110
10.132753701435314 -2.042369884479179 2.073270009411417 160 130 110
10.155833345776706 -1.7732320244128692 1.657543251050878 160 130 110
10.868196569018735 -1.7952304921519826 2.1424426302434263 160 130 110
9.479860851329548 -1.8989832267104174 1.4523620921652909 160 130 110
11.068011911436084 -2.137517742704111 2.1308717913398887 160 130 110
10.65046774554766 -2.042369884479179 2.155650052075596 160 130 110
10.679671337567983 -1.8224797179083216 2.2707779194691624 160 130 110
10.14797302034702 -2.137517742704111 1.9631137701800678 160 130 110
10.361367237861545 -1.7952304921519826 2.0611852410821614 160 130 110
10.173061837246001 -2.2224128612209477 1.36085243584686 160 130 110
9.821187172807091 -1.995910430621044 1.6605068800901026 160 130 110
9.96069691880596 -1.995910430621044 1.7606651207830541 160 130 110
10.196825424283313 -1.995910430621044 1.8571219498682332 160 130 110
9.563567596440725 -2.137517742704111 1.7686518104087516 160 130 110
10.519528610978254 -1.7732320244128692 1.8481021403392774 160 130 110
10.12572217890808 -2.2224128612209477 1.7575339178752065 160 130 110
11.872320516602937 -2.042369884479179 2.296576019980683 160 130 110
18.471384384806363 -0.8604306013627394 1.4557643365870192 160 130 110
11.111176010342536 -2.3650267304524273 1.0918910835549838 160 130 110
8.224551437513917 -0.9798604854480744 1.046096283910201 160 130 110
8.106871859620838 -0.9798604854480744 2.0698465915471282 160 130 110
11.601760182093628 -1.3287008758397705 2.7869730230221346 160 130 110
11.206905533394698 -1.1900492623080745 2.6500140688702185 160 130 110
12.381979995714422 -1.5765841149636899 2.6439008573004315 160 130 110
10.991811681356175 2.35167865958476 2.2470938998545456 160 130 110
12.401333674857677 2.3527989826682436 1.9752282914569874 160 130 110
10.734237489552624 2.546038910174604 2.3951200681608453 160 130 110
11.153554234985256 2.4409713764301966 2.3553236589283673 160 130 110
11.181193575295865 2.576967795163861 2.124536968119429 160 130 110
10.997225041940215 2.7546360473202167 1.7425815433084462 160 130 110
10.762953692067853 2.670815998232901 2.1487457386147897 160 130 110
10.779514195351059 3.1317460927628664 2.1477440308348266 160 130 110
9.9253304287341 3.126851317363451 2.4880197038094494 160 130 110
10.959135672661233 2.936340738288399 1.932674969030441 160 130 110
10.058661846815212 2.852916840591318 2.323995341985786 160 130 110
9.966657741134414 -2.9917450826737415 2.4826244156356623 160 130 110
11.913746795297984 -2.6885620380517667 2.293494763508139 160 130 110
11.565550568880559 -2.883650212266535 1.7340622661325011 160 130 110
10.39451475016879 2.668464447166056 2.431161664990845 160 130 110
10.807680309879242 -2.4312058416069577 1.3733482373527675 160 130 110
10.763132266238832 -2.4312058416069577 1.746356222770898 160 130 110
11.285590256187378 -2.4312058416069577 1.9217471853608634 160 130 110
11.73189355528827 -3.059214372112993 1.9078546903477644 160 130 110
12.053277197979536 -2.883650212266535 1.8985260652290639 160 130 110
11.953647044504516 -2.09916993695838 2.4081283745637885 160 130 110
11.434720316610791 -1.8570545854527134 2.460002611542314 160 130 110
13.270077282473206 -2.3650267304524273 2.3038820658405834 160 130 110
12.600200160944768 -2.258484929683398 2.61290358010968 160 130 110
10.248200216680711 -2.962560351535994 2.6189081442339037 160 130 110
12.127394730263072 -2.36857876329641 2.522964522699179 160 130 110
12.255792271440962 -2.36650541974106 2.3811714927329066 160 130 110
10.265546398631471 2.928563126650274 2.6159826496837506 160 130 110
12.748282316943412 -2.045037248911505 2.593344953817849 160 130 110
10.335687783178008 3.112282469433904 2.8435050368900625 160 130 110
9.497967233313169 -1.6863390368283977 1.2360774302597632 160 130 110
9.86482473207764 -1.4628367015435104 1.1399307629786166 160 130 110
10.914385202621864 -1.937034285549367 2.252800317883357 160 130 110
11.57080679884558 -1.937034285549367 2.319942969989702 160 130 110
12.064936624438195 -1.574248244688823 2.1775916199470733 160 130 110
11.098924323355421 -1.8989832267104174 2.129126290673991 160 130 110
10.506511519349807 -1.3749943370801403 1.8484548136312964 160 130 110
10.693541197818902 -1.6747695388125248 1.9420938901394895 160 130 110
12.425049419902205 -1.744005884674488 2.6375577945651187 160 130 110
12.925443379276846 -1.4319498803799222 2.571297298294901 160 130 110
11.559502042130195 -1.744005884674488 2.5957650626395066 160 130 110
11.589068145316022 2.3523181450982475 2.1029200815514915 160 130 110
12.121213560211638 2.4762637029995487 1.8966211210480406 160 130 110
10.31283645459466 2.7278118996397644 2.301130192725176 160 130 110
10.172774301846866 2.887217178535286 2.18707433486311 160 130 110
11.210909986533451 3.0334911279521384 2.021145382596817 160 130 110
11.988853072274823 -2.8592323070358985 2.083397571475646 160 130 110
11.263611242835621 -2.6341525055267687 2.3456165181434185 160 130 110
12.023951922425983 -2.3650267304524273 2.179959671882672 160 130 110
10.633305461176008 3.0068734250378 2.274456235254089 160 130 110
10.208012797396712 3.1239236453143944 2.6257824548591175 160 130 110
9.155344573687799 -2.720520222965956 2.895667318590591 160 130 110
9.19378264899006 -1.3536725012227129 1.448658682734695 160 130 110
9.996783359109576 -1.4736573769585886 1.6589269607578694 160 130 110
10.365790360359892 -1.8678808374069114 1.5592082209512603 160 130 110
9.563567596440725 -2.137517742704111 1.7686518104087516 160 130 110
12.580148830294124 -1.5746356164453676 2.3544394424921493 160 130 110
10.757737060828829 -1.8678808374069114 1.8418049705355843 160 130 110
11.29921186940092 -1.4628367015435104 2.225446345452764 160 130 110
9.443650157470417 -2.137517742704111 1.4519058207525282 160 130 110
10.687140609347766 -1.4736573769585886 1.942327088628713 160 130 110
11.570278933519715 -1.6747695388125248 2.1038764721064696 160 130 110
11.931874861489755 -1.4493164567393406 2.4101554636459506 160 130 110
18.186284236039214 -0.9032430390453275 1.3422613895943478 160 130 110
9.795773742203043 -2.9194895120634228 2.7057187418007826 160 130 110
12.219658137893752 -2.566522964099649 2.512435309076721 160 130 110
9.174757187208588 2.650088247248242 2.887374642872693 160 130 110
12.711472279842015 -2.507284631361451 2.239415708398728 160 130 110
7.362189898278381 -0.9798604854480744 1.8289986551134985 160 130 110
11.62390985396538 -2.793975369928036 2.315702658089912 160 130 110
13.67252865033312 2.3010948966250657 1.7087266866400905 160 130 110
10.424166853372816 2.7745405721865533 2.1700939224206364 160 130 110
10.392514591857719 2.797017042666779 2.8261945985783203 160 130 110
12.278413786472276 -2.5929304471137415 2.2675966755625034 160 130 110
12.293511326872073 -2.5622039224934463 2.0695046299130904 160 130 110
10.14797302034702 -2.137517742704111 1.9631137701800678 160 130 110
11.349676008744527 -1.8224797179083216 2.338218976801951 160 130 110
11.940217897513035 -1.6863390368283977 2.291541402246302 160 130 110
10.181679128983125 -1.8989832267104174 1.9617443974666822 160 130 110
13.45204792709984 -1.5751209184895194 2.512888162101391 160 130 110
10.586743732950703 -2.2975922723904487 1.559450084000358 160 130 110
11.951324008674503 2.156885107695217 1.991401718755501 160 130 110
12.77782722818915 -2.4427409101529887 2.339139264998363 160 130 110
12.347096268519676 -2.5320992547913104 2.373429205482967 160 130 110
10.003625666449645 -1.6747695388125248 1.6588665245352403 160 130 110
10.26726131854598 -1.995910430621044 1.2620233026992096 160 130 110
12.119574195513284 -2.4312058416069577 2.077337762951401 160 130 110
12.199481992290986 -2.1696720470474604 2.514711191490539 160 130 110
11.679760872714484 -1.249740121001045 2.57904239671607 160 130 110
11.975930933842792 -1.3766178087255583 2.710426719261928 160 130 110
11.3052659329664 -1.6863390368283977 2.225035371348582 160 130 110
