12.468312673748969 0.9209940443198882 1.6211380201674146 102 215 97
12.447989263698139 0.8072071770242842 1.7019084978687475 102 215 97
12.558409242723096 0.9209940443198882 1.7007491292689227 102 215 97
13.096835054686396 0.8600929496076826 1.6187202040248383 102 215 97
12.415917958133708 0.9880975533777058 1.8672789331509032 102 215 97
11.632950839114084 0.9382911629982497 1.8879064491526483 102 215 97
11.90659150473549 1.0152338551496165 2.063068946185516 102 215 97
12.261385443788871 1.061700276291287 1.9577802201910375 102 215 97
12.222676169503075 0.8691348936811547 1.8721122930317218 102 215 97
11.982502535054556 0.9382911629982497 1.967283775466785 102 215 97
12.186030159196454 0.7425561987296808 2.1458182043735112 102 215 97
11.810304960708383 0.6060585866622683 2.0674465110191393 102 215 97
11.647740447098892 0.6655637211563962 2.176069606142711 102 215 97
12.191497313536578 0.7477600479171556 1.872907184991831 102 215 97
12.318202995659584 0.6060585866622683 2.1388799640410956 102 215 97
11.866724948528136 0.8100294802872747 1.9713719269247767 102 215 97
11.712910377874538 0.9605947635306303 2.1722249850210797 102 215 97
12.654099040419455 0.6274793429427324 1.9451647163352392 102 215 97
12.186030159196454 0.7425561987296808 2.1458182043735112 102 215 97
11.918806777754696 0.6809565758688384 1.9695221974820472 102 215 97
12.842924397357471 0.8136906092597642 2.3073835171747463 102 215 97
12.193682187874835 0.8136906092597642 2.246596147433805 102 215 97
12.58164487721809 0.818629641073826 2.4421403859271367 102 215 97
12.244373373118252 0.6655637211563962 2.243281384592925 102 215 97
13.36235793540092 0.818629641073826 2.4903390647817 102 215 97
12.177057166284882 0.43653421010435484 1.87327677675017 102 215 97
11.808947781792753 0.3558075955635764 1.8830191770010674 102 215 97
11.108744447277385 0.095650577876261 2.1020039060802067 102 215 97
11.681920881816504 0.475961530431193 1.978080689820289 102 215 97
11.297690116619346 0.3896127015940822 1.99279994426543 102 215 97
11.297690116619346 0.3896127015940822 1.99279994426543 102 215 97
10.400260054127727 0.220707262541359 2.142521501119039 102 215 97
10.637169802986712 0.095650577876261 2.020859872416352 102 215 97
11.19150144032027 0.32911709717007664 2.2045609103128196 102 215 97
11.235376126893934 0.19819317411111273 2.0953946411400084 102 215 97
10.833979986337575 -0.4968612604022687 2.2290350296468464 102 215 97
11.037730171829905 -0.3129667932036251 2.003399664631783 102 215 97
11.55176998834622 -0.44646033764420273 2.181829373957714 102 215 97
11.071347238572823 -0.008942707362326698 2.1039896813050367 102 215 97
11.037730171829905 -0.3129667932036251 2.003399664631783 102 215 97
11.800713351556588 -0.40482141967041857 2.067887068927833 102 215 97
10.8009703667766 -0.21532481586604324 2.0135458390085237 102 215 97
10.653188930167731 -0.11334139918930167 2.0201335153569855 102 215 97
11.55176998834622 -0.44646033764420273 2.181829373957714 102 215 97
10.859641357671187 -0.12648843601404952 2.2272090388715817 102 215 97
11.124084508812041 -0.11334139918930167 2.101193883362842 102 215 97
10.861117160267979 0.13908964214566588 2.488715314533403 102 215 97
10.861117160267979 0.13908964214566588 2.488715314533403 102 215 97
10.457915242888895 0.419588044370407 2.3881579717847004 102 215 97
10.457915242888895 0.419588044370407 2.3881579717847004 102 215 97
10.822864336727385 -0.013048156853887664 2.493351054419106 102 215 97
11.156138114937844 -0.3886731418089632 2.3236121317253207 102 215 97
12.037474555527133 -0.44114194808854856 2.4977359681332576 102 215 97
12.16210596282057 -0.3603480773963103 2.6337864692294364 102 215 97
12.16210596282057 -0.3603480773963103 2.6337864692294364 102 215 97
11.634309548775304 -0.23964819981981522 2.285768429230465 102 215 97
12.16210596282057 -0.3603480773963103 2.6337864692294364 102 215 97
11.642324206737017 -0.2700160796867328 2.4054120459116772 102 215 97
12.03105543868607 -0.19364617523856045 2.6537189497761764 102 215 97
11.505354686085811 -0.14306212347610442 2.4186475098751314 102 215 97
11.635687097397783 -0.013048156853887664 2.5452652151488926 102 215 97
12.183076872766744 -0.4899893280353057 2.050936962035802 102 215 97
18.33334096738871 1.7155586810894798 1.94066714459935 102 215 97
20.81627325901442 1.7729010358620594 2.163460877717968 102 215 97
12.89941283757071 1.1933650507393758 2.303419398120465 102 215 97
12.253164072056665 1.1933650507393758 2.242710225667165 102 215 97
12.578087982520776 1.1002836201153703 2.2223274998722355 102 215 97
12.55522383534102 1.0505625108229504 2.3283649693807784 102 215 97
12.2296924751288 1.1508353438169754 2.353851222895634 102 215 97
12.690902009510474 0.9904102605077993 2.431969246947917 102 215 97
11.95006995952966 0.9904102605077993 2.3774196605565345 102 215 97
12.980151850979198 0.9167666063755384 2.5300149561193326 102 215 97
13.810835016458 0.9167666063755384 2.571600089863575 102 215 97
2.9557118154786 -3.107029024839628 2.1538775198153344 102 215 97
2.7662134843417303 -2.7269899384697758 1.7995996247722976 102 215 97
2.9557118154786 -3.107029024839628 2.1538775198153344 102 215 97
3.763187557861223 -2.7269899384697758 2.3436591015936084 102 215 97
3.6606522092480667 -2.1835091857824214 2.371353155664882 102 215 97
13.577856881197043 -0.4310589555274981 2.7652099705960484 102 215 97
12.468312673748969 0.9209940443198882 1.6211380201674146 102 215 97
12.136587205919238 0.5552664458159645 1.9619744075752623 102 215 97
12.726683169037274 0.9209940443198882 1.7787406958231875 102 215 97
11.672382330248688 0.7425561987296808 2.073861598041401 102 215 97
11.964070835931832 0.8691348936811547 1.7922094174974408 102 215 97
11.704944052069218 0.880659882228763 2.072331404295471 102 215 97
12.415917958133708 0.9880975533777058 1.8672789331509032 102 215 97
11.90659150473549 1.0152338551496165 2.063068946185516 102 215 97
13.081561884358084 0.8958486888014574 2.3978691142288517 102 215 97
12.193682187874835 0.8136906092597642 2.246596147433805 102 215 97
13.052434843190044 0.7356838833903516 2.400298067092316 102 215 97
13.36235793540092 0.818629641073826 2.4903390647817 102 215 97
12.306384168286995 0.9605947635306303 2.239275242427762 102 215 97
12.33333829741071 0.7356838833903516 2.3455212388116156 102 215 97
11.688353937984713 0.8958486888014574 2.2817609712492213 102 215 97
11.808947781792753 0.3558075955635764 1.8830191770010674 102 215 97
10.973615218825044 0.220707262541359 2.2192322385162697 102 215 97
11.87049499913187 0.5225041542910022 2.163143155080094 102 215 97
10.769347934551767 0.19819317411111273 2.014938545123873 102 215 97
10.946431209723512 0.4300777964472751 2.1107384531436484 102 215 97
10.769347934551767 0.19819317411111273 2.014938545123873 102 215 97
10.99128420400894 0.29669250050858065 2.00535187552862 102 215 97
10.770836109014908 0.47920446859297006 2.2335764011750183 102 215 97
10.859641357671187 -0.12648843601404952 2.2272090388715817 102 215 97
10.80561353811548 -0.00999051652240068 2.2310666266757195 102 215 97
11.265690508856082 -0.21532481586604324 2.0938381852015375 102 215 97
10.653188930167731 -0.11334139918930167 2.0201335153569855 102 215 97
11.49288080176019 -0.3129667932036251 2.0824768177707793 102 215 97
12.950796735178493 0.7261886049219021 2.5332546743890423 102 215 97
11.47300937512503 -0.4968612604022687 2.2980403814029007 102 215 97
12.016873220786753 0.16380888269220803 2.6559476395625836 102 215 97
11.253709250625741 -0.44114194808854856 2.4443696125152226 102 215 97
10.721372962132929 -0.01131644381428377 2.362314616901153 102 215 97
11.671276183280527 0.13908964214566588 2.540787522153754 102 215 97
10.890674232061075 0.24887281890193308 2.3467004008481447 102 215 97
11.820755779256467 -0.308917049201387 2.52257646330158 102 215 97
11.685877832267767 -0.1645888791013325 2.5389666846116907 102 215 97
11.634309548775304 -0.23964819981981522 2.285768429230465 102 215 97
18.160074386684 1.7729010358620594 1.8858612348348305 102 215 97
11.99806132334261 1.1002836201153703 2.1560051637573125 102 215 97
12.36894200389442 1.0983068477296305 2.462835527525419 102 215 97
12.690902009510474 0.9904102605077993 2.431969246947917 102 215 97
11.95006995952966 0.9904102605077993 2.3774196605565345 102 215 97
12.89941283757071 1.1933650507393758 2.303419398120465 102 215 97
3.147500407990087 -2.7269899384697758 2.1141956756212816 102 215 97
12.341506260695859 0.6809565758688384 2.0442630723055837 102 215 97
12.191497313536578 0.7477600479171556 1.872907184991831 102 215 97
11.90659150473549 1.0152338551496165 2.063068946185516 102 215 97
12.617735870055606 0.8072071770242842 1.780562868905464 102 215 97
12.617735870055606 0.8072071770242842 1.780562868905464 102 215 97
12.410549667036632 1.0152338551496165 2.1341377812495863 102 215 97
12.323611513975958 0.6274793429427324 1.8695678932579207 102 215 97
12.33333829741071 0.7356838833903516 2.3455212388116156 102 215 97
12.177057166284882 0.43653421010435484 1.87327677675017 102 215 97
10.770836109014908 0.47920446859297006 2.2335764011750183 102 215 97
10.637169802986712 0.095650577876261 2.020859872416352 102 215 97
11.108744447277385 0.095650577876261 2.1020039060802067 102 215 97
11.357905345100486 -0.40482141967041857 1.9904209051567239 102 215 97
11.124084508812041 -0.11334139918930167 2.101193883362842 102 215 97
11.642324206737017 -0.2700160796867328 2.4054120459116772 102 215 97
12.268990474330318 1.141877930453137 2.0472935814478035 102 215 97
12.980151850979198 0.9167666063755384 2.5300149561193326 102 215 97
3.147500407990087 -2.7269899384697758 2.1141956756212816 102 215 97
3.6606522092480667 -2.1835091857824214 2.371353155664882 102 215 97
11.800713351556588 -0.40482141967041857 2.067887068927833 102 215 97
11.505354686085811 -0.14306212347610442 2.4186475098751314 102 215 97
12.016873220786753 0.16380888269220803 2.6559476395625836 102 215 97
11.820755779256467 -0.308917049201387 2.52257646330158 102 215 97
19.259825143141754 1.7075813740948507 1.9220822179779233 102 215 97
12.89941283757071 1.1933650507393758 2.303419398120465 102 215 97
11.681920881816504 0.475961530431193 1.978080689820289 102 215 97
10.759986603663457 0.12082097691885561 2.358688434835942 102 215 97
11.237119888188362 -0.3469008693790388 2.2015807680599497 102 215 97
10.833979986337575 -0.4968612604022687 2.2290350296468464 102 215 97
11.49288080176019 -0.3129667932036251 2.0824768177707793 102 215 97
11.843703199669617 1.141877930453137 1.972195213682212 102 215 97
11.110187160743115 0.3691371633967364 2.3274940283863907 102 215 97
11.071347238572823 -0.008942707362326698 2.1039896813050367 102 215 97
10.759986603663457 0.12082097691885561 2.358688434835942 102 215 97
11.920014732533422 1.061700276291287 1.8800130665314705 102 215 97
10.946431209723512 0.4300777964472751 2.1107384531436484 102 215 97
