13.029312656600279 1.5165828208794236 1.0294154556787833 47 239 112
10.210068644782885 0.22017959518060526 1.3017191977029503 47 239 112
12.131579387148879 1.179115506978199 1.6769783213012552 47 239 112
12.27789438766535 1.179115506978199 1.7580555979341437 47 239 112
11.739768349327967 1.2580733691989678 1.5099173304950078 47 239 112
11.521935255717457 1.3412698929241103 1.6826195175102865 47 239 112
11.938868346698063 1.2580733691989678 1.763438979392732 47 239 112
11.912092023355191 1.3412698929241103 1.8502514939789003 47 239 112
11.296917683301404 1.5165828208794236 1.4184616708967797 47 239 112
11.482106243213563 1.6062034455397365 1.332146672284949 47 239 112
11.532129445972325 1.782380483954569 1.421592232838306 47 239 112
11.834575548687829 1.6952601456952698 1.2515526824322576 47 239 112
11.730935894922082 1.7073777212420729 1.062018017332476 47 239 112
11.528631846871864 1.8935852227054126 1.951686672081757 47 239 112
11.476254879644674 1.782380483954569 1.6830664971907239 47 239 112
10.759094129269902 1.7073777212420729 1.881145888962624 47 239 112
11.867913481252959 1.782380483954569 1.851319889104082 47 239 112
12.109387152272834 1.86636520611531 1.8455791699606992 47 239 112
11.397641765521628 1.5165828208794236 1.7727101607074862 47 239 112
11.239873915982963 1.5165828208794236 1.6854378927153468 47 239 112
11.528631846871864 1.8935852227054126 1.951686672081757 47 239 112
11.960316975360664 1.5165828208794236 1.9372744356682885 47 239 112
11.10538511941206 1.7073777212420729 1.9669959120816976 47 239 112
11.466734994121575 1.6952601456952698 1.771476868973309 47 239 112
11.466734994121575 1.6952601456952698 1.771476868973309 47 239 112
11.630459870024762 1.6062034455397365 1.857207352489072 47 239 112
11.734045473663677 1.427823258400369 1.8546084881651967 47 239 112
11.240243195299415 1.6952601456952698 1.5962198752524115 47 239 112
11.259289272485455 1.6952601456952698 1.5073159558102358 47 239 112
11.287246542276467 1.427823258400369 1.5074734004745263 47 239 112
11.388543975858003 1.9794341269510538 1.330147475695121 47 239 112
11.192426281107254 1.9794341269510538 1.4170282271015835 47 239 112
11.621544340712425 2.059354725688003 1.4227486877255082 47 239 112
11.719478722836609 2.059354725688003 1.7670918590486406 47 239 112
11.954817175640486 2.059354725688003 1.8492260661739048 47 239 112
11.294082288078803 1.9794341269510538 1.7745875201553771 47 239 112
11.516586518196863 2.059354725688003 1.5087360438830972 47 239 112
11.118375627406092 2.1035569491185995 1.8707992849450286 47 239 112
11.861671006474293 1.9794341269510538 1.9404683601373995 47 239 112
14.269876919726475 2.5207365704923377 1.3794209485635807 47 239 112
14.269876919726475 2.5207365704923377 1.3794209485635807 47 239 112
13.953865048002914 2.4198218814634407 1.4476329163821955 47 239 112
13.117294206835883 2.3694188319059037 1.5925812072397563 47 239 112
14.631189587691454 2.4650491814175544 1.5219590179407578 47 239 112
14.215386063117927 2.317597174943792 1.8040449801838514 47 239 112
14.232628380510787 2.4198218814634407 1.8037571791917435 47 239 112
19.599237842903896 -1.6644551177458675 0.8649053374086093 47 239 112
19.599237842903896 -1.6644551177458675 0.8649053374086093 47 239 112
19.784787150128444 -1.8111737406088075 0.8049154569733891 47 239 112
18.95308386354927 -1.7420194129565616 0.8354712915749627 47 239 112
19.63792035249056 -1.7420194129565616 0.7976979874716683 47 239 112
19.10521590414137 -1.8111737406088075 0.8426508656332677 47 239 112
19.842124322586166 -1.7955450281511567 0.8752938263370554 47 239 112
20.280277888707907 -1.9192598228658553 0.8931931696869386 47 239 112
20.22418295472371 -1.9422338273469972 0.8256054127842853 47 239 112
19.55988364878753 -1.9422338273469972 0.8631890467912561 47 239 112
20.568897832609785 -1.9774233287496408 0.904434073808457 47 239 112
19.234094918326655 -2.003352417609531 0.9159512185155263 47 239 112
13.456063245486437 -1.297284771651416 1.443052039696691 47 239 112
13.114818687560767 -1.3707836564878733 1.592585319948287 47 239 112
12.570292869396097 -1.3544079675403398 1.835257263503433 47 239 112
13.063131771393119 -1.4465357570785062 1.439187557840626 47 239 112
14.516335502582734 -1.8111737406088075 1.382709337621508 47 239 112
12.945522170237979 -1.6789262016444682 1.5155937013678713 47 239 112
12.969845174278259 -1.4465357570785062 1.5156973306216286 47 239 112
13.965087851861732 -1.8290864827500666 1.8827192162182256 47 239 112
13.150334609760137 -1.4465357570785062 1.7454994745819148 47 239 112
12.928639332343185 -1.5237461009628304 1.6704096634345358 47 239 112
12.859554021153578 -1.601520805478857 1.5930179062432857 47 239 112
13.617779007604977 -1.6789262016444682 1.8909540055971583 47 239 112
13.478216489473773 -1.7550547518865929 1.817059128194827 47 239 112
13.336882429263522 -1.6789262016444682 1.819723795664191 47 239 112
13.486316560658015 -1.8290864827500666 1.741103993383779 47 239 112
13.269922666283852 -1.7550547518865929 1.7439090630674625 47 239 112
13.551900910752046 -1.601520805478857 1.8925662282324884 47 239 112
21.83625819900018 -1.493967865537854 1.8627854745768015 47 239 112
21.83625819900018 -1.493967865537854 1.8627854745768015 47 239 112
13.99603643238182 -1.9682796122454604 1.6627903274423845 47 239 112
12.402954148424772 1.8025199874630606 0.9987616488545101 47 239 112
15.535234102911593 2.5207365704923377 1.1238699337888625 47 239 112
10.520172506342748 0.22017959518060526 1.2099554071063132 47 239 112
12.382494055283548 1.3412698929241103 1.1802214479367685 47 239 112
11.912092023355191 1.3412698929241103 1.8502514939789003 47 239 112
11.472229412847678 1.3412698929241103 1.5084957789267794 47 239 112
11.39431710714439 1.427823258400369 1.4197738734654095 47 239 112
11.482106243213563 1.6062034455397365 1.332146672284949 47 239 112
11.630459870024762 1.6062034455397365 1.857207352489072 47 239 112
11.639489249238203 1.5165828208794236 1.85697889414887 47 239 112
10.943783985659197 1.8935852227054126 1.7812070542050726 47 239 112
11.230523249266655 1.6062034455397365 1.685533765545803 47 239 112
11.16033961330703 1.6062034455397365 1.596401937372718 47 239 112
11.960316975360664 1.5165828208794236 1.9372744356682885 47 239 112
11.951529983906878 1.6062034455397365 1.9375566404585198 47 239 112
11.10538511941206 1.7073777212420729 1.9669959120816976 47 239 112
11.274726846162771 1.8025199874630606 1.9607211036283592 47 239 112
11.53810066249485 1.9794341269510538 1.8595656292594962 47 239 112
13.31188760637002 2.3694188319059037 1.743357844310487 47 239 112
11.861671006474293 1.9794341269510538 1.9404683601373995 47 239 112
11.134847217718193 1.9794341269510538 1.6865240513509006 47 239 112
14.035534847299278 2.4198218814634407 1.7343784106337945 47 239 112
11.648396467980234 2.0185909998886307 1.0580614363552492 47 239 112
11.488225728519177 2.180800254122491 1.3322762624793287 47 239 112
13.890077630724385 2.317597174943792 1.6634941019964717 47 239 112
19.553522373669445 -1.5973850168789983 0.862910737102766 47 239 112
19.842124322586166 -1.7955450281511567 0.8752938263370554 47 239 112
19.065452604011515 -1.7306918527934854 0.9091411424336502 47 239 112
19.858976186078436 -2.003352417609531 0.8760018639504422 47 239 112
13.131146067256445 -1.3707836564878733 1.5163748310094614 47 239 112
14.159999356863969 -1.7420194129565616 1.4494347900238498 47 239 112
13.64090336761436 -1.4465357570785062 1.8903919826394575 47 239 112
13.269609870937177 -1.601520805478857 1.82101271643441 47 239 112
13.965087851861732 -1.8290864827500666 1.8827192162182256 47 239 112
12.876205087485923 -1.601520805478857 1.515296221787068 47 239 112
13.900557199724437 -1.601520805478857 1.960866740072226 47 239 112
21.518377884277395 -1.5417854007876528 1.8189743586304838 47 239 112
13.641816191821182 -1.9003360338542221 1.6651860507154623 47 239 112
11.721503020681753 1.2580733691989678 1.5951758274836783 47 239 112
11.472229412847678 1.3412698929241103 1.5084957789267794 47 239 112
12.131579387148879 1.179115506978199 1.6769783213012552 47 239 112
11.938868346698063 1.2580733691989678 1.763438979392732 47 239 112
12.631095505390192 1.427823258400369 1.1013455568159083 47 239 112
11.494187705533536 1.427823258400369 1.7709910479952768 47 239 112
11.725796896914636 1.86636520611531 1.6806674572967286 47 239 112
11.494187705533536 1.427823258400369 1.7709910479952768 47 239 112
12.182727222033433 1.782380483954569 1.9302767385781234 47 239 112
11.658595142628641 1.86636520611531 1.595307401573375 47 239 112
11.488225728519177 2.180800254122491 1.3322762624793287 47 239 112
11.566101735980505 2.059354725688003 1.6821907294123783 47 239 112
15.078371670941944 2.4650491814175544 1.321903997460089 47 239 112
19.63792035249056 -1.7420194129565616 0.7976979874716683 47 239 112
19.10521590414137 -1.8111737406088075 0.8426508656332677 47 239 112
20.513592152308714 -2.003352417609531 0.8385454810253874 47 239 112
20.280277888707907 -1.9192598228658553 0.8931931696869386 47 239 112
12.814927858449522 -1.2754759707361076 1.8300912500386368 47 239 112
13.309448280959307 -1.3707836564878733 1.7433897887875551 47 239 112
14.159999356863969 -1.7420194129565616 1.4494347900238498 47 239 112
13.150334609760137 -1.4465357570785062 1.7454994745819148 47 239 112
13.486316560658015 -1.8290864827500666 1.741103993383779 47 239 112
11.42635032399369 1.782380483954569 1.5082453036263714 47 239 112
11.834575548687829 1.6952601456952698 1.2515526824322576 47 239 112
11.861671006474293 1.9794341269510538 1.9404683601373995 47 239 112
18.85283801271329 -1.671173513528823 0.8306509995964713 47 239 112
13.336882429263522 -1.6789262016444682 1.819723795664191 47 239 112
13.559650861645276 -1.5237461009628304 1.8923757069890952 47 239 112
13.900557199724437 -1.601520805478857 1.960866740072226 47 239 112
11.041243004522947 1.8935852227054126 1.3224209038517194 47 239 112
11.630816748214073 1.782380483954569 1.7686079735796747 47 239 112
14.496178213090852 2.4198218814634407 1.8709279301995536 47 239 112
11.679288748474843 -1.1839812584115217 0.9583310575654533 47 239 112
20.037459530541543 -1.8585330076022146 0.8834028573922362 47 239 112
12.867720964407118 -1.5237461009628304 1.5930038002311775 47 239 112
13.77209574390925 -1.9003360338542221 1.7375365261998743 47 239 112
14.531093256348809 2.3681315839487955 1.5904613648012027 47 239 112
10.675589898331868 1.609688579389286 1.883655511468314 47 239 112
11.734045473663677 1.427823258400369 1.8546084881651967 47 239 112
11.118375627406092 2.1035569491185995 1.8707992849450286 47 239 112
