10.426636020484022 1.4396642541608626 1.7368217168663649 54 55 201
9.306315087752262 1.6419535571994717 1.4331590506953287 54 55 201
9.229804299201412 1.5333363974789194 1.6492255546693744 54 55 201
10.423401368815796 1.949182524017948 1.250998260296496 54 55 201
9.429649608998943 1.7489208469103297 1.4349704973034592 54 55 201
10.331662188699335 2.03946939766821 1.640846651153893 54 55 201
10.11615069378973 1.8519350749244392 1.2409230323922806 54 55 201
11.214041107933882 1.949182524017948 1.080873396953051 54 55 201
10.153501128080451 1.949182524017948 1.344629746548729 54 55 201
14.980672515951555 1.3447503221061754 2.368563398668051 54 55 201
8.602116985854243 1.31752656136467 2.467972708760993 54 55 201
14.95953461351951 1.4255930023521561 2.4713275848942162 54 55 201
15.032448410356478 1.8255963101906276 2.365039205953866 54 55 201
14.80007201003169 1.5370078013244137 2.3811533097527153 54 55 201
14.554690219427465 1.9150665191931848 2.302370728030358 54 55 201
10.262798374246227 1.949182524017948 1.839354247956997 54 55 201
10.572195587148915 1.949182524017948 1.9306783279897068 54 55 201
14.90296839857942 1.5333363974789194 2.4761304753003666 54 55 201
14.913391912138076 1.6419535571994717 2.4752404951634768 54 55 201
15.340848478259963 1.949182524017948 2.4405628536707407 54 55 201
15.180928491216688 2.077258973550715 2.265924892579314 54 55 201
14.977486171881553 2.1491452911368993 2.192495364439345 54 55 201
15.215680249084103 2.1222105556985698 2.352857197169463 54 55 201
13.156853771458897 0.058230001026558835 2.884115551178934 54 55 201
13.156853771458897 0.058230001026558835 2.884115551178934 54 55 201
12.938840458075088 0.08296885317196429 2.958743284564643 54 55 201
13.784266393670878 -0.9283062055046639 2.5876799188795068 54 55 201
12.819299129044564 -0.5394677881816189 3.019035202300713 54 55 201
13.097882394066211 -1.1237999912770769 2.9018092238619957 54 55 201
13.062682934542492 -0.6560924643230741 2.913091451234403 54 55 201
12.962393256029312 -0.33073958070426673 2.9491650039761033 54 55 201
13.180016983600046 -0.23620024774315135 2.877523859732422 54 55 201
13.237965552637652 -0.8745692505006152 2.8617911004248415 54 55 201
13.451131578304205 -0.6978802149954553 2.811089321061516 54 55 201
13.150603549631855 -1.3431825367789552 2.671338077773335 54 55 201
13.502473523308716 -1.0480930179773749 2.622403922228865 54 55 201
13.666551000806916 -1.2979424301281681 2.767856180194588 54 55 201
14.005464425920316 -0.9627167667575768 2.7103366905834028 54 55 201
13.347830150748212 -1.2311169941140636 2.83444379398496 54 55 201
13.694633520517662 -0.8497069668535588 2.7626616215310795 54 55 201
13.694633520517662 -0.8497069668535588 2.7626616215310795 54 55 201
13.447110742510882 -1.1884885229223305 2.0943598240086083 54 55 201
11.964410328337278 -1.4345121582977534 2.167511824056115 54 55 201
12.35012275375782 -1.242061998291006 2.1464446708400096 54 55 201
13.005647591046015 -0.9964787316490096 2.026451477450097 54 55 201
13.133185017717002 -1.1139794509987448 2.5261055420181213 54 55 201
12.540569709684517 -1.4001966514637052 2.4580419318830864 54 55 201
12.837759291771022 -1.2077787790484242 2.317865258539342 54 55 201
12.874012276637618 -1.0252493720818308 2.214174826504845 54 55 201
12.921757662771217 -1.242061998291006 2.2114071819955 54 55 201
13.621615918973173 -1.3757191682106313 2.607298008691647 54 55 201
12.77114447422483 -1.3757191682106313 2.5674136306139586 54 55 201
13.43660134560764 -1.2181501750596613 1.9299834344447997 54 55 201
13.160246875652602 -1.4661737261487495 1.779224138889799 54 55 201
8.292796022273286 2.423304341686106 2.516179094818334 54 55 201
12.729303785810826 0.5148918234721538 3.1104830653896176 54 55 201
13.045156406909298 -1.800329208511162 2.9189421274488043 54 55 201
12.956729926654402 -2.3129816589870917 2.9514214461520742 54 55 201
12.956729926654402 -2.3129816589870917 2.9514214461520742 54 55 201
12.855165028902768 -1.3821522827420443 2.9981529985387976 54 55 201
12.944940793183669 -2.0756557894330605 2.703626118603256 54 55 201
12.777351091014996 -1.9025751028489435 2.732530170805539 54 55 201
13.6046097883631 -1.4992013798595432 2.7796433020744975 54 55 201
13.133426701234344 -2.1039446428882425 2.8909791773914546 54 55 201
13.086220422855428 -1.5115027758452615 2.6811116215145825 54 55 201
13.360330567175307 -2.682919774983108 2.8315075815918114 54 55 201
12.956729926654402 -2.3129816589870917 2.9514214461520742 54 55 201
13.033238831723992 -1.448556257741372 2.9230176089356696 54 55 201
13.531758178028172 -2.487070155436962 2.7941403653137007 54 55 201
12.729730587759217 -2.1327648844476035 2.5724626011281613 54 55 201
13.348465779386936 -1.9998123820945735 2.642963794913534 54 55 201
13.284402921064672 -1.480477081942181 2.849872494113993 54 55 201
13.382710616356041 -1.9811530005518658 2.8263302858671526 54 55 201
12.855825016332703 -2.336140979947559 2.7186707271523844 54 55 201
12.921802566286983 -2.5993137156001977 2.7074655687631926 54 55 201
12.742171519708382 -2.7717108874071132 2.7389462491239667 54 55 201
12.921802566286983 -2.5993137156001977 2.7074655687631926 54 55 201
12.639338927065527 -2.9703633349180656 2.7584984142838946 54 55 201
12.742171519708382 -2.7717108874071132 2.7389462491239667 54 55 201
13.441265688500831 -2.3431391957202106 2.4943971129007942 54 55 201
13.497891487597897 -2.3403796334214575 2.6229982328963635 54 55 201
13.175091198414313 -2.456369899411069 2.667694464508194 54 55 201
14.683531590919861 -2.9359962066118523 2.495408438365711 54 55 201
14.683531590919861 -2.9359962066118523 2.495408438365711 54 55 201
14.279543244446106 -2.7903730038275807 2.5339124656613756 54 55 201
14.063067142109327 -2.8281949019155608 2.4379708875461734 54 55 201
14.594175224806023 -2.6348058405523673 2.39610189005848 54 55 201
15.06075008193179 -2.7274101679145546 2.462894231590577 54 55 201
14.024234711968184 -2.5810792876039375 2.4412405478134143 54 55 201
13.504383289154852 -2.5162706986045342 2.4882380852791233 54 55 201
14.397541657547194 -2.492805917708853 2.4110163569469556 54 55 201
14.007305613802798 -2.6222268203166017 2.5624473370194214 54 55 201
13.891667090196131 -2.4243347218784956 2.452639580806309 54 55 201
11.474885390849659 -2.0140790194176796 1.9012374101397436 54 55 201
12.119935748165465 -1.5416132797698132 1.7974141183247923 54 55 201
12.486160130452127 -1.5356650894226171 2.2376749963564295 54 55 201
11.10685389735394 -1.9276442635369508 1.9126259765437013 54 55 201
11.454919018619526 -1.811776344503019 1.8108215093243083 54 55 201
11.433682043756757 -1.5389141544568394 1.9024737994012035 54 55 201
11.893607768074087 -1.5356650894226171 2.171561426934142 54 55 201
12.807595593608857 -1.8094222550929897 2.5630288156965797 54 55 201
11.982830042478655 -1.8094222550929897 2.517379161991148 54 55 201
12.748356346401469 -2.170779181833553 2.4382706748209 54 55 201
14.122781710510866 -2.4149337372890387 2.3301769096799534 54 55 201
14.04697353226697 -2.47531237390029 2.2408118402817343 54 55 201
12.269364825561793 -1.9642934949473532 2.251661749230894 54 55 201
11.20131428397114 -1.7566328731338443 2.2145603727264875 54 55 201
11.828598004446507 -1.7566328731338443 2.2822313678390675 54 55 201
11.710268605669357 -1.5266733675078261 2.41120244649771 54 55 201
18.907252915271787 2.610536995401403 1.2879483371298481 54 55 201
18.541545271990028 2.839245806199834 1.2254429047698974 54 55 201
18.436585237290796 2.733815715565446 1.392110404152454 54 55 201
18.06980137512093 2.78549851022206 1.38844308335538 54 55 201
19.202410408235792 2.78549851022206 1.182129175275983 54 55 201
17.71664233359377 2.6593535005918665 1.4986628256928374 54 55 201
16.50809965951809 2.5669430562839146 1.9902520110924427 54 55 201
17.41866620879972 2.5669430562839146 2.0953109177267235 54 55 201
18.486558120463876 -2.582056805453683 1.609923625414195 54 55 201
14.542028818394293 -2.95678137588353 2.399994285581234 54 55 201
14.881683345315606 -2.6002760973858257 2.2828148574936575 54 55 201
16.203911050263425 -2.923472470445448 2.2143589885913304 54 55 201
16.104053443503474 -2.7787237313342166 2.1432234372152403 54 55 201
16.40660781055251 -2.849526695154801 2.205123721193376 54 55 201
16.901222693852198 -2.8032464176904353 2.1131169886994385 54 55 201
16.40660781055251 -2.849526695154801 2.205123721193376 54 55 201
17.13708225406491 -2.76445161820909 1.9739439808373658 54 55 201
17.248647214220977 -2.8247696760492564 2.0350478122539943 54 55 201
17.711799677559267 -2.7315550560175703 1.8407290025708736 54 55 201
18.4055476257818 -2.6791043985182017 1.8869852888398952 54 55 201
17.471735997189533 -2.7315550560175703 1.7855382469204653 54 55 201
18.021678808946195 -2.5519498387301196 1.7788874158672061 54 55 201
18.4055476257818 -2.6791043985182017 1.8869852888398952 54 55 201
14.684286045027088 -2.527659361812391 2.2068757902465297 54 55 201
10.29550649497595 1.6349941189367294 1.4464555204470502 54 55 201
10.407124733761025 1.731765132656783 1.4477959009565833 54 55 201
10.61221166675585 1.8255963101906276 1.4501846631706112 54 55 201
9.655520855161695 1.8519350749244392 1.4381668579304205 54 55 201
10.449379533919682 2.03946939766821 1.736457009507762 54 55 201
10.038501044319391 2.174850533839078 1.4432549969203023 54 55 201
7.845388937192476 1.31752656136467 2.388374547986341 54 55 201
14.81056794110516 1.6349941189367294 2.3804086338336576 54 55 201
8.521619512173679 1.6962928100541106 2.4798970676618826 54 55 201
13.72912413414769 2.197322607064088 2.1682478676155905 54 55 201
12.920699543149983 -0.9305520541936326 2.9664987906101574 54 55 201
13.485317144852564 -1.018559848794741 2.8037783016093316 54 55 201
12.962393256029312 -0.33073958070426673 2.9491650039761033 54 55 201
13.237965552637652 -0.8745692505006152 2.8617911004248415 54 55 201
13.73397791977561 -0.5732996810916587 2.7555306941480637 54 55 201
13.9725515216555 -0.7192853589950202 2.7154846690705052 54 55 201
13.393877462753304 -0.835676804451008 2.636772443923959 54 55 201
12.914772160032667 -1.2389936874649028 2.55044336823247 54 55 201
13.422732861590362 -1.0025900601020177 2.4962261665602616 54 55 201
13.792442295866838 -1.1456662823368897 1.9203136914797116 54 55 201
12.156004760381517 -1.1536953591405499 2.0610027588300217 54 55 201
13.33150034294172 -1.336080958760881 2.2840870454705295 54 55 201
13.320262792567105 -0.9464003147689763 2.1892846997010333 54 55 201
12.686808007039765 -1.2789754918925387 2.444011200543217 54 55 201
13.133426701234344 -2.1039446428882425 2.8909791773914546 54 55 201
13.616027274120508 -1.7063577881839567 2.777435089964741 54 55 201
13.186443166183942 -2.2211386052928765 2.6660186758186164 54 55 201
12.411774401820992 -2.682919774983108 2.8069204122768294 54 55 201
13.086220422855428 -1.5115027758452615 2.6811116215145825 54 55 201
13.382710616356041 -1.9811530005518658 2.8263302858671526 54 55 201
12.753243563732768 -1.1663302598970737 3.072875305538312 54 55 201
12.867247536139702 -1.9190894495464557 2.9917916109719775 54 55 201
13.186005741978711 -1.8485890632150725 2.6660830943886213 54 55 201
13.033238831723992 -1.448556257741372 2.9230176089356696 54 55 201
12.921802566286983 -2.5993137156001977 2.7074655687631926 54 55 201
14.296149970111129 -2.7274101679145546 2.4189675550962058 54 55 201
14.50914889972668 -2.680317373975266 2.5115169786730096 54 55 201
14.839681482632132 -2.8281949019155608 2.48158292036229 54 55 201
14.25319991981714 -2.5508149373283016 2.3215263746061865 54 55 201
13.052081522611678 -2.246731161050423 2.5349485036151993 54 55 201
12.921802566286983 -2.5993137156001977 2.7074655687631926 54 55 201
11.730513182074661 -1.6450936009732735 2.2894618124781125 54 55 201
12.00943470721101 -1.8636996061248905 2.2693225272989888 54 55 201
11.926359793929917 -2.1086099016419815 2.2751865626800205 54 55 201
12.473038117452594 -1.5266733675078261 2.4647161841655514 54 55 201
11.26518435211616 -1.722820353190077 1.8149457104021045 54 55 201
11.72714632632764 -1.8970148723165068 1.8051440892373924 54 55 201
12.717063877069284 -1.6668107522413036 2.5740214421744394 54 55 201
13.606695851924217 -2.3450788270803082 2.366827410430165 54 55 201
21.362054271813115 2.733815715565446 1.0146798067903084 54 55 201
19.31052363216119 2.839245806199834 1.1278327367473928 54 55 201
19.048657160675535 2.6843402647380774 1.344343148795749 54 55 201
19.54795434212718 2.733815715565446 1.1893571225000628 54 55 201
19.54795434212718 2.733815715565446 1.1893571225000628 54 55 201
18.298171493063272 2.610536995401403 1.446042210328839 54 55 201
16.706260540815613 2.5287852722230353 2.120164221844121 54 55 201
18.222296409337485 -2.5062868934063056 1.6104913498097913 54 55 201
15.20857461198486 -2.679825513527753 2.3533214086875214 54 55 201
16.66693812233417 -2.7787237313342166 2.1936793464855615 54 55 201
16.288409304650166 -2.826040583912513 2.2893940130789217 54 55 201
14.52082823622022 -2.679825513527753 2.3044662332246517 54 55 201
18.02951576425132 -2.6005820384657947 1.8938164823454002 54 55 201
17.501132383563643 -2.7068813244974317 1.965088563887879 54 55 201
15.340848478259963 1.949182524017948 2.4405628536707407 54 55 201
14.837445825325398 1.9991552103575352 2.2853908723560936 54 55 201
11.923739255120276 -1.71011594616518 1.5475753937460768 54 55 201
13.694633520517662 -0.8497069668535588 2.7626616215310795 54 55 201
13.9725515216555 -0.7192853589950202 2.7154846690705052 54 55 201
14.180051887991151 -1.1869390013087535 2.6843122833062156 54 55 201
13.800863198426683 -1.116836234065676 2.743776763819317 54 55 201
13.062682934542492 -0.6560924643230741 2.913091451234403 54 55 201
13.192410417729723 -1.4345121582977534 2.293246127678342 54 55 201
12.117603858389462 -1.336080958760881 2.158948434428374 54 55 201
13.542811180737077 -2.180088508260364 2.791893663345319 54 55 201
13.186443166183942 -2.2211386052928765 2.6660186758186164 54 55 201
13.12202886859461 -2.544582307463901 2.8943950131840173 54 55 201
13.098089791703485 -1.6832217168243602 2.679288151270821 54 55 201
13.874576240265368 -2.4373104049445455 2.577243926313577 54 55 201
13.891667090196131 -2.4243347218784956 2.452639580806309 54 55 201
12.639338927065527 -2.9703633349180656 2.7584984142838946 54 55 201
13.504383289154852 -2.5162706986045342 2.4882380852791233 54 55 201
13.560745529745141 -2.5493470107087983 2.6149334817780794 54 55 201
13.856852031352332 -1.9190894495464557 3.0025620436288607 54 55 201
13.90243395356738 -2.264192591479072 2.4516997575259825 54 55 201
12.418123783360596 -2.0637292199147512 2.4702386956013296 54 55 201
11.358328075834589 -1.5356650894226171 2.098872010094426 54 55 201
11.162149759396451 -1.6313786680316644 1.8172459179518334 54 55 201
12.161373568100666 -1.942835618848133 2.4972759724214395 54 55 201
18.436585237290796 2.733815715565446 1.392110404152454 54 55 201
16.55833033542968 2.429633538097497 2.125643082319818 54 55 201
14.881683345315606 -2.6002760973858257 2.2828148574936575 54 55 201
16.644557129066282 -2.869839826435263 2.1224354361121693 54 55 201
17.88495471841967 -2.6791043985182017 1.7805018398785573 54 55 201
18.34343620493051 -2.629258354415336 1.7751851695064194 54 55 201
14.95953461351951 1.4255930023521561 2.4713275848942162 54 55 201
14.837445825325398 1.9991552103575352 2.2853908723560936 54 55 201
12.795482938736205 0.14400305187136678 3.035208744231057 54 55 201
13.097882394066211 -1.1237999912770769 2.9018092238619957 54 55 201
13.77522833883034 -1.039849004453111 1.999251818144848 54 55 201
12.946869040829254 -1.111445333836569 1.9442248287962105 54 55 201
13.616027274120508 -1.7063577881839567 2.777435089964741 54 55 201
7.104292036242884 1.4888334498648053 2.507466450563329 54 55 201
14.063067142109327 -2.8281949019155608 2.4379708875461734 54 55 201
13.133426701234344 -2.1039446428882425 2.8909791773914546 54 55 201
12.479392998097467 -1.9998123820945735 2.604633491484988 54 55 201
11.79726129829401 -1.5389141544568394 1.9827053510334138 54 55 201
12.495901065190814 -2.0529915893583084 1.7904821650602982 54 55 201
16.989797513886202 2.764791111353652 1.4363788127572168 54 55 201
16.922820584703068 2.601079499903109 1.915790225942232 54 55 201
16.104053443503474 -2.7787237313342166 2.1432234372152403 54 55 201
17.501132383563643 -2.7068813244974317 1.965088563887879 54 55 201
10.798506644664718 2.1222105556985698 1.545155206461024 54 55 201
9.429649608998943 1.7489208469103297 1.4349704973034592 54 55 201
14.85702999479219 1.4396642541608626 2.3771317481178755 54 55 201
12.946869040829254 -1.111445333836569 1.9442248287962105 54 55 201
13.133821698100087 -1.1124238380601414 2.297184867239398 54 55 201
13.237965552637652 -0.8745692505006152 2.8617911004248415 54 55 201
13.296529176919208 -2.328799117516551 2.8468506454079407 54 55 201
12.704838543542847 -1.5201998401069707 2.575532546146156 54 55 201
13.296095374400716 -1.7413674566462212 2.8469581347359476 54 55 201
13.12202886859461 -2.544582307463901 2.8943950131840173 54 55 201
14.68889902200668 -2.47531237390029 2.294198038714004 54 55 201
12.938840458075088 0.08296885317196429 2.958743284564643 54 55 201
13.175091198414313 -2.456369899411069 2.667694464508194 54 55 201
17.27684757416469 2.7107969245824113 1.4968233001104174 54 55 201
16.407469015198064 -2.8032464176904353 2.0608906075081173 54 55 201
10.269397659890402 1.8519350749244392 1.941796251415993 54 55 201
13.694633520517662 -0.8497069668535588 2.7626616215310795 54 55 201
