9.68221655191279 -0.017690431125691682 2.4363489396214533 46 58 75
8.06803820038227 0.12158972732449436 2.0020551546124947 32 42 57
9.72230793291003 0.14072828204714694 2.431518636754093 53 63 80
8.37301026482992 -0.13346095594677337 1.495789835590844 33 42 52
11.52168392459594 -0.9325401399583203 2.2651455988376306 51 58 68
8.94659862191015 -0.3595984584865249 1.7248214200389425 34 43 53
9.776198245294271 -0.8477547636456566 1.8159312766236524 3 7 13
12.012478431564187 -0.8477547636456566 2.231587488587259 59 66 75
9.01233854149092 -0.1752333480726381 2.3561745453801186 52 64 81
10.339856415653013 0.20501571836236795 2.705595992391628 50 62 81
12.775447882343757 -0.9603446724975271 2.5182187974309604 116 130 147
8.897433133527707 -1.187019684198905 1.3868493889193818 5 7 9
9.880685635399262 -1.7803219522880205 2.1456875471202643 2 2 9
9.812199623789363 -1.4148523872468712 2.1502162785479446 0 2 9
9.411750196345155 -1.3260797470200592 1.5040810949017416 7 7 11
10.562898099247876 -1.2973152470542062 2.2184243574017923 0 1 8
11.578948149862434 -1.739754262291017 2.0532945747134903 7 8 12
11.280284763837738 -2.1572492839460096 2.28310008270466 34 41 50
11.019428219771987 -1.5435833665355077 1.978829227153931 8 8 12
11.288321318228686 -2.185406058024934 2.0668283567930326 9 11 17
11.893064142101812 -2.491704370539738 2.3517916615467436 62 69 78
8.879310753238848 -1.894887073074529 1.8412833266997701 2 5 11
10.716808967290309 -1.75788941680781 2.095920833287501 4 8 15
8.751819668222968 -1.2973152470542062 1.8453248820248092 9 10 13
10.190681134840048 2.9017643750087636 2.2463531795327563 32 39 52
9.842907039522224 2.7837093269736366 2.148176261893618 21 27 40
10.678913372207035 -3.1272213385143988 2.3328170322752015 41 50 62
10.331302000439681 3.0504324323619905 1.9033319700911178 25 33 45
10.775665798824313 -2.530583968780262 1.4191868793470341 14 17 21
10.948563015812292 -2.947241255355178 1.5134568059457794 26 35 45
11.107164420995293 -2.8319743217626328 1.9754170152566757 34 42 51
10.352772220806674 -3.027839284962806 1.9026158286539512 26 34 44
11.808913813134053 -2.7587326202185487 2.358880150194576 43 49 58
10.788609895760624 -3.03836687297801 1.6053357793379588 29 36 46
11.003981423518539 -2.657701362049321 1.5137458945572948 29 36 44
11.242966810528511 -2.5570782472814297 2.17341765072982 53 61 69
13.299204477503892 1.530866955487623 2.596599310968427 55 63 79
13.357367904829225 1.3877581669263115 2.5894586285982175 30 38 55
11.410570302544553 1.270564356002545 3.059945573947456 52 63 82
11.531655076939433 1.42611706111185 2.975289668180218 49 61 79
11.04016596150211 0.5231472300628394 2.7920493853423767 49 61 79
11.80285815420132 1.1551100909587806 2.870738690207124 53 65 83
12.022270051112878 1.5001451709276572 2.8113314570376797 46 56 72
12.040952602322765 1.7550505757856867 2.806834943625757 49 59 75
12.310778714430914 2.4819016721639406 2.748656352893867 50 57 72
12.045983154819183 2.3269539903191805 2.805636452972512 51 60 76
10.664738458396045 2.761256955728657 2.644213893614857 63 70 84
11.846001687573585 2.5354056865607686 2.8579182517885777 52 62 76
11.999973507775032 2.9073097908830094 2.8167949699248105 44 54 70
12.492693961336595 -3.0773120649737886 3.0027985442669065 61 71 87
11.886821235823978 -0.3270400373583725 2.8463677841794137 46 61 80
13.09988162184519 -1.2700127510327552 2.8068006026179186 67 79 97
12.487624316055129 -0.716697038631948 3.005735624320552 46 59 78
12.471302639426396 -1.517000195886059 2.7186819719388633 100 113 127
12.89126457550502 -1.0009053572033406 2.6512914791030764 107 120 137
12.554376498426265 -1.4411552771470866 2.971195913602085 55 67 85
13.319412455941114 -1.0788019732830454 2.59410183253747 97 110 125
13.802193757786204 -1.525790284155222 2.682420508223003 93 103 116
12.236854609091882 -0.7596929460674533 2.763497319003981 72 84 102
12.212229919727518 -1.1391762158623129 2.4456865832594956 16 24 34
13.55930346492201 -2.306942448255806 2.7200955212843017 73 83 95
13.906821250971335 -1.8458818937743728 2.6674303753802655 67 76 87
13.151257950281812 -1.9680420511567218 2.7957465994183934 54 64 79
13.092387819730542 -2.62597992687456 2.808449808084518 47 56 69
12.246144130290121 -2.5928879638534434 2.4423777562930153 62 70 78
12.968753718319274 -2.8517157768169255 2.8371972717720535 38 47 62
12.541509009183246 -2.5693388199162404 2.9772658211971073 48 60 76
13.497319418709008 -1.896258977721808 2.7304577190797463 72 82 94
11.727060775327372 -2.8374174053089662 2.4968007675933324 37 46 57
12.076254963740801 -1.936716625746439 2.459277155473277 28 36 46
9.874910070263553 -0.9325401399583203 2.029509612388218 0 1 7
11.787445865635618 -1.0294875209107242 2.3607129039060037 31 38 48
10.0820415151639 -0.6986468587069381 1.9118831223109776 53 60 68
8.346448901378949 0.10701600419327353 1.495550687512291 32 42 54
7.732542586170797 -0.15154251139701153 1.882654535801064 38 49 64
12.328423369542145 -0.8742095867699332 2.570578386948486 106 118 136
10.775560300666308 3.01016052048565 2.460674712927347 17 26 40
10.903699096063093 2.8677514980283294 2.446296560161424 26 32 46
8.932729284953721 -2.1572492839460096 1.272244437745859 3 5 11
8.967328123515275 -1.1391762158623129 2.0801464524905793 0 1 7
10.556119975703979 -2.4039742132893904 2.1047632231225246 34 41 49
11.599154242929615 -2.0533051715856843 2.3772319131212614 34 41 51
10.653699229511822 -1.4317353064588116 2.0993563931871533 4 10 16
9.732873360246185 -1.536877885498853 2.1555587357174666 1 3 10
11.294589208558364 -1.894887073074529 2.282006933695671 3 3 9
10.109686072025111 -1.5405982750991967 2.01807310513372 3 9 15
10.907925964544223 2.9672488422814003 1.5132429540719743 21 29 42
10.743693055909377 -3.1312410258724035 1.512362172263684 26 34 45
10.869547169004559 -2.927832446342256 1.9847979061860754 34 41 50
11.083592833703898 -2.7416405154087125 1.8799828943379273 37 45 53
10.735978605926471 -2.9987464347613098 2.327756785858507 31 39 49
11.43257667323077 2.9556149090333426 2.7075686664811793 28 37 53
11.430252710190157 2.2547959247329445 3.0410765398296884 49 59 77
11.478307899678157 0.6087886460148758 3.0057460394074655 49 61 80
10.913629564600335 0.2650397689573881 2.8253879565765034 48 60 79
13.721718738090575 1.6932547101853161 2.6944286254139427 49 58 74
12.115168936977062 2.6722511761933125 2.789647904892542 61 69 83
13.01274909779462 -2.200573900597414 2.63407802339741 68 77 87
12.973275336262418 -1.3650733332285285 2.639576728895385 95 105 119
12.489313508502441 -1.7116645448545655 2.715489105844809 89 100 114
11.814905528718164 -2.5593014726283068 2.642299903768493 58 67 79
13.437026639028568 -2.118185305081396 2.5799093368775323 56 64 74
13.04056980717695 -1.5039495221779076 2.8201302647440416 61 74 90
12.669313084900585 -2.2558389486214474 2.9247281424071274 63 73 88
12.42539027348554 -1.3279679081573688 3.049343754915006 47 59 78
10.755701470505386 -0.02104301721315718 2.6288529028956695 47 60 78
9.2613950537904 -0.46107407979623405 1.5029963497759373 46 54 64
10.388250558813052 -0.6124185689201929 2.1143449752516696 57 67 77
12.370019766252753 -0.8586714859639486 2.4305524051029717 93 105 122
8.746684802698313 -0.28241076173897234 2.09429163050121 33 43 55
12.110841889061096 -2.6525287529366826 2.334121095725443 52 59 67
10.186689257112945 2.9497381132331624 1.8058628938454229 28 35 48
11.591805158676815 -2.7214046804139262 2.6788202040864224 37 46 58
13.057795498680198 -1.7453049381070962 2.8161921700435024 46 57 73
11.947635759598237 -2.7082930679380075 2.4726369464608853 43 51 61
11.756129694214506 1.8166013022015433 2.885443041406333 48 58 74
12.443467597013575 -2.148825204856891 3.034785232567461 50 62 80
12.116684301752843 -2.425545732913853 2.5983864663336944 71 80 89
11.598685547250831 0.9769887391462931 2.943806951794018 52 64 82
12.932831480382056 -2.2289540502034333 2.5014876979971326 57 64 74
12.086579946055373 1.2539383266264936 2.7961464385074057 50 60 77
12.457378938339817 0.8708597192625593 2.7211722811134678 48 57 75
11.536024566400874 -3.125084633569445 2.5191555641947536 49 58 71
10.791805609202894 0.16695086430267372 2.622941199905549 50 62 80
11.273945161984697 -0.2542510621593681 2.738996563770276 44 59 78
8.43446132788802 -0.013415505977324297 1.3766271064280604 37 46 59
13.316095603590314 1.6756195291104106 2.5945105361438103 51 58 73
11.73699378025286 1.4758178195039577 2.891744062121626 59 70 87
11.758389250134687 2.592795063147275 2.651185384689835 56 62 76
13.70532753121093 1.5240957380799247 2.696929032767569 59 68 84
13.818470064264359 -1.6888471383557953 2.68004389028684 84 93 105
11.451982405719882 -2.9106404314249006 2.7039270228171577 47 56 70
10.417632811948248 -2.0012948932761385 2.112641564896151 5 7 13
9.882977588119143 -2.3282856369494915 1.7101277814971876 13 15 20
12.615974273703163 -1.0273849720333084 2.944835903331834 57 69 87
13.447265310172403 -1.3262848832048084 2.7390807434544064 108 121 136
9.934470486989783 -0.5143411657584869 2.1421838587812605 44 54 67
10.411099699645293 -2.4723062499732267 1.9006860999955721 32 39 47
11.001425738135053 -1.8340292152769082 1.882369561179575 5 7 12
12.572268357529419 -1.901518307085422 2.9631147720525104 62 74 90
9.207373204959207 -1.4317353064588116 1.611270447152832 8 8 12
11.55113116551798 1.9371635802981706 2.965528395683608 34 44 61
