12.051769610744143 0.975789562020184 0.5811747150440904 142 39 165
12.80936041722653 0.7649126718097464 0.6658612433673269 142 39 165
12.414543179112263 0.6653250454996584 0.6242626813316583 142 39 165
12.839383932700379 0.7604551994270442 0.5307423789639029 142 39 165
12.507297789583 0.8792556512662253 0.48359243381867906 142 39 165
10.72358986684459 1.008934226148181 0.9687503570567428 142 39 165
11.162437397500627 0.848554253861848 0.8845328093212061 142 39 165
12.543955391867748 0.6848831751518167 0.762221593207314 142 39 165
11.705438497856347 0.7680186636107589 0.9219636623929002 142 39 165
10.963731270174929 1.197872260957124 1.1901659700601757 142 39 165
10.554181664698751 1.1584951317275989 1.0693765211848671 142 39 165
10.68955014053679 0.9188709826683349 1.076304955276072 142 39 165
11.487160944105604 0.7703068643049995 1.2083340835016536 142 39 165
12.066396912473666 1.206389189870873 0.40859522505215756 142 39 165
11.948362687054667 1.6357488268566434 0.3851413096589771 142 39 165
11.78252387973303 1.1116948233464656 0.5454039279389481 142 39 165
9.678793118735534 1.767520427580429 0.7513292027390573 142 39 165
9.596682656483917 1.6157329343507811 0.7421237819530992 142 39 165
9.965156383197346 1.721928453037591 1.0366775086009452 142 39 165
10.027770792330143 1.3719545052543944 1.0403666480325666 142 39 165
9.965156383197346 1.721928453037591 1.0366775086009452 142 39 165
12.285443250715485 0.4846748046259557 0.44799389907801146 142 39 165
11.937957701909225 0.5893060827241785 0.38298555809428686 142 39 165
12.702338274527552 0.4097439700315582 0.5120614149057466 142 39 165
12.089749806909811 0.5473754454744699 0.585940161902508 142 39 165
12.184977063783943 0.7535192761072056 0.43051888754526174 142 39 165
11.57631821645865 2.3167963739027635 0.29593639282631273 142 39 165
11.678495501350175 1.9261807899274508 0.3233993132254387 142 39 165
11.610535687427742 1.6543393577054097 0.30545412656177323 142 39 165
11.918740884462748 0.9093184279939539 0.37896347322457863 142 39 165
11.505013966973301 2.2044814722063024 0.5042458224388079 142 39 165
10.54703008749382 2.091695136646154 0.957201311898702 142 39 165
10.47264926813193 2.1865089348002376 1.0651040294903682 142 39 165
12.374789366010463 2.460303480766276 0.46279010476477656 142 39 165
12.064522105210072 2.3284268380502717 0.4082361569913913 142 39 165
12.131635499830953 2.6176795875853283 0.4208427002214292 142 39 165
9.944820157045145 -2.081039030402083 3.0815684270933277 142 39 165
9.942750117967282 2.116885819822835 3.085138860769225 142 39 165
8.967816951830253 0.5947991998301719 3.0460420822060517 142 39 165
10.67040372464061 -1.1189543985063872 2.766085954501872 142 39 165
10.63419159792172 -1.2706435561295588 2.5670733008176128 142 39 165
10.839894497424124 -1.114661571737108 2.5383912404408226 142 39 165
10.930754865080466 -1.4153030442606263 2.709671737049279 142 39 165
10.930754865080466 -1.4153030442606263 2.709671737049279 142 39 165
10.500069875641548 -1.623524271154719 2.5871163558797807 142 39 165
10.383465105598958 -0.9750741979248373 2.843950425920465 142 39 165
11.431885514654153 -1.800581831899266 2.6226677112346612 142 39 165
11.501915261104498 -1.3721654599380317 2.8240575358820577 142 39 165
11.552466884855146 -1.9223608740315592 2.81100215226083 142 39 165
11.895404960458796 -1.849047653608805 2.7352751136675657 142 39 165
11.236230979558739 -1.296729383336232 2.906407206195123 142 39 165
10.876363775773877 -1.1126581715161394 2.261237548581402 142 39 165
11.021916177771356 -1.1602703755056942 2.1385489949661913 142 39 165
10.366326515936704 -1.3473934089654387 2.3026000518838963 142 39 165
10.268340403405356 -1.615449602906379 2.452739959347207 142 39 165
11.129930532892432 -1.7663099058239973 2.5015385440088216 142 39 165
10.478148612188358 -1.8665396375623238 2.2930555956591774 142 39 165
9.989707297067461 -1.3728902814498711 2.086559253033983 142 39 165
10.403402852330926 -1.4878191789556479 2.1769478431678175 142 39 165
9.952958905351244 -2.493537201460524 1.9763711672358135 142 39 165
11.083897685429955 -2.5185327644213964 2.367668696779993 142 39 165
11.72156103301074 -2.330187374097182 2.5809117081917714 142 39 165
11.72156103301074 -2.330187374097182 2.5809117081917714 142 39 165
12.237147410630214 -2.421355984997553 2.3883763878479245 142 39 165
11.82596477553547 -2.1084152763512822 2.5670051062767842 142 39 165
11.754363382313421 -2.334996582221025 2.4332713384683906 142 39 165
10.707198942656932 -2.554173817519414 1.946314044613194 142 39 165
10.004131486305544 -2.554173817519414 1.663582165666215 142 39 165
13.493043795453994 3.065537347974327 2.6549978447081246 142 39 165
12.6861326834314 -3.0208726968765602 2.79387644783644 142 39 165
13.131578145538464 2.868963328137394 2.7099070249854154 142 39 165
13.49456923779609 -3.0590348554646822 2.654784208288055 142 39 165
12.766327996305725 -2.8010600552254656 2.7769395523080918 142 39 165
12.863854336026282 -2.322556738993613 2.7575688303835575 142 39 165
12.255922886659498 -2.4545424187435536 2.671577918672991 142 39 165
13.090954214868765 -2.631416217778493 2.558368999829515 142 39 165
13.569987728856114 -2.9044465087476206 2.6443858979599177 142 39 165
12.006934569494042 -2.610517153980175 2.7142009190854055 142 39 165
13.289206777792097 -2.6970364662112 2.684837929971409 142 39 165
12.858145830879245 -2.7605327691308084 2.586410642106082 142 39 165
9.82553289226085 -2.411941640226383 1.665273723417648 142 39 165
10.737344235760606 -2.03735657835482 2.047505181154932 142 39 165
10.741243715935688 -1.983329930713622 2.2716744243502296 142 39 165
10.562244498251946 -2.267431100986759 1.9517301248544574 142 39 165
10.885705533843048 -2.2525014658041704 2.26052884260532 142 39 165
11.547831215008399 -2.2525014658041704 2.3273804557525057 142 39 165
11.534330935041591 -2.0382482400435786 2.4558399750475965 142 39 165
11.437228712446302 -2.411941640226383 2.1155554649925405 142 39 165
11.987643662207594 0.7604551994270442 0.5729795590001875 142 39 165
12.543955391867748 0.6848831751518167 0.762221593207314 142 39 165
11.80998476919879 0.6179473980541879 0.928660023571736 142 39 165
12.14051007663191 0.5887234674922939 0.7267465739525268 142 39 165
11.255388219916139 0.8396704418627741 1.1032185052035173 142 39 165
10.190642788022412 1.008934226148181 1.049714806659007 142 39 165
11.259779223156539 2.043625944004309 0.46324293980053677 142 39 165
9.903252355385764 1.8680734726207762 0.9106379873693434 142 39 165
9.618399023914328 1.461861268681633 0.7445826635123931 142 39 165
9.885424801977694 1.60514356598127 1.0319002533761743 142 39 165
9.906508228913587 1.4874181802037765 1.0331723085553743 142 39 165
12.592828600741482 0.4784536253403406 0.6436563770004875 142 39 165
11.650955695551284 0.6363868197252326 0.5264983862549261 142 39 165
12.525611674441997 0.6363868197252326 0.48636909440686277 142 39 165
11.628491764756516 1.3698776708110534 0.31031373370632853 142 39 165
10.54703008749382 2.091695136646154 0.957201311898702 142 39 165
11.505013966973301 2.2044814722063024 0.5042458224388079 142 39 165
10.297175337643827 2.111713467502742 0.6696964775556734 142 39 165
9.966122565692551 1.9410531964256876 1.1497742261390393 142 39 165
11.814984624396914 2.4959760736082304 0.3562614366526361 142 39 165
12.756101680339048 2.5599172494254545 0.519510712426184 142 39 165
11.131962741999397 -0.9792592080146618 2.5012934199978742 142 39 165
9.963712244054186 0.5947991998301719 3.0556174993433562 142 39 165
9.944820157045145 -2.081039030402083 3.0815684270933277 142 39 165
10.040772473306296 1.7652497619982261 2.990851358887782 142 39 165
10.911650660945089 -1.635158957213765 2.7134858019718977 142 39 165
10.839894497424124 -1.114661571737108 2.5383912404408226 142 39 165
11.040773690935666 -1.209425190660228 2.6885366790247653 142 39 165
10.266404717583185 -1.296729383336232 2.8837075999444335 142 39 165
11.380798301003022 -1.4431310678764546 2.630582233341251 142 39 165
12.045056139318358 -2.039926700471684 2.707304367406082 142 39 165
12.045056139318358 -2.039926700471684 2.707304367406082 142 39 165
10.288639191563856 -1.4625436584899354 2.450347379624736 142 39 165
11.289733030193155 -1.9087213510641354 2.4827650357522244 142 39 165
11.289733030193155 -1.9087213510641354 2.4827650357522244 142 39 165
10.726852029176175 -1.263005101798052 2.1561932584851107 142 39 165
10.208405049519724 -1.263005101798052 2.074454565841668 142 39 165
10.383328422712554 -1.6049777434304904 2.1782886641796355 142 39 165
10.305769263528159 -1.7408479343225023 2.307890346533689 142 39 165
10.577240056318534 -1.2250958918554056 2.2848310879659266 142 39 165
10.227557926993166 -2.642429576798429 1.9648709076569972 142 39 165
12.12343644667711 -2.434588288028443 2.5301484898383313 142 39 165
12.142329311060083 -2.2315653506206123 2.527932597965263 142 39 165
10.898120598212019 -2.493537201460524 2.1458108984326763 142 39 165
11.819755018690564 -2.5185327644213964 2.4268370053117607 142 39 165
12.274611831962506 -2.20012218828505 2.668589429700702 142 39 165
13.056780332073311 3.0512358006653697 2.7225155923154674 142 39 165
13.058356737646948 -3.043524452524763 2.722244677452917 142 39 165
12.39956434646533 -2.6970364662112 2.6492616086785565 142 39 165
9.97912419181458 -2.03735657835482 1.8684766424400323 142 39 165
10.741243715935688 -1.983329930713622 2.2716744243502296 142 39 165
10.87611632275489 -2.3407200442145686 1.8432688466605844 142 39 165
9.681987438970532 1.8347188429388954 1.1365934879354116 142 39 165
12.904966645443904 0.5887234674922939 0.6752365100276676 142 39 165
11.965811826841382 1.4138972184823062 0.388722680499917 142 39 165
11.341105992741115 1.1097740111611467 1.203445842505609 142 39 165
12.396065203298702 0.8609090858118074 0.6221904224124779 142 39 165
11.275735621352466 0.6989759619148046 1.104129443490422 142 39 165
11.731969250598427 1.114317259194494 0.3367335435894996 142 39 165
11.678495501350175 1.9261807899274508 0.3233993132254387 142 39 165
11.830890727290123 2.153156569322833 0.35985683769068855 142 39 165
12.285443250715485 0.4846748046259557 0.44799389907801146 142 39 165
10.63419159792172 -1.2706435561295588 2.5670733008176128 142 39 165
11.483761269708268 -1.6533669052585058 2.828903291907028 142 39 165
10.550472597567707 -1.8069787078352915 1.9521770261608837 142 39 165
12.572223814162676 -2.8087584492921467 2.4809379495713837 142 39 165
11.527964085158859 -2.421355984997553 2.3290085335120656 142 39 165
10.42726543852894 -2.5866027342110534 2.175362326397241 142 39 165
9.489018850632398 -2.642429576798429 1.6686347708949676 142 39 165
13.131578145538464 2.868963328137394 2.7099070249854154 142 39 165
12.684510018680003 3.0303373842247816 2.794229572099746 142 39 165
12.700029376364618 -2.9044465087476206 2.606820270723386 142 39 165
12.640821335252197 -2.554504993276279 2.6147811848436815 142 39 165
12.640821335252197 -2.554504993276279 2.6147811848436815 142 39 165
13.988785406163597 -3.0703162101654002 2.591746918745655 142 39 165
11.405319074693363 -2.3383048965289768 2.223504785106578 142 39 165
10.24565609599924 1.261603989199266 1.0527941350455345 142 39 165
12.248069897879049 1.0269382364779285 0.4416020503445803 142 39 165
11.78252387973303 1.1116948233464656 0.5454039279389481 142 39 165
11.099545482955802 1.8514732675754513 0.43344863929456134 142 39 165
10.67040372464061 -1.1189543985063872 2.766085954501872 142 39 165
11.706502866001351 -2.147766261266144 2.774584805552633 142 39 165
11.552466884855146 -1.9223608740315592 2.81100215226083 142 39 165
11.638881557103899 -0.38910675538262796 2.790008162354448 142 39 165
11.82596477553547 -2.1084152763512822 2.5670051062767842 142 39 165
11.858478331770925 -2.1528621070964813 2.4230823457627864 142 39 165
9.842072113235812 1.8022474764378784 0.6089253028963558 142 39 165
10.181214340169682 1.985349807728385 0.931663659387026 142 39 165
12.626859480126846 -2.4880442705026904 2.807068521108361 142 39 165
13.136279866662495 -2.8617618356842476 2.709130714211881 142 39 165
9.965777928990205 -0.6335870940919621 3.0532451852742204 142 39 165
10.067665954807067 -1.1346904220518987 2.9741790828226766 142 39 165
13.9873138626422 3.07593591104643 2.591918596876175 142 39 165
