9.999414431192884 0.07290430078194636 1.5068849506180422 154 91 133
8.664247896006048 0.09114799057122837 1.9692106504743228 154 91 133
9.331548508177862 -0.493065704154064 1.8266290357589516 154 91 133
10.040096391408788 -0.1272299792694843 1.6067956529801288 154 91 133
9.351031827670468 -0.6488885847051695 1.9384896877063182 154 91 133
10.478851472166301 -0.5323015175477861 1.7010794499074497 154 91 133
8.638023862659951 -0.034332007645190225 1.9704888749663851 154 91 133
10.483132396648188 -0.31773330422856844 1.6052736403599224 154 91 133
10.21517499591746 -0.2245466445498416 1.606178398142 154 91 133
9.703540601098817 -0.6226207457233895 2.285734696899155 154 91 133
9.0794263536865 -0.6226207457233895 2.2024687606584723 154 91 133
8.783843553378619 -0.03926533905928933 2.227318770329801 154 91 133
9.633274707681005 -0.8167444825350901 2.292084614681476 154 91 133
9.003675410647487 -0.36478800667345607 2.355377852384692 154 91 133
9.980311729532628 -0.43030284345087105 2.5640106415593653 154 91 133
10.016743624246951 -0.5027480094241463 2.3963234544597336 154 91 133
10.25440816756794 -0.5840039647558571 2.5242017043634037 154 91 133
9.590737592096577 -0.7249532618690826 2.1639927504258547 154 91 133
9.004291438447021 -0.8167444825350901 2.208587882370692 154 91 133
9.721835882268923 -0.05509467385253633 2.6061828792470516 154 91 133
9.110523681429985 -0.9729842251564857 1.8329800035179353 154 91 133
10.148998719178298 -0.6678903059062673 1.5078281853547868 154 91 133
9.657398387008136 -0.7340763702823382 1.8178136559407432 154 91 133
10.219961329290598 -0.6678903059062673 1.7043992861281512 154 91 133
8.333989266939277 -0.9025050677942502 1.8580721429356328 154 91 133
9.685339174429345 -0.8116190918384029 2.037903459286584 154 91 133
10.744450529891914 -1.5798055997884932 2.628588143601724 154 91 133
10.7864823015318 -1.3920921739780026 2.6217125298223714 154 91 133
11.142628367902567 -1.0603747736263491 2.568336109373838 154 91 133
10.705694853523033 -0.9661746643586727 2.6350517496156325 154 91 133
9.384639096864683 -0.8243591521301267 2.4725327183588854 154 91 133
9.105095599220595 -1.3920921739780026 2.512374348099277 154 91 133
9.819717088745456 -0.09224654490119323 2.8348514733330434 154 91 133
10.347252661857254 -0.8368560800372083 2.7015165558337486 154 91 133
9.335704275428014 -0.3116146868481653 2.680647138722612 154 91 133
9.52432319773298 -1.0603747736263491 2.454196699858543 154 91 133
10.474107076251673 -1.1422003257275153 2.6764597852039405 154 91 133
9.680361899017322 -1.1740002847371194 2.884158204138262 154 91 133
9.962714045097538 -1.2876138772749945 2.7923712277666555 154 91 133
9.91719153250655 -1.5853099588319965 2.805203207139166 154 91 133
10.07568225977152 -0.6561178547666952 2.7627794640980436 154 91 133
8.365953422171968 -1.7430123736410204 3.108448304264518 154 91 133
8.603661437929398 -1.576538752994733 1.8488241441558564 154 91 133
8.934169003499356 -1.0730055909861154 1.9565270772104773 154 91 133
8.012455477269881 -1.5773282715237085 2.003709131869357 154 91 133
7.705071568952948 -1.1308977108944747 2.0222263482696046 154 91 133
8.246781752851254 -1.308527268436501 1.9906166775426923 154 91 133
9.718489106820245 -1.4201105945739716 2.43020888767084 154 91 133
10.112319072463647 -1.1308977108944747 2.386137404638906 154 91 133
9.145014843410133 -1.2690536776980184 2.3400641836865654 154 91 133
8.480693371440118 -1.5773282715237085 2.110951537711557 154 91 133
8.702420730136911 -1.308527268436501 2.0957421739730506 154 91 133
8.764334683990539 -1.1308977108944747 2.2290350977647533 154 91 133
7.23292455099058 2.5892993684164995 1.7601426087527412 154 91 133
6.936033628937403 2.7383256421989968 2.4543083885732857 154 91 133
7.68415354002824 2.4781584830461334 1.6178401506252769 154 91 133
7.678312246633087 2.772407098041189 1.7490378214476001 154 91 133
6.890635817152882 2.8119525507418084 2.2561410616814292 154 91 133
8.25544219184875 2.9302140122718847 1.4933589147437163 154 91 133
6.956969604357006 3.0219735528758243 2.075061488978013 154 91 133
9.79703994337617 -2.4142626788766317 1.2980985844788018 154 91 133
9.23786895363178 -2.177479866071119 1.2811293176398355 154 91 133
10.732287863496987 -2.1903126259119454 2.6306035701559902 154 91 133
6.723175722724013 -3.0742132105893716 2.493844178882851 154 91 133
10.937698600956525 -1.9411679260630996 2.598046537421207 154 91 133
9.940599411110691 -1.7668935897262286 2.570169677019022 154 91 133
10.095074709986553 -1.9411679260630996 2.5467937438879584 154 91 133
9.918560863911939 -2.225448949136491 2.407113782481884 154 91 133
8.269793000511187 -1.8452109315980032 1.9893750031023367 154 91 133
8.6519819973356 -2.0786173144694304 1.8472304587743236 154 91 133
8.630776694448121 -1.8134102038044801 1.7291908582816171 154 91 133
10.548949967268252 -1.8452109315980032 2.3431577225061115 154 91 133
10.401217652942995 -1.713837086452885 2.3570905154278816 154 91 133
10.131764154124811 -1.9675816750205775 2.2496006923885763 154 91 133
10.484470146820156 -2.1437991889140036 2.3491670831265097 154 91 133
9.728261099264117 -1.736253069824413 2.4290442820756617 154 91 133
9.886054863467598 -1.886287903423303 2.410762366289418 154 91 133
10.478259032645218 -2.6138960575078745 1.60528968187512 154 91 133
8.07742874186034 -3.107665690338203 1.4916487858473069 154 91 133
9.642415585423551 -2.5615353827383225 1.5045152998021758 154 91 133
10.191518408100139 -2.5615353827383225 1.9069083992755325 154 91 133
6.924282686631503 -3.096458886075695 2.077668458906041 154 91 133
10.038403422031179 -2.2644434370031505 1.9122422840153335 154 91 133
9.46580114982237 -2.2644434370031505 1.608980783146939 154 91 133
9.726025811084885 -2.4142626788766317 1.8160347471099931 154 91 133
11.399021673762887 -2.2644434370031505 2.16284455137191 154 91 133
10.3942778800743 -2.4142626788766317 2.0037924153630198 154 91 133
10.482645617050354 -0.9284814393038057 2.9893254892307604 154 91 133
11.586624090488765 -1.591693244221676 2.9440822500233814 154 91 133
11.208018104286474 -1.581913795921073 2.750411843458654 154 91 133
8.80963352936963 0.10416936377833724 2.2250649669608022 154 91 133
8.927932882182624 -0.27841496526998144 1.9568107337445317 154 91 133
10.920310604246698 -1.2161774529493596 2.6006873715307606 154 91 133
9.755230060191423 -0.6488885847051695 2.0342934754425133 154 91 133
8.533882077481064 -1.440577093588776 2.107218356975533 154 91 133
9.262705987922246 -0.030499623867957345 1.8285735360444453 154 91 133
9.633274707681005 -0.8167444825350901 2.292084614681476 154 91 133
8.871424475171313 -0.18111226515625414 2.2197338235234216 154 91 133
10.705694853523033 -0.9661746643586727 2.6350517496156325 154 91 133
9.233322814523232 -0.3904540315884101 1.9434051513439907 154 91 133
9.885367970092886 -1.5798055997884932 2.578918867639242 154 91 133
9.866813759838983 -1.2690536776980184 2.4129404409017505 154 91 133
10.39207848160421 -1.440577093588776 2.3579719184102825 154 91 133
10.219961329290598 -0.6678903059062673 1.7043992861281512 154 91 133
8.53899247751891 -1.185175487930741 1.9753931373457854 154 91 133
9.847661358432534 -0.7118925316129715 2.4151222497610485 154 91 133
10.347252661857254 -0.8368560800372083 2.7015165558337486 154 91 133
8.918045352656543 -0.3904540315884101 1.83877658711066 154 91 133
7.38259734817179 2.901294844516857 1.7562587453971126 154 91 133
7.0941025484915565 3.0388177986971243 1.6217562742339655 154 91 133
6.67633067346916 -3.0875330698641945 2.282674340393409 154 91 133
10.344348705851226 -2.0948307878708525 2.512058865030569 154 91 133
9.918560863911939 -2.225448949136491 2.407113782481884 154 91 133
10.343692246431782 -1.8111940596955012 2.7022481300325154 154 91 133
9.872146954933788 -2.1903126259119454 2.5810459144607245 154 91 133
8.431144252708924 -2.8865271154118783 3.012840443557185 154 91 133
8.572309666556599 -1.9675816750205775 1.9737293978717851 154 91 133
7.71827326790855 -1.713837086452885 1.8817260407633118 154 91 133
8.231754110405841 -1.9675816750205775 1.861743495747195 154 91 133
8.449573338423248 -1.6967418388925262 1.7326173110360217 154 91 133
10.787741290926693 -1.9675816750205775 2.321812362260857 154 91 133
10.901498904778194 -2.177479866071119 2.1938658533425506 154 91 133
7.182984957669627 -3.1028561692902112 1.761475167556748 154 91 133
10.01237472864323 -2.7003501103165166 1.6068953690143803 154 91 133
10.210051922278003 -2.4794696086072485 1.6061961591381868 154 91 133
10.607881057456215 -1.591693244221676 2.925582802367038 154 91 133
9.810601592925886 -0.6916528993039881 2.591120945409878 154 91 133
9.069092394893003 -0.3159965686360823 2.203302741906919 154 91 133
9.253012962209922 -0.551099357555574 2.0616111788300446 154 91 133
10.448156788413742 -1.0085618535692602 2.3525999670543714 154 91 133
10.153269964335067 -0.8079340055425209 1.7052821635432722 154 91 133
9.523740807407687 -0.5219197699991186 2.6423574999989206 154 91 133
8.140829879972383 -1.0085618535692602 1.9964335429037736 154 91 133
10.241000517693628 -0.3116146868481653 2.7240935872902416 154 91 133
9.14978391575253 -1.0085618535692602 2.196853992035355 154 91 133
9.624111852889481 -0.9025050677942502 2.1616566310340843 154 91 133
10.334502203435889 -1.3514792658438763 2.704144074978362 154 91 133
9.685339174429345 -0.8116190918384029 2.037903459286584 154 91 133
9.88016779345567 -0.9275814233817524 2.411427313920747 154 91 133
10.11665851425609 -0.5855149058748199 1.9094947804523437 154 91 133
9.67181716470176 -1.5783694917326938 2.4358257218940516 154 91 133
11.281217880059472 -0.4872261401705046 1.5141550157533212 154 91 133
7.131140261382452 2.8634446342329682 2.061632398643381 154 91 133
6.703946456934353 2.5055842209514805 1.930753460263407 154 91 133
6.710225526244827 2.9985706410063218 2.2783242967820296 154 91 133
10.599456485353322 -2.6138960575078745 1.4155770594469488 154 91 133
10.484470146820156 -2.1437991889140036 2.3491670831265097 154 91 133
8.612735347032473 -3.008978159517237 2.8993955427537763 154 91 133
10.139142623341536 -2.7003501103165166 1.4084689965450623 154 91 133
9.906782029371987 -2.5615353827383225 1.81147087561004 154 91 133
10.476051814631518 -2.0786173144694304 2.2233641804275006 154 91 133
10.785968061934295 -0.8611331141797116 2.8600686864192295 154 91 133
10.107455386809674 -1.0329389634286044 2.754958630570561 154 91 133
9.88016779345567 -0.9275814233817524 2.411427313920747 154 91 133
9.496520821685406 -0.8849229514139151 1.714645323774724 154 91 133
10.18794229781252 -0.8243591521301267 2.533451071279584 154 91 133
8.964394031579781 -0.8116190918384029 1.837357174682749 154 91 133
9.552100477749224 -0.21070755369112237 2.4506621685881766 154 91 133
9.369882684193202 -0.44000407970539834 2.179970751421496 154 91 133
8.41986697721021 -0.2792621345196425 3.023635832736962 154 91 133
7.583603654364008 2.772407098041189 1.4864830280457864 154 91 133
7.9977984306961405 2.6551552745740774 1.4908590766175824 154 91 133
8.667064490734404 -1.6967418388925262 1.8467368006392457 154 91 133
9.16252199071059 -2.177479866071119 1.8314573355041073 154 91 133
8.545008882875678 -1.713837086452885 2.106444312753281 154 91 133
9.871248164936377 -2.3378838568833133 1.0816025597302579 154 91 133
10.909588947691793 -2.248349997863736 2.3114363407829184 154 91 133
9.263247223458434 -1.2161774529493596 2.4892839179393924 154 91 133
9.801038596506446 -0.2516207422951571 2.5927127545424407 154 91 133
10.07568225977152 -0.6561178547666952 2.7627794640980436 154 91 133
8.269793000511187 -1.8452109315980032 1.9893750031023367 154 91 133
9.576257564271359 -2.4142626788766317 1.3988350726788723 154 91 133
10.34844490326238 -1.5773282715237085 2.3622124077299826 154 91 133
10.121364745838923 0.1718006355993304 1.5076560373416437 154 91 133
10.01299473320966 -0.44533308827323054 1.7071779041065132 154 91 133
10.795287580112467 -1.7668935897262286 2.620289323680038 154 91 133
10.492234558802469 -2.0176322866194507 2.6730288890667664 154 91 133
10.140468308294603 -2.0230222080039866 2.3831946440967715 154 91 133
6.649201458147919 2.6462733240708483 2.1007903329000337 154 91 133
