18.003936954402914 1.373436421593784 1.4173196210737062 106 40 182
8.40824829084057 1.1326807231982579 1.3608489490650946 106 40 182
9.52693495529113 1.3734843007742885 0.9225384828150506 106 40 182
11.818019036684639 0.779368990458138 0.42792993745200525 106 40 182
11.416553621236844 1.0747747805595493 0.6972096887815026 106 40 182
11.709646568133882 0.5607528516176269 0.5865638702018233 106 40 182
11.455216369302834 0.4193620003055089 0.5522510706368601 106 40 182
10.949616646379871 0.7815742889460315 0.7841314116850627 106 40 182
10.883191439256688 1.0011305042647543 0.6364545792868896 106 40 182
12.147403617008308 0.9055604867798329 0.4839666807907683 106 40 182
11.620335157841854 0.780718431670375 0.5748964972958273 106 40 182
9.261163347961215 0.8655054160851179 1.1536310494784165 106 40 182
8.898723655565439 1.6312491179674204 1.2563424756695112 106 40 182
9.705497520075022 1.6312491179674204 1.0591017703704957 106 40 182
16.531290247732812 1.480524652636182 1.5252699463219708 106 40 182
20.501253496466568 1.4110536719612834 2.273374349179262 106 40 182
8.727623609350502 1.0283467907024322 1.4844859171011464 106 40 182
8.838003510033131 1.284271103948738 1.4855665024917792 106 40 182
16.3212758103168 1.5391671006422523 1.8981327816993747 106 40 182
21.007146950709206 2.0468472243050684 1.7260162606012597 106 40 182
22.26140333256092 1.9652420469256908 1.6719349012048357 106 40 182
21.346574377447276 1.9833463946561087 1.6762851102906686 106 40 182
21.751038771123845 1.8938863648597706 1.9105017670963993 106 40 182
21.926107696685133 2.003083416890798 1.9564410650983028 106 40 182
22.09096937031196 1.879090000333675 1.8106364210054995 106 40 182
22.33330975188261 2.0468472243050684 1.949050005357778 106 40 182
21.595205853099607 1.8385044341142196 2.2312222762876166 106 40 182
19.740835252104237 1.6916215183645438 2.4533939221942367 106 40 182
22.07541014739195 1.9773338700473606 2.1054119783553977 106 40 182
22.462673569483677 2.1227079167763967 2.201561466642764 106 40 182
22.41473830046755 1.9992056899444635 2.2031241222861473 106 40 182
22.447065328849025 1.8941305639806152 2.2584452626735136 106 40 182
9.596574894931173 1.7294263657180857 1.492318048439997 106 40 182
15.873291100691961 -0.6118590551868598 0.522883103021649 106 40 182
15.419113195428544 -0.37485858532671884 0.46926089442881735 106 40 182
15.473659712988892 -0.546274028102621 0.6021269937298106 106 40 182
15.615864082732426 -0.5009806180600312 0.49353156385090424 106 40 182
15.725948615251854 -0.3964066819066817 0.6250885147453722 106 40 182
14.165436452156383 -0.7903316792528924 0.7089355099169501 106 40 182
14.23133531388559 -0.6380544787252279 0.7143175739683902 106 40 182
14.43614282806918 -0.49231631077645566 0.7305290051100494 106 40 182
11.083064145699904 -0.9217863760235193 1.3198318380586829 106 40 182
12.059244861663373 -1.183504633142361 0.8725762181330627 106 40 182
10.998442545211702 -1.3984642261424478 0.9097578471852419 106 40 182
12.385590857389673 -1.0874987059727979 0.8944897495571899 106 40 182
14.532268072603529 -0.8735562725020772 0.6288453897708265 106 40 182
10.773230635384836 -1.4162013519340344 1.1139436031923398 106 40 182
11.68426919137119 -1.220649388467297 1.0560480519691124 106 40 182
10.320045915997706 -1.220649388467297 1.4001690127404822 106 40 182
10.312717241230233 -1.0002593419667636 1.4000465655063028 106 40 182
2.3567739122496025 2.85406118235849 0.7324512066899145 106 40 182
10.9284882783997 -1.7682742436649324 0.782191289919306 106 40 182
11.572122969068857 -1.6383825556917828 0.7131107377649368 106 40 182
11.571149651799999 -1.5061794097661803 0.713013483136889 106 40 182
11.553915521339677 -1.5137167426751006 0.8352778898376143 106 40 182
11.001514244003975 -1.745683483131944 0.9099749876793677 106 40 182
11.659183322949804 -1.7682742436649324 0.7217011552329751 106 40 182
11.111002735937896 -1.8917804668206228 0.7985888781563548 106 40 182
11.830430317830821 -1.8917804668206228 0.73799845737838 106 40 182
10.681059126795159 -1.5196807272547828 1.1096974897109557 106 40 182
10.77636652883957 -1.7276925218859607 1.1140866335243556 106 40 182
11.430542463847674 -1.8278551627760802 1.043447842918439 106 40 182
10.327682602433118 -1.923022169974845 1.4002964185903455 106 40 182
10.253935922207196 -1.8278551627760802 1.2990450399127538 106 40 182
9.725916445040037 -1.624263440119102 1.3896337586746497 106 40 182
14.957213020588165 -2.409187622874693 1.0259323584193305 106 40 182
14.46710597204068 -2.2985857500789404 1.0851974120085712 106 40 182
14.29371475646175 -2.3540010383130765 1.2318661815196066 106 40 182
10.028991357499816 -0.7188628728875147 1.695523821408942 106 40 182
10.581877066681972 -1.1315392151359447 1.4996383328381468 106 40 182
9.697613082355335 -1.4162013519340344 1.4931373600062592 106 40 182
13.481300324112334 -2.2985857500789404 1.89133430630433 106 40 182
11.054473290182942 -2.094064498867024 1.5026852684794818 106 40 182
11.053330334233115 -1.6192052707901152 1.8690133949075747 106 40 182
10.919274810423085 -1.8044161877338343 1.6853076889512137 106 40 182
11.927540168252515 -1.9747682741680088 1.8465597917609022 106 40 182
11.62605069659162 3.004798075229929 1.1496933255402615 106 40 182
22.36963812470683 2.1130307300492355 1.9969832962487521 106 40 182
21.550917252065215 2.1540214141435174 1.8167692544988254 106 40 182
22.50956698172812 2.2894505819099433 1.9941627579318388 106 40 182
22.249867872598756 2.2211138268125654 1.9505407441006581 106 40 182
22.340522136761074 2.168298595774875 2.151037650103948 106 40 182
22.307535829782783 2.211227418053993 2.0992615653991034 106 40 182
22.53940316838802 2.1814577583031967 2.042781043091722 106 40 182
12.793639370573933 3.0264547269402815 1.7473978436647668 106 40 182
15.087564010575663 -2.518511926366219 1.0311602409992855 106 40 182
11.844169048501874 3.10278752907054 1.336272209717937 106 40 182
14.612611965568785 -2.584120174743773 1.0115770293252084 106 40 182
14.192331349688468 -2.6555637253841033 0.9929333788577677 106 40 182
14.415991451490505 -2.732829079839415 0.9183553195965767 106 40 182
12.070453652799813 -2.8156247030023054 1.1661239887958725 106 40 182
12.120032981533303 -3.093582747230559 1.256025064227924 106 40 182
12.251301635927737 -2.903316956589113 1.0820383024691222 106 40 182
11.746997887814848 -3.0074841948273527 1.4210631788015549 106 40 182
12.937728829711036 -3.0974148750197004 1.8245318901437546 106 40 182
14.344620593234495 -2.7649434117623337 2.100470435010604 106 40 182
13.435176110973439 -2.6240711469786557 1.7388826197379368 106 40 182
13.638154472869125 -2.6240711469786557 1.8112360647825323 106 40 182
11.271854990527304 0.9055604867798329 0.5252576841536712 106 40 182
11.275564220805514 0.6548617059196683 0.5258250085034851 106 40 182
9.966358270326909 1.0747747805595493 0.8264185907614964 106 40 182
11.247442541602263 0.6809235906100475 0.6790598205466477 106 40 182
9.181305572278447 0.9625843858075088 1.0267392334839605 106 40 182
18.03080199816837 1.318978073753747 1.529058397605746 106 40 182
21.959666966343182 1.9574791257062347 2.0054758855017885 106 40 182
22.448241963041387 1.8655516470899178 1.6264039498546023 106 40 182
21.866918816577584 1.9833463946561087 1.8131428461893653 106 40 182
22.071026559039623 1.9393884223091975 1.9053826696475964 106 40 182
22.193200606807306 1.9228470738248415 1.7633787492518267 106 40 182
16.47137161871123 1.5410890421443388 1.525104217875439 106 40 182
22.202425960520124 2.048344838817958 2.15512033200374 106 40 182
20.47372342776932 1.6118487009688778 2.487475651226708 106 40 182
22.399157876261167 1.9574791257062347 2.0459797779107043 106 40 182
21.951103813464744 2.0246667198328625 2.0565102789300482 106 40 182
22.01758347264169 1.8767642716846653 2.1606829076663026 106 40 182
22.28893240425939 1.927991614207191 2.152555650514761 106 40 182
14.926511988489155 -0.3964066819066817 0.6643018988402307 106 40 182
12.031082676504628 -0.8610515640329711 0.9749105624169313 106 40 182
14.527839834957504 -0.7078532797748831 0.6284261978316571 106 40 182
10.986611206093759 -0.7896757144673366 1.3175804836509948 106 40 182
12.059244861663373 -1.183504633142361 0.8725762181330627 106 40 182
11.808806560379177 -1.2876392615579497 0.8546416723133654 106 40 182
10.320045915997706 -1.220649388467297 1.4001690127404822 106 40 182
11.68426919137119 -1.220649388467297 1.0560480519691124 106 40 182
11.57561752488803 -1.1315392151359447 1.1477410565591883 106 40 182
10.909206658328666 -1.6305005815450524 0.9033799258098298 106 40 182
11.571149651799999 -1.5061794097661803 0.713013483136889 106 40 182
10.682113546344373 -1.624263440119102 1.109746529474088 106 40 182
10.77636652883957 -1.7276925218859607 1.1140866335243556 106 40 182
10.055877691670245 -1.7276925218859607 1.2935526926185266 106 40 182
15.576310906000197 -2.4704476598262777 0.8942530918003354 106 40 182
15.576310906000197 -2.4704476598262777 0.8942530918003354 106 40 182
12.816745178245043 -2.2985857500789404 1.5120620238926346 106 40 182
11.191652609531799 -1.8919983807389273 1.6825089599415621 106 40 182
10.733500670267846 -1.7130351098527676 1.6872985757855126 106 40 182
21.703319898144674 2.1814577583031967 1.9606119797503914 106 40 182
22.131621034946743 2.088722385625007 1.8569820944959579 106 40 182
22.470601578156923 2.1540214141435174 1.9466231878251012 106 40 182
22.045456888897544 2.1394723356566865 2.0542522666377088 106 40 182
12.656299145142336 3.0264547269402815 1.6695360749552381 106 40 182
12.944923677927399 2.948453181864077 1.7453126018872829 106 40 182
15.166843051977406 -2.584120174743773 0.9556582416117183 106 40 182
12.120032981533303 -3.093582747230559 1.256025064227924 106 40 182
11.814965890184753 -2.9233359038180606 1.507075514162609 106 40 182
13.57231922483896 -2.4585499757613056 1.5153352316201254 106 40 182
13.468051024623975 -2.6921206470138372 1.8916609183781619 106 40 182
11.702502108974016 1.0011305042647543 0.5856446130196412 106 40 182
11.044353230167593 0.6008117091845635 0.7926943510629944 106 40 182
9.007898267871385 1.3963418032771586 1.2602818962773128 106 40 182
9.255779635354946 1.5130009636646737 1.1533732567360708 106 40 182
16.72892162162586 1.4747154792797625 1.9535367522948353 106 40 182
21.638032431942698 1.9101171458996915 2.0123884915488564 106 40 182
21.254731194270548 2.003083416890798 1.8691443613240746 106 40 182
21.83861700716138 1.9992056899444635 2.1661786760614694 106 40 182
22.05785978154455 2.0744074527822884 2.215030611652551 106 40 182
8.494430971946125 1.5130009636646737 1.4821103403412212 106 40 182
15.007392387737038 -0.3285652642618797 0.5553084122051256 106 40 182
10.055877691670245 -1.7276925218859607 1.2935526926185266 106 40 182
10.709040745253494 -2.0119831995850204 1.4064243994789491 106 40 182
10.835558606007343 -1.6383825556917828 0.7735218141392289 106 40 182
11.656284936353066 -1.376187575044429 0.7214185744194501 106 40 182
11.054473290182942 -2.094064498867024 1.5026852684794818 106 40 182
12.793772848030489 -2.409187622874693 1.5901546206814121 106 40 182
11.923849258211703 3.0165523705177124 1.3378684746113554 106 40 182
22.36410919869096 2.2515761262773344 2.0467862680018105 106 40 182
12.053933424168688 -2.732829079839415 1.2542390869451645 106 40 182
14.132043384185932 -2.8156247030023054 0.9029116500674444 106 40 182
12.933625476029608 3.1058863945050215 1.8246141650611927 106 40 182
11.427536799182866 0.488307357397093 0.6983564633921552 106 40 182
9.490612412648797 1.6248631105099682 1.4914400064816207 106 40 182
16.680876238789846 1.4206163217897532 1.6456614814154746 106 40 182
14.660472202706988 -0.546274028102621 0.6407708836854553 106 40 182
10.026259195492642 -1.315944313169535 1.3951180267574044 106 40 182
2.3567739122496025 2.85406118235849 0.7324512066899145 106 40 182
10.9284882783997 -1.7682742436649324 0.782191289919306 106 40 182
14.72179838457549 -2.4585499757613056 1.1693643296029597 106 40 182
12.003304539381455 -2.9233359038180606 1.7591608658764433 106 40 182
13.140448244294245 -2.842208910903609 1.9816050821025157 106 40 182
9.733445633250755 1.248268832239487 0.9385132257153488 106 40 182
11.905847618774342 0.4990922788920752 0.44382687839746515 106 40 182
9.498038662877569 1.1326807231982579 1.046792603871006 106 40 182
22.32150306362911 2.003083416890798 1.9979625696999168 106 40 182
17.341136272627296 1.3617735906544906 1.8182608088272199 106 40 182
11.001514244003975 -1.745683483131944 0.9099749876793677 106 40 182
15.873291100691961 -0.6118590551868598 0.522883103021649 106 40 182
11.425614744219489 -1.315944313169535 1.043196659896611 106 40 182
15.530592407651671 -0.2921546611459901 0.6074404442441116 106 40 182
15.209470260217532 -0.4430047578688652 0.5763671849944603 106 40 182
9.595114654967348 -1.5196807272547828 1.4923060805772546 106 40 182
12.053933424168688 -2.732829079839415 1.2542390869451645 106 40 182
22.35785062067475 2.069911585772894 2.046930582875487 106 40 182
11.243724034171697 0.8815396793197037 0.6786499588283401 106 40 182
11.677796698251445 -1.0002593419667636 1.0557345316183384 106 40 182
12.082559019411065 -2.9949001408757385 1.0745965811037441 106 40 182
11.792323582856117 2.9128757494700155 1.1559998391404607 106 40 182
11.182836912336786 -1.8563797382422604 0.922519553438616 106 40 182
