8.7768291666977 -0.29650953437403665 1.6371316738805217 79 126 153
9.333659654558337 0.40354118569186354 2.7374631574671064 79 126 153
8.6583870370758 0.9666276629075611 2.637593271144948 79 126 153
8.074831020936402 0.5453492198041816 2.790334794562957 79 126 153
8.871547815352365 0.31819543990209137 2.59561163129386 79 126 153
9.405056775574858 0.26194995473402755 2.508394882525135 79 126 153
8.650781083922006 0.6261521812292112 2.6391897995284075 79 126 153
9.609239199091116 0.42629507430000596 2.4799924914237668 79 126 153
9.482860121203018 0.3656875122848755 2.3379262822454283 79 126 153
8.218119653124285 -0.07562225966460945 2.0217679498974817 79 126 153
8.004245592593449 -0.23980003928703503 2.1802500331251964 79 126 153
7.702464356425475 -0.20828791708661845 1.7776290575945517 79 126 153
8.764814636175748 0.10049587557827905 2.61599728098187 79 126 153
8.915384747831363 0.18364393028608875 2.86716995343017 79 126 153
9.039873623825649 -0.5807485389848868 2.821880751313206 79 126 153
8.764814636175748 0.10049587557827905 2.61599728098187 79 126 153
8.317984026268302 -0.164066497655524 2.717696576444775 79 126 153
8.63969696415033 -0.28224906459939036 2.4368952888499615 79 126 153
9.352542298564702 -0.4326388434758368 2.7327680115133592 79 126 153
9.120023054018693 -0.5291839494529316 2.552300347620752 79 126 153
9.26482218400202 -0.8225587690657729 2.7552052923460373 79 126 153
9.449467470300627 -0.6828425677124877 2.5020197228876397 79 126 153
9.26482218400202 -0.8225587690657729 2.7552052923460373 79 126 153
4.729391206218668 1.4864774965210492 1.9118273612412173 79 126 153
4.764672322343056 1.9214860099901865 1.6932061265982585 79 126 153
8.08297895200379 1.0577239810010775 2.787594259661061 79 126 153
10.020454093549182 2.157996544692672 2.8446066444870035 79 126 153
10.038744089559241 2.6394389063346653 2.838710080002895 79 126 153
8.710051986757618 1.3160018926985109 2.969765063705124 79 126 153
8.809979450811651 0.8087651113054118 2.913495442574316 79 126 153
9.060143364730644 -1.0775985069215683 2.8151906769709623 79 126 153
9.727830817730073 -1.9519168879408741 2.96809513855394 79 126 153
9.101318632723666 -2.136496172271303 2.8020794538407845 79 126 153
8.42138315978496 -2.36889316245078 2.6912589029670393 79 126 153
8.70924611298809 -0.3859232230339847 2.970299084876924 79 126 153
9.618371871161026 -2.411760066983152 3.054345335539182 79 126 153
8.622615799929372 -2.411760066983152 3.044239567610503 79 126 153
8.531590801371705 -1.999051379002133 2.665237510814246 79 126 153
9.298014865776821 -1.4657096118695665 2.746523159534763 79 126 153
9.391688493338672 -1.2020093880966836 2.7232513339691637 79 126 153
9.060143364730644 -1.0775985069215683 2.8151906769709623 79 126 153
8.976899975273549 -1.810225059551266 2.8437970122497376 79 126 153
8.77709002405393 -2.206251744832367 2.6135910042243182 79 126 153
7.92929600100772 -2.206251744832367 2.550010613244219 79 126 153
9.944546136556353 2.9750528310668862 2.870660382725161 79 126 153
8.872225531845192 -2.3768692803963427 2.8850156876876096 79 126 153
8.73028352983637 -1.3344918317541785 2.956888639594103 79 126 153
8.615792956353719 2.526636442679386 3.0527161182518006 79 126 153
8.601315049366441 0.8658385797855089 3.074195277833862 79 126 153
9.210328705769236 2.6559006227627613 2.5377910668029995 79 126 153
10.049563626698763 2.6559006227627613 2.5943187411401007 79 126 153
10.049563626698763 2.6559006227627613 2.5943187411401007 79 126 153
10.361496597586704 2.8907603473888765 2.5467526764376895 79 126 153
10.3453202262645 2.7631478761150285 2.754989899019305 79 126 153
6.215487117164976 -2.3653578584859845 2.184951305459451 79 126 153
7.139134489662405 -2.5774625057142697 1.940821252814251 79 126 153
6.847010135229868 -2.4857072962869853 2.1213004705716143 79 126 153
8.422216577560324 -2.9886276064906507 2.691054268947427 79 126 153
9.33259376047634 -2.9886276064906507 2.737730297611658 79 126 153
9.326290330653697 3.02046792362318 2.739314777777216 79 126 153
9.44536506782661 -2.7354445523886035 2.7106472828270194 79 126 153
8.54700807568176 -2.7354445523886035 2.6617534001093532 79 126 153
9.468860445006241 -0.9334640266159437 2.4992715581077984 79 126 153
9.622077043165552 -0.6207659614137564 2.189650359425254 79 126 153
9.25274871995836 -1.0250918648786758 2.362189517372017 79 126 153
9.662509569795743 -0.9039676861976159 2.3201523948219993 79 126 153
9.619688527821513 -0.7170827517059569 2.0672299059337274 79 126 153
9.553426618458428 -0.49846529431271935 1.63173229632405 79 126 153
9.869653004979812 -0.8059278242889244 2.4468084253506586 79 126 153
8.934017422787752 -1.223326049589347 2.2456448766883566 79 126 153
9.823056964101761 -0.7995798988770403 1.9440323813106344 79 126 153
9.11891209055837 -0.9824952937725205 2.0972251339842733 79 126 153
8.683537608810614 -1.0955124851049303 2.1266170001042433 79 126 153
19.26303383917426 -1.443497130926538 1.8109520342078205 79 126 153
7.647652556592914 -1.8136115905212093 2.058220034317927 79 126 153
8.009471172837731 -1.513627834013335 2.179794643586641 79 126 153
7.666930061437341 -2.0119230612568813 2.2113056306933645 79 126 153
7.521454852347974 -1.951448702112462 1.9211780321060679 79 126 153
7.731657052579732 -1.521177646343547 1.776836847412468 79 126 153
7.844058457865364 -1.3908099624530015 1.7738428210940511 79 126 153
7.902332276557858 -1.6826952505881325 2.3551202900369868 79 126 153
7.902332276557858 -1.6826952505881325 2.3551202900369868 79 126 153
8.953091840453625 -1.2777858698182833 2.580801331455884 79 126 153
6.8373894923487475 -2.2425323710867704 2.1221643541477215 79 126 153
7.410362291334417 -2.2425323710867704 2.237367325839197 79 126 153
9.589293251726806 -0.9822438162558144 2.6790801856080453 79 126 153
9.213012187402283 -0.5848056269072859 2.3665643309519533 79 126 153
9.190579506112563 -0.5091263297244786 2.2235016896025113 79 126 153
8.874794566568045 -0.4442841314899134 2.406288834366188 79 126 153
8.85150476990997 -0.3816769605266381 2.2531264892439715 79 126 153
8.891411897971839 -0.3422487535728627 2.5919457313216556 79 126 153
8.92197848956729 -0.23104989870152995 2.8645569332956615 79 126 153
8.771521565438796 -0.1270290338931493 2.614680490639118 79 126 153
9.020336481275342 0.5453492198041816 2.828488873458379 79 126 153
9.304445599724028 0.08189317306106046 2.5232777602451466 79 126 153
9.304445599724028 0.08189317306106046 2.5232777602451466 79 126 153
8.693874273612446 0.059748543974882294 2.1258786558752085 79 126 153
9.087724999891117 0.5089188614492833 2.5576378581344765 79 126 153
4.747475973667688 1.9214860099901865 1.4825903645841376 79 126 153
4.677223377732612 1.4864774965210492 1.2627297122318752 79 126 153
8.930139452751174 1.4182278020841301 2.8613609798875452 79 126 153
8.710051986757618 1.3160018926985109 2.969765063705124 79 126 153
8.963005382000475 -1.4251394857814927 2.848890128645085 79 126 153
9.101318632723666 -2.136496172271303 2.8020794538407845 79 126 153
8.73028352983637 -1.3344918317541785 2.956888639594103 79 126 153
8.74454791282139 -1.9519168879408741 2.9483525948325253 79 126 153
8.991553737246148 -2.9318162134198764 2.8385322520956158 79 126 153
8.752072378670574 -2.81030964738823 2.9440072903598393 79 126 153
9.108548379199753 -2.6056599742474784 2.799839228929813 79 126 153
9.298014865776821 -1.4657096118695665 2.746523159534763 79 126 153
9.630392587987785 2.5488738809883262 2.670592708538445 79 126 153
7.14235258957439 -2.7146475673364896 2.0961113986171505 79 126 153
10.253939026071622 3.02046792362318 2.777506011743369 79 126 153
7.937593325023429 -2.5268850646916428 2.548456525724826 79 126 153
7.687072346674204 -2.6362197854764444 2.3834677389376244 79 126 153
9.758532626370698 3.0464799756863292 2.645425513562032 79 126 153
9.905834920149541 -0.6458643884725224 1.9407621475070163 79 126 153
8.079603047310703 -1.2663166347074937 1.767844364060716 79 126 153
9.536836439792157 -0.8021734703968029 2.1960303924203752 79 126 153
10.499675253630054 -0.7268639509263105 1.918918401932275 79 126 153
8.025016894487848 -1.665745844117124 2.178444249433298 79 126 153
7.521454852347974 -1.951448702112462 1.9211780321060679 79 126 153
8.118026901915384 -1.364093782322701 2.1704984988041787 79 126 153
7.747760222606444 -1.6532455503685881 1.7764024618174317 79 126 153
7.384615689301295 -1.855139944027964 2.2401130973891576 79 126 153
7.669926715378988 -2.0931776659888426 2.385831513667674 79 126 153
8.015207232077287 -1.4886429771166874 2.534241253278747 79 126 153
7.541054968405836 -2.148613017046928 2.0657281104602725 79 126 153
8.311755593750307 0.7990639915446529 2.719360244439484 79 126 153
8.619252794357324 0.26194995473402755 2.439689226031425 79 126 153
8.423397671271378 0.40354118569186354 2.690764485470203 79 126 153
9.570144325603414 -0.6486541488009596 2.6831096668576793 79 126 153
8.491990741802795 -0.08742760481296258 2.2880270496025665 79 126 153
9.232270441964282 0.1299726768285336 2.763966241013938 79 126 153
4.910995163219131 1.2704789994658598 1.8987336410818452 79 126 153
4.910995163219131 1.2704789994658598 1.8987336410818452 79 126 153
8.710051986757618 1.3160018926985109 2.969765063705124 79 126 153
8.724349448544405 1.9797725529190753 2.960565364137786 79 126 153
8.608149368179836 -0.9792984922443514 3.0633105824618987 79 126 153
9.108548379199753 -2.6056599742474784 2.799839228929813 79 126 153
8.70249118874365 0.31041201995446105 2.974845883137272 79 126 153
8.976899975273549 -1.810225059551266 2.8437970122497376 79 126 153
9.728552316444679 2.876423403457606 2.9676724872084566 79 126 153
8.963005382000475 -1.4251394857814927 2.848890128645085 79 126 153
9.715010279463536 -1.3344918317541785 2.975794078240423 79 126 153
10.93663016793096 2.9273799472224837 2.472980815662939 79 126 153
9.630392587987785 2.5488738809883262 2.670592708538445 79 126 153
9.160162979734615 -1.090450962100027 2.545777440386807 79 126 153
11.224701009086816 -0.6643550903792182 1.8955746071308393 79 126 153
9.11891209055837 -0.9824952937725205 2.0972251339842733 79 126 153
8.009471172837731 -1.513627834013335 2.179794643586641 79 126 153
9.570144325603414 -0.6486541488009596 2.6831096668576793 79 126 153
8.516263773857121 -0.1035850199953965 2.45411501576021 79 126 153
8.801467770715464 0.19297459932755803 2.1183156662777964 79 126 153
8.516263773857121 -0.1035850199953965 2.45411501576021 79 126 153
7.5471470464768196 -2.3653578584859845 2.403255868992007 79 126 153
4.522481028263713 1.710525326020914 1.6997971676159587 79 126 153
7.83914304659467 0.8087651113054118 2.884645886051808 79 126 153
8.99709785623976 2.8394970568500018 2.573061168726455 79 126 153
9.638739026814392 -0.8842391021734632 2.0661596104836506 79 126 153
9.905834920149541 -0.6458643884725224 1.9407621475070163 79 126 153
8.3332802437493 -1.2663166347074937 1.885796280160753 79 126 153
8.169582752487274 -1.9131369315684166 2.5075605306781004 79 126 153
8.829982039791215 -0.8478358062953185 2.9039337474487215 79 126 153
9.643506029015603 -0.7033855935069425 2.3219874021005564 79 126 153
8.953091840453625 -1.2777858698182833 2.580801331455884 79 126 153
8.398736447451695 -1.7445443037580568 2.6968687868154113 79 126 153
9.854508818480204 2.8394970568500018 2.627722779716011 79 126 153
9.426668359776286 2.7631478761150285 2.7149816293716085 79 126 153
9.824821382975053 2.4159574578267846 2.9187051247771487 79 126 153
8.85150476990997 -0.3816769605266381 2.2531264892439715 79 126 153
