9.32951528145589 0.46981477025516677 2.5588489828872167 59 26 213
9.545853548611825 0.19867776285676578 2.362107782506823 59 26 213
9.998530443505 0.28160482698724826 2.6447724069800076 59 26 213
9.998530443505 0.28160482698724826 2.6447724069800076 59 26 213
9.915739957211267 0.07073421104875706 2.6603978566486393 59 26 213
9.915739957211267 0.07073421104875706 2.6603978566486393 59 26 213
9.586357669624082 0.05808468475407965 2.5193706027911693 59 26 213
11.040057636659204 -0.5826511775010799 2.4917307931704915 59 26 213
9.604662473991487 -0.12054124450594787 2.516718445259344 59 26 213
10.837860817139218 -0.5095635835888616 2.3728019478358586 59 26 213
10.332311036404292 -0.24943296359820988 2.424804669889026 59 26 213
9.824890403913127 -0.3863220156145379 2.333771313932909 59 26 213
11.11397668823033 -0.2563244349346337 2.899446833878609 59 26 213
11.09816155753679 0.12516355306177343 2.9052853780140575 59 26 213
12.615617670490185 -0.9591652160418281 2.777745960464726 59 26 213
11.948810856475959 2.3917646882407504 2.9782350662357686 59 26 213
12.10860267080706 2.6412229673051044 2.911590616163296 59 26 213
13.161541204118917 -1.037961517059235 2.9033342039792878 59 26 213
12.886276591628587 -2.6980572741484594 3.0191077629306196 59 26 213
12.911973387287413 -1.238681993632626 3.003881951106685 59 26 213
13.079386247961262 -1.358074532884235 2.930747022691674 59 26 213
12.977188149414136 -2.2745247374165234 2.971417353118737 59 26 213
12.329777374990805 -2.306496657438184 2.8445288040361834 59 26 213
12.81452092902098 -2.1291949061218545 3.0793846600663084 59 26 213
12.329777374990805 -2.306496657438184 2.8445288040361834 59 26 213
13.124465323240138 -2.536379306884654 2.9152586427003873 59 26 213
12.977188149414136 -2.2745247374165234 2.971417353118737 59 26 213
11.92223087264212 -1.238681993632626 2.992367421075231 59 26 213
11.486994927181753 -1.9399546390871532 2.791380547389114 59 26 213
12.356631518132223 -1.6851295123995567 2.837509895174224 59 26 213
12.80080695780453 2.4863849516524983 3.0999956853014705 59 26 213
11.879619890938327 2.9173445304153183 3.018499476619574 59 26 213
13.143770392647404 -2.059320605170452 2.9089664013622687 59 26 213
12.347568035654392 2.7723412122870545 2.8398577298854124 59 26 213
12.347568035654392 2.7723412122870545 2.8398577298854124 59 26 213
9.434505412892715 -2.5458521447117546 2.374123756270459 59 26 213
12.560525059006524 3.0911292149545906 2.604147336050937 59 26 213
12.294918142622734 -2.9466635784841024 2.853935309157195 59 26 213
12.609884610472525 -2.9899767750937962 2.778941764204557 59 26 213
12.094374720159472 -3.017622142452413 2.672830689019854 59 26 213
12.390169490492594 -2.6862550047400027 2.8289996632190846 59 26 213
12.28062393628491 3.04709190875105 2.8578959579472474 59 26 213
12.980835095467864 3.081842621849927 2.7098587207527114 59 26 213
11.852179116751271 -0.8528337675933291 1.8084030808325184 59 26 213
10.3945334894398 -1.3104120740747474 1.8425121595818659 59 26 213
10.477193043791612 -0.7221813075227658 1.8403147731713942 59 26 213
12.038506107648345 -1.0669180849354285 2.682079455791433 59 26 213
12.206928110237747 -0.8920506851358455 2.5014018162868306 59 26 213
11.135797258660888 -0.7940825617959899 2.3455245476412756 59 26 213
12.291519497126803 -0.9176233598267302 2.6420868160078093 59 26 213
10.660895493187217 -0.6976286896991449 2.390117990349283 59 26 213
11.793780605455089 -1.0478430593455041 1.8979333987642397 59 26 213
10.567006284570665 -1.2467770870413684 2.268606034021641 59 26 213
10.648652428051266 -1.0330129947518438 2.1456426038687755 59 26 213
11.528130609280526 -0.9220650675132012 1.9057632568599425 59 26 213
11.894421512543941 -0.9220650675132012 1.9852472690513578 59 26 213
11.949096785297824 -0.9696892847719867 2.397345618961663 59 26 213
11.801770947323547 -0.7918052910977483 1.9887036280705719 59 26 213
11.677211501695906 -0.8747445016271129 2.3010901190681565 59 26 213
10.078633822597189 -1.6143925396376675 1.851255415782481 59 26 213
10.840041608327164 -1.5167155047412433 1.7366597522327298 59 26 213
10.2564201885975 -1.6257316767986398 2.294278268017087 59 26 213
10.34593315466075 -1.7539919576223286 2.2866619611879226 59 26 213
10.526640154228264 -1.7332688419448545 2.1531698693727934 59 26 213
11.052494062742918 -1.4844415287219506 2.4902516602886298 59 26 213
11.045442624114509 -1.6339404595731464 2.4910895650259235 59 26 213
10.540905582559992 -1.9188503217426331 2.402381802351001 59 26 213
10.669896110774173 -1.8160840885203784 1.9339029606649483 59 26 213
10.264013704659218 -1.4956465670866042 2.293625013040588 59 26 213
9.9189972984942 -1.6194101611521952 2.074742496766972 59 26 213
11.766824659643781 -1.6608262497520991 2.731194992973431 59 26 213
11.425481484621423 -1.2996297556602714 2.599892587645895 59 26 213
12.780816673161468 -1.245323263698173 2.7451888021233017 59 26 213
11.405005936970898 -1.816301901927879 2.6028835458873307 59 26 213
10.484228186874304 -1.9465072013753728 2.0452486776105454 59 26 213
9.207698544251123 -2.429982315264181 2.2507959461660993 59 26 213
9.235194778428115 -2.2326841593684854 2.2483906321904374 59 26 213
9.881301051220214 -2.155854083697922 2.1968214419498757 59 26 213
9.892840359014361 -2.2326841593684854 2.3272244837073934 59 26 213
11.375905593150724 -2.202610365972608 2.6071790181562813 59 26 213
9.858786823503227 0.39482570838001857 2.4818191510570857 59 26 213
12.615617670490185 -0.9591652160418281 2.777745960464726 59 26 213
9.586357669624082 0.05808468475407965 2.5193706027911693 59 26 213
9.58200338057415 0.3545099486587926 2.7320849009262367 59 26 213
10.506867114357732 0.3545099486587926 2.7699889860615516 59 26 213
9.459101851702666 0.04926998181418225 2.371432258749772 59 26 213
3.4428450272568836 1.6970891757664823 1.8022411838214678 59 26 213
12.10860267080706 2.6412229673051044 2.911590616163296 59 26 213
12.10860267080706 2.6412229673051044 2.911590616163296 59 26 213
11.948810856475959 2.3917646882407504 2.9782350662357686 59 26 213
12.449818752239823 -1.1652990222375694 2.8144997329094177 59 26 213
10.90932480554253 0.20273635106955468 2.993387706593737 59 26 213
13.124465323240138 -2.536379306884654 2.9152586427003873 59 26 213
12.905937955439601 -1.8175591529389192 3.007298446083384 59 26 213
13.124465323240138 -2.536379306884654 2.9152586427003873 59 26 213
12.17288923638086 -2.059320605170452 2.890026969137715 59 26 213
12.054909140186645 -2.8695570215052513 2.931457427369948 59 26 213
13.034581011739235 -2.8695570215052513 2.94746109158057 59 26 213
9.434505412892715 -2.5458521447117546 2.374123756270459 59 26 213
8.814484363515831 -2.621756731133266 2.145270615704992 59 26 213
12.564536914366295 -2.478001992186538 2.7885762877325773 59 26 213
11.015803581573143 -0.6613289540000843 1.7339893839200755 59 26 213
10.52039778642946 -0.5845270784679346 1.3591258384928762 59 26 213
11.016086199409752 -0.7927721125493562 2.1241823078247606 59 26 213
10.648652428051266 -1.0330129947518438 2.1456426038687755 59 26 213
12.038506107648345 -1.0669180849354285 2.682079455791433 59 26 213
11.868162100517107 -1.0083251540601512 2.5407749420993047 59 26 213
11.371958532887211 -0.9994008236244015 2.0055512374546107 59 26 213
10.440443825982024 -0.7118977122811745 2.158616789114606 59 26 213
11.371958532887211 -0.9994008236244015 2.0055512374546107 59 26 213
11.128610897962231 -1.7806853917302554 2.4813314878336987 59 26 213
10.34593315466075 -1.7539919576223286 2.2866619611879226 59 26 213
10.669896110774173 -1.8160840885203784 1.9339029606649483 59 26 213
9.597847890168993 -1.3908846608955996 1.9767035877489079 59 26 213
12.696198351813834 -1.4478197077787707 2.7614277942740095 59 26 213
11.330745999759465 -1.469323046293247 2.613951797571036 59 26 213
11.572309111753782 -1.9741494725642856 2.5791629959018016 59 26 213
10.205254557263498 -1.9901832165462214 2.174054682631444 59 26 213
8.801531383263223 -2.5122838894997077 2.015927914159364 59 26 213
9.671968026240608 0.23311228603431827 2.5071342636249216 59 26 213
12.857279317660717 -0.7988711291554108 2.7312133676920776 59 26 213
11.11397668823033 -0.2563244349346337 2.899446833878609 59 26 213
12.595947841273876 3.068374711321752 2.781869123818863 59 26 213
13.084519689862896 -2.841862786359362 2.692967940475472 59 26 213
13.07342810356168 -1.7272591895992264 2.932887106344135 59 26 213
12.192075257899392 -1.037961517059235 2.883975286817441 59 26 213
12.702774411866553 -2.779384563146905 2.7601343869450754 59 26 213
13.429305921430501 3.0911292149545906 2.6422779157613836 59 26 213
10.90932480554253 0.20273635106955468 2.993387706593737 59 26 213
11.016086199409752 -0.7927721125493562 2.1241823078247606 59 26 213
11.605923030926443 -1.1444502578259588 2.5745848223643475 59 26 213
12.291519497126803 -0.9176233598267302 2.6420868160078093 59 26 213
10.546613067121779 -0.6179441058185449 2.270228583676077 59 26 213
10.707676250814133 -1.8430468994233762 2.142075705420228 59 26 213
10.368500353175193 -1.368047154662764 2.2847704276093386 59 26 213
10.11807296290381 -2.0444912955097907 2.306420561289882 59 26 213
9.914789096239478 -1.8764620973805584 2.1943814480610575 59 26 213
9.484875427672181 -1.5042815404558554 1.9818282053162517 59 26 213
10.484228186874304 -1.9465072013753728 2.0452486776105454 59 26 213
12.994359070191573 -3.017622142452413 2.7076052562250723 59 26 213
12.10860267080706 2.6412229673051044 2.911590616163296 59 26 213
12.291519497126803 -0.9176233598267302 2.6420868160078093 59 26 213
10.258556247790441 -1.1346031853160017 2.170479511574969 59 26 213
10.315869953863434 -0.5845270784679346 1.6474265413386016 59 26 213
10.488207914561746 -1.7167276584224338 1.9404932340973082 59 26 213
11.323867831562822 -1.645028133850231 2.6149950345118578 59 26 213
12.0403299999965 3.0084688336760457 2.937212317620932 59 26 213
12.362935117489718 -1.414845837899414 2.8358893055137195 59 26 213
11.653121050291096 -2.153442000363169 2.754232203152367 59 26 213
9.235194778428115 -2.2326841593684854 2.2483906321904374 59 26 213
10.540905582559992 -1.9188503217426331 2.402381802351001 59 26 213
12.905937955439601 -1.8175591529389192 3.007298446083384 59 26 213
11.879619890938327 2.9173445304153183 3.018499476619574 59 26 213
12.515189653373886 -0.7910626057041356 1.7955926755900287 59 26 213
11.901235564779634 -2.3204862877162307 2.7059669685585144 59 26 213
