9.621264328018588 0.7545327661190745 0.5081762102935751 11 44 75
8.413723311651355 0.46379160204171455 1.0197208104421231 74 113 145
8.122405085760803 0.8679421876893496 0.9975248585706937 77 117 151
9.323393127898681 1.5207632463235168 1.078652276044917 87 129 159
13.074207103984367 1.7002479745982089 1.227112326809149 3 23 39
13.074207103984367 1.7002479745982089 1.227112326809149 3 23 39
9.895936545050935 1.4920321598595043 0.555977841824015 26 45 74
9.895936545050935 1.4920321598595043 0.555977841824015 26 45 74
9.504640861052607 1.2471777110527362 0.4856900958086403 0 30 59
9.106313420556704 1.1562816254369574 0.3948967524327175 64 96 124
9.94555016301419 1.4433359270358082 0.3310700192828353 61 92 120
10.399476592949627 1.2471777110527362 0.44078632879669066 13 42 72
9.408310492298547 1.4734152261778874 0.46592191923452925 15 43 73
9.417771219423363 1.7099217491056067 0.46791571841716184 3 33 64
9.671189088118274 1.5046820170986803 0.6986306909056509 65 95 123
9.368160318341596 1.1371404492780202 0.6591841006687378 103 137 167
8.59468571135541 1.787822570134752 1.0326103150369792 69 108 138
8.928660754470496 1.5046820170986803 0.7707274282513585 79 111 139
9.239305494711898 1.2002889074336125 0.8047610357926512 38 79 112
8.576354150505747 1.2002889074336125 0.8888895337972429 66 102 136
9.335709586604722 0.5742106579089994 0.45021048146778514 63 92 120
9.335709586604722 0.5742106579089994 0.45021048146778514 63 92 120
9.250680372152045 0.21940753205256772 0.64261534314437 99 127 156
9.568913798302267 0.2670203310745424 0.49826520593443446 135 163 191
9.073531061117492 0.06050365815954721 0.3861360288459812 133 158 187
9.49478053959963 0.04680990469907606 0.48371905613784366 146 169 198
8.746832245960135 0.08549475117764063 0.28030305561824054 139 164 193
8.827249182114873 0.4640304551396016 0.31038151675831277 128 154 180
9.7633296492 1.0018997193068633 0.2715910167237137 87 117 143
8.804072371876067 1.0018997193068633 0.3020662322639862 93 121 147
9.586936531278806 0.7074994871776514 0.19488368154679142 125 152 179
8.418033688622074 0.46589160492761567 0.054668086211619504 134 162 190
8.559902392941897 -0.5122365981253039 0.1902489072138494 147 173 203
8.780308682204078 -0.3179098485194169 0.2932558748687174 150 177 207
8.604463005581279 -1.3455383805736834 0.2154894372644387 160 185 215
8.559902392941897 -0.5122365981253039 0.1902489072138494 147 173 203
8.559902392941897 -0.5122365981253039 0.1902489072138494 147 173 203
8.556839838783027 3.0122868034610972 0.1883813453931271 130 160 188
8.556839838783027 3.0122868034610972 0.1883813453931271 130 160 188
8.591056642951708 -2.678526186627438 0.2082401040370694 145 172 204
7.615467072523413 -2.678526186627438 0.235390605114117 145 171 203
8.591056642951708 -2.678526186627438 0.2082401040370694 145 172 204
8.614806558264723 -1.8881559372104102 0.22090772501237074 160 185 215
8.830875532149049 -2.8442440083244773 0.311659242540268 137 166 197
8.047371830008398 -2.5357997372750583 0.40212071337165284 152 181 212
12.818982760995727 -1.2128859757421255 1.382029164743357 18 21 27
12.380470696830194 -1.7316525553848436 0.9295977347161224 16 20 26
12.380470696830194 -1.7316525553848436 0.9295977347161224 16 20 26
12.175424833304946 -1.7169712262412609 1.1107779076521889 7 9 15
11.94186596741257 -1.8062225720725051 1.1929617401338586 5 7 11
11.809535941998517 -1.7316525553848436 0.99750859098413 11 16 22
8.317335098747426 2.8172676095424576 0.4726516894601771 105 138 167
8.23193837201641 3.084084728968211 0.4519419394370181 138 170 200
8.267499959268006 -2.9240376765042537 0.4607231739637569 143 173 206
7.66683777181435 2.5903463756914276 0.5817981961439094 66 102 134
12.283427714981558 -1.2892533485323192 1.5377818108980894 19 19 27
12.632198559924587 -1.0348220390366358 1.459305546972575 20 24 31
10.817544082154354 -1.5327408101835351 1.6257849610787845 26 25 30
10.925908512025938 -1.7169712262412609 1.6252390352244728 23 24 26
11.106957312638833 -1.8062225720725051 1.5342833692039566 8 10 13
10.900421983147691 -1.6253177833683765 1.4415002906840695 13 13 15
19.265244936466676 2.5183089811851818 1.6536589354641327 8 29 45
9.621264328018588 0.7545327661190745 0.5081762102935751 11 44 75
7.985291925906028 0.9529363212659965 1.2648076814852005 79 119 152
7.625717854674211 0.9908328624177107 0.9548752812885605 83 121 154
7.263626583992086 0.6608258994679791 1.233258516635988 69 111 147
8.147521228638142 0.6608258994679791 0.9995137374856897 66 108 142
9.420591860145747 1.4005332966257094 1.084175905768087 71 114 144
12.990642131009967 1.619015839402469 1.2248091921402415 7 27 43
9.161906797826214 1.3061616376014824 0.6295580040507087 107 142 174
10.177098960895803 1.1371404492780202 0.5989663108298942 106 139 167
10.399476592949627 1.2471777110527362 0.44078632879669066 13 42 72
9.03010932638789 1.3472662934064694 0.7822286215004586 63 102 133
9.027814218557507 1.6523528739433795 0.9288493371794521 76 112 142
9.250680372152045 0.21940753205256772 0.64261534314437 99 127 156
9.151077515858098 0.34001291829808067 0.40647278260711933 128 154 181
8.740308945239006 -2.2958618035273215 0.2776987331167134 155 183 214
9.678782086748104 1.8316611761060455 0.23821611917945187 80 115 141
9.586936531278806 0.7074994871776514 0.19488368154679142 125 152 179
8.42860602974657 2.8042254597759575 0.07413032113372815 133 161 189
8.797591514072954 3.0619535827400606 0.29969307614129415 131 163 191
8.780308682204078 -0.3179098485194169 0.2932558748687174 150 177 207
8.591056642951708 -2.678526186627438 0.2082401040370694 145 172 204
8.047371830008398 -2.5357997372750583 0.40212071337165284 152 181 212
8.525560554055792 0.14541202435117384 0.16805105838666837 137 161 192
8.525560554055792 0.14541202435117384 0.16805105838666837 137 161 192
8.452812395800375 -1.0928739782258272 0.10590064785126505 142 167 196
8.463341291741731 -2.2094595561713457 0.11702251700403035 148 173 204
8.830875532149049 -2.8442440083244773 0.311659242540268 137 166 197
8.463341291741731 -2.2094595561713457 0.11702251700403035 148 173 204
12.651161424200353 -1.7169712262412609 1.0398915163095586 6 9 15
12.818982760995727 -1.2128859757421255 1.382029164743357 18 21 27
12.155268358998287 -1.1060923882540195 1.4549117281397668 21 23 29
11.11546603769113 -1.8062225720725051 1.6243097018716124 9 10 14
10.917252049983878 -1.7169712262412609 1.533648606825544 10 11 14
10.817544082154354 -1.5327408101835351 1.6257849610787845 26 25 30
10.825773339177982 -1.6253177833683765 1.6257431191041247 26 27 29
18.701240832572452 2.561899240847706 1.6561639581197556 25 49 67
9.420591860145747 1.4005332966257094 1.084175905768087 71 114 144
10.225348463559733 0.9261036303058895 0.40318042439490276 32 65 94
7.885019019371877 0.7661570724074969 1.2607877233698161 82 123 158
8.340553134131858 1.0682870413094976 1.014320168687614 51 89 122
9.368160318341596 1.1371404492780202 0.6591841006687378 103 137 167
8.9386291616962 1.6654202027956175 0.7718751669878721 76 115 144
7.9372510810073145 2.70547257873734 0.3681345055860609 122 154 184
9.151077515858098 0.34001291829808067 0.40647278260711933 128 154 181
9.586936531278806 0.7074994871776514 0.19488368154679142 125 152 179
9.073531061117492 0.06050365815954721 0.3861360288459812 133 158 187
8.149429949826642 2.4357702074923315 0.4306162445245742 94 124 157
9.669576736385718 1.3866730460903007 0.23426348661691884 82 116 141
11.94186596741257 -1.8062225720725051 1.1929617401338586 5 7 11
11.428873035082074 -1.7169712262412609 1.2682313058036714 5 7 11
11.809535941998517 -1.7316525553848436 0.99750859098413 11 16 22
8.23193837201641 3.084084728968211 0.4519419394370181 138 170 200
12.632198559924587 -1.0348220390366358 1.459305546972575 20 24 31
11.11546603769113 -1.8062225720725051 1.6243097018716124 9 10 14
10.892249124436391 -1.5327408101835351 1.441402730193174 14 16 19
14.114530032937312 -2.1425896635420227 1.684009704877933 1 1 5
14.595201180251888 -2.2002608844574345 1.5430125422959724 20 22 26
8.783859561113243 1.247955070640732 1.0454182883627798 40 81 114
10.399476592949627 1.2471777110527362 0.44078632879669066 13 42 72
9.335709586604722 0.5742106579089994 0.45021048146778514 63 92 120
8.452812395800375 -1.0928739782258272 0.10590064785126505 142 167 196
8.709688581833033 -0.9041837622548987 0.26508651302360803 166 189 217
9.957132991832724 0.7411788901032215 0.33443786970292444 94 123 150
7.783449424805729 -2.2958618035273215 0.31292732796878364 158 184 216
9.335709586604722 0.5742106579089994 0.45021048146778514 63 92 120
9.9049315255371 1.6834527784558668 0.5574376487591699 62 93 123
8.559902392941897 -0.5122365981253039 0.1902489072138494 147 173 203
8.709688581833033 -0.9041837622548987 0.26508651302360803 166 189 217
9.954500312267596 1.752469871451177 0.3336759461018079 50 84 112
10.581635269909992 1.050368229744838 0.4759730607804362 16 48 78
12.597796950549448 -1.2128859757421255 1.538605953443803 17 19 26
11.672700884535608 -1.6253177833683765 1.183792571987245 5 7 9
10.036725542881378 1.1562816254369574 0.35655684212037564 64 94 122
