11.226599607412979 -0.6823412350695245 1.6534350964864006 135 67 154
10.121162835307851 -1.5029562249588884 1.662485048353679 135 67 154
8.317295729012432 -3.134923622355384 1.5619828645770861 135 67 154
8.370572069144096 3.028507584665889 1.562038961227262 135 67 154
11.470659499134742 -2.5122545103793943 1.1126512613074417 135 67 154
9.69626356633443 -2.154184929659749 1.6665149879689987 135 67 154
10.9066002309446 -2.4380629532816327 1.5640752796318669 135 67 154
10.43368705205537 -0.5819705941034864 2.0625713988020333 135 67 154
10.007646750998708 -0.33835041291863577 1.9740027453019797 135 67 154
9.588072305450591 -0.12095905774017465 1.9927458382566807 135 67 154
9.576495579089578 0.10835104287501288 1.993288581163437 135 67 154
9.726167595574788 0.22030701302658232 1.9863810769350714 135 67 154
10.112598942221542 0.5113632160975097 2.949551903191824 135 67 154
10.630028521934559 0.25103347644565027 2.7757856146146103 135 67 154
10.765062698286018 0.48575303784918183 2.744325036006445 135 67 154
11.364069162248919 0.5612859768421213 2.633175343452606 135 67 154
10.989797241938353 0.674403867259132 2.6981146592674174 135 67 154
9.656865138416707 -0.01505792866784596 2.750226171329704 135 67 154
10.759462363625032 0.32966810899247356 2.5492949151020983 135 67 154
10.227468571920374 1.433490505303917 2.6317388334688157 135 67 154
10.289230504692613 1.831067368669642 2.6211048825049836 135 67 154
10.805430713284121 1.7887887035668124 2.543002020261442 135 67 154
10.006002989155341 -0.9963153195131639 3.015605706931448 135 67 154
9.987675971592422 -1.862381782842674 3.031033468835581 135 67 154
9.569699121927906 2.8641627133411323 2.772925540667976 135 67 154
10.359051375346676 1.6779691134758299 2.8516599224012906 135 67 154
9.976562953006324 1.8943971199668805 3.0415676404456695 135 67 154
9.96781211329755 2.415577447958099 2.680467164241009 135 67 154
10.377284223979945 2.4433296311971198 2.845827646775225 135 67 154
10.138407240866094 1.2329192771822868 2.9368728062573917 135 67 154
9.873039413463024 -0.5090127915325637 2.700179410680085 135 67 154
10.098530840964713 -0.42881305165028777 2.326651664017524 135 67 154
11.934154811396082 -0.8124868272346879 2.190027792915571 135 67 154
10.810993167101431 -1.31003102315846 1.8449318958666328 135 67 154
10.44542983241545 -1.3870157073693845 2.061969293762745 135 67 154
11.792356484392132 -1.0935075176093163 2.0973860460880704 135 67 154
12.575472004440766 -1.1419450256228167 2.3600813232270004 135 67 154
11.712395826591187 -1.282729581540437 2.203588727800418 135 67 154
11.702217918139688 -1.7849172702685694 2.5835152821977148 135 67 154
12.397032353643421 -1.8880712618867328 2.499312036264124 135 67 154
10.666083127195982 -2.586802246986765 2.7670601118385902 135 67 154
10.142218829853643 -1.7237128580434742 2.935070596011392 135 67 154
11.032773275268601 -1.9362084881651058 2.5134276807655915 135 67 154
10.641554644920497 -2.2195525813320587 2.7729683201307576 135 67 154
11.139318688895937 -1.2498967668939753 2.945896214690738 135 67 154
11.37824890829232 -2.000509447704684 2.6309435751736476 135 67 154
10.138437394755819 -1.8212677385461609 1.968506104256756 135 67 154
9.834363283535298 -1.921895538505129 1.7679865126624705 135 67 154
11.77812086207129 -1.9613854604927037 2.309056142700779 135 67 154
12.028166864182982 -1.6101018868599069 2.4070679486202633 135 67 154
8.725912563280051 -2.976033086705334 2.3174773178561026 135 67 154
8.357420384840424 3.0132112681912404 2.059912131797829 135 67 154
8.662021622167394 -3.132812191689955 2.3243249224738847 135 67 154
10.343638326069815 2.5429729691556133 2.612000612173377 135 67 154
9.97168891096153 -2.901794688242004 2.6796852908485342 135 67 154
10.570494822580093 2.790969543978346 2.5764119865607897 135 67 154
9.067358479213395 -2.7895145207277725 1.7849158162162222 135 67 154
11.880146820471095 -2.154184929659749 2.1932717582804426 135 67 154
11.456298488472827 -2.119873323805249 2.334923813577552 135 67 154
11.295455762231963 -2.374374883129249 2.0221302424936582 135 67 154
8.55448829131736 -2.8677267665259674 2.0476901836759285 135 67 154
8.591212885286314 2.911910295948036 1.6788722508217218 135 67 154
9.12435170545654 -1.6057651093512026 1.4528927203191406 135 67 154
10.02182573518179 -2.8246924565026568 1.362412670526766 135 67 154
10.800872836237746 -2.6444339189823736 1.3776404772398434 135 67 154
11.290960452065827 -0.608962866859929 1.9259916416719538 135 67 154
8.994724488999182 -0.15663424253377214 2.290162593028273 135 67 154
10.254449077698277 0.8573082085500947 2.8880825421780862 135 67 154
9.994910347809991 0.9445820478327825 3.02469434000271 135 67 154
10.193620103941948 -3.1176564314132604 2.912243943758729 135 67 154
9.581284060211038 -2.833505874043456 2.769808352021919 135 67 154
10.209539112230189 1.6347771490314853 2.634888359555313 135 67 154
10.080747432955006 -0.011842970893856528 2.6584069578377996 135 67 154
10.610235453850676 2.237442416904525 2.780687070011895 135 67 154
10.947139050676055 -1.1844938893887629 2.037611195838566 135 67 154
10.313784725938033 -1.6057651093512026 2.0688092671040486 135 67 154
9.607338016233044 -1.7151977942344516 1.8803477326529938 135 67 154
12.091693644510995 -2.0718985580704325 2.5338721329234137 135 67 154
11.217440560329099 -1.825602830906897 2.6571490289739086 135 67 154
11.536488007492574 -1.8508426170216978 2.328283532342409 135 67 154
12.903833563710222 -1.0441874313234756 2.33475636800717 135 67 154
10.375825518914885 -1.404941254823801 1.7575713102291861 135 67 154
11.568413695581016 -0.8782361226740483 2.0107249420630837 135 67 154
10.903039060526565 -2.39718087932992 2.715172560257643 135 67 154
10.391127670842613 -1.6741062482905216 2.8414862986051834 135 67 154
10.276062076669243 -0.8846392857962107 2.880087837774222 135 67 154
9.433447843210233 -0.41358561422918017 2.5685878294892426 135 67 154
11.26904899475894 -2.30817874359568 1.8335193216033907 135 67 154
10.217696222737919 -2.731042168320289 1.4655586199403945 135 67 154
10.68819575155758 -2.2358048844827545 1.2791370562153463 135 67 154
10.247966739924687 -2.7141139675096495 2.890535636576325 135 67 154
10.120319998704836 1.7322894963531135 2.9456669331891914 135 67 154
9.625358731422736 -0.008299072969636893 2.3740656130106372 135 67 154
11.919972036734489 -0.9349996444286114 1.9064872892186493 135 67 154
12.249605531719899 -1.7553072768907023 2.5155774163765896 135 67 154
10.799279110898068 2.6358226668074636 2.543837682648542 135 67 154
9.960558055589393 2.926182572832199 2.6819351204082174 135 67 154
9.591292859600225 2.965775632759602 2.5435640835321918 135 67 154
7.880609964550457 -3.134012185350197 1.9512906377994301 135 67 154
11.82869690269393 -2.2358048844827545 2.095600948427874 135 67 154
10.215100424718603 -2.015635046301676 1.7605455370316594 135 67 154
11.869302867124244 -2.2165783619608717 2.3020881414812497 135 67 154
8.970635406774166 -2.772691824895328 2.4530176608498317 135 67 154
10.398641920064168 -2.415891738979488 2.8391598923553776 135 67 154
10.466603280334198 -2.5122545103793943 1.755932544083373 135 67 154
10.126475754975486 -2.697201292083432 2.649869481498422 135 67 154
9.859858344566748 -2.6910653145159333 2.3497214055189515 135 67 154
9.671432118846862 0.14039953022164714 2.3691409084807864 135 67 154
10.104542805078 2.7183574024180697 2.653937571322699 135 67 154
11.146882945626102 0.3935525185537288 2.6693176445739795 135 67 154
10.892700281689706 -2.0627366436483507 2.1461100418358834 135 67 154
10.533482958849294 -0.5780812203185786 2.581976937804369 135 67 154
7.950782659115085 -2.9983283077937326 1.9477628888695322 135 67 154
8.732149600358662 -3.131160842089801 2.4869092338855388 135 67 154
11.623171843932894 -2.1514335388416805 2.594506070766097 135 67 154
10.490128426668276 1.0514911782571796 2.812355758447313 135 67 154
10.124748753816844 0.19901534845224558 2.65018804356674 135 67 154
9.719475798885172 2.6113296689293275 2.73489956982699 135 67 154
10.444675994257969 -0.5454146245669739 2.2958554161170066 135 67 154
10.376722502916461 1.3428033757322346 2.8460053567420784 135 67 154
9.390882198120382 -0.2324386727854037 1.8877285239940578 135 67 154
8.61699859329003 -2.899301349705304 1.6785475825197147 135 67 154
13.453904550422942 -1.4954914969244704 2.400646394457964 135 67 154
10.123562630045148 -0.5600753113566053 2.9440595830121747 135 67 154
12.622202132426052 -2.0102406619516024 2.475832178011843 135 67 154
10.729573961954165 1.624036557713108 2.5534475183960317 135 67 154
