11.028223919127589 0.9605023546397913 1.4602947848674934 115 60 168
11.987547051523174 1.5472810082076138 1.5527635355723894 115 60 168
10.144334282203806 1.5425718910183641 1.74756163831992 115 60 168
10.094724901060813 1.4430858015160997 1.6485233187672745 115 60 168
10.242041965697029 1.3460704792996572 1.5496898649820852 115 60 168
10.0600428098288 1.5425718910183641 1.4496100535958036 115 60 168
11.013827725672337 1.5451407038098401 1.6420255135414457 115 60 168
10.504662149093104 1.7412491347583052 1.8390108436252957 115 60 168
8.695166646427506 0.7562236875372211 2.1533672915222155 115 60 168
10.724851404255931 0.22550623137840636 2.719562035687649 115 60 168
11.11852091335349 -0.003354067956542898 2.6465722586113767 115 60 168
10.439490368239627 0.35903658116719367 2.570674813401644 115 60 168
10.439490368239627 0.35903658116719367 2.570674813401644 115 60 168
10.296523221086437 0.18387397609633105 2.592672086749082 115 60 168
10.798956435678438 -0.0028201384701321565 2.5207651540473073 115 60 168
11.11852091335349 -0.003354067956542898 2.6465722586113767 115 60 168
10.679787869483864 -0.004137387653403738 2.7290600026842617 115 60 168
10.728154558496023 -0.23335302638177388 2.7188768373814907 115 60 168
11.164987173950681 -0.19034998149915414 2.638917367318021 115 60 168
11.133846720356916 -0.962350030166409 1.731707840530464 115 60 168
9.996557342385243 -0.9882815766039496 1.8530076229957817 115 60 168
10.150224201159238 -0.840674293238956 1.9528039808919448 115 60 168
9.877416302125521 -0.8504325827990881 2.1963698929218847 115 60 168
9.511438386032506 -1.022951154560204 2.0978127197732515 115 60 168
10.684573721847277 -0.5190794959946449 2.5358950409651744 115 60 168
10.66129882522273 -0.7597615033879033 2.389268519320449 115 60 168
10.565600245508508 -0.7535874113420793 2.552351082654387 115 60 168
10.815109338023385 -1.040946076392922 1.831130118308191 115 60 168
6.944356905295113 1.7139571093933352 2.3307419701532313 115 60 168
7.027862267427476 1.5001458905029146 2.537446613683724 115 60 168
7.138241128838049 1.2593886039640967 2.5153946934828073 115 60 168
10.046421861049147 -0.007763669929698837 2.9124584975688004 115 60 168
10.787539156251539 -0.06277914411372712 3.11541358683901 115 60 168
10.807745494975164 -3.116930264179252 3.075072826270279 115 60 168
10.319604186870272 -0.0053980654777029185 2.817949616529087 115 60 168
10.50825237544578 0.5433701255781798 2.7681113097752137 115 60 168
9.8101823183697 -3.116930264179252 3.0682970816905044 115 60 168
9.787916810187843 -0.06277914411372712 3.1127392580428768 115 60 168
10.240103984948474 0.7152676894540543 2.8419556345067067 115 60 168
10.514993730919628 -0.5512426045256016 2.766478676725396 115 60 168
9.986613685106136 1.4295738171675565 2.939734509028021 115 60 168
9.916225216928954 0.653864686477152 2.9780084622534924 115 60 168
10.09431329592865 0.40650561112103617 2.8929324697141756 115 60 168
10.097822711058583 -0.4195314279387704 2.8915674071867303 115 60 168
10.046421861049147 -0.007763669929698837 2.9124584975688004 115 60 168
10.907340221381595 -0.6710483401371664 2.990968309380216 115 60 168
10.247021752576444 -0.7240491740678978 2.839778081993163 115 60 168
9.862814426595373 -2.1853237099426472 3.0149615571947326 115 60 168
10.015514949679925 -1.9127509230702335 2.9260883186352027 115 60 168
10.129421314593479 2.284944940670561 2.879630492264845 115 60 168
9.982014198664766 2.622241781502854 2.941998626391682 115 60 168
9.982014198664766 2.622241781502854 2.941998626391682 115 60 168
10.919877486522076 -3.1312823189804084 2.983583277009076 115 60 168
10.13641461976363 -2.27618813845387 2.877069581996107 115 60 168
10.967185400751461 -2.6068381503554607 2.958485207585592 115 60 168
11.814746739729264 -2.929146698675102 2.7207482571345096 115 60 168
11.814746739729264 -2.929146698675102 2.7207482571345096 115 60 168
9.36401087395651 -1.660132149941005 2.1069991227575535 115 60 168
9.453653660732991 -1.1822805419437632 1.9825880281592672 115 60 168
9.36401087395651 -1.660132149941005 2.1069991227575535 115 60 168
9.89642627929864 -1.1822805419437632 2.0753204816322044 115 60 168
8.65288609164493 -1.2083628827166621 2.302891341671494 115 60 168
9.072642754593407 -1.5239989304773522 2.4154257657359723 115 60 168
9.340681881483812 -1.5356612311674525 2.108484032771412 115 60 168
10.370152511640573 -1.143997180762205 2.581171275194144 115 60 168
10.370152511640573 -1.143997180762205 2.581171275194144 115 60 168
10.242539204932077 -1.4776781564303592 2.841187002369108 115 60 168
10.201385699226611 -0.8858728488014663 2.60811558006211 115 60 168
9.663195904765281 -1.5007668961467704 2.7116742516131422 115 60 168
9.85052480280015 -0.7434984086571399 2.671912680965183 115 60 168
10.489846809728878 -0.923376411050291 2.77261468415385 115 60 168
9.265263127573569 -1.514690435321842 2.5682828262844297 115 60 168
10.263818538977898 -1.8044382419185407 2.834565132249879 115 60 168
9.924949965661337 -1.0542844326850016 2.6573470525387557 115 60 168
9.466886048852787 -1.9950601294053558 2.369692348034044 115 60 168
9.724064115408087 -1.8976577825897094 2.085135005047308 115 60 168
10.47482082410788 -2.0672578332113014 2.5654445191988478 115 60 168
10.034263301476585 -2.1656092600281664 2.6370278038248136 115 60 168
9.419013966236905 -1.9007050767881604 2.543474595005127 115 60 168
9.987655149732102 -1.848916760614327 2.464418317056732 115 60 168
9.810712429118693 -1.9749103987200987 2.6799719131393682 115 60 168
10.538337285486513 -1.7406578158724764 1.8381327114930552 115 60 168
9.82127705980066 -1.8635615616816772 1.8581862702537086 115 60 168
10.551313015845858 -2.0528409602395787 1.8377959010172842 115 60 168
10.864009405100289 1.1655916686640315 1.5508983799007094 115 60 168
10.510140912024124 1.2531634823544073 1.5502283381339326 115 60 168
10.165819183203643 1.6426181150144021 1.7471841270029138 115 60 168
10.713742973540345 1.8366510871439237 1.833651269707511 115 60 168
8.126640427977671 0.8608652478904044 2.200198757056731 115 60 168
10.679787869483864 -0.004137387653403738 2.7290600026842617 115 60 168
11.11852091335349 -0.003354067956542898 2.6465722586113767 115 60 168
11.67135711723309 -0.1606141822913407 2.564913752780954 115 60 168
10.296523221086437 0.18387397609633105 2.592672086749082 115 60 168
11.626914709594423 -0.0028201384701321565 2.5708172456759275 115 60 168
11.164987173950681 -0.19034998149915414 2.638917367318021 115 60 168
11.114597408718996 -1.040946076392922 1.9181801077113145 115 60 168
10.228776141205323 -0.6502943184668837 2.43561091671896 115 60 168
9.506183268593768 -1.080285270391297 1.8679977578803608 115 60 168
10.319827724535848 -0.9882815766039496 1.9462101390099185 115 60 168
10.001554805868778 -0.9256072415119467 2.0695255159256853 115 60 168
10.227241918234121 -0.6139229375307622 2.6038502669760795 115 60 168
10.684573721847277 -0.5190794959946449 2.5358950409651744 115 60 168
7.058839117477223 1.7492223832761364 2.531117836238395 115 60 168
7.138241128838049 1.2593886039640967 2.5153946934828073 115 60 168
6.912867074638724 1.5142922864874304 2.3350799975778203 115 60 168
10.097822711058583 -0.4195314279387704 2.8915674071867303 115 60 168
10.071634248436078 -1.0048370921824972 2.901961330670844 115 60 168
10.09431329592865 0.40650561112103617 2.8929324697141756 115 60 168
9.859221360018712 2.202113014407969 3.0178570313255664 115 60 168
9.837066848880994 1.291399091153763 3.037521055652361 115 60 168
9.99370692339766 -1.4320217047393395 2.936295107940123 115 60 168
11.167610185306064 -2.7833388383736017 2.878674536554443 115 60 168
10.129421314593479 2.284944940670561 2.879630492264845 115 60 168
11.452156080295426 -2.874423044201172 2.7982747940554904 115 60 168
11.121154884145236 -3.135075281400371 2.894670603695127 115 60 168
10.919877486522076 -3.1312823189804084 2.983583277009076 115 60 168
10.691447937285856 -1.2542132163299788 1.7384279422767523 115 60 168
9.096659177355829 -1.6895789347957424 2.4124577222051817 115 60 168
8.444453762765123 -1.3609253127120478 2.3253011956135574 115 60 168
10.381827037547975 -2.088385229885983 2.8005333278622695 115 60 168
9.466886048852787 -1.9950601294053558 2.369692348034044 115 60 168
9.724064115408087 -1.8976577825897094 2.085135005047308 115 60 168
10.04956638651952 -2.005022164752115 2.066925283971114 115 60 168
10.260872753361106 -1.9007050767881604 2.598379403074434 115 60 168
9.349264098669938 -1.3206866866872824 2.554513327658987 115 60 168
10.094724901060813 1.4430858015160997 1.6485233187672745 115 60 168
10.490857183610576 1.0392275626834022 1.4546096575566023 115 60 168
8.695166646427506 0.7562236875372211 2.1533672915222155 115 60 168
10.862182393495614 0.4335739174878275 2.692232723982463 115 60 168
9.978028159926232 -0.44036671583536524 2.6473295077350323 115 60 168
10.228776141205323 -0.6502943184668837 2.43561091671896 115 60 168
9.867469475334696 -0.013819826787533126 3.011308450301539 115 60 168
10.3662336110984 0.2908245008139822 2.8047971258974083 115 60 168
10.859771609530489 -0.013819826787533126 3.023271781226942 115 60 168
10.369651000273576 -0.3007034376679113 2.803857160948089 115 60 168
10.046421861049147 -0.007763669929698837 2.9124584975688004 115 60 168
10.064595931236058 0.9967886124578657 2.9048405179591135 115 60 168
9.84066800461036 -1.300652040202844 3.0340743289874803 115 60 168
10.319604186870272 -0.0053980654777029185 2.817949616529087 115 60 168
10.247021752576444 -0.7240491740678978 2.839778081993163 115 60 168
10.240103984948474 0.7152676894540543 2.8419556345067067 115 60 168
9.538007474053538 2.424858754728817 2.222321014508136 115 60 168
10.13641461976363 -2.27618813845387 2.877069581996107 115 60 168
10.963954260523318 2.622241781502854 2.9600835470033715 115 60 168
9.929189645352402 -1.759073551274229 1.9617634504482346 115 60 168
9.68574812445421 -1.7476816426443735 2.7066240071992764 115 60 168
8.968616174108831 -1.0715227590361862 2.271686163291072 115 60 168
10.381827037547975 -2.088385229885983 2.8005333278622695 115 60 168
10.31858748705824 -1.1691249692924361 2.818243483831167 115 60 168
9.74376690286548 -1.2619628296682044 2.6939807262165587 115 60 168
9.493211326209456 -1.781901452901427 2.0989303681684355 115 60 168
10.143660321691694 -1.961877720124154 1.8488053268805118 115 60 168
10.967185400751461 -2.6068381503554607 2.958485207585592 115 60 168
10.008437167312634 1.9183861741296662 2.9293430818534905 115 60 168
10.046421861049147 -0.007763669929698837 2.9124584975688004 115 60 168
9.915954777900112 -1.961877720124154 1.7516772758359864 115 60 168
9.825274342922292 -0.9915817486327149 2.485245385735491 115 60 168
9.810712429118693 -1.9749103987200987 2.6799719131393682 115 60 168
9.924949965661337 -1.0542844326850016 2.6573470525387557 115 60 168
10.0600428098288 1.5425718910183641 1.4496100535958036 115 60 168
10.713742973540345 1.8366510871439237 1.833651269707511 115 60 168
10.675703124122496 -1.1274923815436808 1.9331060934035784 115 60 168
9.15841061079817 -1.3609253127120478 2.4049418211535403 115 60 168
11.11852091335349 -0.003354067956542898 2.6465722586113767 115 60 168
9.288781537945122 -1.7129598294178527 2.564373143845282 115 60 168
9.56395318511528 -0.923376411050291 2.734895144301438 115 60 168
10.202923810221819 -0.8643662161400915 2.4385881081950895 115 60 168
