17.411795887027356 0.6016423293655582 1.7133964494871265 14 90 203
8.080501857956403 1.2933318487329066 1.5057195193944573 14 90 203
9.191790581174022 1.433604192408984 1.292462372811806 14 90 203
6.517175313473491 2.1016189097535256 2.133095144446731 14 90 203
6.20507181664205 1.872549532265029 1.8107226540938206 14 90 203
5.993357609503437 1.7074357886052707 1.8193737287299827 14 90 203
7.2948066278573105 1.3937345572249324 1.9168800776236607 14 90 203
6.959190306485744 1.6874063719041326 1.784295235924803 14 90 203
6.917206727255765 1.539909086866455 1.7856112974306095 14 90 203
7.691764386820633 1.3937345572249324 2.0394877604350574 14 90 203
7.258277156392347 1.2547798947908462 1.7753700976946996 14 90 203
7.07606276693311 1.204341827587616 2.084061345051337 14 90 203
6.76892951096813 1.7074357886052707 2.109826459100897 14 90 203
6.957081826365704 1.872549532265029 2.0937274991357855 14 90 203
6.858172694567369 2.022388517001887 1.939935787495215 14 90 203
7.396474085447661 -1.5419969057208298 1.7714951264602563 14 90 203
8.37841480294491 -1.5454882662372331 1.7477077745776384 14 90 203
6.825267614784766 -1.379611965591316 1.9418016054380596 14 90 203
6.465323193583128 -1.6968324664107348 1.8008867877360895 14 90 203
7.004009914387687 2.2439056244253592 2.0898693941380726 14 90 203
7.803703136472198 1.0390944698302869 2.549317085224085 14 90 203
7.199848395850541 -0.7935469743003981 2.6888654629212514 14 90 203
7.797874142402381 -0.11047415648270184 2.8526046233127618 14 90 203
7.83050671586712 0.32937550846684355 2.8389030574979457 14 90 203
7.199848395850541 -0.7935469743003981 2.6888654629212514 14 90 203
7.695979853102327 2.0159092289806866 2.5704534961357473 14 90 203
7.526322148637021 1.778487549092119 2.6065559052771565 14 90 203
7.294277464356928 1.7356975831594887 2.419648387065488 14 90 203
8.123444943062712 1.3218707555218803 2.4931350262019816 14 90 203
7.3893356088623445 1.3637774729967 2.2212370893018587 14 90 203
7.581580538151576 1.2593766100442245 2.5943835330132874 14 90 203
7.46920775861256 1.9310718573939631 2.393437161924419 14 90 203
7.100887952297201 2.1016189097535256 2.2525233487280607 14 90 203
7.569722083878459 2.3627381007709745 2.5969601914910743 14 90 203
8.440955400408683 2.3627381007709745 2.6583785518252085 14 90 203
8.451591512905129 1.2593766100442245 2.6559855549699325 14 90 203
8.367316171587083 1.5152716333005218 2.67542936791176 14 90 203
7.080644801045438 1.8504875497227329 2.724811289868706 14 90 203
6.5770394618319035 1.7356975831594887 2.319000948973619 14 90 203
6.734363873642855 2.3627381007709745 2.5199497656196503 14 90 203
6.532600345054132 1.526931796443401 2.3253341744329488 14 90 203
7.9688133137130475 1.495184017949098 2.787528169246324 14 90 203
7.9688133137130475 1.495184017949098 2.787528169246324 14 90 203
7.772349099726877 0.9676779408871427 2.8638640116385363 14 90 203
8.656848559773307 1.4524292090445727 2.935989272302678 14 90 203
7.718456591612772 1.994380539794658 2.8895113281929774 14 90 203
7.2657207585114945 2.5803081082246413 2.6705700235984606 14 90 203
7.481443896022553 -0.8652199757886416 3.098559878621417 14 90 203
7.580369943666385 -1.4047028705827698 2.9742809765057157 14 90 203
7.78634510610891 -2.5342091935127735 2.857627287621541 14 90 203
7.159658880225206 -2.7220440081713666 2.7005459820090683 14 90 203
7.690069206315283 -3.0056615949134162 2.904266845205024 14 90 203
7.57558063484512 -0.19998831211412002 2.9780666876362756 14 90 203
7.082947139461265 -2.244256184024631 2.7240776739014825 14 90 203
7.844398957896076 -1.9096676165683453 2.833282593281771 14 90 203
6.958476682257715 -1.0769026466064815 2.76643661763743 14 90 203
7.57558063484512 -0.19998831211412002 2.9780666876362756 14 90 203
7.690069206315283 -3.0056615949134162 2.904266845205024 14 90 203
7.090888791553033 2.877430511833207 2.7215600370846333 14 90 203
7.723157300250395 2.742705325873054 2.887158926747486 14 90 203
8.544800378864885 2.3796614071050315 3.0132455885556864 14 90 203
7.054835899415382 -3.0540429818633346 2.7331533243544075 14 90 203
7.03216705717436 -1.2934003824272426 2.4630632114203 14 90 203
6.736377883715251 -0.9731756654887959 2.519532552499671 14 90 203
7.245204225232348 -1.506567565164161 2.676161322145279 14 90 203
7.285297871715157 -1.8099774019677684 2.665320294127743 14 90 203
6.94922233517331 -2.281171479002693 2.478006710891376 14 90 203
6.972555854820651 -1.7550864039129885 2.473738234415935 14 90 203
7.155355753761406 -1.9701030496670262 2.4419832062529503 14 90 203
6.769982358370511 -2.152458962041506 2.292860243553428 14 90 203
7.206541306127282 2.513194124012035 2.4335857488351804 14 90 203
7.644882725288277 2.361003872797283 2.3689983410178224 14 90 203
8.16023314244218 2.847348495690565 2.3061879522952706 14 90 203
8.384648235108257 -3.077059834295193 2.671337627456846 14 90 203
8.243534422154752 2.7904807776052385 2.474147397502392 14 90 203
7.027393981018619 -2.6069671124187703 2.4639061018639556 14 90 203
6.7026290538439515 -2.4336775989310984 2.301745355535602 14 90 203
7.91079380138741 1.2547798947908462 2.025517998219762 14 90 203
7.456238418295823 1.9626458493380192 1.7698647728774095 14 90 203
7.004561006347694 1.8300102753301564 1.6385923701883927 14 90 203
6.817719125730679 1.6874063719041326 1.6404533140027384 14 90 203
6.878672288223102 1.3937345572249324 1.6398350838526665 14 90 203
6.515516241574164 1.872549532265029 1.9603639292817991 14 90 203
6.8303180816027735 1.3637774729967 2.104459420588909 14 90 203
6.662055599571102 -1.8501325525204397 1.7939751892412386 14 90 203
6.662055599571102 -1.8501325525204397 1.7939751892412386 14 90 203
7.004009914387687 2.2439056244253592 2.0898693941380726 14 90 203
7.047558291938487 2.1533206605958664 1.781577581182755 14 90 203
7.004009914387687 2.2439056244253592 2.0898693941380726 14 90 203
8.331132991897226 1.1359475192714086 2.460916431726742 14 90 203
8.244315348810934 1.204341827587616 2.296999411291123 14 90 203
8.651405567115512 1.0390944698302869 2.613889086751776 14 90 203
7.989169525910216 0.6714275026863088 2.7806981152136125 14 90 203
7.50666525051432 1.872549532265029 2.2093972285955763 14 90 203
8.057257896736184 1.1573510068202038 2.7589338159719876 14 90 203
7.487519233415796 1.5152716333005218 2.615365063150392 14 90 203
7.581580538151576 1.2593766100442245 2.5943835330132874 14 90 203
6.875977767185236 2.0159092289806866 2.491752075029015 14 90 203
7.201503389509609 2.2100301109115015 2.434403321774287 14 90 203
7.3326286125090565 1.7074357886052707 2.227134789368835 14 90 203
8.51490570870618 -2.8413296441799454 3.0441559795532545 14 90 203
7.520278158660479 -2.8413296441799454 3.031219585071136 14 90 203
7.082947139461265 -2.244256184024631 2.7240776739014825 14 90 203
8.0752554712355 -2.7220440081713666 2.753434127422362 14 90 203
7.982464858188308 -3.0540429818633346 2.782930127685276 14 90 203
7.609166593098931 0.5583337216013993 2.9531886353192682 14 90 203
7.883980781997339 2.3664282900097025 2.8178892120887022 14 90 203
6.855871830177185 -1.478096481254935 2.8064869838469866 14 90 203
7.399373013620495 -2.4642422193045648 2.6362506895478477 14 90 203
7.782388501811317 -1.7550864039129885 2.5533999354365324 14 90 203
6.769982358370511 -2.152458962041506 2.292860243553428 14 90 203
7.3423704245313 -1.2142338423693688 2.650466118334914 14 90 203
7.992701248104421 2.513194124012035 2.515040147509443 14 90 203
7.550178178385744 2.2439056244253592 2.205125579219631 14 90 203
8.862191635455815 2.847348495690565 2.389963642502556 14 90 203
7.7054058267529015 2.7080611061348874 2.5685525756453997 14 90 203
7.6054780320161575 -2.824302201048521 2.5892479450600723 14 90 203
7.506882867207452 -3.077059834295193 2.6109411563587432 14 90 203
7.506882867207452 -3.077059834295193 2.6109411563587432 14 90 203
7.196998301522911 1.539909086866455 1.9217850006596902 14 90 203
7.491678589101784 -1.4054852745581858 1.7689105105471543 14 90 203
6.720629347592565 -1.5373885051893423 1.9478657269201922 14 90 203
8.014345855945056 2.877430511833207 2.772464553929611 14 90 203
7.9822602070790545 1.7074357886052707 2.3265475233992596 14 90 203
8.690431968615938 1.994380539794658 2.918215804522543 14 90 203
7.609166593098931 0.5583337216013993 2.9531886353192682 14 90 203
8.005283657878904 1.8504875497227329 2.7754018993774014 14 90 203
7.57558063484512 -0.19998831211412002 2.9780666876362756 14 90 203
7.57558063484512 -0.19998831211412002 2.9780666876362756 14 90 203
6.958476682257715 -1.0769026466064815 2.76643661763743 14 90 203
7.239458734925693 -1.1722273486528658 2.237086058702881 14 90 203
7.540774805579674 2.9450242621052984 2.6033310109384864 14 90 203
7.407717048994536 -2.4336775989310984 2.402424212405095 14 90 203
8.512687827927364 2.6197575645515063 2.4349910516764286 14 90 203
8.164995239275756 2.1473099034866077 2.727382361233355 14 90 203
7.285297871715157 -1.8099774019677684 2.665320294127743 14 90 203
7.4604387199353175 -2.075185282906775 2.621648230988642 14 90 203
7.481443896022553 -0.8652199757886416 3.098559878621417 14 90 203
8.169439012881858 2.5803081082246413 2.7261468496500614 14 90 203
7.695979853102327 2.0159092289806866 2.5704534961357473 14 90 203
7.580154436695018 1.1359475192714086 2.3777988788417392 14 90 203
8.266608978306937 0.8950133869571454 2.7002567752481497 14 90 203
8.014345855945056 2.877430511833207 2.772464553929611 14 90 203
8.034383385483437 1.3637774729967 2.320451184033441 14 90 203
8.690431968615938 1.994380539794658 2.918215804522543 14 90 203
7.988159156755056 2.2100301109115015 2.5158261027637243 14 90 203
7.237359004942093 1.6874063719041326 1.9197438508806053 14 90 203
7.03216705717436 -1.2934003824272426 2.4630632114203 14 90 203
7.46920775861256 1.9310718573939631 2.393437161924419 14 90 203
8.367316171587083 1.5152716333005218 2.67542936791176 14 90 203
7.618699974216955 -2.1369627138438285 2.946734935281501 14 90 203
7.254233447631295 1.526931796443401 2.4259400764409347 14 90 203
