10.050489629166663 33 39 17
11.127752958525654 33 39 19
10.697251049128974 32 38 17
11.627530239893735 33 39 21
10.495185620426046 34 38 17
11.24461364547891 36 41 17
11.24461364547891 36 41 17
8.892573441973642 34 40 20
9.37632864532294 34 40 18
9.763932460192862 33 39 17
10.165032658043861 31 37 18
10.685911178160035 35 41 15
10.935465404152268 30 35 22
9.952493068890556 34 40 18
10.121651257783984 33 39 18
9.391368253135258 34 40 20
9.529013158145563 34 40 20
9.053420089883307 36 42 22
8.284480749023565 29 39 14
8.590246389153913 33 40 18
10.063372608756032 34 40 19
8.565415802685227 27 35 12
7.689626370665483 28 36 14
9.222088938089366 28 36 12
8.347800390746615 28 37 14
8.58202880932852 30 38 15
8.139748926487792 31 41 17
8.843451595811446 29 36 13
10.332585120277662 35 42 20
9.879402994227615 35 43 18
10.45440579788636 34 41 19
9.510146779988403 34 42 20
8.718767494516742 30 37 14
8.505076725950289 29 40 14
9.062199969437016 32 44 17
8.99798624919123 32 43 16
8.801220880089673 33 39 15
9.04455885022618 32 39 16
9.72008520882868 35 41 20
10.978448028538805 36 42 21
10.182762133680576 37 43 23
10.781003197693932 36 43 23
10.457849175136243 37 43 22
9.469187523061324 36 42 22
8.537150520670956 34 44 18
9.340697358971086 32 44 16
9.051928339416746 34 40 19
9.241347820122224 35 41 19
9.159353351839863 36 41 22
8.76492781287694 36 41 23
9.951267328069804 33 39 17
9.618521540729118 33 39 17
9.423141918702152 33 39 17
9.423141918702152 33 39 17
10.095001273749002 31 39 20
9.007038296781806 36 41 23
9.211248117880794 36 42 22
9.007038296781806 36 41 23
9.256465660445643 35 41 21
9.287804816042653 35 41 21
8.614044158195023 37 45 25
9.454342961252374 36 44 24
8.794887602998557 35 46 25
9.328532816045989 37 46 25
9.469396572128408 38 47 26
8.75849307630363 41 54 35
8.233315454583567 39 51 30
9.401690139373828 38 54 32
8.98472221793229 34 45 26
8.919950761521969 31 43 22
8.594818945916684 39 53 34
8.966928673885311 36 48 27
10.489824789143077 37 43 24
9.98610155349846 39 49 28
10.612143321912699 36 43 23
10.171552779676668 40 50 28
10.584972731549376 40 49 27
9.502193128212411 38 45 26
10.825837042128057 37 45 24
11.009148898669398 39 47 27
8.959271282957582 37 42 25
9.039386730744042 37 42 23
11.138319812319136 39 47 27
10.930736775881362 37 45 25
10.692235805879758 39 50 27
10.692235805879758 39 50 27
11.086255829017876 38 49 28
10.704468450865429 37 49 28
10.650161175782436 38 50 30
11.34843980855626 42 56 33
11.841835019740289 46 60 36
9.514877404308804 36 47 24
9.89939366272339 38 49 26
9.621670585563718 41 50 28
10.027762678845415 35 47 26
9.4717012346417 40 48 28
10.745375645369956 39 50 28
10.364335237825625 35 47 26
9.555043217781064 45 57 36
9.049532862933155 40 52 31
10.927278369122222 40 53 32
10.47208379612009 44 57 37
10.153818071601165 37 49 30
10.210765552915422 35 47 28
10.351022861014764 37 49 29
9.850874297085989 43 56 35
10.167707717674995 41 55 36
11.173512567792166 39 52 31
9.450326061521178 30 38 15
8.665783336827051 32 40 17
15.379860912911601 28 27 9
16.168694276394547 24 27 8
9.806869788990625 35 41 19
8.467590858263279 35 42 19
8.76975958320254 38 44 21
9.085173812179605 35 41 18
11.231340769738138 38 50 26
11.345667775141214 38 50 26
11.359850904175591 44 56 33
11.74338202280443 43 55 32
11.632964349452404 39 51 27
10.852678068455683 34 41 21
11.395620836891458 31 37 11
10.165032658043861 31 37 18
9.37632864532294 34 40 18
9.529013158145563 34 40 20
9.880113151583897 34 40 18
8.590246389153913 33 40 18
7.689626370665483 28 36 14
8.0915332005444 29 39 14
9.673634771952413 27 35 12
8.019550971848894 27 38 13
9.510146779988403 34 42 20
9.310149619065182 30 40 14
9.949789415874042 34 42 17
8.5543333094328 29 37 15
8.572983253204864 29 40 14
9.789135667638051 30 42 16
8.5543333094328 29 37 15
8.618505955818438 33 42 16
10.540753431004033 36 42 22
10.418832240222892 37 43 23
8.835484315092234 32 43 15
7.92841766611558 33 43 19
10.122602440611352 29 37 17
9.511555707718509 33 39 17
9.453928569536444 33 39 19
8.81243576991008 35 41 21
8.99006939653872 35 41 18
8.680947914508065 35 40 22
8.512549268366673 36 46 25
9.432669815678349 36 44 25
8.690705201421233 40 53 33
8.809090444965417 36 44 24
8.966928673885311 36 48 27
8.851300064304768 38 53 31
10.489824789143077 37 43 24
10.612266378826812 39 47 27
10.380596183090303 37 44 24
10.786006624060857 37 44 25
9.547517731045915 40 48 28
9.681613749379295 37 43 22
10.241188211443733 38 50 28
10.719256340626956 40 49 27
10.851053246620951 37 48 26
10.930736775881362 37 45 25
11.34843980855626 42 56 33
9.650625591679486 40 48 27
10.502541883500395 39 50 29
9.605787512327662 39 47 27
10.584003364218416 37 49 27
9.046200750763942 42 54 33
9.587344646017785 40 56 36
10.262649912078393 45 59 37
9.06716430468571 35 47 28
9.464387013771551 42 55 35
10.700692841472051 44 57 36
11.135847289184566 35 48 28
9.630848613998202 32 40 18
8.939404721298889 32 40 17
15.938267060608146 25 27 6
15.873943815159139 25 27 7
11.205438577230538 37 49 25
11.066392853464189 45 57 34
11.74338202280443 43 55 32
9.498128333630051 33 39 17
9.676429096738644 34 40 17
10.429278953284417 29 35 8
10.935465404152268 30 35 22
10.234901822162835 34 39 17
10.318476462560684 33 39 18
10.576703759031185 31 37 13
11.127752958525654 33 39 19
8.534287466086036 31 37 14
9.234889280954809 31 43 16
10.290718861624505 34 41 19
8.52180736261717 33 39 16
10.768978757152986 37 43 23
11.172928177107433 36 44 24
7.966435890063265 34 44 20
9.377355429521392 33 39 17
9.271490656100276 34 40 19
9.270383944168529 37 42 24
9.149202186944487 36 42 21
9.083488299921317 35 45 24
9.158872478577038 35 45 24
9.127716245388331 34 42 22
10.963846237088914 44 57 34
10.94188448335779 36 48 29
9.002985992588066 35 47 26
10.195112048709648 40 53 32
9.971958956789335 40 51 28
10.337379526183462 37 49 28
15.118513516856986 35 40 17
16.06038068036968 28 30 11
9.346525511004907 34 41 19
11.345667775141214 38 50 26
11.127752958525654 33 39 19
10.933646560278195 34 38 17
11.630950626681342 21 27 4
9.514191135730773 34 40 20
9.869467354939967 35 41 21
9.420133833792201 26 34 12
9.90630550919212 35 41 19
9.405971709047089 33 39 18
9.396225967668375 36 42 22
9.58419951520944 41 57 35
9.798903785803038 40 49 28
9.734344642352463 41 54 35
10.241188211443733 38 50 28
8.858237658501615 30 38 15
8.926049003246813 30 39 13
9.92228719991198 35 42 23
9.531511092136656 38 45 26
11.086255829017876 38 49 28
10.888761375919493 36 48 29
10.335581782289312 42 55 36
8.503198753707824 37 43 20
8.97471877563851 36 42 22
11.27738058836458 40 53 32
10.697251049128974 32 38 17
10.442005272465886 35 41 19
9.853139122584464 36 42 22
9.460991778821372 33 46 19
10.306433354300502 42 55 36
