16.72880407460803 25 28 24
9.943551109760751 18 32 8
10.328290926114278 18 30 9
11.251901923472053 24 29 20
10.602107416804657 17 24 13
10.393418987819627 15 23 7
10.948848558742284 23 28 17
10.55131180622755 28 33 20
10.09071568514344 19 28 10
9.973768311241919 15 24 6
9.75063197389759 18 30 9
9.715031984829556 24 35 15
11.047853400957116 29 38 20
10.82320493717515 27 39 18
9.166005167975317 23 37 14
9.89851584987981 22 34 11
10.401967999524722 27 36 17
9.760913845965641 16 28 7
10.627730586119604 28 37 21
9.89851584987981 22 34 11
9.45878146535346 25 37 16
9.722536703986153 18 32 8
10.331894414538526 21 33 12
11.936278779231033 2 2 2
12.012875200657824 4 4 8
12.013513153143979 3 3 5
12.40816996476569 4 4 8
13.14001669022179 3 3 3
12.768001214973204 3 3 5
11.229124083134284 1 4 0
12.253934787317178 4 4 6
10.907964618578966 31 36 22
11.422417559306911 35 40 26
10.51200638734253 36 41 28
10.320736697625504 35 40 28
10.733823304233566 21 26 13
11.099533099744509 19 24 11
10.547155536850523 32 41 23
11.628062372130161 32 41 23
10.573059814857416 27 35 19
10.944143006849329 27 36 20
11.398443708205379 27 36 19
11.405704690113106 28 37 18
11.105961477065472 30 39 20
11.511493290853084 36 45 27
11.303395889614311 36 49 28
12.951297357754644 35 48 27
12.957688210399406 31 45 23
12.75340750175927 34 43 25
11.944234198981249 36 45 27
12.347015335211982 30 44 20
12.377257646020208 31 40 21
12.340308228687746 33 47 23
11.667602768532223 37 49 27
10.787370076480927 25 30 17
10.270574905932786 26 35 20
9.872658264327425 26 33 22
10.082936928370685 20 27 17
9.817866419864556 28 40 23
9.890032442813354 32 45 26
11.069318203012289 35 44 26
10.912236682256085 31 40 22
11.02798738766925 39 51 30
9.611200411193204 30 39 23
10.47125404194547 30 43 24
11.045271804880437 36 45 25
10.135385605730443 30 39 21
10.846167112569999 29 36 23
11.400995638517854 37 48 27
10.129051550324704 28 41 24
11.180356664779355 18 30 7
10.283982389984308 20 31 6
10.015358092826409 19 31 8
10.023085276192544 41 50 32
10.421731682814784 39 49 28
11.258896219583123 36 45 27
11.058979937839995 40 51 37
10.310027058397393 41 50 32
11.40615719896836 40 52 35
11.92688873354386 40 50 33
10.811401767127593 23 37 13
11.933828194308681 40 49 31
11.443252667276434 41 50 34
10.268082201671632 23 35 12
11.885302860016864 28 40 17
11.816370838850485 26 40 16
12.511903917284037 31 43 22
11.970751841043931 40 49 33
12.714156191921827 38 49 30
13.638205003053427 35 47 28
13.681703085469525 32 48 27
11.982874917595023 38 54 36
11.084619374366726 37 52 30
16.538217945710162 38 54 34
16.538217945710162 38 54 34
11.447174675003032 44 57 42
12.183429828505664 40 52 35
12.190223250419283 42 51 35
12.133552470889013 40 56 38
11.795478758020606 42 52 37
11.525501846863806 42 55 40
11.936121526490501 41 54 39
16.582547349064235 43 59 41
15.662929652399757 41 57 39
10.873708516433213 33 43 22
10.881319653851437 33 43 22
10.610561983816812 33 43 22
10.688913162456501 34 43 25
10.957735002791901 36 45 26
11.154007174581507 36 45 27
10.508434885595445 36 45 27
10.595358570424033 36 45 27
10.31614387376108 35 45 24
9.526811513917885 31 47 28
9.890981259237506 32 48 30
10.163478399555533 31 44 25
10.600361589450667 31 47 27
10.356912560694166 33 46 25
10.566484849156911 33 51 35
10.583074699735894 31 47 29
10.735469719377953 36 49 28
10.356912560694166 33 46 25
9.507572870864955 31 46 31
10.711389338177012 30 46 24
10.878986080187685 32 48 28
11.184128467911105 34 47 26
10.143936221356753 31 47 25
9.742148221635627 39 50 36
9.761709655250607 38 51 37
10.348870412598922 41 54 39
11.68423551193496 42 55 40
10.895057030667026 41 54 39
10.072999282422117 39 54 39
11.407692876151872 41 52 38
10.024832824683719 41 52 38
9.925351422344693 40 53 38
11.622743671063335 35 53 36
11.675647488700243 41 54 41
10.60740214084961 40 53 40
9.925351422344693 40 53 38
9.546584819827038 31 47 29
9.800539851411207 30 43 25
9.575196376690565 32 47 28
9.612746239672088 32 50 34
9.5273861050784 32 47 32
9.799933394744006 40 53 38
11.808430821915765 36 52 34
11.312418605754592 34 50 30
11.784406117029803 42 55 40
12.194533489320044 42 55 40
11.328592606265518 33 49 29
12.676407982073014 42 58 40
12.45220924394043 40 56 38
11.808430821915765 36 52 34
10.070814892671812 21 33 12
10.42560791845249 20 32 9
10.600455035914068 16 25 9
10.418759771276086 24 33 17
10.376736941076576 23 30 15
9.981078489844176 18 30 9
9.263640511234257 23 35 13
9.07535891584551 21 35 11
10.27074748127705 27 39 16
9.629555294941074 20 32 11
11.221748846123987 0 2 0
11.221748846123987 0 2 0
11.852851082743964 2 2 3
11.943212784023505 0 1 1
11.429663311231185 34 39 23
11.10698949046344 18 23 9
10.88517113293799 35 40 25
11.422417559306911 35 40 26
11.204052661881175 21 26 14
11.052071392207186 39 51 30
11.010320713963466 32 41 23
11.55608045783829 30 40 19
12.75340750175927 34 43 25
12.377257646020208 31 40 21
9.639620183085873 27 36 20
10.79560712390567 33 42 24
9.78918124329529 29 42 23
9.734867494667697 28 40 23
9.49844941075656 27 40 23
10.693550648534492 31 36 25
10.728105009914795 30 39 21
10.682077630759556 18 28 4
10.509372519786522 40 49 29
11.16230995692208 37 47 26
11.92688873354386 40 50 33
12.196204999472561 38 46 28
11.421527484548868 41 52 36
11.503882137792163 25 37 13
12.225566659619423 37 46 30
12.4471966286769 40 48 31
12.735051782715159 35 46 25
12.735051782715159 35 46 25
12.703145575882822 33 49 27
12.363531042420922 44 58 41
12.125282691378667 45 58 42
12.125282691378667 45 58 42
11.774403492495544 41 54 39
10.71212425811799 32 41 23
10.866797324216298 33 44 25
10.508434885595445 36 45 27
10.211608635765556 36 45 27
11.328551186033273 40 53 40
10.987198635677272 32 48 27
10.530152627990244 32 50 30
10.829084848054697 40 55 40
9.721533908616413 39 51 32
8.993020474973346 40 53 37
9.135216285435895 39 50 33
9.004167506286162 40 52 35
10.68807421562591 35 48 34
9.64856152470949 39 52 37
9.668312309663927 41 54 39
10.503889406020743 41 52 38
9.935452484663672 40 52 38
10.162724314082729 31 44 23
10.735469719377953 36 49 28
10.356912560694166 33 46 25
10.08327817797901 41 54 39
10.710630018615648 40 53 38
12.194533489320044 42 55 40
11.961306063681306 37 55 37
10.01634188426035 20 32 9
10.354742748349212 19 31 8
10.60195988867653 29 38 20
11.255223600368716 36 45 27
11.649402390550915 30 39 20
10.937276321809346 28 36 21
10.383652981341395 28 32 27
10.296430698753268 19 23 18
9.89158213372704 28 41 22
10.659823334219741 35 48 27
9.946738408560877 29 38 24
10.284940486573177 20 32 9
10.519215105682067 18 30 7
11.588171105543957 41 52 38
16.472615830852984 40 56 36
12.735051782715159 35 46 25
11.084619374366726 37 52 30
13.03132181252253 35 44 26
11.018192361292238 34 49 27
12.183429828505664 40 52 35
11.775891147302596 42 55 40
10.404674137866929 35 44 26
10.31614387376108 35 45 24
10.789230590267067 33 42 24
11.250664716342634 35 44 26
9.808042923922114 31 47 29
10.878986080187685 32 48 28
9.826693326058859 31 47 27
9.669719615845286 32 46 29
9.236191939958506 30 46 26
9.593109306575016 33 51 35
11.739047414627873 32 48 28
11.961306063681306 37 55 37
12.103967605879419 42 55 40
12.3054341972068 36 52 34
11.478629642086437 27 36 20
11.398443708205379 27 36 19
10.98190187076336 29 38 21
9.981689602379724 23 35 12
10.454431889070229 21 30 13
11.936278779231033 2 2 2
11.325140537025035 12 15 7
12.414412054949569 35 47 24
12.951297357754644 35 48 27
11.558597584846027 39 51 30
10.162339558727801 29 36 25
11.442391559122791 35 44 26
9.468515818208413 38 49 36
9.780672289826764 40 54 39
12.194533489320044 42 55 40
9.94636101553331 30 46 26
9.61732259218724 39 51 32
9.507572870864955 31 46 31
10.473245392051531 29 39 19
10.545188019644119 20 32 9
11.099533099744509 19 24 11
12.340308228687746 33 47 23
10.331894414538526 21 33 12
10.790578677259829 28 37 19
10.17328153900691 29 38 24
11.335180845021116 41 54 39
12.165371197980374 31 40 21
16.472615830852984 40 56 36
12.709661208349052 30 46 26
11.27984850968741 38 51 30
9.01396479712027 41 51 35
11.086157265683035 41 54 39
9.469605972724818 31 44 25
10.304316447334669 33 42 24
10.734658675631751 21 35 9
12.911751242348537 28 40 17
10.805145551519917 17 24 11
11.874169091687888 31 40 21
9.891144652477045 25 37 15
11.215052133214867 0 3 0
10.76357048339769 29 39 18
10.873708516433213 33 43 22
12.02421872223797 39 48 30
