11.085325650779064 37 40 11
11.085325650779064 37 40 11
10.605129994079348 34 37 6
10.981040023898187 41 44 13
10.522728652809452 39 44 11
11.05181328675254 38 43 14
11.384826061624329 42 45 12
10.856843029700062 48 53 26
10.377104297891242 30 33 2
10.74639690327513 2 6 5
10.449107216664729 30 32 4
11.10848545371647 1 5 0
10.985599193553211 32 35 5
11.713669367111422 42 45 14
11.435319276769851 43 46 15
11.656250708200316 47 50 17
11.631119430089408 45 48 15
12.57930103375231 49 52 21
12.51270873004602 49 52 19
11.590468676145285 40 43 10
11.755732467082957 45 48 15
11.430313606657156 55 58 28
11.827740318943626 52 55 23
11.827740318943626 52 55 23
11.312308792079692 42 45 12
11.680644746607792 45 48 17
11.99974743968038 55 58 27
11.741118873098555 52 55 24
12.149376298369932 55 58 26
12.149376298369932 55 58 26
11.458369841542313 56 59 28
11.413390161113785 55 58 27
11.74463322988849 56 59 28
12.19164094349692 56 59 27
11.87045261347871 56 59 28
12.826599357585707 55 58 27
12.271046409480963 55 58 27
12.334951039816758 57 60 29
10.572517729956559 55 59 26
11.744607685942674 56 61 30
11.344268940344758 56 61 30
11.356257048537655 58 61 30
10.689369620460436 53 58 25
10.747371529292892 55 60 27
10.418001691515165 54 59 26
13.49017814155625 9 12 1
12.825759649951605 45 49 20
11.918774581553407 43 48 19
12.405071576058463 41 46 19
11.640438421224008 41 44 10
12.82354013892845 48 51 20
12.949890415170968 40 44 21
13.242733724266742 28 31 2
13.156167829799319 19 24 3
13.11534089419205 55 58 27
10.587208886062621 59 64 35
10.835342409814182 52 57 26
10.832715090608644 53 58 27
10.40766793217578 53 58 25
10.467230946734338 55 60 27
10.983989122525148 54 59 28
10.817543666516421 51 58 26
9.517073276249087 51 56 25
9.48624490313107 53 58 27
9.885206422148558 51 56 25
19.5111259899205 49 42 23
18.77227191526558 49 42 23
19.25945236325447 58 48 33
9.198799077967735 52 57 26
9.3528221523681 52 57 26
9.809118316321795 52 57 26
10.008090389279172 53 58 25
10.539268469898996 52 57 26
10.956615144507436 53 58 27
10.87020115876817 52 57 26
9.553045313602984 51 56 25
9.902581663240237 50 55 24
13.12944022753105 46 49 16
13.483210274741454 47 50 17
13.406014249989004 48 52 22
14.208970999644817 42 49 12
13.384168883254993 45 50 16
13.691787391012873 44 48 13
14.159099485636949 42 48 11
12.599513103591601 59 62 31
11.489878622947199 63 68 37
10.920653949095355 62 67 36
12.979901623859686 54 56 30
12.569451155615722 57 60 29
12.941817892763423 61 64 33
11.615416877512057 62 67 36
18.98267293815833 55 53 28
18.256881098074455 47 47 21
18.304560396554788 53 56 25
18.392524105556337 52 52 26
17.447485808336037 48 51 20
18.294013696898134 52 55 26
17.91410653691792 41 46 19
19.30281450968213 44 41 18
18.59835876642467 49 48 24
19.444030845567887 45 44 20
18.435560213589103 46 40 20
18.866022614544036 46 40 19
17.882169631931006 50 55 24
18.0653600052856 54 59 30
18.283119064566456 45 48 19
17.882169631931006 50 55 24
17.882169631931006 50 55 24
10.778902800993745 2 6 1
10.765635190706973 0 2 0
10.611248760157208 4 8 1
10.98503024106167 42 47 20
11.281339947755056 42 45 14
12.688397952142303 47 50 18
11.007655580634367 42 45 14
11.662328192410685 42 45 13
11.213996734317698 39 42 9
11.713669367111422 42 45 14
11.756891864671232 50 53 20
12.105863022171885 37 40 9
12.004515668332823 45 48 17
11.675744253850535 55 58 27
11.69900323089994 55 58 27
11.854856023225222 55 58 28
12.131767456163752 55 58 27
10.572517729956559 55 59 26
11.78834908544697 56 59 28
11.054668424661362 53 58 27
13.407822300170498 27 30 0
13.123542746866757 28 32 3
12.943777779712603 29 32 1
12.68294273232266 38 43 13
11.852048016378886 36 41 10
10.277151969095845 55 60 27
10.922032197841327 53 58 27
10.922032197841327 53 58 27
10.300725427675692 54 57 23
10.639003408627632 57 62 31
20.19471860803076 47 42 22
10.056414103703805 54 59 30
9.709569045391113 51 56 25
9.2606979618068 53 58 27
10.350512488965206 52 57 26
10.86758226692889 52 57 26
9.902581663240237 50 55 24
9.508064841319948 51 56 25
9.809118316321795 52 57 26
13.200018272458335 51 54 22
14.307634810356745 41 47 10
12.410437657119548 60 63 32
10.691927217274298 60 65 36
12.78017886506263 58 61 30
11.028037378833163 62 67 36
17.572727597072486 46 51 20
17.3732414838645 38 41 12
19.039017573920734 46 43 21
18.655513041869543 55 58 29
18.423976918134358 50 55 26
18.29911703073486 47 51 20
10.577501633935322 37 40 10
11.402987288868982 36 41 12
10.783547432464601 0 2 0
12.909933281265284 43 46 13
12.620549876062654 55 58 27
11.11076351494522 54 59 26
12.149376298369932 55 58 26
11.344268940344758 56 61 30
10.45425211761128 54 59 28
11.869329584133915 40 43 12
12.19164094349692 56 59 27
13.14694960924128 6 9 0
12.90569794710632 43 48 20
12.92392444508358 13 18 3
12.685186843519245 36 42 7
20.081565645386526 36 30 13
9.803981461669506 51 56 25
13.214027255559834 44 47 14
13.952327591276509 44 48 13
14.615838002220642 42 46 11
14.06392929539633 43 47 12
13.712230851880415 46 49 16
11.433153981321535 60 65 36
11.615416877512057 62 67 36
12.889871252261107 55 58 27
18.052325295105003 42 45 15
18.427806051046527 45 39 20
18.091467800730566 46 51 22
11.332573120487151 6 10 1
12.57930103375231 49 52 21
11.317366655830142 40 43 11
11.840943630399314 57 60 29
11.662328192410685 42 45 13
14.14967214861495 12 15 3
12.949890415170968 40 44 21
11.178654752400755 53 58 27
11.178654752400755 53 58 27
14.156105002884988 42 48 11
11.849190054129629 60 65 34
12.039392744410659 58 63 32
11.76391077688846 59 64 33
18.057843054110297 50 53 24
18.63481093324302 55 54 28
17.919666855793857 46 49 20
18.102477775101782 49 52 23
18.899683639843328 49 41 23
17.70271155999357 49 54 25
19.703112795352144 45 41 20
11.147063951569148 44 48 15
12.443902777875838 56 59 28
11.147063951569148 44 48 15
11.744607685942674 56 61 30
10.601131675432692 37 40 11
10.19187836206103 56 61 30
13.655357850148105 46 49 16
14.495625977898126 41 47 11
18.501697312984895 51 48 26
19.034951316794352 47 50 21
10.819150778445529 36 39 8
11.770878114345614 48 51 18
11.561326625565538 55 59 26
18.392524105556337 52 52 26
11.8513046517182 45 48 15
