12.449502527649377 47 50 29
12.649303584461087 7 5 5
11.697394303654693 51 52 39
11.788949532658245 51 53 33
11.929637817261042 47 51 30
12.546365702440559 37 39 17
13.06502643822894 38 40 18
12.756795857210331 41 43 21
12.617689717767474 46 46 22
13.479655240909208 37 37 15
12.638419638561965 42 44 22
11.816626305643089 43 45 19
11.489921495365405 44 47 18
11.537291714292508 43 45 21
11.489921495365405 44 47 18
12.038117823790424 44 46 20
11.782685016183196 42 44 18
11.943150624075967 43 45 20
12.210427133408537 40 42 21
11.811313135609693 42 44 19
10.646916004131729 45 49 20
11.151816443126485 46 48 22
11.803147827008024 41 43 19
11.35101944394434 45 47 23
11.151816443126485 46 48 22
10.84903380078441 47 49 23
12.07463999719331 40 42 19
11.624777653408982 42 44 20
11.326127341653516 41 43 17
10.624884196528194 49 51 24
10.933875788587422 47 51 22
10.728360774326557 42 44 20
11.435269566428342 39 41 17
9.983176038890354 49 52 23
11.311517262243804 41 43 19
10.53763046903115 50 54 23
10.84714753747017 44 46 24
10.41712540451565 47 50 21
10.139423643862326 46 49 20
10.265105634486451 49 52 23
9.983176038890354 49 52 23
10.621031718613766 44 46 22
9.650919473135232 48 50 23
9.913846613861882 47 47 21
10.609308479082072 49 52 23
11.876170134397936 44 49 24
11.854107301464408 47 49 23
12.035903657982786 45 47 23
10.893529705191906 43 46 15
11.156888906710355 44 47 16
11.148799481547533 43 45 19
11.264684614882732 46 47 22
10.45619730449061 44 47 16
11.282266629432431 45 45 19
10.930798674334207 44 45 18
11.209942009473043 43 46 15
11.585769151862014 46 48 23
11.375197247280553 57 58 50
10.784447518696378 52 53 37
9.660293989731967 45 50 21
10.43722382847124 46 48 23
10.4048924314807 45 49 30
10.566041626407602 48 52 33
10.87286828476517 45 50 26
9.59084733485993 47 49 21
10.811213501286087 48 50 30
10.372979990250926 47 49 26
10.59587507538049 42 47 19
10.784447518696378 52 53 37
11.140533601326942 49 50 37
9.59084733485993 47 49 21
10.43722382847124 46 48 23
11.366834464736959 45 48 19
10.70134065664245 46 49 18
10.911215704968084 45 50 17
10.36942049642402 45 50 19
10.764199848631119 44 47 16
10.00939329151357 46 51 18
10.474621749394124 46 51 18
9.680233400620839 49 54 25
9.531014877459272 47 52 27
9.851083496649341 48 53 22
10.449007822853181 45 50 21
10.017944361027785 53 57 35
10.39359775888128 49 53 31
12.054142377568631 51 56 23
11.637880686911423 47 52 19
11.549794158769835 47 50 21
11.666864132217533 50 55 22
11.666864132217533 50 55 22
10.896617343897608 49 52 23
10.766174815323328 47 52 19
11.324912233819472 47 52 19
11.340121300728676 51 54 25
11.84466795129969 49 56 23
10.902944004415511 46 49 20
10.2084627830441 49 52 23
10.586538337374806 49 54 23
11.957073666804272 51 56 23
11.716159997611241 58 63 38
9.744873424757078 45 47 26
11.621256064937306 12 12 8
10.744265039977646 31 32 22
10.055271923920012 60 62 47
11.435670577400911 57 58 49
10.737770521075651 59 60 50
12.298163067147438 6 4 4
9.14761906576199 52 54 32
9.087801188476213 54 56 32
9.18967964714656 60 62 37
8.743489861334837 55 58 35
8.721409073814927 56 59 39
9.641792111762802 46 49 27
9.158239513980227 54 56 29
9.27718547602939 57 59 32
10.345157410749566 54 58 39
10.345157410749566 54 58 39
10.653287526604316 58 60 46
10.916052412721214 58 59 46
10.264239703963131 57 61 39
11.390428108055094 61 66 41
10.28719918314233 56 60 39
10.06758231962013 58 61 37
10.074429620897542 58 62 40
10.640258512574238 55 59 38
11.730334178396294 59 63 41
10.65586392844968 57 62 37
11.815343287385558 60 65 42
10.640258512574238 55 59 38
11.730334178396294 59 63 41
11.815343287385558 60 65 42
12.481729018772766 61 66 44
9.400499892497466 48 53 22
10.16730007175357 51 54 22
9.635892984178813 51 54 21
9.443662872517894 47 53 18
9.677614160779434 46 51 18
9.60877065591262 46 51 20
9.95699973580674 47 50 21
9.687488742921246 46 51 18
9.388144183949256 45 50 17
10.216212374983183 49 53 22
9.461242164589141 46 51 20
9.840876263015941 47 53 17
11.001130981986684 51 56 24
11.329211276514526 56 59 30
11.121508688814012 51 56 25
9.973213802261107 48 51 18
9.669845823824126 50 53 20
11.329211276514526 56 59 30
10.133733173692745 52 55 22
10.127221757626922 49 55 20
10.570906119316108 49 54 23
10.127142907367183 50 55 24
11.126013437801587 51 58 25
10.627035338526733 50 57 25
9.568491417559867 48 54 23
10.966731983222854 49 56 22
11.62426364651493 50 57 23
11.12594166604458 50 57 23
10.437062950101497 49 56 22
10.299494412564654 49 56 24
10.705211125385128 50 56 23
11.325529273721754 50 55 26
10.820470443228016 49 54 23
11.479033403352647 61 67 38
10.484716856742521 53 59 26
16.815672485650225 58 65 33
15.934633544980207 57 64 32
15.861280256195652 56 63 33
10.466977838413126 49 55 21
10.507707647326175 50 57 23
10.711371188905662 56 62 31
11.666675825825344 57 64 34
11.638223755898457 54 61 29
11.638223755898457 54 61 29
11.419401690159011 54 59 29
10.733876521654912 52 57 25
11.780254558261284 58 64 36
11.572385342944223 57 62 33
10.813172293357095 54 60 27
10.89698375005228 50 55 22
11.73579482720634 56 61 31
10.887710982902286 53 58 28
11.638223755898457 54 61 29
11.176489294203272 59 64 35
10.742780249146016 51 56 23
11.090056016623294 59 64 35
9.813882697133167 60 64 36
11.090056016623294 59 64 35
10.121848105909038 58 61 32
11.15753304426693 57 59 32
12.220231440663014 59 62 31
11.561349153480343 59 63 34
11.539220782463898 57 59 34
11.992359605139644 57 59 34
12.220231440663014 59 62 31
12.509187085159585 56 58 30
12.039518877548211 55 58 27
12.388445098129685 57 60 30
11.765682322238014 62 67 42
10.993171833726512 59 64 36
11.659633399481017 64 70 46
11.900265258597448 64 70 45
11.871851642778532 63 69 46
12.258849287658272 63 69 45
11.722844830742844 63 69 44
10.870803795902114 60 65 36
11.608171222412087 62 68 44
11.599931759692765 62 67 41
11.449033885623185 62 68 44
11.765682322238014 62 67 42
11.849848156981773 63 68 43
11.79974019317235 62 65 41
9.617874811640927 60 65 40
11.635006837658997 61 65 39
11.76993918186606 59 64 38
12.6001434656535 62 67 42
12.21452172528111 60 63 38
12.25155266578536 62 67 41
12.09083749767626 61 64 36
12.016320271148789 57 62 33
11.4707011806593 61 66 38
11.39598155984326 58 63 36
11.5922203953566 62 65 41
12.15126272526796 49 51 29
13.417133227138466 41 43 21
12.014534271247129 43 46 17
12.710750842876323 42 42 20
12.30549749362419 40 42 21
11.247884451375318 44 46 23
11.809580571574449 41 43 17
12.231275963716893 38 40 18
11.540207112617791 43 45 23
11.031208373716279 45 47 20
10.955924068551882 48 50 24
11.432136622980765 44 46 19
11.335824998881916 42 44 18
11.52409292334477 42 44 19
10.73400679965065 48 50 24
10.170057018096564 44 45 19
10.634816498935155 47 49 23
10.40131534807056 51 54 23
10.139502398620408 48 51 22
10.833780347840305 47 49 23
10.025871471115115 49 52 21
10.910548054059383 47 49 23
10.084797046667687 51 54 25
10.687688647177694 50 53 24
10.75523960774693 43 46 17
10.844791191190877 45 47 15
11.375197247280553 57 58 50
9.95632766670672 45 47 21
11.02525247354064 44 49 24
9.888960169773563 45 47 21
9.888960169773563 45 47 21
11.140533601326942 49 50 37
10.439260654780103 47 51 30
11.209942009473043 43 46 15
11.177943609984485 43 47 18
10.929245915878932 48 52 34
11.418912186710426 45 48 17
9.756748620639293 45 49 17
9.496166171766989 47 52 23
10.593379712567836 52 56 34
9.645364894889765 51 56 29
9.610930825005118 49 54 27
9.496166171766989 47 52 23
11.229574324760675 48 53 20
11.041870281723206 48 53 21
11.362637418199794 48 53 20
10.696052157409216 49 52 23
11.957073666804272 51 56 23
10.513964531902715 47 50 21
11.18333614466819 48 51 22
10.32240420550708 55 59 37
11.441768964667897 28 29 23
9.315629329384652 58 60 35
11.473031576204828 49 50 42
9.325887201859068 56 59 36
11.101640053976888 14 15 8
10.935206753202724 22 23 13
11.089065827023246 54 55 45
10.071783770077698 56 60 42
9.9747545958952 56 59 37
10.057922118369742 55 59 42
10.377232364539191 56 60 37
10.755712644252123 55 59 38
12.481729018772766 61 66 44
10.23728093358159 44 51 17
10.406130347396674 44 49 20
9.695160579933733 48 51 20
9.744260948863607 43 48 16
9.97367427711984 44 49 18
9.488786191163674 48 54 18
10.299494412564654 49 56 24
11.943235444722353 52 58 24
10.736210454975373 52 58 24
10.403282447426179 49 53 22
10.283348205094683 50 55 24
10.966731983222854 49 56 22
10.649568930153132 50 55 24
10.649568930153132 50 55 24
12.150254828162298 59 65 38
12.012599515683718 57 62 33
12.012599515683718 57 62 33
16.815672485650225 58 65 33
11.695519636160716 53 60 28
10.84378935973785 56 63 32
11.390331967448017 52 57 25
11.42777131642534 55 61 28
11.027173245249616 51 56 24
11.780254558261284 58 64 36
12.1637249387262 55 58 27
11.604249422798992 58 62 33
11.690636587920718 59 61 36
10.30150820481072 59 62 32
9.605154330768064 58 60 33
11.781786762492146 56 59 28
11.347335294823008 63 69 44
10.993171833726512 59 64 36
11.211784955915068 61 66 39
12.025394947478087 63 70 47
11.900265258597448 64 70 45
11.80133887376577 62 68 45
12.16914802104948 62 68 43
11.21800505364871 60 65 36
11.511693584374374 62 65 38
11.345602260088846 60 65 38
11.39598155984326 58 63 36
12.25155266578536 62 67 41
11.345602260088846 60 65 38
11.39598155984326 58 63 36
11.788949532658245 51 53 33
11.568296184332336 43 45 19
11.96333896807168 40 42 18
11.540207112617791 43 45 23
10.591778127778806 46 49 20
10.214609716116746 44 47 16
11.168349913125072 47 48 37
11.35834963308975 43 45 19
9.625353252381345 48 52 31
11.580281107060081 44 46 20
10.841836099246697 46 49 33
10.384317744185223 50 54 33
10.60646631280835 53 57 40
11.442799801810482 58 64 39
9.566300190213216 47 52 23
10.224043770143421 45 48 17
11.0388232713895 45 48 17
11.442424957173722 51 54 23
9.739149177250297 47 52 21
11.56654576329131 50 55 24
10.60646631280835 53 57 40
9.610930825005118 49 54 27
8.617180257720225 54 57 36
10.565606968390776 60 61 49
9.965004406682212 55 59 39
9.25637788955307 50 53 26
11.492283944894652 56 60 36
11.108911763788136 55 61 38
10.924880760836636 54 58 40
11.913566837185192 58 62 40
9.964083313921796 42 47 14
10.465022711820268 49 52 19
9.719546597750673 48 51 18
9.523745748184973 47 52 21
10.460158481590879 48 55 22
11.55223974426606 50 56 24
10.680374530604253 53 58 26
11.9424663619845 62 69 40
10.87481597146762 52 58 25
10.121848105909038 58 61 32
11.925924662021687 61 66 40
11.375900610477386 62 67 43
10.432442223162488 60 65 37
11.608171222412087 62 68 44
11.842299532122844 60 65 40
12.025394947478087 63 70 47
12.218247641935795 62 68 41
11.659633399481017 64 70 46
11.511693584374374 62 65 38
11.721167317151966 60 65 39
11.555313875558554 61 64 39
12.302105857913995 7 7 4
12.231275963716893 38 40 18
12.265644192953923 43 45 22
10.933875788587422 47 51 22
10.84714753747017 44 46 24
11.600567390858478 46 47 21
10.122518855220344 42 47 18
11.35834963308975 43 45 19
11.552920864202552 44 47 17
10.87286828476517 45 50 26
10.118338471578163 47 53 18
10.36942049642402 45 50 19
12.282539361452104 16 15 14
10.640258512574238 55 59 38
11.108911763788136 55 61 38
10.924880760836636 54 58 40
9.964083313921796 42 47 14
10.049534477396472 45 50 17
10.764719123817063 52 57 25
11.099789325917378 54 59 28
11.976538318311098 60 65 36
11.22532454757065 58 61 36
12.128246086733334 62 67 42
11.79974019317235 62 65 41
11.635006837658997 61 65 39
11.4707011806593 61 66 38
13.034336376470916 40 40 18
11.816626305643089 43 45 19
12.285302597158953 41 43 19
10.580738151752655 43 45 21
10.696052157409216 49 52 23
10.957226735926024 45 50 19
11.442424957173722 51 54 23
10.615552129115104 54 56 35
11.390428108055094 61 66 41
10.640258512574238 55 59 38
10.133733173692745 52 55 22
9.729378621739103 46 51 18
10.044548540147465 50 55 24
11.772135539405268 58 63 33
11.535415362861658 55 60 31
12.040166932262316 57 64 34
10.649568930153132 50 55 24
9.728465006279336 60 64 37
11.739008038786123 59 62 32
10.606842742037408 60 65 36
11.568296184332336 43 45 19
10.877769646774416 44 47 16
9.077186297528977 53 55 32
11.191400605892188 46 51 18
11.235713503797351 45 50 17
11.303087789136251 45 47 20
11.289634191191272 50 57 23
10.108401109545087 48 53 20
10.081351480452527 56 60 41
10.736210454975373 52 58 24
10.795972978365416 50 55 22
11.6643981862365 45 45 42
9.944333122515015 51 56 25
10.131713740758935 49 52 19
12.220231440663014 59 62 31
10.159984755038023 49 54 23
10.361776043252638 49 55 19
