12.841436270194633 32 38 15
13.232184857129893 29 39 18
13.314389442846617 30 36 13
13.32550403565976 34 40 17
14.048037422412477 34 42 19
11.987938670328155 22 28 6
11.604638728416326 22 28 6
12.061633003511856 18 26 3
12.018317567984187 13 22 0
12.124300744002515 21 30 4
11.542371999860453 21 27 5
11.278948243338139 14 24 0
12.068949557270164 28 38 13
12.422576958942274 21 32 6
12.422576958942274 21 32 6
12.51103609849702 21 25 4
11.248125480269723 27 35 12
11.88220935444277 26 34 11
11.87766972878079 28 38 13
12.02923841988431 29 39 13
11.869743365979238 28 37 13
11.902572046544973 22 29 6
12.024754301257426 30 40 14
12.024754301257426 30 40 14
11.564597402024305 28 40 13
12.367679625617798 34 44 18
11.728242939976981 28 38 12
12.337676231042629 33 43 17
13.089753931357873 33 43 18
13.718471522666093 36 44 21
12.85120334333371 31 41 13
12.679336389264687 32 46 21
11.4322735938403 31 43 19
11.889396721841273 32 45 18
12.50258856648658 25 35 7
11.90160277189281 31 41 14
12.690782694646076 37 49 25
12.520833387204473 32 44 20
12.679336389264687 32 46 21
11.889396721841273 32 45 18
12.82899209206814 35 45 20
12.008853290136894 34 44 18
12.45670597700462 24 37 10
13.06052604837739 34 48 23
14.172580476149657 38 48 25
13.41286959973247 39 53 29
13.223756455370046 34 48 23
13.603318270360573 37 51 27
12.0330106625576 28 41 14
14.491626355183076 40 49 27
14.871194689181332 39 48 28
14.403073389111581 27 36 15
13.929655120733857 35 43 27
13.813399584952652 49 56 41
14.186633690611872 34 42 26
15.306783742799574 36 44 27
15.02102047884627 32 41 27
14.540314601790463 40 53 29
14.783975980240879 42 52 29
14.540314601790463 40 53 29
13.65644657134715 28 36 14
13.989929206649819 36 44 20
14.07843888318091 30 38 16
13.989929206649819 36 44 20
14.155729989300726 39 47 24
13.491264239339202 35 44 18
13.8942990785487 38 46 22
13.870291077019436 37 47 22
13.603145460330111 35 45 21
14.0439950522167 38 47 21
14.477519827062913 38 48 23
14.23901242524567 37 47 21
12.70205589839743 40 48 25
12.917348871406487 41 49 26
13.355870511623062 39 49 25
13.924821448796335 40 48 24
13.634330014447205 41 49 26
12.865410088704449 43 51 28
13.280571511996007 41 51 26
11.932726391832173 39 54 30
11.88464396088624 38 53 29
11.606204897325654 42 52 26
11.21825250134816 42 50 27
13.071044504079385 43 51 28
12.475291628169122 43 51 28
12.189989669012732 43 51 28
12.727819981949864 42 50 27
13.012717977809553 41 50 27
13.071044504079385 43 51 28
12.615636189486546 40 48 25
11.736313100626425 42 52 26
11.63464081970809 37 47 23
11.506343450965977 37 51 27
11.519214999792469 37 49 25
12.224523432759115 38 48 24
12.142198840770856 37 51 27
12.746608420882248 39 49 25
12.259192290828905 38 49 25
11.469138445275041 37 51 26
11.518955410200366 39 53 28
10.977435201341727 38 50 26
11.424100142633382 36 46 22
11.905014375828083 37 49 25
11.519214999792469 37 49 25
11.642470405637521 36 46 22
12.945510277206694 33 43 20
12.41962605001358 33 42 16
11.441751769073223 37 46 22
12.99274874790862 34 44 20
10.201528052117704 39 50 26
9.993860442709542 37 47 24
10.554284645013514 40 50 24
16.81125391144172 38 50 26
16.895948064836915 39 49 25
16.81125391144172 38 50 26
14.182831681818412 44 54 36
13.170007179749307 40 51 31
14.346403271820655 45 55 35
13.66288303410613 38 50 28
13.784321435946485 42 52 30
13.952565705719078 43 53 31
13.078629553434979 43 56 33
13.448506251037529 42 53 30
13.34899801712777 41 52 29
13.297003088095721 50 55 44
13.396897530687525 40 45 33
13.51673581663703 29 37 23
14.482375503141322 23 32 18
13.684328938711642 45 54 38
14.320357114648836 31 40 26
13.39287133108243 47 55 41
13.65995190986947 42 51 34
11.56041955102388 42 56 32
11.865432872887254 43 55 31
11.171144871061921 41 53 29
12.282857317607824 40 54 29
18.992354850368166 12 12 0
19.051820897975855 14 14 0
19.040149490478676 14 14 0
18.62212793739647 16 16 0
13.866356215134518 45 61 39
14.128304191615792 43 58 35
14.145232556349589 44 58 36
14.050659477415927 45 59 37
13.371410715577412 24 34 13
13.69164697352268 26 35 15
13.736112372086474 37 45 22
11.623790687942178 17 25 2
11.257976248099661 20 27 4
11.955094284249869 16 25 0
11.599732694807614 18 26 3
12.427857219656955 20 26 4
11.211556344071372 18 27 1
11.866117329658847 27 37 11
11.729669826138146 12 22 0
11.403333049573991 28 38 12
12.59818458626809 28 34 12
11.910476562043232 27 33 11
12.340932883579336 31 41 15
12.333304254141403 28 42 13
12.340932883579336 31 41 15
12.79141799046663 35 45 21
13.093209827809453 32 46 20
11.732597580157991 32 42 16
12.20931448848515 31 43 19
12.49096980751472 29 39 13
11.853634417875003 36 46 20
13.91821972407535 35 47 24
14.576894702254686 43 52 32
14.189456018301843 43 53 30
13.732139062154221 37 51 27
14.855093629497967 32 41 18
15.02102047884627 32 41 27
15.090100823044144 43 53 30
14.362296183192388 42 56 32
13.870291077019436 37 47 22
13.989929206649819 36 44 20
14.07843888318091 30 38 16
14.569322313200228 38 48 22
13.473302809455678 36 44 21
13.634330014447205 41 49 26
13.48008548935533 40 48 25
14.209164977211062 37 45 21
13.603145460330111 35 45 21
13.948735595163196 39 47 23
11.498928966487355 41 49 26
13.122169391633081 41 49 26
12.475291628169122 43 51 28
12.91007181564441 42 50 27
13.348619108533647 43 51 28
12.50175092108215 41 51 27
12.622857307599196 43 51 28
12.252233404088136 40 48 25
12.154151011873012 39 53 28
11.506343450965977 37 51 27
12.024315790238338 37 47 23
11.298462777485014 37 49 25
12.142198840770856 37 51 27
11.905014375828083 37 49 25
13.49189038931518 23 32 6
9.990437319351846 33 45 22
10.135681993978316 37 47 23
10.372408226528588 36 48 24
15.026005140606319 36 49 22
11.63851664018692 41 54 31
13.396897530687525 40 45 33
13.569946048922073 48 54 42
13.688269410691502 26 34 20
14.482375503141322 23 32 18
10.982087557402997 42 54 31
11.382583782778699 44 54 31
11.654678494385102 40 54 29
19.233689881333742 14 14 0
18.754908579876698 13 13 0
19.335323628726815 13 16 1
14.30923395560107 42 55 31
14.556763838897194 42 53 30
13.736112372086474 37 45 22
12.03251766851524 23 29 7
11.87766972878079 28 38 13
12.72865386811354 36 47 22
11.323614054324432 28 37 11
13.10429462907648 36 48 24
12.209081162836572 32 46 19
12.349669888326302 26 36 10
12.32543978020389 35 45 21
12.717241649180265 31 45 18
11.88220935444277 26 34 11
12.056676650193971 35 46 22
12.486879642786466 32 42 16
12.400769422902982 18 26 3
11.815110331159747 18 24 2
12.851607928953484 33 45 20
13.603318270360573 37 51 27
14.607136489689402 38 46 30
13.8942990785487 38 46 22
13.989929206649819 36 44 20
12.91007181564441 42 50 27
13.454904480157104 42 52 28
12.910292472407379 39 47 24
11.849131617162804 37 47 23
12.455625177333353 40 50 26
13.75704873751315 24 34 9
13.052239372929355 34 44 19
10.594702794447313 38 48 23
17.039010063509206 37 49 25
11.302718442205133 44 54 31
14.203502499216343 37 47 32
13.687254842611043 39 50 28
14.797448560579783 44 53 38
13.195289365435022 42 52 33
12.720625073345387 30 43 15
11.853394090918782 31 44 17
12.683589090984597 33 47 21
11.80572444852897 27 35 12
12.717241649180265 31 45 18
13.91821972407535 35 47 24
12.627743976187482 25 38 11
13.780031114074212 43 51 28
14.14506636687811 38 48 22
11.260570953531293 37 50 23
10.652090429696276 37 50 24
13.154472699738072 41 51 25
13.585342368367838 40 50 26
12.106947995019862 38 52 28
12.851014708087455 42 51 27
10.705710045939282 39 52 25
14.12148470241256 39 49 24
11.629735274127667 38 48 24
11.298462777485014 37 49 25
11.873362113267703 40 54 30
11.56041955102388 42 56 32
13.781416140069757 46 55 40
14.226948216963441 38 47 33
18.90243394197579 13 13 0
18.56128530437792 24 26 6
14.30923395560107 42 55 31
13.96217773156874 45 60 38
12.024754301257426 30 40 14
13.452764573394802 31 38 15
13.314389442846617 30 36 13
12.388123964755188 19 32 5
13.86345790306387 40 51 28
14.488862888250345 30 38 22
14.852397790169523 26 34 17
14.937009679404149 37 50 23
14.145232556349589 44 58 36
14.02691909962354 44 59 36
11.79144269253662 21 27 5
11.96894276410915 32 42 16
12.64558295759551 35 49 24
14.576894702254686 43 52 32
15.02102047884627 32 41 27
10.626663518378953 40 50 24
11.352807681857108 41 51 27
13.324007495433452 41 52 29
13.298771965979126 33 43 16
11.029473272326053 39 51 27
13.417733594532425 45 53 39
