8.9953433680919 47 53 17
9.344801104153728 48 54 19
8.200701694442618 44 50 14
8.225607190204977 43 49 12
8.225607190204977 43 49 12
8.987193004201924 48 53 20
8.049792895203865 48 59 21
9.121493266554376 38 43 9
8.472106620178467 22 27 0
8.55692240249116 27 31 0
9.186605428378215 44 49 16
8.015993142120356 40 45 10
9.693571701902863 45 50 19
9.602998639675214 46 51 19
9.767786993916037 43 49 14
8.794782750409228 41 43 10
9.276892154216206 49 53 21
8.404503507812535 34 38 4
8.081007164661266 46 56 18
9.824510263689925 45 51 17
10.152668196231245 46 51 16
11.655057461501448 45 55 18
12.142551201544496 46 54 19
7.2434450621312445 46 52 16
7.734474454784083 46 52 20
8.52086084913379 48 53 20
8.34085394657139 46 52 17
8.001448438333329 39 45 8
7.8139875968401915 40 44 10
7.752007947353888 38 42 7
8.4207178232052 49 54 21
8.976958728870413 49 55 21
8.973033930355538 47 52 19
8.556395719331265 50 55 22
9.213533907659286 51 56 23
8.956110699827635 44 49 15
11.03972727567984 52 69 33
10.977326541892479 52 68 32
10.977326541892479 52 68 32
10.904623027581234 52 69 34
9.241733627137389 49 61 24
9.91305851209017 52 67 31
9.110462944803858 49 63 26
9.992978719971617 53 68 32
10.064986543279076 51 66 30
12.973073587677327 46 58 22
12.521189790995896 47 60 22
12.62283103600601 47 61 24
8.176694638724546 45 56 19
8.24030043385092 47 54 19
7.885495990419777 46 57 19
7.478555775098182 44 55 17
8.24030043385092 47 54 19
7.403186253288112 44 55 17
8.07403411102908 47 56 19
7.77943956549313 51 60 28
8.31327767782472 45 55 18
8.214892263498921 47 58 22
8.484630573468621 44 54 17
8.68065926697848 43 55 18
8.586484406417743 50 63 28
8.842905592335415 50 61 26
8.024280052543334 42 56 19
8.36540285911725 45 56 19
8.439917319928107 51 62 27
7.85119798078868 50 61 26
8.74703886925447 50 65 29
9.500444118386072 51 66 30
9.14892173237698 51 68 32
9.44953244868983 52 67 31
9.35981161773559 52 63 26
8.65410591022756 51 62 26
8.71866841242491 51 62 27
8.71866841242491 51 62 27
9.007597274867265 50 63 28
8.330009555808937 51 62 27
8.71866841242491 51 62 27
9.36873625254179 52 67 31
10.442289641892241 51 68 32
9.528806504720798 52 67 31
9.528806504720798 52 67 31
9.528806504720798 52 67 31
9.363574297458694 53 64 27
9.524271556202846 52 64 27
9.89544254618204 51 66 30
10.047636947912437 50 67 31
10.114921368102085 56 63 33
10.063618098408876 56 63 33
10.673260211395307 54 61 31
10.873142579529313 57 62 33
9.666088353789679 56 63 33
11.171251217288683 56 61 33
9.612389869902437 56 61 33
10.20173212610486 56 61 34
10.1543371731032 57 62 34
10.063171381712193 53 64 29
9.406617018839334 53 62 30
7.4476496430979395 49 55 20
8.076582773441295 48 53 20
7.58305488707414 42 49 12
8.57748048816842 45 51 15
8.331026572467765 47 59 22
7.456412998074338 47 57 20
8.012798068923322 47 61 23
8.23499296402139 48 59 22
8.038285778675647 49 60 22
7.641794549713389 48 56 21
7.764749681828523 50 60 23
7.6219160906090115 49 54 22
8.59435574459657 50 64 27
8.010039202771798 50 54 22
9.382737346899873 49 63 26
9.382737346899873 49 63 26
8.394292529908984 48 57 21
8.525324709201149 50 62 24
8.356914944627478 50 55 23
8.918534073853003 51 66 28
8.987077730020502 49 59 22
8.828893214485882 50 65 27
8.767739300640933 50 55 22
9.401721917019565 53 64 27
8.329869276327553 49 61 24
9.3721238480693 50 65 28
9.52444621188912 52 63 26
8.845666215151187 51 64 28
9.786193452302728 50 60 26
8.8152948220073 48 60 23
8.89517740179963 52 64 28
8.658961646432436 50 62 26
9.11288867110997 51 66 28
9.419237723608076 51 66 28
8.85882496345203 51 66 30
8.704972483389321 49 63 27
8.827406762558534 51 66 28
9.633713926724017 52 67 31
8.800786629521378 51 65 27
9.549413811702964 50 66 30
9.943269256584594 49 66 30
9.11762823656236 49 66 29
10.725086743883478 56 61 34
9.9913169705501 53 63 30
10.074905169171542 56 63 32
10.506287850017205 56 63 33
11.227765170152544 53 62 32
10.521634142357456 57 62 35
9.878939511040075 53 64 27
9.657678045192112 53 64 27
9.829819120827187 52 64 27
8.270514532058087 40 46 10
8.29521042477536 43 49 12
8.584223098855336 37 43 7
8.841685661255026 47 52 18
8.349896594242106 40 48 11
8.63011149291754 46 51 16
14.804608361773187 56 63 27
7.7727940828276685 32 38 4
8.986692779986672 25 28 0
8.431094102195017 39 43 8
8.340437832087495 40 45 11
7.722329208627477 36 44 5
7.844974291892745 39 44 9
8.5318540801797 42 47 11
9.752243009214371 44 49 17
9.404514225135754 42 47 15
11.655057461501448 45 55 18
11.875708160602965 46 55 20
9.204766462188582 44 55 17
12.142551201544496 46 54 19
9.837339704158879 48 51 19
11.8522898519398 47 55 20
7.734474454784083 46 52 20
7.35831473436075 47 53 18
7.8139875968401915 40 44 10
7.7965934894312685 43 48 14
8.956110699827635 44 49 15
8.4207178232052 49 54 21
8.902086492493348 45 51 17
9.213533907659286 51 56 23
10.933294245542037 52 68 32
8.91713669030228 50 56 21
8.91713669030228 50 56 21
10.923365266252553 53 69 33
10.860295964011312 53 68 32
9.992978719971617 53 68 32
9.110462944803858 49 63 26
8.809432208891296 45 55 17
8.230231189618335 46 56 19
8.035166901820613 46 56 18
8.242438198383157 46 56 19
7.768326256053075 45 56 18
7.885495990419777 46 57 19
8.039982642724851 43 55 18
8.380466307372107 44 55 18
8.170859166202813 50 63 28
8.71866841242491 51 62 27
8.74703886925447 50 65 29
9.308130777538722 52 63 26
9.504151122068055 52 67 31
8.887066660802676 51 62 28
8.953883722634647 50 65 29
8.887066660802676 51 62 28
9.524271556202846 52 64 27
9.474329968506686 51 63 28
8.150109462585991 51 63 28
9.68676305360438 51 66 30
9.528806504720798 52 67 31
9.662443477647747 55 61 32
9.821837359452353 56 63 33
9.612389869902437 56 61 33
10.205184392127903 56 63 32
10.352826354652938 56 63 32
9.57027266570364 53 64 28
9.406617018839334 53 62 30
8.302275004389099 48 54 19
7.864941765976171 49 54 20
8.321686781338684 45 51 16
7.860673370935842 47 53 19
8.095344856397002 49 54 21
7.306235725612886 50 55 23
8.09392921081826 48 59 21
7.609304425872094 48 59 22
8.555463347020227 50 55 22
8.525324709201149 50 62 24
8.496213939331037 49 63 25
9.739300326694176 49 58 21
8.50129731458663 49 64 26
8.172322051650239 49 57 22
8.665464024715206 49 59 22
8.8152948220073 48 60 23
10.181824982455584 57 62 35
9.919644079080584 49 66 30
8.405647872483414 50 65 28
10.942577853407652 55 62 31
9.850775415233667 51 62 28
8.763645381419984 52 65 29
9.829819120827187 52 64 27
9.640956621953173 52 64 27
9.785038258921631 54 65 28
10.074905169171542 56 63 32
9.3548920242484 51 66 29
9.243748246663245 50 62 27
8.370765736410835 45 50 15
8.132027945159418 41 49 12
7.905574360579104 49 54 21
9.088662843852159 42 45 12
7.805244646541105 28 39 0
8.837625996823071 45 55 17
8.685751398683546 49 56 20
9.175092606399598 52 67 31
9.824510263689925 45 51 17
9.09379669579504 44 49 16
10.12004413425269 51 68 32
10.11143828435684 55 62 32
7.811797553732684 48 55 21
10.20173212610486 56 61 34
7.978113856448254 49 57 23
9.474329968506686 51 63 28
10.114921368102085 56 63 33
7.738361083274568 47 62 23
9.445504189204199 52 67 31
9.510250548078503 48 59 22
9.360911000249487 51 66 30
7.764749681828523 50 60 23
8.852031448154296 50 61 24
9.195137400050125 50 56 22
8.852031448154296 50 61 24
7.904646017889989 51 55 23
8.800786629521378 51 65 27
8.329869276327553 49 61 24
9.633713926724017 52 67 31
10.835926791912385 56 63 32
9.943269256584594 49 66 30
9.033294499431596 50 66 29
9.11762823656236 49 66 29
8.262894628698763 38 44 8
8.745290258262992 50 55 22
9.388368802035638 43 49 14
11.875708160602965 46 55 20
9.200324441582486 44 48 12
8.462844424366196 38 42 9
12.62283103600601 47 61 24
9.09354108196524 47 60 24
10.263861813915543 56 61 34
11.037756964711598 56 63 33
7.6662853121203325 49 57 24
7.595099533284193 46 56 19
9.89544254618204 51 66 30
10.171062792623383 50 67 31
8.28287900921381 50 61 26
8.111462724257786 48 61 24
7.8207458824968965 46 53 17
8.116439525595855 49 55 20
9.283247688832319 50 61 26
9.490504431628649 53 64 27
8.06622721738625 50 63 26
9.086721709619487 50 62 27
9.448688209230854 49 66 30
9.68676305360438 51 66 30
11.688598673472114 49 62 24
9.1367452007291 45 50 17
12.065989967558757 45 56 19
7.918361130169168 48 58 21
8.997187831657444 47 52 19
8.28287900921381 50 61 26
8.439917319928107 51 62 27
8.439171840744779 44 50 14
7.874255235947624 43 49 13
9.477275230849834 49 58 21
10.923365266252553 53 69 33
10.904623027581234 52 69 34
7.569324656143852 48 56 20
9.355194748982155 53 62 29
9.66251072979342 50 67 31
8.864975635529316 49 60 24
9.36873625254179 52 67 31
8.91911222978931 48 54 20
