18.80197433047091 37 47 20
18.012494945197687 43 56 25
17.73561975340842 45 58 27
17.208825110368565 43 56 26
18.153655710565328 39 48 22
17.653822519342942 39 50 21
17.806892270883132 42 52 23
18.450234179069273 40 53 22
17.525600397689715 38 50 20
17.247486629188803 29 33 19
17.686195858344018 37 46 22
8.900330748676991 53 60 57
9.957641813360262 53 60 56
8.825540126257794 51 57 56
9.813190351686131 52 59 55
9.319873902331295 37 42 18
6.540854146626365 12 22 1
7.154810921728028 47 56 37
11.214617452898583 40 45 43
10.84842034497017 52 59 55
9.402198038425919 52 58 57
9.437987022565856 53 60 55
7.269564165375911 39 47 24
6.704357378049045 52 59 51
9.53265547753194 53 60 55
7.590985978486434 39 48 23
6.6661845756233165 35 43 20
7.426498207502521 47 56 38
8.764024158734221 34 44 23
8.688060228797818 36 46 25
7.830501622122113 42 51 23
8.649824380294511 33 38 13
8.394921419452135 49 55 28
6.824858561365024 38 44 17
8.491569173359863 43 47 26
7.693475447971235 43 52 26
7.197373785734446 28 34 10
7.848446395738175 42 51 21
7.6094956007803916 43 49 22
8.491569173359863 43 47 26
8.720384216572993 37 43 16
8.219468786188987 40 49 21
8.346242086596558 44 53 21
7.946767944824845 39 48 20
8.370681174570862 40 49 19
8.346242086596558 44 53 21
8.791453481050606 44 49 20
10.52129738072646 51 60 32
11.509579381854925 45 52 26
10.823339994269853 48 56 29
10.56671514125934 45 54 24
11.241360400792301 44 53 24
10.903163022969956 44 52 25
10.496011105247437 43 52 24
10.413067456209985 46 56 26
10.823339994269853 48 56 29
10.741961838994655 44 50 23
10.065428791220793 51 61 34
10.885575962467845 49 59 31
10.885575962467845 49 59 31
10.105830268802114 46 55 27
9.967512249843335 45 54 26
10.450286063962057 50 60 30
9.783731553419472 47 57 29
10.676375030397708 53 63 33
9.208920705053144 46 56 26
8.435156870975714 51 63 35
7.813426748312807 49 62 30
9.401897372005138 47 57 29
9.416018209403543 53 63 35
9.23773078218674 54 64 38
9.810853814096903 55 66 38
10.319782365943377 49 59 31
10.125145790934654 53 66 37
9.899888738906293 52 65 34
9.620655954108443 53 63 33
9.899888738906293 52 65 34
10.041053018156223 51 62 32
10.302838183194128 51 61 31
9.570861754840179 54 67 38
9.260933299060394 53 63 35
10.125511636697045 53 60 56
10.489900805677486 53 59 60
9.523102264717654 53 60 57
7.060627839620146 43 52 26
7.2613301987887615 52 62 34
7.186382874107179 51 61 33
7.88799239999886 44 53 23
15.787757891455584 36 46 16
15.557307100211082 19 32 3
9.819579482177645 52 59 55
9.84866378776465 54 60 58
8.900635673091564 39 49 29
8.900635673091564 39 49 29
9.344707019047139 46 55 44
8.295346227064352 33 43 20
9.996808201364576 54 61 57
9.248114827175899 54 62 58
9.44785177331486 55 62 57
8.945143646055374 54 61 56
9.154862984434173 51 60 53
8.965687562110647 53 61 55
9.437045329218616 53 61 57
10.663473710085277 39 48 22
9.551935880550099 50 59 52
10.078038000203339 41 50 22
9.496287425967251 38 47 33
9.404530801836192 37 47 23
9.3380346605012 41 50 24
9.138118175655334 37 46 32
9.879647649534933 40 48 25
9.942522112669653 39 47 24
7.2150490825119515 46 55 27
6.95424265304531 50 63 36
8.835005515091217 47 56 28
7.303565871086302 47 58 29
7.3481750326453215 41 51 23
8.64709091437416 46 55 27
8.148770938705354 50 63 34
8.77933590289324 49 59 29
8.93833494630342 46 56 28
8.245842676964532 52 65 38
7.414334829459309 53 63 35
6.771315280835517 50 62 35
8.270319203025522 50 61 33
6.652601968022572 52 62 34
7.414334829459309 53 63 35
7.765046415393404 48 60 30
7.765046415393404 48 60 30
8.387920051233108 48 59 29
8.089500616753737 51 61 31
7.537023688311723 51 61 33
8.621886265039004 52 62 34
8.276627190615123 55 68 41
8.441341680708444 55 68 41
8.276627190615123 55 68 41
8.723188138186075 53 63 35
8.879622909348477 53 63 35
8.879622909348477 53 63 35
8.460814091741424 53 66 38
11.700035213282852 52 66 36
12.688303979601745 50 64 33
12.704393107780348 47 60 29
12.704393107780348 47 60 29
18.99406282487043 37 46 18
18.693661539971842 39 49 21
18.762329785201118 36 46 19
18.084369920259405 39 49 21
18.718062833447416 38 47 17
17.613332641555445 36 45 20
18.293114363069016 36 44 21
17.197665057535534 39 49 22
9.957641813360262 53 60 56
10.75109250701732 52 59 55
9.813190351686131 52 59 55
9.085241678211085 53 60 56
7.0153062490056906 38 47 22
7.215958576894513 41 49 27
8.649824380294511 33 38 13
8.299593483840976 49 51 25
8.048798802062016 42 50 22
8.584765615188115 42 48 23
8.174448351767564 41 50 20
8.513333641092329 40 49 21
10.579281336774319 51 60 32
9.854250094853532 51 61 31
9.916135333932305 49 58 28
10.435722801650929 52 62 34
10.437564567107483 46 55 26
10.065428791220793 51 61 34
9.878295679064104 46 56 27
8.435156870975714 51 63 35
9.224457408720815 53 66 39
10.288066203293036 54 67 39
10.066455481368918 52 65 34
9.639871557542719 54 67 38
10.327596761785435 55 65 37
9.401897372005138 47 57 29
9.165693704706795 55 68 41
10.105056901137198 54 67 40
9.694695860906508 53 63 35
10.058438207036776 49 60 33
10.041053018156223 51 62 32
9.523102264717654 53 60 57
10.449892678359362 53 60 56
9.973263343326025 54 60 59
7.373143544959446 44 53 25
7.373143544959446 44 53 25
7.233292054340154 51 61 33
15.557307100211082 19 32 3
10.163716112103906 41 50 24
9.578615250779356 52 59 54
9.67190733711097 54 61 55
9.688816357278277 42 50 27
9.551935880550099 50 59 52
9.314049177141287 38 48 24
9.404530801836192 37 47 23
9.996808201364576 54 61 57
9.640184987572583 39 48 22
9.819579482177645 52 59 55
9.314049177141287 38 48 24
8.497066792948585 41 51 25
8.811854293703048 48 57 30
8.497066792948585 41 51 25
7.129606874739904 48 61 34
8.38830345917533 46 56 28
8.060676461011912 51 62 34
8.802572649746756 46 56 28
11.25559861866082 44 53 25
7.172319309277664 52 62 34
7.712531439695497 51 64 37
7.749527624695203 50 63 36
8.59221406404136 50 62 33
8.233174696813851 48 58 29
6.880401905958581 49 62 36
8.331850947409519 54 64 36
12.704393107780348 47 60 29
12.015913939142488 45 55 27
11.717481399613915 46 56 28
19.332744402980836 33 46 15
18.069681102587694 41 54 22
17.806892270883132 42 52 23
9.880507770053342 52 59 55
7.766117464209502 8 17 2
7.230085529802489 54 62 45
7.058834656682326 52 60 51
7.611135302771738 39 48 30
6.607685814656909 33 42 20
9.53265547753194 53 60 55
7.410007374882815 40 49 21
8.651289400856678 40 49 19
10.823339994269853 48 56 29
9.598434740498845 47 56 26
9.51517187579155 45 54 24
10.450286063962057 50 60 30
8.854993814322967 35 39 14
8.299593483840976 49 51 25
8.465379594733298 53 63 35
9.124368763080959 51 64 35
11.585186787778495 50 62 32
7.789066581182738 35 45 22
9.968136627705894 53 60 57
10.31532731064671 53 61 57
11.162887445037496 53 60 57
9.973263343326025 54 60 59
15.144488539595413 27 37 7
9.344707019047139 46 55 44
10.211841595094514 38 46 23
9.310739279611806 54 61 56
9.640184987572583 39 48 22
7.3314814868166955 46 55 27
7.982725639503801 49 62 31
7.379808989287954 52 62 34
7.585802407191739 51 62 38
8.713812050693255 56 66 38
7.612542313407342 51 61 33
7.510014897835478 55 66 40
7.967496291967344 52 62 34
8.158796397194392 50 63 36
7.999486071459308 52 62 34
17.539527515873157 43 56 26
9.783731553419472 47 57 29
8.324169529463882 40 49 19
8.025774697652315 42 48 21
9.994135775692708 52 62 32
8.362273957480452 39 48 20
10.435722801650929 52 62 34
6.734626890459303 40 46 19
8.070187006955667 33 39 14
10.058438207036776 49 60 33
11.162887445037496 53 60 57
8.836132694220078 38 47 36
9.51240176549037 53 61 54
7.303565871086302 47 58 29
8.183533278331266 50 60 31
17.412284348515453 41 53 22
10.543720174539871 55 65 39
9.899888738906293 52 65 34
8.557336511332057 43 47 25
9.606022372168605 55 65 37
8.441043218100255 47 56 26
9.570861754840179 54 67 38
10.569733159526672 47 57 29
9.387109711475816 55 62 56
9.572348810158845 54 62 58
8.179789726202673 52 62 34
8.866154208114638 37 47 20
17.247486629188803 29 33 19
10.066455481368918 52 65 34
10.028698593522336 42 51 23
10.413067456209985 46 56 26
10.068364795637017 52 61 33
9.640184987572583 39 48 22
9.328302996810741 34 44 20
7.510014897835478 55 66 40
