24.38149101662423 30 31 18
24.752460655583597 79 80 72
20.91472601806267 49 47 29
21.038196112443945 53 47 32
15.996406035433822 46 31 11
14.258745191348462 50 45 26
14.71365847390875 38 39 25
14.258745191348462 50 45 26
14.453434887919025 39 38 24
20.633880026572914 43 41 23
15.15269488715673 52 38 20
20.672372156540636 19 15 5
14.21329026892911 59 53 34
14.835108148919133 69 67 47
14.916114378839247 56 50 28
14.82128197618677 68 70 49
14.288429851535051 66 54 36
13.694115234809287 47 47 32
13.427662212755157 53 51 37
14.245319389356412 60 62 43
13.776111162897234 55 57 38
13.61800272551466 50 51 36
12.925898672376743 42 44 32
23.898575166327 84 87 99
24.754631249266996 40 39 25
21.989284005457915 82 76 61
22.8692875663466 91 85 70
21.547429193020943 64 65 45
22.251337044170636 112 106 90
22.71254832935011 111 105 90
22.529334816072193 23 18 4
18.382123944859558 64 68 47
19.13863298934611 69 65 48
20.01839653174773 59 60 44
18.880777340830637 57 55 35
19.29235155795275 66 68 47
18.474880471990463 76 74 68
19.725345601164133 58 61 51
10.77343155805906 25 20 5
11.81281212310391 28 26 6
11.284165885411296 90 85 77
12.069119283106664 90 88 82
11.506435941531151 60 58 39
12.143464761905461 53 53 25
12.801319103753633 49 45 17
12.320371480232872 58 58 28
12.937733286458203 60 62 32
13.135044909352972 61 61 31
12.653828290214442 63 63 35
11.783335481855811 87 86 72
12.566330547341252 52 54 21
12.520710892191827 51 54 19
12.473365481607042 31 31 2
12.804356916844988 56 60 32
12.815634218107887 56 58 32
12.804356916844988 56 60 32
12.878626636032667 65 70 53
13.170133378630725 68 77 54
12.550870883602936 75 79 68
13.124869953514049 82 85 74
13.52931553473549 67 74 55
13.110984580085672 68 75 54
13.168656749342698 70 76 57
13.731766321718448 71 77 57
13.80427407585056 71 75 58
14.342449877669848 70 74 55
11.980610647359148 82 81 80
11.87061258030838 83 82 81
12.84839909972172 54 61 31
12.668041556904894 52 55 25
13.688451604808803 56 60 31
13.102008689341279 58 63 32
12.599743744951086 45 50 27
12.908751139339884 50 53 29
13.227383451185826 59 65 35
12.56106357585215 54 58 30
12.888294500976283 59 65 35
13.386142805405221 83 82 80
12.855339643835475 69 72 60
12.44243761929498 77 79 69
12.41132279309623 82 81 79
11.804175159259502 91 92 87
12.238629606242693 88 90 80
11.660133622271992 87 87 82
12.44472695158312 35 39 21
13.19297478613388 48 53 29
13.33929897882715 51 58 28
12.613746541829267 64 64 58
12.956848469327976 34 39 20
13.51361438020601 44 50 27
12.626734289150367 36 39 25
12.617410427134212 46 51 26
13.4350320861502 47 53 28
12.541058673333188 84 84 79
12.827991856655395 74 75 66
12.995583559875753 40 43 32
13.075450640299369 66 68 57
13.95386031469987 54 61 33
15.428763010271409 56 65 38
14.727485946177211 57 66 40
13.818306358024 49 56 33
14.74140009182762 54 62 39
13.565879175121122 38 40 28
14.323258048728896 57 65 41
13.95386031469987 54 61 33
14.822918438682155 54 63 37
13.966505542376437 33 38 22
15.088695741427854 60 70 46
14.781366916573013 57 67 43
15.33430853817249 60 70 47
15.338145416082577 57 65 47
14.966400121993189 56 66 45
15.02915320803446 60 70 46
14.90230765854306 58 68 44
15.643880080446209 58 68 45
15.039829121731948 55 64 41
14.26165441158696 49 56 41
14.161308989207523 49 58 39
15.256350361969325 54 64 43
14.575555038127476 41 49 27
15.005541001231832 54 64 41
14.003592124614665 46 54 33
14.25652405479126 39 47 27
13.874819882256414 39 44 31
13.678452677275557 86 87 80
13.339310708415875 88 89 81
15.150717791226453 44 49 35
14.05569795061787 63 66 59
13.832233930570798 41 44 35
13.590071128289903 87 90 82
13.51269196534318 51 54 47
14.299600737164168 32 35 24
22.52403451381548 94 88 73
23.310393539396674 62 53 37
23.377743884745104 68 59 44
22.699192429411227 93 84 72
23.145242793041557 63 54 40
22.729641343447597 53 46 31
22.798707370834716 25 19 8
14.610748204787212 61 63 37
14.610748204787212 61 63 37
13.738126209345612 60 62 36
13.63208970014982 59 62 29
13.330894927904293 62 65 36
13.201491318834092 61 66 35
14.701113902426652 73 71 48
14.3568564253823 69 75 53
14.371129419482976 68 66 43
15.03608517344884 54 54 32
13.81936555127804 66 74 52
14.3568564253823 69 75 53
14.094463251884289 64 70 43
14.921706266771162 66 68 44
14.7053488071283 67 72 45
14.921706266771162 66 68 44
13.850408860887121 68 73 46
14.232647449453783 67 77 54
14.33137544569325 67 70 45
14.77029595509299 68 77 55
14.784169810088235 70 76 51
14.554629818955261 71 77 50
14.554629818955261 71 77 50
13.262780259520452 68 76 54
13.52813118341492 68 76 54
13.733182404060434 70 78 56
13.321255074654351 69 77 55
14.82402132447698 70 78 56
13.8767730350886 69 77 55
14.021544939708901 68 78 55
15.150965261709272 66 72 45
15.10914213872594 72 77 49
14.208191941364484 71 79 57
15.254383322203227 66 71 44
15.422083929219902 67 72 45
15.199361959468122 71 78 55
15.029176351208864 71 79 55
15.254383322203227 66 71 44
16.980238288970483 70 76 47
13.444712774403762 69 77 55
14.255147441805642 71 80 57
13.97046024695625 71 79 57
14.264034628048496 71 79 57
13.444712774403762 69 77 55
13.354656253930555 68 74 53
14.098358951994975 71 79 57
15.07357463048162 73 81 58
14.874296543482348 67 75 54
14.518925380865136 69 77 55
14.558284802624268 68 76 54
13.4281345740164 70 78 56
14.098358951994975 71 79 57
13.354656253930555 68 74 53
13.956925544762669 68 75 53
14.874296543482348 67 75 54
13.767532285582233 57 61 30
13.309203990549587 61 66 35
13.685448109287487 59 65 35
13.685448109287487 59 65 35
14.882930507069872 64 71 41
16.362983226795006 66 76 52
16.152141723609457 69 78 54
13.774505196206562 58 65 37
14.424451822777092 58 68 37
13.374657213533078 61 67 38
14.269523711017698 63 70 40
15.323271900850722 61 70 40
15.178689909702788 60 70 42
15.680079927774601 63 73 46
15.09909245625131 62 72 45
15.085508232404273 63 74 48
17.06411527653949 69 75 49
17.13562177510199 71 79 56
16.993351517535917 72 80 58
15.351161375903134 71 82 56
15.351161375903134 71 82 56
15.549252895336373 71 79 58
15.32722178942803 73 80 59
15.727976069114503 69 79 55
15.209660159083288 73 81 61
15.433382648519236 69 77 56
15.751306581910635 67 80 53
15.131284588727729 69 77 54
15.751306581910635 67 80 53
15.356148967950215 69 77 52
15.596413729333166 67 81 54
14.353210042536723 66 76 52
14.775215275475341 67 76 53
14.775215275475341 67 76 53
15.1381149505957 65 75 50
15.08266944846514 69 79 56
14.89620596206134 70 78 56
14.762418419314082 68 78 55
14.43395413458806 68 78 55
15.641830102219101 68 76 52
15.641830102219101 68 76 52
14.868540740277266 59 69 39
15.489643041919784 56 66 37
15.13128604198135 59 72 43
15.665290317532602 60 70 43
16.255979163169158 58 68 42
15.755043302941342 59 71 41
14.233500315141413 56 66 37
14.714289443800489 59 71 40
15.50574398249714 62 74 47
14.714289443800489 59 71 40
14.527148194654442 58 68 39
15.288090599116535 61 74 45
14.794261601918029 66 76 51
15.212934176395182 60 73 47
15.527684077837167 59 69 44
14.905294162210799 60 73 47
15.642855827777414 59 71 43
15.288090599116535 61 74 45
15.233190985509571 65 74 53
15.170225724730777 61 72 44
15.469831278792517 64 74 50
14.727600682688884 66 74 52
14.648475293849643 62 75 48
15.820521612012092 60 72 46
12.911534174720561 80 84 73
12.990250473870436 68 72 61
12.553969300372701 65 71 51
12.930411222203775 63 69 51
12.757352034296627 63 68 50
13.0574337311902 65 70 55
13.588588270356928 65 69 52
13.002166819445472 71 75 59
14.331469083598755 67 74 54
13.599341127155562 62 67 49
13.4457771644441 67 72 55
12.353575941903125 66 70 57
12.762510746332447 83 81 74
12.670714914983805 82 80 74
23.582020602767162 72 76 87
24.127797005492422 77 79 86
24.144643504865893 89 92 98
22.887174822396783 80 83 94
21.876184992290117 107 111 121
22.129435871618828 105 109 122
23.49462561526339 81 85 97
24.68621707401488 74 75 81
24.377548097505482 85 85 89
14.960606561412273 67 70 63
14.629877059111733 65 68 60
12.911639812699809 71 74 64
13.06111619241899 71 74 63
13.722509077663931 64 69 56
14.249389697329248 65 70 55
14.144676824322234 66 70 55
14.390922770367581 63 67 50
14.5335195926476 66 74 56
14.902306182959764 66 76 55
13.799206308387157 73 76 66
14.338930123332368 55 62 47
14.372469193023145 58 63 52
14.630228071495235 63 67 57
15.062943408863157 60 65 54
15.134462456675335 61 71 50
14.6354506603557 64 74 53
14.506267230192492 57 66 49
14.25764635795135 57 63 49
15.18009263828247 60 69 52
15.303589107944163 61 71 50
14.810276896938086 63 72 53
15.315119946244721 56 64 47
16.010026533360076 59 67 47
14.852941592737624 61 70 47
14.596182045296436 60 68 52
15.417547947067813 56 64 46
15.40172970802104 53 58 46
21.374359435581766 140 145 158
21.044397469030194 146 151 162
14.821834486955078 67 75 54
14.356072301684014 68 74 56
13.593834893398094 67 73 54
13.972753864478134 67 72 55
14.36613157010476 67 74 54
20.989862241640882 155 158 168
20.989862241640882 155 158 168
21.199679978499432 115 117 125
21.36751958861815 140 145 156
15.149883273953487 68 76 56
15.72899477885953 67 75 53
15.509537031535828 68 76 54
14.91785223748714 68 76 53
15.591950770892254 66 76 53
15.115958040966177 65 73 51
14.773285601653994 68 76 56
15.003516430785364 68 76 57
20.69487566230722 28 23 8
21.102486229251866 38 38 17
14.413388557055857 59 53 34
14.848806167821499 63 58 41
13.782992126511418 45 43 28
13.949834549714083 51 49 33
23.948872745914127 96 100 112
22.614396401665513 69 63 50
22.614396401665513 69 63 50
22.246614792525396 63 61 43
23.03014486377751 33 30 14
22.529334816072193 23 18 4
22.135436252174692 17 13 2
19.061460878296625 61 61 40
19.33212980576177 58 61 50
18.49378725910959 64 68 47
12.143464761905461 53 53 25
12.69082840496367 53 53 24
11.916016836894489 78 77 60
11.750329828956463 81 78 69
12.770905145413417 57 59 31
12.598782029106498 42 41 9
12.757486213202561 67 74 53
13.731766321718448 71 77 57
13.394405437679115 65 69 53
13.66004668330654 67 75 54
13.109370712480784 65 69 55
11.898340243893196 84 84 79
13.5049028391492 51 58 29
13.244212940489357 56 63 33
12.285144701459176 53 58 29
11.816551912548006 84 84 81
13.361069175645472 57 61 31
12.197910128963365 49 55 26
13.33929897882715 51 58 28
12.111835841400001 45 47 35
14.177176690496795 82 82 79
13.066497542503763 82 82 78
15.46695378159976 58 68 44
14.664534574224453 55 65 41
14.880408701657377 49 55 35
14.920003162981716 54 63 41
13.814047348376262 52 59 32
15.999892379784274 60 69 47
13.95386031469987 54 61 33
14.309185959169039 54 63 46
14.970936691213128 52 59 36
12.372617845664243 90 91 83
12.945561955576277 35 39 24
12.628138733979709 35 40 20
14.74756434716812 55 63 46
14.306946276846665 46 51 35
14.279021740521976 41 46 36
14.642280008834478 48 55 37
14.200651833536723 35 40 29
14.65627504619103 40 44 32
13.105559950610983 66 69 62
13.35159268263357 74 77 68
22.91125312941534 70 63 52
23.213072311265325 51 42 28
13.738126209345612 60 62 36
13.21242965542801 60 65 34
13.663433222061721 59 62 31
14.7053488071283 67 72 45
13.81936555127804 66 74 52
14.247044879305017 73 73 49
14.784169810088235 70 76 51
14.865453620593367 70 75 48
14.865453620593367 70 75 48
15.652000987065316 69 74 46
14.471600284499761 70 78 54
14.955728767623459 68 66 45
14.247044879305017 73 73 49
13.691576253926552 70 78 56
14.021544939708901 68 78 55
14.00552731941479 71 77 57
14.512310155497554 70 78 56
13.733182404060434 70 78 56
14.288394558100473 69 77 55
12.973487371744477 69 77 55
15.422083929219902 67 72 45
14.924197788040232 71 78 54
15.278437038762005 71 77 50
16.980238288970483 70 76 47
16.980238288970483 70 76 47
16.90912351299532 72 80 57
12.69515310682083 70 78 56
14.845509753546416 68 75 53
14.098358951994975 71 79 57
13.444712774403762 69 77 55
14.295233148389318 69 78 55
12.990645789687845 67 74 53
14.548358396600594 69 77 55
14.285123954954926 71 80 57
13.490383563222737 61 66 36
14.561227328483831 61 67 38
14.525927357439826 56 64 35
14.96486297720738 62 71 42
15.09909245625131 62 72 45
14.270766483098564 59 69 39
16.152141723609457 69 78 54
15.381785798407892 69 78 55
14.269523711017698 63 70 40
14.644959704966944 57 67 36
17.06411527653949 69 75 49
15.16799887795052 73 81 58
15.32722178942803 73 80 59
14.805221031116048 67 77 54
15.356148967950215 69 77 52
14.969977805069055 67 76 51
14.546635492535344 69 77 55
14.969977805069055 67 76 51
15.33221716905861 67 78 54
15.1381149505957 65 75 50
16.037957341687257 74 80 60
15.596413729333166 67 81 54
14.63216591839535 61 72 45
14.006516228121917 58 69 37
15.489643041919784 56 66 37
15.210715027793652 58 71 41
14.905294162210799 60 73 47
15.223592207148327 64 73 50
15.288090599116535 61 74 45
14.794261601918029 66 76 51
15.170225724730777 61 72 44
12.97309153307607 67 72 57
12.553969300372701 65 71 51
12.526100209715334 65 69 56
14.301589711404036 65 71 51
12.892021863655087 63 68 53
12.896319904834236 73 77 64
13.252151972794271 74 78 65
13.224154301775597 85 83 76
15.164026701560529 59 64 53
13.676990841661382 74 77 67
14.45432185490996 65 70 55
14.55864677789434 66 70 54
13.676990841661382 74 77 67
15.34291410507114 60 65 53
14.470596605856604 58 63 51
14.148957292981871 62 70 54
14.796311832291478 66 74 56
15.785216624000496 60 69 51
15.17621580124019 60 69 49
14.805231599313815 59 64 51
15.34871650135964 58 66 48
15.409912776459329 61 69 49
14.507137255486915 55 60 48
15.135409469233934 58 64 49
14.812210830342302 59 65 52
14.869398612284016 51 56 43
14.480447299914799 65 70 53
21.159366226384297 142 147 158
14.326244243009743 67 72 55
15.59960657571399 63 72 48
15.50401564225297 67 75 53
15.352205089555444 70 76 54
15.352205089555444 70 76 54
16.008023443704708 68 76 55
15.003516430785364 68 76 57
15.246516868156927 41 31 17
14.160597222058355 63 67 48
12.957449659575985 49 49 35
14.102118086889039 53 51 31
14.286793878014715 64 66 47
13.818993942418773 59 59 44
15.35903427328065 56 44 26
14.834992761610831 62 61 41
15.15269488715673 52 38 20
20.16197229861285 78 45 28
24.537894615395462 91 93 101
22.220232708028913 71 65 53
22.220232708028913 71 65 53
22.59901301902084 9 4 0
20.01839653174773 59 60 44
12.554829312525927 51 55 22
12.554829312525927 51 55 22
12.937733286458203 60 62 32
12.320371480232872 58 58 28
14.21674726742935 65 71 49
12.757486213202561 67 74 53
12.738352909608723 73 77 62
13.379346387720219 70 76 56
11.450982364457966 82 82 80
12.449454420193863 44 44 36
12.56106357585215 54 58 30
13.099964895343925 39 44 23
12.915382064606732 55 60 30
12.613746541829267 64 64 58
12.455603995685749 38 42 26
12.796961975254185 42 47 25
13.688451604808803 56 60 31
11.594076713010677 85 86 78
15.415469297255637 56 66 38
13.735109853683138 43 48 31
14.70664749434964 59 71 47
15.036981714181307 56 65 46
14.921077035728228 55 64 46
11.6891474841636 88 89 81
14.866624659144136 51 59 37
13.72225139361861 58 68 42
14.664534574224453 55 65 41
15.415469297255637 56 66 38
14.454441802352628 57 67 44
14.781366916573013 57 67 43
14.223237895739047 53 57 49
14.201780100398745 47 56 34
23.487515222345852 72 63 48
13.16904837945562 60 65 34
17.10960334790691 68 73 45
14.057711867871884 72 81 58
17.10960334790691 68 73 45
14.209440077585311 71 79 57
14.77029595509299 68 77 55
14.320053377386715 65 65 37
14.68035611736333 64 69 44
14.931269829358062 67 63 38
14.08255025522635 71 79 57
14.782854404498822 69 68 44
15.03608517344884 54 54 32
13.767532285582233 57 61 30
15.820521612012092 60 72 46
15.678372208398063 58 71 41
15.223592207148327 64 73 50
14.868540740277266 59 69 39
14.89620596206134 70 78 56
15.210715027793652 58 71 41
15.209660159083288 73 81 61
14.969977805069055 67 76 51
14.816784048979862 62 72 43
13.559210040565334 88 89 82
13.253092521245582 66 71 55
12.553969300372701 65 71 51
12.930543605292645 67 73 54
13.381065669355623 89 89 85
23.49462561526339 81 85 97
23.573397822332016 74 78 88
24.377548097505482 85 85 89
13.359456191434 72 76 63
14.5315593368523 58 66 50
14.6354506603557 64 74 53
14.809089965871111 58 61 52
15.170616653645235 44 50 36
14.536006858285742 44 53 34
14.7773839864214 67 77 55
15.305338644444245 67 77 54
15.079716615384694 69 77 54
21.58043918805109 141 146 158
15.140231679302426 67 75 56
14.326244243009743 67 72 55
15.428747267309348 33 30 17
15.672785580936708 29 30 16
23.984498283027012 60 63 73
21.620272130744375 54 52 33
21.547429193020943 64 65 45
18.382123944859558 64 68 47
19.31690478626678 53 52 35
12.84839909972172 54 61 31
13.580054115160703 54 63 37
14.966400121993189 56 66 45
13.565879175121122 38 40 28
13.245715898276016 64 70 53
15.386375267465457 46 31 11
13.198777945113804 45 49 30
13.19297478613388 48 53 29
12.937733286458203 60 62 32
11.81281212310391 28 26 6
14.818107001642877 52 60 38
14.596930948707097 38 45 27
22.178790414312015 37 30 14
14.457426479904559 70 78 56
14.098358951994975 71 79 57
15.015528875908691 72 80 57
14.963676382211988 72 80 58
14.70402635030268 66 58 30
16.133493103519307 69 74 45
14.454736080745894 68 66 43
12.990645789687845 67 74 53
15.085508232404273 63 74 48
14.981993925158898 67 75 53
14.746120474278646 57 67 39
15.715956425241595 60 71 45
15.641830102219101 68 76 52
15.666999462849033 64 74 49
14.96486297720738 62 71 42
15.665290317532602 60 70 43
15.0406564184668 67 78 54
14.775215275475341 67 76 53
15.02808705816614 60 73 44
15.08266944846514 69 79 56
15.288090599116535 61 74 45
15.072147833455604 59 68 50
13.726796488896971 63 68 55
13.32097196201083 71 74 64
12.930543605292645 67 73 54
13.18690612335445 65 70 55
21.36751958861815 140 145 156
14.608026206412283 67 75 55
14.509958367494336 67 74 56
20.643813584788365 44 43 25
14.916114378839247 56 50 28
13.227383451185826 59 65 35
12.44889184702962 60 63 34
15.582574399297924 59 69 43
14.208193489034592 61 66 35
14.70402635030268 66 58 30
14.069123385671174 68 74 53
14.969977805069055 67 76 51
14.484417714837813 66 67 41
14.942014208206064 64 66 45
14.353210042536723 66 76 52
15.178689909702788 60 70 42
14.291365237858662 62 66 48
14.55864677789434 66 70 54
13.557335777937876 63 68 56
20.656425466446116 60 59 41
14.63619755447415 41 47 31
18.880777340830637 57 55 35
15.125625124526684 67 76 54
13.603154133932183 69 77 55
16.362983226795006 66 76 52
15.212934176395182 60 73 47
15.977597888029209 60 73 45
13.674002039349038 59 62 29
21.876184992290117 107 111 121
24.439620506821292 74 76 83
13.892939101168059 68 78 55
15.189607659331088 48 56 36
14.810276896938086 63 72 53
13.5049028391492 51 58 29
15.508503906238968 70 80 56
