10.131119743539145 40 45 34
9.749050824429645 35 47 22
9.733373099496642 36 49 21
10.227566134872102 36 46 25
11.599247667626354 6 6 6
9.422050207293042 36 45 26
9.550702227735956 32 43 19
12.695878987722095 10 10 10
10.491195608988507 0 2 0
10.222820953151308 41 50 34
9.962549435642792 36 45 27
10.37753700025956 30 39 17
12.229084569510844 10 12 12
11.826070754547162 8 10 10
12.027642411319686 5 7 7
12.572655674301894 11 11 11
12.625326968928663 9 10 10
11.473552705682824 12 11 11
12.289488659967377 8 10 10
12.660379477173251 11 13 13
12.406363647626122 12 14 14
12.26274550728087 1 3 3
11.48015853662189 6 8 8
12.131906686887989 6 8 8
11.052983847319508 30 40 19
11.431351883930077 39 44 38
11.41527294221829 37 42 36
11.087217814501471 27 41 16
10.123513023257741 27 38 16
10.535315367714196 32 42 26
11.182789426738669 30 37 28
11.036353672305689 28 37 22
10.979409155216521 28 40 17
11.182789426738669 30 37 28
10.240336390989091 26 38 14
13.61839897116914 6 9 5
14.209210867323716 27 35 20
12.489651409962486 35 41 36
13.283300892763407 31 41 18
12.887153799765038 31 41 17
13.839592621286931 30 39 24
13.487523767976317 32 42 18
13.232287821425667 7 12 5
9.911165316393381 33 47 19
15.446277885427968 30 44 15
10.355100864708332 22 31 10
11.156026918475764 24 33 11
10.373383603570709 25 33 11
11.156026918475764 24 33 11
12.30068233167096 25 33 11
9.731832256967582 23 34 7
9.651998027949451 27 34 13
9.911492487379231 25 33 8
9.11523628581844 22 31 8
9.478072354848228 23 31 9
9.572457452604317 24 31 10
10.203396632043447 26 36 13
9.368047938524828 16 30 3
10.819313274420471 25 35 11
11.499994965337057 26 33 11
10.800634794604173 26 34 12
10.378124833858902 26 34 12
11.438352594421202 23 32 10
12.219591226564733 21 31 8
11.199483083800017 24 34 9
11.392284537069715 24 32 10
11.657585388694459 22 32 8
11.521458579210744 22 34 8
12.035745008665383 24 35 13
11.91725356843359 25 38 14
12.327637529892563 24 38 13
11.91725356843359 25 38 14
11.98555726970809 25 39 15
12.136153983719955 25 39 15
11.93699327153714 23 35 11
12.048909573757156 22 34 10
10.2503250509292 26 38 13
10.74413855079119 26 36 12
10.937935229302456 27 37 12
10.409473350534585 26 39 14
10.676599921632308 23 37 12
10.409473350534585 26 39 14
10.8966099730162 24 37 12
11.261916868506107 25 33 11
10.910210146232782 26 34 11
11.31337908203698 24 38 10
11.262432928670346 23 35 9
10.949619106322496 23 35 9
11.397621791110561 24 35 13
10.828566255792614 25 39 13
11.698462266146512 24 38 13
11.10465088254367 23 33 9
11.6773240000765 25 36 12
11.648701416541 24 36 9
11.883659745269743 24 36 12
11.028381418185589 25 38 12
10.93679901915206 25 36 11
10.651749200854704 25 39 13
11.15331224423976 27 39 14
11.14425682294204 25 38 11
11.795876272449863 26 39 12
10.854819693887114 25 39 13
11.651264770220514 26 40 16
11.295420978374791 29 44 21
11.199156191947543 28 45 20
11.50810081193398 25 40 16
11.277015713184802 24 38 14
11.277015713184802 24 38 14
11.544239735718683 26 40 16
11.750278071124312 25 40 16
11.544239735718683 26 40 16
11.199156191947543 28 45 20
11.293291501785813 24 36 13
11.076487878627477 25 39 13
11.542061580576435 28 44 20
10.777559951557606 30 44 21
11.210410288628282 28 42 20
10.540038495613672 25 40 16
11.94242587327375 29 42 21
12.010586421559424 29 47 22
11.306579257514414 26 40 15
11.210410288628282 28 42 20
11.538653024656725 28 44 20
11.521140822843158 30 46 22
12.674977736480228 26 37 13
11.698588568801272 26 38 14
12.674977736480228 26 37 13
10.087336065566008 18 32 6
10.42605322252501 19 31 6
10.087336065566008 18 32 6
9.966632264472109 20 32 7
9.95649761780708 19 32 8
9.922067892407522 22 34 10
10.10040455858429 18 32 7
9.586606392562775 23 33 8
10.087765744191842 23 35 11
9.54026701367699 23 35 11
9.511692044880055 23 34 10
10.72342484457102 21 35 9
11.594075080249134 21 34 7
10.784592103798323 25 41 17
10.72342484457102 21 35 9
10.63754088425682 24 38 13
10.784592103798323 25 41 17
12.092173629444611 21 34 7
11.178343445359738 27 42 17
11.863955845357767 27 40 15
11.38594641363953 22 36 11
10.95477636846876 26 40 15
13.88202019474676 19 30 8
14.274531438478162 20 30 9
12.98088719172841 22 34 11
12.99326964532929 32 42 19
13.616385108632919 34 44 20
13.616385108632919 34 44 20
13.616385108632919 34 44 20
13.380530403452234 31 43 19
9.771636245350212 34 47 18
9.247775577196279 35 45 22
9.77196808784893 25 33 10
13.224216543431824 4 7 3
11.05350966203774 26 40 16
12.660379477173251 11 13 13
11.052983847319508 30 40 19
11.844696383854057 3 5 5
11.473552705682824 12 11 11
12.289488659967377 8 10 10
12.009300522530292 11 13 13
11.036353672305689 28 37 22
11.036353672305689 28 37 22
11.41527294221829 37 42 36
11.036353672305689 28 37 22
14.477840215599102 32 42 18
12.912245793825306 21 28 19
14.477840215599102 32 42 18
13.487523767976317 32 42 18
12.912245793825306 21 28 19
13.821250665480816 30 40 16
11.513490470193865 25 33 11
9.618037491917798 13 27 0
10.717071701179975 26 35 13
10.037790502291998 26 34 12
10.193497385538352 26 34 12
9.593527476666578 25 32 9
11.065794055764638 27 34 12
11.94593429440314 25 37 14
10.927799294673516 23 33 9
11.87740273439811 24 36 12
12.031443459208234 26 36 14
11.92159631994945 24 36 12
12.340108207112648 25 35 12
10.123649356795303 26 36 12
10.955245344078888 27 38 14
9.74892552989013 22 35 8
9.74892552989013 22 35 8
10.949619106322496 23 35 9
11.198734701005607 25 35 11
10.828566255792614 25 39 13
10.7207414741067 25 33 11
10.910210146232782 26 34 11
10.734737971500705 27 35 12
11.31337908203698 24 38 10
11.522818556501484 26 39 14
11.60057902021432 25 39 13
12.042311723585314 27 43 19
11.596838786650572 25 38 14
11.580989607743907 25 39 15
12.160873185789617 28 45 21
11.29032262415758 29 44 20
12.092051437824834 28 42 17
11.94242587327375 29 42 21
11.362395672069946 30 45 21
12.670893197355124 26 40 15
9.657735201880055 19 32 6
9.364886985121984 21 33 9
9.99781289990401 22 36 6
9.40135744432478 19 32 8
10.087765744191842 23 35 11
11.081061614996312 22 36 10
11.878846346270661 20 32 8
11.601207378265691 24 37 12
11.178343445359738 27 42 17
11.484929215353157 27 43 18
14.01224946746475 20 31 8
18.39010078854997 32 46 21
13.616385108632919 34 44 20
13.386276764848628 30 40 17
10.932285567423316 36 49 21
10.04049343028005 25 33 17
9.438245080101401 37 46 30
12.308159218753666 11 11 11
10.413433497612269 27 35 13
11.199202155138948 30 37 27
11.744338332864675 2 4 4
12.587169532580406 5 7 7
10.979409155216521 28 40 17
12.986629972972986 10 11 11
10.276712140468497 26 39 15
13.653594814438133 31 38 27
13.424124312422684 10 17 8
14.165027232219057 29 37 18
14.191346641772393 33 41 19
13.79422513012662 30 40 20
11.151386030636136 25 33 11
10.118214501549026 22 31 9
10.378124833858902 26 34 12
9.572457452604317 24 31 10
11.932656123564186 25 36 12
12.340108207112648 25 35 12
12.097024287704242 24 37 13
11.133457891760315 29 43 19
10.854284254023561 25 37 11
11.806126426431787 27 42 18
11.349173267094228 25 39 15
11.652923769254373 24 37 9
12.092051437824834 28 42 17
11.580989607743907 25 39 15
10.944790950974243 31 45 23
9.989387969479445 23 35 10
11.442840545144438 29 45 21
11.627972524119963 24 34 10
11.31337908203698 24 38 10
11.28299380884755 30 46 22
11.863955845357767 27 40 15
10.077752915599392 24 37 13
10.264462477210081 24 38 13
11.050136332348611 27 42 18
14.217228890926393 20 30 9
13.174649107041624 33 43 22
9.663638562951625 40 48 32
11.832572046641944 12 10 10
10.514529199449925 25 33 11
10.203396632043447 26 36 13
12.366037520874302 26 40 15
11.199483083800017 24 34 9
11.182841019806736 24 38 12
10.818701833150614 24 36 10
11.795876272449863 26 39 12
11.14425682294204 25 38 11
10.718698503419143 26 40 14
10.364387220472322 24 34 10
9.657735201880055 19 32 6
9.859949724723327 23 35 11
10.544844914885251 23 35 11
10.437765621737206 33 43 21
11.048889678931971 24 31 10
11.0282824271713 27 43 19
11.29032262415758 29 44 20
12.142399344958662 23 35 11
9.58969426313048 28 39 14
9.72299532099993 33 47 18
10.032414721459764 22 33 9
9.914518090148166 35 46 23
13.029437079983468 11 11 11
13.032258591912882 19 28 16
11.58762840455669 24 35 12
11.199156191947543 28 45 20
11.110074384599077 27 38 17
11.847848738164169 24 38 12
