10.209117514793004 27 30 10
10.66242337040768 26 32 11
10.226075424736322 31 29 9
15.475203670575652 32 31 9
10.252659178197874 27 29 8
12.272316138718772 26 40 16
10.529315790902752 27 33 13
10.60453207227566 28 35 16
12.128280815192003 30 36 36
13.891293653985354 29 40 45
17.88085019680196 32 41 51
9.510547152560234 24 30 8
10.769194548856577 28 34 14
10.060468636504806 27 33 11
10.07767668401997 29 33 12
10.589434619008346 31 41 17
11.165761097437983 29 38 16
10.890838741528194 30 42 19
14.657193296663772 29 40 45
14.990160025408631 30 41 46
10.763816520030408 29 43 19
11.239839368095904 30 40 19
11.885162404643618 29 45 20
11.492513497491135 28 44 19
11.423145671952486 28 44 19
12.848000682687614 32 47 20
11.607673034512453 29 38 18
11.377304128270753 28 42 18
11.218441949744966 28 41 18
11.582228851917314 30 44 20
10.998582012398131 30 44 20
12.549163800627209 32 46 19
12.549163800627209 32 46 19
12.829531503473632 32 49 19
12.004294718072508 28 45 16
11.744356294197205 26 39 16
11.534251816724728 28 42 18
11.969532070173749 29 43 17
12.342103483141024 25 46 15
12.44193559428278 28 44 15
12.236990680826592 27 42 16
12.049066159424472 28 42 18
12.026162081852496 28 42 18
11.903209433956485 28 43 18
12.770177283006815 30 47 17
12.463035106783742 28 42 18
12.408144959492262 32 46 19
13.039398518599748 28 44 19
12.469728332611586 28 46 17
12.568546758987496 29 46 17
11.587219942569215 27 47 14
11.900020103960092 34 48 20
12.134975649585359 34 50 23
11.870066691485896 31 51 18
12.526164199682393 28 47 15
11.579495732473557 35 49 20
12.34369046203759 38 52 21
11.905119779311276 29 48 18
12.034988041801983 35 51 24
12.100588428527098 33 52 22
11.368875393764664 36 53 23
12.38462888023391 28 46 14
11.691037714727747 25 46 14
11.892446018294473 28 49 18
11.956422096694691 28 49 16
12.28875809218878 31 48 19
12.102966017080693 30 49 19
9.057042960552224 38 41 19
8.579821113495068 34 33 13
10.304507231249643 38 45 22
9.768333902659696 39 43 21
10.666418270733866 34 45 19
9.267971900248737 36 33 14
10.26774822105279 34 44 16
10.794878759875862 38 37 16
11.012692893756581 30 44 18
9.856200116003546 33 43 17
11.18994367344529 32 45 16
11.375724572719438 31 45 18
10.243401450680448 33 43 16
11.162385639385455 34 46 22
10.351037037924169 32 46 19
11.162385639385455 34 46 22
11.220806112107244 32 46 19
11.436363510120813 33 47 19
10.842215887302673 34 46 20
11.92963400075224 34 47 19
10.033116092205704 33 46 19
11.069268018897576 37 47 22
11.069268018897576 37 47 22
12.333340369025963 39 50 26
11.062265296308437 35 49 22
10.87703365329086 35 48 21
11.379049771069559 36 48 24
12.090291024178597 38 50 26
12.242799719908714 41 55 28
12.095571165989215 37 51 25
12.704798386360874 37 51 26
11.830609575726818 35 49 22
11.556237540115132 36 50 23
12.009953765124228 38 50 26
12.240191689295916 39 50 26
12.039297253480834 37 48 23
12.71616664351386 38 49 25
10.87409806391932 35 48 21
11.56597448380442 35 48 21
20.916938847723365 29 40 47
12.478986734198708 28 41 20
12.464357243387813 23 42 14
11.882001930563899 32 46 21
12.024585655333686 23 43 15
12.850516518046113 22 42 14
12.04667793294823 27 43 16
12.297918645270833 29 47 19
11.745192064096933 25 44 14
11.706687527486393 32 46 19
12.296069326194536 24 43 15
11.519579318312495 32 46 22
11.925579460297168 32 46 17
12.56167701188168 25 44 14
12.390066849965429 26 45 15
11.804527772443931 25 44 14
12.171629874813865 30 47 20
12.084930516322276 23 43 15
12.451486401345552 27 46 16
11.982124295825777 23 44 14
12.24855809164357 34 48 21
11.74879545262745 33 46 18
11.5623686756809 34 44 20
9.502139011200148 28 31 10
9.990780243715822 27 30 10
9.973141851283776 26 31 9
10.5156175245797 26 30 9
10.772451434993439 29 39 18
11.385473774489112 29 37 19
13.808892712515144 32 39 45
11.441094685181035 29 43 19
10.388055585143649 28 36 14
15.53901905962221 30 41 46
11.249818475460694 30 44 20
11.647638212847486 30 46 21
11.675944618039116 30 40 19
11.147368762736278 28 39 16
11.147368762736278 28 39 16
12.026162081852496 28 42 18
11.816465153954653 27 45 14
12.770177283006815 30 47 17
13.215927171020219 31 48 19
12.200532821528945 28 43 18
11.912368162618508 30 47 20
12.866688415561415 31 45 18
12.034988041801983 35 51 24
11.75610989670765 27 46 14
11.720611170243721 26 48 15
11.691037714727747 25 46 14
11.691037714727747 25 46 14
12.509520083028445 30 49 17
12.441197332745373 36 50 21
11.905119779311276 29 48 18
11.900020103960092 34 48 20
11.695173567554638 36 53 23
11.652871880088389 29 48 14
13.197972876392477 32 49 19
12.329133930122225 31 52 19
10.594952947844844 32 45 18
10.746617744936797 33 45 21
11.0756365422832 32 45 17
11.446202427533398 33 46 19
9.36053612976616 39 43 21
11.075319659199309 34 47 20
10.630580591622904 36 46 20
10.666418270733866 34 45 19
11.400453596089559 35 45 21
12.399937104663907 40 51 28
11.830609575726818 35 49 22
11.05360377038393 35 48 21
10.813837664160655 41 47 25
11.376243725474158 36 49 22
12.009953765124228 38 50 26
11.520122932683513 38 52 27
17.67964957817082 31 40 50
13.196280034995473 26 42 16
12.222616661808468 29 46 19
12.500798866254733 24 45 14
12.171629874813865 30 47 20
12.390916605987991 33 44 20
12.44560074124136 32 46 17
9.806234141594071 26 29 8
14.376361162684647 29 40 45
11.441094685181035 29 43 19
10.19057635509131 26 36 13
14.513912559693704 32 41 48
11.720611170243721 26 48 15
12.866688415561415 31 45 18
11.239839368095904 30 40 19
10.750123751775664 28 36 16
11.711302480548675 23 43 14
11.876248198345284 27 41 16
11.89377854671981 28 42 16
11.423145671952486 28 44 19
11.295591435016535 26 40 14
10.433695172672696 31 45 18
10.794878759875862 38 37 16
9.312786042693963 34 44 16
10.38104871528707 39 44 21
8.786520345787906 37 38 17
9.891260995624556 37 42 18
11.208234339149001 32 45 17
9.301106193893792 36 43 19
11.124992560129332 37 48 24
11.40694104138168 36 46 21
11.830609575726818 35 49 22
11.360725190002853 36 48 24
12.268650640068628 26 44 14
11.195334962998748 32 46 19
10.01770922812495 29 30 9
9.990780243715822 27 30 10
12.560443722126326 37 49 25
12.325210811132155 28 45 16
11.941182265548347 37 49 25
9.799776554602667 31 44 17
12.587148377591019 29 45 20
12.015508806888043 32 46 19
12.112784101156203 37 51 23
11.249818475460694 30 44 20
11.885162404643618 29 45 20
11.168104492013619 35 48 20
10.763816520030408 29 43 19
12.305957036944747 27 46 16
12.10699422589268 33 46 19
11.937395790878602 34 48 19
11.56206513253816 34 48 22
11.847378947493654 38 54 27
11.110776549109815 29 43 19
10.988374746668837 29 40 19
11.338384556985723 32 48 21
12.270995665473219 27 43 17
12.324443299703368 33 47 20
12.49235250642294 25 44 14
12.42517864992564 29 45 18
11.655340799297157 28 48 17
12.530254153497978 32 47 20
12.409190122257423 24 44 14
11.451197720494282 36 50 23
12.409190122257423 24 44 14
11.757303983342295 31 45 16
11.547946523529717 38 48 24
9.971833126176708 30 41 17
11.809782468168535 32 45 17
12.364706165011576 27 46 16
