13.13734914620897 51 61 37
12.415402989232128 17 19 0
12.2078380706195 19 21 1
12.465280559255737 19 18 0
11.850243671855438 26 28 7
11.021623117911695 13 19 0
10.996049134291125 34 36 10
11.433972158778685 31 33 10
11.050526182634629 32 37 12
11.11983399065648 22 25 3
10.76347207797665 18 26 3
10.490524722694376 16 24 1
11.465080622540118 29 35 10
10.833188005317883 34 39 12
11.356073563974713 26 30 8
11.06358974383785 33 39 14
11.401993792832734 22 28 6
11.690781115609408 16 22 1
11.033622220401641 12 18 0
10.986162370962392 19 23 2
10.92098214611587 36 41 16
10.494547606312238 36 38 16
10.951563891840973 38 38 14
11.465080622540118 29 35 10
11.297964686432643 38 43 16
11.08644397674066 42 47 17
11.41928949674231 41 43 17
10.75478528860244 41 46 17
10.948250288882623 42 47 16
10.701013245541347 37 42 15
10.803261649396923 40 45 16
11.034288283651154 39 46 17
10.595546067594235 37 40 10
10.06531927620294 39 42 13
10.454149969454333 39 41 17
10.406103834700676 35 40 11
11.565149048636439 42 45 16
11.711932977443336 45 50 17
11.347767115162648 42 47 14
11.426856116880439 38 41 7
10.752585567075425 41 45 11
11.434614901775504 41 47 12
11.79609992836888 43 48 16
10.99177550383138 41 46 17
11.701615067499224 41 46 15
12.210862886133125 43 48 16
11.963551854361807 42 47 15
10.866662906346079 44 49 19
11.214904059564521 42 46 17
10.318157502897046 38 43 12
10.806495950519823 34 42 19
10.375357013326031 26 36 12
10.32383537957296 28 36 13
10.690908906505873 20 30 6
10.509455957642137 27 34 11
11.055320915676994 42 48 21
11.049308038501898 43 49 22
11.149322242263969 47 52 25
11.321416609370909 45 50 21
11.436807840831811 40 46 23
10.769201282307828 44 49 20
12.015542094596416 47 52 23
11.19110942902404 44 51 21
11.512061709093704 48 53 24
11.465649069482728 47 52 23
11.633064779568091 46 51 20
11.303971155497807 37 43 20
11.262602722895704 35 42 19
10.40391854527253 44 50 23
11.399749809131782 42 48 21
11.005881081564922 45 50 19
11.045358401449263 41 47 24
11.087537418516996 41 47 24
11.195963411591164 46 51 22
10.083184784113792 30 38 13
11.176460403343444 32 40 17
10.674046024813611 32 42 18
10.177532500011841 26 36 12
11.110395570141485 45 50 19
10.833975464244098 44 50 20
10.495439732732919 42 48 21
10.630170885773225 39 45 22
10.734091083686598 40 48 20
10.787698249189594 42 51 23
12.15429691188821 48 55 25
10.791796936439958 45 54 27
10.872961980856688 37 45 22
11.860036981935766 49 54 23
10.86586348479457 38 44 21
11.33315043934142 47 53 26
11.856357421216991 45 54 24
10.084751133879545 50 59 29
12.116715321399898 48 53 23
11.782877014036405 48 55 23
11.027991804496546 48 55 24
11.782877014036405 48 55 23
11.942145146799142 48 53 24
11.981167493102124 48 53 24
17.158278048502254 53 62 30
17.158278048502254 53 62 30
12.32129048986234 48 53 26
11.993148038927586 47 53 26
12.28421979993373 47 54 24
12.113948288073582 48 53 24
9.035312343215017 47 54 24
9.510988437547395 46 51 25
9.962907830086877 44 48 19
11.437421894644253 38 43 9
10.949998920255629 41 47 11
11.34871001691502 42 47 16
11.445173516906864 44 49 18
11.502175095248608 46 51 18
11.798820922628058 44 50 14
11.71284656333315 44 49 19
10.057069457753297 44 52 20
10.49181537526385 43 49 17
11.278763737362823 45 52 23
9.614380834070907 40 45 14
9.416982607170137 40 46 12
9.62933155732322 41 46 14
9.799679844337108 42 48 15
9.583055215714246 41 47 14
10.245353524503471 42 49 15
10.394956738705911 43 49 16
11.852316615656868 51 58 28
12.22337731350565 47 52 19
12.02076577035907 51 57 27
11.065909130691448 50 57 26
9.2417785580417 49 56 26
8.85751243731953 54 62 31
8.757976002499385 47 53 26
9.257513317089002 44 50 22
9.533013123237785 43 50 19
8.17799002789644 48 55 25
8.540807120029699 48 55 25
8.961001611946742 49 55 28
9.012940345961512 49 55 28
8.898799293317323 49 55 27
9.02031075400196 48 54 27
10.055922722904086 44 50 22
9.768923761804048 48 55 26
9.656836657411228 48 54 26
10.209432052547582 45 51 24
9.85277204607428 45 52 22
7.891725478613751 46 52 23
7.9576621372858165 48 54 25
8.626184658361668 50 56 28
8.453172033121357 48 56 25
8.089172817630033 49 56 25
7.705118526558058 50 55 25
8.359432501112053 47 54 24
8.782023980046871 43 50 20
8.671205830292271 46 51 23
8.502983686792648 45 51 22
8.789520801299185 47 53 26
8.25368731791091 47 53 25
9.059740036266353 46 52 24
8.814915456465252 47 54 24
8.738798369515015 46 52 25
10.143375036200137 37 45 23
9.016974634137364 47 53 27
10.39764262007801 41 48 22
9.406519969915562 51 57 31
10.20129929164647 43 52 30
11.381095611882282 49 54 28
10.545085528926469 49 54 27
9.595042653201272 42 50 27
10.721811877298284 35 45 21
9.74223390162973 46 52 26
9.656170561278179 48 54 27
9.126030407828818 49 55 30
8.798550904209963 46 55 25
8.730195362886784 44 53 24
9.347193867512217 43 52 22
9.280573536206319 45 51 24
9.018161237233294 45 53 26
9.301904054576202 49 58 28
13.579070837333408 51 61 38
11.841973767401097 16 19 0
11.929778230170609 18 20 0
11.209529579304567 23 30 8
11.42828299957471 24 26 5
11.048385342955445 34 36 10
11.124719072455559 30 34 13
11.692489845181207 31 33 10
11.456408507785762 24 30 5
10.92098214611587 36 41 16
11.007233284276495 33 38 13
10.722957023996031 29 33 11
11.736017952383197 38 44 18
11.340147723662518 40 43 16
11.08644397674066 42 47 17
11.431931670425163 39 46 16
11.316490718067035 43 49 18
11.289164197220273 36 41 16
11.482281299461269 41 46 17
10.94511185933233 42 47 16
10.318157502897046 38 43 12
11.497522741071448 44 50 14
11.530359740094205 43 48 16
11.444238562877207 44 49 17
11.556552026149381 41 43 17
10.660182781047386 41 44 11
10.690908906505873 20 30 6
10.36894983761958 27 35 12
10.32383537957296 28 36 13
11.506287514879805 47 52 22
11.19110942902404 44 51 21
11.087537418516996 41 47 24
11.181267903071252 42 48 21
11.08365471233778 30 40 15
10.85676716037803 33 43 20
9.886176245432825 29 39 13
10.947456825128501 33 41 18
10.423465066773552 26 36 12
11.51118351580196 45 54 25
10.787698249189594 42 51 23
11.554512325935521 47 53 26
11.43548535754959 48 55 23
11.779173350225841 48 55 23
11.736623618843527 48 53 24
12.28421979993373 47 54 24
9.559939583998894 44 50 23
9.712156745041632 44 49 22
10.49181537526385 43 49 17
11.53314343013936 43 49 13
11.445173516906864 44 49 18
9.889989029234185 41 48 14
12.22337731350565 47 52 19
11.422598016072387 46 54 23
9.299297130715342 50 56 28
8.314010073217887 49 55 27
8.757976002499385 47 53 26
8.540807120029699 48 55 25
9.097692511045398 46 53 23
9.02031075400196 48 54 27
9.816588778923586 48 54 27
9.816588778923586 48 54 27
8.086423934989352 48 53 24
8.591521772973175 46 53 23
8.496423936399347 48 54 27
8.499109730594464 45 52 22
8.738798369515015 46 52 25
9.188713854953514 47 53 26
10.772423436241555 38 46 24
9.27942048906464 45 51 26
9.431626912212947 46 52 25
9.699892153308056 48 54 28
9.341468324442136 48 54 28
9.38542721802328 44 52 30
9.126030407828818 49 55 30
9.27942048906464 45 51 26
8.957550536962119 43 52 22
9.0241840939796 45 52 22
8.503151003446119 44 50 21
9.220527324094096 44 52 24
9.409931965142023 48 57 27
8.682919869831432 47 56 27
11.669834295359767 17 18 0
10.927914649794799 37 40 9
11.856540382692911 38 43 18
10.842358606071015 35 41 14
10.732354379729063 18 27 2
10.910513601969752 43 48 17
11.621123788738636 17 23 1
10.82083517108375 37 39 13
11.206038340160978 41 44 15
11.414164030021505 46 51 22
11.158607883190278 36 42 19
11.432992070095874 36 42 19
11.506287514879805 47 52 22
12.195389467606608 49 54 29
10.769201282307828 44 49 20
11.417225274448594 41 47 20
11.149322242263969 47 52 25
10.55025958477406 43 51 23
11.2190476332692 41 47 24
11.33315043934142 47 53 26
11.049308038501898 43 49 22
12.113948288073582 48 53 24
10.629691110804265 42 48 14
11.437421894644253 38 43 9
11.761013241630918 48 53 25
11.34871001691502 42 47 16
10.54353103216065 44 50 15
12.386781401816414 50 55 25
9.182708321945238 47 52 25
9.8075500517953 46 53 25
9.520246667320597 42 47 18
8.147985101366704 52 60 29
9.059740036266353 46 52 24
9.964886303668356 48 54 27
8.453172033121357 48 56 25
8.145256066875849 46 51 23
10.04536996198092 41 47 22
10.788744864541865 44 52 29
9.761459661629056 48 54 25
10.803261649396923 40 45 16
11.270222114524032 44 49 19
11.270222114524032 44 49 19
10.936027424490955 41 46 15
10.936027424490955 41 46 15
11.144695609834983 30 36 13
10.714682921227642 31 33 12
11.162517449215166 37 43 16
11.400563619809141 42 47 17
10.734480753057193 20 30 6
10.515833710794032 25 35 11
11.321416609370909 45 50 21
9.742833470040415 41 46 14
11.71284656333315 44 49 19
11.968023049455832 43 48 13
10.085812113079701 50 59 29
7.569873588319149 48 54 24
8.639229033610507 47 53 26
9.30075365185428 50 56 29
9.981800442160141 50 58 29
11.10399923078469 13 19 0
10.67713088357615 36 43 20
11.482281299461269 41 46 17
10.86586348479457 38 44 21
12.92160676766865 47 53 26
10.445662944391014 37 40 11
11.006982526521696 43 49 22
11.644484574399709 48 53 24
11.644484574399709 48 53 24
11.093529574752894 40 46 23
11.732905354478868 48 54 27
10.741611067068503 27 33 9
8.145256066875849 46 51 23
8.443941066444449 48 54 27
8.898799293317323 49 55 27
9.11105107145857 48 55 25
11.437421894644253 38 43 9
11.000533335214781 40 46 12
11.88679744538966 21 25 6
11.35304787339876 36 38 16
11.303971155497807 37 43 20
11.197046158308599 47 53 26
10.738210232374236 42 48 20
11.374879721529766 49 54 26
9.406519969915562 51 57 31
10.948250288882623 42 47 16
10.869932698594717 36 45 22
11.058352843092473 38 47 22
11.19110942902404 44 51 21
8.363371156765966 48 55 25
