15.246314345138279 0.613880125755803 2.16487752994892 52 62 20
13.405700049879798 1.059513812294938 1.8375753556627803 41 51 8
14.56652710406139 0.8393328556864683 2.1143949705382807 53 61 14
15.160420595664908 0.7827347454082448 2.090885734250943 52 61 15
14.213248366220945 0.9514456447006487 2.048474115084396 51 59 13
15.160420595664908 0.7827347454082448 2.090885734250943 52 61 15
24.289198647577656 1.4711470840130683 1.8431634915394222 48 69 38
14.72402497006509 1.6178752961895382 1.8131847152596225 54 65 28
14.983982392966736 1.5478751617186222 1.8782111469049476 53 63 26
15.039094690733307 1.4780986128892852 1.8770479257124573 55 64 28
14.85783252617087 1.4711617022656436 2.026143321723954 51 61 23
14.571947428889368 1.3972794788025504 1.9603513767211564 52 62 24
15.624744643464853 1.3252592780471033 2.0739485873583665 49 59 19
13.872301840511435 1.3061492224258089 1.9811468501487477 46 56 15
14.565835897328165 1.2319390018551606 2.035983381274172 42 52 10
13.86149711277814 1.840652879612288 1.6816961239109358 52 62 25
14.481819250836304 1.6961121624156403 1.96290770102944 51 61 24
13.959164480924981 1.8614570926252418 1.978441298691383 50 60 22
12.708727136192095 1.9635919415047909 1.8525947279147545 50 60 21
24.947731453467856 2.0357137897797246 1.2668770510325664 35 49 18
24.94428880590983 2.0175627211846763 1.431399205932979 48 63 23
12.23999680997029 2.3794883333577905 1.3679445603018328 59 68 28
21.634419707096665 2.477064246824818 1.168734263755579 11 16 2
21.691699514739952 2.506852285452085 1.2681133260642428 18 26 3
21.753487777109385 2.589169907884147 1.1205974984626534 17 23 4
21.504055559664025 2.5178454075793524 1.114983903621963 11 16 1
21.082992714096555 2.5178454075793524 1.1575857949274284 8 14 0
12.265496353805506 2.146633126752604 1.6143540469301065 52 64 21
13.065799090883848 2.146633126752604 1.925187654747282 58 68 29
12.61017067612491 2.496554475160533 1.8548581160957007 58 68 26
12.697548892314149 2.1943000876142142 2.0217666883574226 56 66 26
12.086779016189874 2.3794883333577905 1.6980624210106876 57 67 26
13.20465569654631 2.3794883333577905 2.003251577299056 57 66 24
22.48317707504176 2.5599451228313335 1.4608971488117048 18 24 0
13.993370876407408 0.2816746036066078 2.1393384544718503 47 58 20
13.73893060945948 0.5461931712126566 2.066430128314333 54 65 26
14.399271945151984 0.47244771764544885 2.2051722528770568 52 63 23
15.393594222927158 0.5461931712126566 2.2387162791783197 50 60 17
13.79343663502765 0.1984397074321018 2.148627128528766 44 55 18
11.842540427657326 -0.16524409497314899 2.0570372635386134 56 69 39
9.88499756117281 -0.8156514586953032 1.936407763313511 61 73 52
18.420143069747372 -1.138750146430722 2.179590555627344 80 84 85
11.381626252108331 -0.7352237162218518 2.294216095799639 58 71 50
10.553095164381777 -0.742356665224081 1.9122810015984353 73 87 63
13.681462923991694 -1.4351109515700855 2.341808797944584 63 68 57
13.267113979103538 -1.2780746895839599 2.488157130103041 61 71 51
14.338617898737137 -1.537141836064197 2.3959698509597533 69 77 61
13.69294916232597 -1.6477663754808174 2.44855279923957 65 75 48
13.680332507879665 -1.5332867964394838 2.4496640699015373 67 77 49
13.740674593710992 -1.4197782859019032 2.4443808875888715 66 75 56
13.633530218265118 -1.6398760614436054 2.3452305618546605 72 80 62
13.768032437166319 -1.447631499706195 2.239345386754967 12 15 10
13.70781078169517 -1.540278545187027 2.2428203595456546 21 23 23
13.768032437166319 -1.447631499706195 2.239345386754967 12 15 10
13.72040216840063 -1.6334511084727255 2.2420904814839315 70 75 66
14.317891414704256 -1.6236214720080835 2.044694438518573 17 21 20
14.305825922587186 -1.5450737832725725 2.045127047685097 7 11 11
13.877625123119454 -1.5450737832725725 1.980979977256754 10 14 15
15.657882912984585 -1.5469475605582397 2.0727840908049107 12 16 17
11.915451736230636 2.682345150726536 1.5316848703893093 62 74 31
12.359746645701673 2.7603841252014436 1.9464096145832408 61 76 35
11.817456096199615 2.9313268287694347 1.964571264408151 58 73 32
12.476773497089235 2.609888056194169 1.694063778667059 60 72 29
11.448644038780625 2.843618862228683 1.793988719427562 60 74 32
12.089868095846727 3.0224366271476795 2.0462546112495934 58 75 34
12.089868095846727 3.0224366271476795 2.0462546112495934 58 75 34
12.585199210745605 -2.8060205058146677 2.0260942194727183 60 75 43
12.631962793010885 -2.981603467726873 2.114449904812023 59 74 38
12.559210435273553 -2.8672535542087823 2.2141543086349604 63 77 47
12.517090419276345 3.115572529303352 2.120006051410307 59 76 36
12.80667598262122 -2.8918521289046333 2.106224724876104 61 75 44
12.38100565534352 -2.965387930348633 2.224990371998084 63 77 46
12.813205394331268 -2.7742412789070015 2.199372931424998 61 76 46
13.083967080121639 -3.074024484838685 2.184410396653629 59 74 36
13.268484226436957 -3.006518923833411 1.8404027125771225 54 69 32
12.525436489846234 3.1178007962841043 1.941198574795781 56 72 33
14.169485606520983 -2.9450624627628814 1.7506048866556714 54 70 33
13.032408333472922 -2.995105605371931 2.009361074985894 56 71 34
12.520524295110665 -2.725026732771115 1.941350931781978 54 71 39
12.591843468198949 -2.687426967742317 2.1163767505812308 58 75 45
12.591843468198949 -2.687426967742317 2.1163767505812308 58 75 45
17.992308481877963 -2.0233979267531743 2.129276603791319 26 28 28
18.109925931902943 -2.1691309689407423 2.125223649595324 33 40 33
17.43453760265238 -1.996339950018241 1.954954070230671 13 15 15
17.953812711193255 -1.972167497677425 1.884139007400452 21 25 25
16.861463857553655 -0.26575183418305326 2.742149124450906 66 80 54
16.424536255730658 0.05209295069267894 2.810800928030364 66 81 51
16.788820616700637 -0.11365324135534989 2.752526806414588 67 81 53
18.972798543892402 -2.703107814151739 2.926126681110371 68 82 52
18.972798543892402 -2.703107814151739 2.926126681110371 68 82 52
18.972798543892402 -2.703107814151739 2.926126681110371 68 82 52
18.73972410766486 -2.8776683259156357 2.993313231866487 69 86 53
18.160391015439423 -2.9882411475637634 2.878201788107205 68 84 54
13.943810413224577 -1.4005766522744783 2.544872963370091 66 76 55
14.144169771869983 -2.1782316969707285 2.524330000300997 66 80 51
13.84601673043862 -2.0708315063561713 2.5553508601655643 66 80 49
14.549269709685637 -2.255567540768896 2.6089982213602267 68 81 50
15.20387494577813 -1.8146716076483833 2.6685223784430088 65 79 47
14.545863418897984 -2.4473747999922515 2.609395662731794 67 80 49
14.816683259662552 -1.7841067307765688 2.579129705594855 66 79 47
19.86705107661417 -2.2389103688935825 2.4685074311542063 32 38 29
20.01996066341634 -2.127467451439109 2.4589843664179885 37 42 34
18.894650874296925 -2.191906276877806 2.36927027585435 33 40 32
19.467429231329923 2.916386530540525 1.3918056729590915 39 50 12
19.680156295128103 3.1274741557911803 1.5471199194209497 43 55 19
19.69144528775138 -3.1048966538865215 1.5471334955041824 43 56 21
20.616765182185233 -3.0040895409968056 1.842555639872287 47 60 28
19.72136563096901 3.0767324073032407 1.5978813396353353 43 54 19
20.021150760352704 -3.0040895409968056 1.6977072857082616 47 59 29
22.014626658488908 -3.1066702708025895 1.9200865965587708 44 55 24
20.116966109210495 3.0263226510267316 1.7473897418711068 41 52 15
19.382819332209753 -2.828455755711961 1.8603402134895162 54 67 49
14.13088332741223 1.161411705657529 1.897437637454635 37 47 5
15.108007418017982 0.8393328556864683 2.1710742752000955 52 61 14
15.111286994390246 0.7258521673109496 2.1709257171568574 52 61 20
14.4885238252881 1.059513812294938 2.038663508532417 41 51 5
14.227788465721158 1.01896206874726 2.128846660990344 51 59 12
15.194197465354822 0.66259006652969 2.249111656994765 49 59 16
14.983982392966736 1.5478751617186222 1.8782111469049476 53 63 26
14.597057727003184 1.687417478266322 1.7452830382580364 55 65 28
14.813706688318419 1.6214151533448964 2.0276024224785885 51 61 23
13.147727974587688 1.934450552896072 1.6114295930834006 51 61 23
12.63537003215521 2.036838418382359 1.613078215123732 50 60 22
13.413622960543172 2.036838418382359 1.915609805500084 53 64 23
21.345598622605714 2.4448252356141134 1.1113413652142698 9 14 0
21.76213500369741 2.633799259676304 1.069089149622525 24 29 2
12.528348681403363 2.261783073327306 1.2904946685293703 56 66 26
20.09312536768057 2.451888076507766 1.0802566254470438 24 29 3
20.786511161741956 2.4862786245950104 1.097989207754182 9 14 0
12.57050408012497 2.318277212928281 2.0266666573757472 57 67 27
12.136737701313217 2.261783073327306 1.69753572413371 57 67 27
12.116595052753345 2.496554475160533 1.6148896744834753 58 67 25
14.063552121362399 0.3927032947656393 2.222853855176382 49 60 20
14.432468266365388 0.3073317381900902 2.2924139833265595 44 55 17
10.97659786509191 -0.25773272379013795 1.8037606726198385 57 71 43
14.795085901427038 0.5461931712126566 2.1856256382939385 50 61 19
10.46822042318769 -0.4686587306377989 1.621838442209459 60 75 50
14.811424779998934 -1.6197782649125942 1.9537226468634263 1 4 5
13.620858525675015 -1.537141836064197 2.3461411034121937 70 78 61
14.467554311079507 -1.6197782649125942 1.8895644710423558 12 16 17
13.72040216840063 -1.6334511084727255 2.2420904814839315 70 75 66
11.693792225101205 -0.9988396423338813 2.388820506572486 67 79 58
12.199114024864276 3.1178007962841043 1.864710119780606 55 73 32
11.710662944352825 2.843618862228683 1.8773594420178892 59 73 32
13.41526092852793 -2.736177863148661 2.3612744664819587 61 75 46
12.01273245362075 3.0325602997570975 1.7833432443171924 58 74 33
13.176046749589593 -3.0846629069421163 1.8423418767791753 54 69 31
12.585199210745605 -2.8060205058146677 2.0260942194727183 60 75 43
12.93828432407244 -3.0797976469781125 2.012775924804207 57 72 33
11.99137602666625 2.9488777730040527 1.6990805144772476 59 74 33
12.420842924747957 -2.6429855593806093 2.2225331937524286 62 79 49
16.512247656072827 -0.3126782749416486 2.79566576097483 66 80 53
18.972798543892402 -2.703107814151739 2.926126681110371 68 82 52
14.069770149207807 -2.3518458012754353 2.5318196004470312 67 80 51
19.241778030286472 3.0732693966834073 1.3365658413488508 46 57 19
19.67009467713126 2.916386530540525 1.3417583896883447 39 50 13
19.333948278791357 3.020208406348579 1.3377032078354762 43 54 16
20.159364638250395 2.8661315617397336 1.2962241900860327 38 48 11
19.807418705611404 -3.0542708818790323 1.6483241472950299 46 59 27
21.412786702659417 -3.1066702708025895 1.8322114182803055 40 52 21
21.438715048573137 3.0798617272815116 1.831887868068815 38 49 14
14.419712769847042 1.3252592780471033 1.8906596147358936 51 61 23
14.282866371294528 1.7694318088413281 1.8938349305340032 52 62 25
13.293679718815822 1.8614570926252418 1.8398790142134351 51 61 23
14.891636364463682 1.4092142992745411 1.810402774018626 54 64 27
20.99687765437883 2.561167687141701 1.1031072434786497 5 10 0
21.46872416535445 2.5468667372560527 1.215617971256206 19 25 1
20.932856197897962 2.477064246824818 1.2567725012993958 10 16 0
12.265496353805506 2.146633126752604 1.6143540469301065 52 64 21
14.241713048684623 0.5461931712126566 2.1282364406545966 54 64 23
11.18193135090841 -0.2839684360506214 2.0885315427133655 59 73 48
10.78253517633402 -0.9006498074706959 2.221803775486186 61 73 52
14.503397606995202 -1.542880540136566 2.199899580124645 27 31 30
13.680332507879665 -1.5332867964394838 2.4496640699015373 67 77 49
13.70781078169517 -1.540278545187027 2.2428203595456546 21 23 23
14.351733438727518 -1.540278545187027 2.297374848018272 53 58 49
13.032408333472922 -2.995105605371931 2.009361074985894 56 71 34
12.419770334292284 2.682345150726536 1.8593368859835133 62 74 31
13.731908667646076 -2.9299970083678417 1.907297265971982 54 69 33
12.631962793010885 -2.981603467726873 2.114449904812023 59 74 38
11.51045750905709 2.7603841252014436 1.6172132452718821 60 75 33
17.946091716645196 -1.9170654573976247 1.9434576009503282 47 51 54
16.438061228005168 -0.13474996445440887 2.8084133010708463 66 80 52
15.34611262185816 -1.949221729895138 2.650722269557776 66 81 47
19.477091423699367 2.967824901757875 1.3394476351932896 41 52 14
15.236560689963627 0.9514456447006487 2.1653100020894396 52 61 14
12.967763151136639 2.4337477013943256 1.3794741919598041 58 67 26
10.801924687987201 -0.6791463193684426 1.4346678893244165 76 89 69
17.64590052310064 -1.9627950984346207 2.1415904576148943 4 7 7
13.938449191967624 -1.542880540136566 2.141857997113663 16 20 19
12.814833452709367 -2.912473849925877 1.9324437915337458 58 72 41
14.025196828703477 -2.9450624627628814 1.6803964812304608 56 71 35
13.117481933070444 -2.5898824784605847 2.3844813126043816 65 79 51
12.420842924747957 -2.6429855593806093 2.2225331937524286 62 79 49
12.19407037682353 -2.725026732771115 1.8648353151273849 54 71 39
15.868091297639458 -0.11365324135534989 2.7286196853834306 67 81 53
18.79851380061398 -2.1503570502336804 2.300648572660056 33 40 34
19.607301297366075 -2.7296365562598335 1.7520303021573334 56 69 56
21.165887469799628 3.128157025930423 1.7866862463478337 38 51 16
20.733724716716324 2.8172637322581777 1.2536517490020744 36 46 9
13.785036193236175 1.2319390018551606 1.9059494355786986 44 54 12
9.946021909721605 -0.6630134501025491 1.93405998564183 70 86 60
9.902795090447984 -0.5158596407645102 1.829571036212057 71 84 65
12.390864552508264 2.609888056194169 1.5331862212476037 59 69 28
14.73732484480376 -1.6576864647075782 2.587730649344326 66 78 47
16.424536255730658 0.05209295069267894 2.810800928030364 66 81 51
13.70781078169517 -1.540278545187027 2.2428203595456546 21 23 23
14.689464100814483 -2.0708315063561713 2.59302174598406 67 81 48
18.591968805864465 -2.2077689329810193 2.240023618133669 34 41 32
12.751323298818193 -2.8329022107431525 1.8516277718650036 57 74 42
19.322349518044227 -2.250910450982889 2.346805900853533 31 38 29
