20.463647166231898 1.5349626554324955 1.370443650768385 31 41 44
20.277543746094516 1.584843031302127 1.4186845636211065 0 11 7
20.199372030740687 1.6841492509701068 1.5176720674375996 44 57 38
20.115099059825134 1.485259885966246 1.5671884812707662 33 43 48
21.282712244028282 1.6316264886894842 1.7087833720372603 31 44 27
21.074107108027594 1.5366643058425464 1.6148184816527067 28 38 40
21.074107108027594 1.5366643058425464 1.6148184816527067 28 38 40
12.706695567134611 0.20704638103177325 2.2444913921344196 8 9 11
11.97669012384774 0.25856558216196357 2.411931407976076 62 77 39
12.578217150532643 -0.09831612607264932 2.2526721771991807 8 9 12
12.292456062444911 0.09685797369764904 2.07396107574474 18 18 20
12.47847454218642 0.0047516710355737825 2.368030284878074 64 73 56
12.541706497492614 0.004262745064008575 2.2550376218969235 8 9 10
12.515169663919847 -0.10950753240370101 2.3650325886778893 47 57 42
12.578217150532643 -0.09831612607264932 2.2526721771991807 8 9 12
12.515169663919847 -0.10950753240370101 2.3650325886778893 47 57 42
12.584802622709004 0.10675229860604855 2.252247461880805 9 9 10
12.032297210845615 0.15378581241188294 2.541113654962148 61 77 39
11.987214896998726 0.006166150108825379 2.5466274762210186 58 78 40
12.36696755622465 0.4250942942848798 2.502667937912025 61 75 39
12.159729904624449 0.2949881295830916 2.525977651947252 63 76 39
12.58644162801496 1.180612577041576 2.2521418496860792 78 90 71
13.553977267724743 1.0898048235416538 2.2898294247437407 59 69 42
13.44048264104596 1.5112008434083721 2.0275234120333647 20 31 30
13.530835324109534 1.4290407616217553 2.024244844292408 24 37 38
14.203817610794612 1.3652906043283846 1.925069435054764 45 55 60
12.993707626623513 1.2787270524777177 2.328228311384548 53 67 26
12.498383140236646 1.3064088782357977 2.1582771011756865 7 12 6
12.813687026261615 1.4993679193138811 2.237843469605391 44 57 25
13.05444653808125 1.5058179518932318 2.130171353710243 31 40 39
12.726451822811766 1.4914992332281936 2.348276789969372 56 70 25
11.518978201965684 1.8596841898459435 1.564496072423104 0 5 0
12.255882054938686 1.7580503170045574 1.5648748895249474 5 14 6
12.197959615514003 1.5941725621018066 1.7294736928376733 44 54 52
11.884924347312296 1.8596841898459435 1.8196719682293605 0 5 0
11.998318208097558 1.940715356821592 1.7321368992307107 8 16 5
11.601142038126582 1.9738412176825604 1.9161590964650124 2 13 1
12.730396686164786 1.676824337534741 1.8844203484305526 29 40 33
11.88150118570588 1.7942153418720843 2.09310083172119 39 52 12
11.853486418492299 1.9189559480409213 2.1949628305654523 55 69 23
11.616456913245704 1.8179782787057637 2.209737756408602 53 67 22
11.298242531417118 1.9189559480409213 2.1230799915507275 65 77 28
11.151614115461111 2.013057901490114 2.0284649067980616 47 61 16
13.037700850675666 1.596288821888481 2.130975695602344 27 35 28
10.78318503525519 1.6173633001474712 2.546154264479902 56 71 26
10.868785496618985 2.0600537097932423 2.1476178501833525 56 70 27
12.202404073297473 0.8128542771682354 2.3914802189187494 62 76 37
11.444883317280865 2.0600537097932423 2.2209214757284284 55 69 24
11.434918230470105 2.1171133569084826 2.336805919072826 55 69 26
11.099292134251181 2.0069026522346536 2.3663171735005477 55 71 26
10.680269086931997 1.7508250932728413 2.40721781982075 57 71 23
11.444883317280865 2.0600537097932423 2.2209214757284284 55 69 24
13.053713853998326 0.9804200905439454 2.4348883832221233 57 71 31
12.14857237604878 0.6152303995453363 2.527277319969374 59 73 36
11.711143404133644 0.7082631352643678 2.5824133239437077 59 74 35
12.09271412940362 0.8184768369125619 2.533856700766434 59 73 34
12.542591048055934 0.9077372355118224 2.4840514684350397 59 73 34
13.305839681186988 1.1376673368973949 2.412975046586591 55 70 25
13.61918868968937 1.0401618456286739 2.387553215880187 61 75 37
12.595700061776004 0.9352903234446187 2.6210557032673765 59 73 34
12.516815328165167 0.7225586464872739 2.486722967541165 59 72 34
11.747586874206773 1.2936687749482827 2.577475648418063 58 72 30
11.643404417227922 1.4524291199597597 2.5917800348119164 58 72 29
11.461233490669878 1.0762630307116325 2.6182921124086516 59 73 32
12.516815328165167 0.7225586464872739 2.486722967541165 59 72 34
13.761686925045895 0.008779660981205898 2.7916085067703573 69 88 56
12.370464455075215 -0.16608345376604555 2.6537545463892585 63 80 50
12.862593667881509 -0.20042584968811109 2.7579189353652125 69 88 56
13.48570505742179 -0.2522941582120194 2.8528487659509967 72 91 59
13.451657744644955 0.01114058421414042 2.8614956025494673 70 89 57
12.988259368172102 0.4083294369230294 2.7346212009682556 60 75 37
11.936747868646389 0.6855759321342885 2.7274069072110496 57 72 34
12.702748189563517 0.4888101854151866 2.6065389554052762 57 72 34
12.37716046599014 0.18014237079240297 2.6527359560728447 63 79 40
13.227475269008556 0.007244402737501055 2.69451908925232 60 79 47
12.86903361685 0.21723047338359258 2.756681178437151 63 79 41
13.268344176103058 0.18014237079240297 2.688137126423671 62 81 43
13.30143651213234 2.385035227006339 2.68305838937608 63 78 38
12.708813373789566 -2.921339503719328 2.7891034448810306 71 88 53
13.032473215126606 2.5239479652078183 2.7268209052398205 66 80 41
11.53733042737618 2.306643298404868 1.9181497235210978 48 62 17
12.208720347791315 2.634900306512019 2.3909251641885296 63 77 34
12.266591975501234 2.730923781098086 2.170913789798883 59 73 31
11.915916449045739 2.59476033066389 2.1911945601037184 58 72 31
11.886162195562115 2.5360140840776557 2.300898771973857 59 73 32
12.37222372914157 2.5113373582168066 2.165082884112359 59 73 31
12.830273636468599 2.687587269335793 2.340342879987719 66 81 37
12.476197090503028 2.3756765396984822 2.3682172195738147 56 71 29
11.914900308652141 2.306643298404868 1.9971479211205327 53 67 22
11.558122999140158 2.436949764766285 1.9174985198305392 50 64 19
11.84569221251443 2.214339592461532 2.3039610274417157 55 70 28
11.736134378767252 2.3729566966569093 2.1002454353139157 55 69 25
12.857843313250086 2.730923781098086 2.235142054794163 63 77 34
11.760253752655228 2.92509476079533 2.200684376513081 62 76 35
12.92015576890866 3.029855757524167 2.3336250793685913 62 77 37
11.974407021232254 2.8249334103257753 2.1877087736636263 63 77 34
12.214812551577955 -3.026357291972902 2.390390656201377 67 82 44
12.1772123597103 3.1365902900845475 2.3937030310870973 62 79 41
12.27919517792082 2.610340848417686 1.8115200316948237 52 66 23
11.724665446209658 2.767069192816823 1.9123712383020872 57 70 27
12.10580996913621 2.6857044377960477 1.9012001634948117 57 71 29
11.799990704102541 2.8539801236970663 2.0015755598553735 57 71 27
11.913392725205323 3.0406458820845446 2.091560593076956 60 74 33
12.604287948576221 3.134997610478055 2.6198684166255024 67 84 46
13.236294625906588 2.569883732041364 2.54199988144815 66 81 38
13.085974048288875 2.9469074334962917 2.7176314972998123 63 80 42
13.28111148880337 2.789630133345033 2.415063823780603 67 81 38
12.348823125656857 -3.0107010321374115 2.5046484720306585 77 94 56
12.31163221396954 3.1359033109790673 2.5087430464656126 62 79 41
12.76846839120549 2.8273709964035305 2.5979178171069424 66 81 42
13.088356168546527 2.8999074724072433 2.4317940090986863 64 79 39
13.044533782745743 3.133748959331365 2.724726103149105 69 86 50
12.965980111064056 2.690676542080032 2.5732178270500174 68 83 41
13.085974048288875 2.9469074334962917 2.7176314972998123 63 80 42
13.172471253717207 2.9995329714019334 2.5491254967399497 66 81 43
13.47462884262758 -0.18073484346841395 2.1997791531059594 15 16 17
12.63117637171632 -0.22097791279519371 2.3557285586036647 30 39 28
12.6005180573641 -0.2693195867945142 2.0605533086322954 16 17 21
12.629548046185478 -0.5995270997097035 2.1513770187781533 17 21 20
12.566758089565246 -0.6574263435838809 2.253412615055532 2 5 4
11.897426897434057 -0.8029518381395527 2.192305407370178 43 53 49
12.124613975914802 -0.5710350576758506 2.2834306930069688 7 11 8
12.189681662545679 -0.5171198019058236 2.175237822770055 12 16 13
12.149440537549497 -0.32715174943412 2.2816662669432914 6 14 8
12.447649385442304 -0.4738908283892492 2.3705692967358734 32 46 34
12.623862335024425 -0.5324462809467401 2.475758507551016 57 73 49
12.146094459546998 -0.28365967036397094 2.5275666058515407 61 77 52
11.448747704860214 -1.328684072847917 2.4650999867129504 65 84 60
11.914180034621229 -1.080030786336209 2.4178175820797327 62 77 62
11.998612078508645 -0.8829109917994846 2.2925411225410794 38 51 41
11.362738923159101 -0.8829109917994846 2.2264301975175895 45 57 49
11.359161108139196 -1.0128782315164997 2.474984071343214 60 77 56
12.16159541213599 -0.8059575816045778 2.395088319604718 54 67 51
11.328746021647994 -1.327637328837975 1.6527530624229911 10 19 16
10.730007155431798 -1.3043114565950005 1.8471258723620054 4 13 8
10.842092906185767 -1.399917746303355 1.9414651535776404 21 35 29
10.895787618196412 -1.2416448901754524 2.2598273414274317 69 87 73
11.45418708130938 -1.3812749236024764 2.2203039775481432 59 71 60
11.367383498712496 -1.1773635163569638 2.1193360128202174 2 10 3
11.981403836042523 -1.4807647023892847 2.411491601476452 60 80 54
11.453127288121843 -0.9477426996870139 2.1147673935556393 27 39 35
11.187274858729214 -1.1337085644849554 2.2385502541060474 43 59 49
13.744465266045397 -1.8386125892817133 2.0166843668837626 38 48 47
13.540578141033748 -1.7593172888102082 2.023894237469552 41 51 50
13.35239783632426 -2.0166292943899684 2.303122330608605 59 80 47
13.429401208599106 -1.9768391624129324 2.2022316185157673 57 77 41
12.864445609775203 -1.9768391624129324 2.139445262600087 58 78 44
13.585902784502979 -1.6872111253082778 2.1938329912371626 51 64 53
13.37340781579183 -1.861747622036037 2.1153077166763232 55 69 54
12.703124936911065 -2.0643625389088 2.350085861558939 61 81 47
13.174074908277651 -1.9432614489452587 2.037484681796685 59 73 57
13.371626364270094 -0.3299774279913345 2.6725364173790593 68 85 57
12.975494621852784 -0.3934441476396203 2.736909591875436 71 90 62
11.832490206758285 -0.47744821926408293 2.5662342847010953 62 81 55
12.26481754955111 -0.5600506096585596 2.670245208333019 71 90 62
11.91590611661003 -0.6720788107505261 2.7314037105780082 73 92 62
12.543639597042077 -0.6980458525240727 2.6283417836775045 70 89 63
12.20270311843115 -0.8166639583823212 2.6803326428485996 70 89 63
11.703343634988068 -0.9273550875087536 2.5834791873280283 60 79 53
12.483673903400424 -0.7143471908472478 2.4901879120596466 62 78 60
12.058407157768734 -0.8102051017058399 2.537959170191524 65 81 58
12.483673903400424 -0.7143471908472478 2.4901879120596466 62 78 60
12.587693455891369 -1.391254615397957 2.816267171961221 69 89 61
12.408457304060722 -1.0445821168682676 2.8622386166248504 71 92 59
11.74870637596941 -1.1612327596612928 2.7654711771348217 70 90 62
13.28110453604835 -1.3325659220332493 2.910295895165185 72 91 61
13.354566813212777 -0.624332421011724 2.887992784536944 73 92 60
11.600629475316548 -1.4507988477631197 2.5978265604348385 63 84 54
11.425030472375257 -1.0693088201531131 2.6238107445315864 60 80 52
12.021327521598302 -1.4269041028566165 2.711683058388821 64 85 53
12.12226242602631 -1.237185304070342 2.6938685350628893 66 87 56
12.570325994005797 -1.6417969955261702 2.820388362868358 69 90 57
12.570325994005797 -1.6417969955261702 2.820388362868358 69 90 57
12.449599562007174 -1.6180098682935729 2.6419071380404926 64 85 54
12.126616102457255 -1.6112329346639238 2.5298488998928343 60 83 54
13.018169730308546 -1.752921861324701 2.566971331877682 61 84 54
12.980497273539651 -1.8237103745557637 2.7360107552789983 64 85 52
12.98854505954536 -2.262953503688732 2.7345701741952846 71 90 58
12.772596983689446 -2.093646722227362 2.7757691917402214 71 90 58
12.719479468403382 -2.4079042150393213 2.7868308400524886 73 92 60
13.013386454079608 -2.5369274647102356 2.730164627536778 73 92 60
13.276496970960663 -2.395368362597206 2.6868786506066207 71 90 58
12.772596983689446 -2.093646722227362 2.7757691917402214 71 90 58
13.456483376636944 -2.227703255862067 2.860251643359124 73 92 61
13.480462495963883 -2.6034951272061324 2.8541608945252412 72 92 57
13.480462495963883 -2.6034951272061324 2.8541608945252412 72 92 57
12.740787285798865 -2.283053544886992 2.601523063659635 69 88 56
12.740787285798865 -2.283053544886992 2.601523063659635 69 88 56
12.440441776958187 -2.1554152986955173 2.6432572931995653 67 86 55
12.871741778896576 -2.074195955513864 2.584786114522581 64 85 54
12.653800510775572 -1.9364745557602405 2.6131014847009144 64 85 54
12.857180652099643 -2.122382107615655 2.45298416714171 63 84 51
13.364089240920856 -2.011451841496319 2.528150004708559 62 83 52
13.565221923800603 -1.8201711856756018 2.3917988176648737 57 77 48
12.926643068687845 -1.8499852197516653 2.446480548356231 61 82 49
12.78808163757051 -1.7304515059364947 2.459576101128105 60 80 50
13.110710496310315 -2.387722979257646 2.55616048429866 67 86 54
12.946795323196348 -2.7014169687295917 2.5755421908048213 83 101 66
12.293872264992277 -2.786479387665946 2.665629007303846 79 99 62
21.452964711679325 -2.989339415666721 1.9999920330799486 59 67 49
20.463647166231898 1.5349626554324955 1.370443650768385 31 41 44
20.246209450293385 1.4359768422672363 1.6166198493302228 23 32 41
21.31348477593115 1.489306612563618 1.7085828741802054 24 34 37
12.798188217681727 -0.08919458032504093 2.1427572668816217 20 17 24
12.285713885670164 -0.08919458032504093 2.0742631607525674 15 15 17
13.365944696498861 -0.08919458032504093 2.2057080567324254 16 16 16
12.644288721260066 0.2300061731956302 2.354693042406187 65 74 56
12.92448015221859 0.18820486048069468 2.1364795995874903 18 18 19
12.76230687761826 0.003865048169967188 2.1445682003041044 19 16 23
11.84728876745127 0.13411680494950057 2.424229573275901 59 74 37
12.574985166223486 0.005367283689427029 2.4807224977675997 57 72 39
12.611399476166225 -0.12355944134640418 2.4770176035466247 59 72 48
12.821837112608375 1.3829709480011865 2.3409805215743886 54 68 23
13.291560462843488 1.3487591939587076 1.9505789035725831 26 37 39
13.44048264104596 1.5112008434083721 2.0275234120333647 20 31 30
12.813687026261615 1.4993679193138811 2.237843469605391 44 57 25
12.328081031187107 1.2787270524777177 2.2692552957177936 70 82 54
12.109648049736236 1.676824337534741 1.5648033824266532 35 45 39
11.628127680534392 2.013057901490114 2.105689493984106 63 76 28
11.616456913245704 1.8179782787057637 2.209737756408602 53 67 22
13.013638488358533 1.5941725621018066 1.9591181179558648 20 30 27
11.656684069981436 1.8866550412097707 2.0072328047048034 21 32 2
12.16832812384137 2.013057901490114 2.1764503624459004 55 69 24
10.845792586314873 1.8841378875756454 2.390468237847609 55 71 24
10.224889321751492 1.9318867223702183 2.457997312838938 56 71 23
10.855420238785735 1.7798223716966455 2.536401895825171 57 71 24
12.202404073297473 0.8128542771682354 2.3914802189187494 62 76 37
12.33753334756634 1.0762630307116325 2.6588090003587057 59 73 33
12.14857237604878 0.6152303995453363 2.527277319969374 59 73 36
12.890752799337406 1.360261586572884 2.4498257499520197 54 70 22
13.06171652875447 1.24480000224275 2.4341711024898087 54 70 22
11.934937298157365 1.1479667572606522 2.5531309994304605 58 72 31
12.516815328165167 0.7225586464872739 2.486722967541165 59 72 34
12.501078208865195 0.34288722090430385 2.6344150107810966 61 75 38
12.536949201767664 0.27307285653227725 2.8284884356846796 62 80 41
12.501078208865195 0.34288722090430385 2.6344150107810966 61 75 38
13.800973958611547 0.21723047338359258 2.783891100601177 64 84 45
11.853478628352123 0.4888101854151866 2.5635098475293803 60 75 38
12.285067383760932 0.5725554538969375 2.6670212395471093 59 74 36
13.30143651213234 2.385035227006339 2.68305838937608 63 78 38
11.183322872097554 2.09947861516834 1.929633959409816 34 48 3
11.331450935737728 2.2339351611986484 2.020662784940006 48 62 19
12.155700951076515 2.687587269335793 2.2812228985844474 60 75 33
12.003850414970554 2.2891841698093445 2.4094049368649184 56 71 27
12.02383627041641 2.465281138044513 2.407557628542667 59 73 31
12.121273741265968 2.564579194649653 1.9894280818006458 59 73 30
11.935035116743954 2.436949764766285 1.9963817823351087 56 70 27
11.800704906220226 2.2339351611986484 2.097046479437174 54 68 25
11.655145727420523 2.644010279879589 2.007294369470348 57 71 30
12.324102119412695 2.2992198739305287 2.269526415135206 55 69 28
11.581789929033052 3.1371292411643563 2.211963269254919 60 75 36
12.250533421782295 3.029855757524167 2.2745823853426668 62 76 35
12.878181933392957 3.1371292411643563 2.3367451375088466 60 77 39
11.974407021232254 2.8249334103257753 2.1877087736636263 63 77 34
12.214812551577955 -3.026357291972902 2.390390656201377 67 82 44
13.038914075802428 2.92509476079533 2.324955022198305 63 78 37
11.612102439245026 2.6857044377960477 1.7375525131867482 55 68 26
12.792045433304096 2.4884346203998158 2.5948761732583248 63 78 35
12.783876353924889 2.465281138044513 2.4599813147015928 63 77 35
13.520568991302747 2.9772952137136173 2.651244777768996 65 80 42
13.079640913492236 -2.962051956741539 2.718705595147705 75 92 56
13.47886157272179 2.74592949650393 2.5161576531669465 68 82 41
12.31163221396954 3.1359033109790673 2.5087430464656126 62 79 41
12.604287948576221 3.134997610478055 2.6198684166255024 67 84 46
12.640617845158076 -2.9901593006842178 2.6148903120109335 79 96 59
11.963730260626962 -0.7336700711190367 2.0891489264123617 9 17 13
13.341047465522232 -0.19886727482299862 2.3038875481056174 9 13 11
11.897426897434057 -0.8029518381395527 2.192305407370178 43 53 49
13.091253040363046 -0.4262123459089934 2.3212059060126764 2 12 8
13.71640709245877 -1.7760604054614348 2.1870134691279457 52 65 52
11.472282572723271 -1.4152483702122796 1.8288239610282415 16 27 25
14.016896750194597 -1.9146073409918412 2.0074145180796137 44 53 52
13.653245242929223 -1.9432614489452587 2.1029417389671856 60 75 58
14.016896750194597 -1.9146073409918412 2.0074145180796137 44 53 52
13.771005908796 -1.889109673058452 2.276115805910334 55 75 40
12.16159541213599 -0.8059575816045778 2.395088319604718 54 67 51
11.555507815177183 -0.9749340769408018 2.326815099722543 52 67 56
11.341820535770678 -1.4679119124362834 2.4769297995749087 63 83 60
11.363807146004739 -1.3581349164596987 2.3428430985224153 64 82 64
10.86023142485446 -1.0860188548810379 1.9408161494516423 38 43 39
11.330558571637537 -1.0026735301839265 1.9247644320548778 24 28 26
11.2560731122215 -1.4807647023892847 2.3522048683512145 61 81 60
11.705192658281865 -1.2900133707604187 2.5832262194271363 62 81 54
12.12226242602631 -1.237185304070342 2.6938685350628893 66 87 56
12.587693455891369 -1.391254615397957 2.816267171961221 69 89 61
12.585974082708516 -0.8276673759385859 2.8166724142612067 72 93 62
12.309869281303737 -1.3325659220332493 2.8916723673003686 70 91 58
12.021327521598302 -1.4269041028566165 2.711683058388821 64 85 53
12.587693455891369 -1.391254615397957 2.816267171961221 69 89 61
11.93603922801265 -0.9690328844574749 2.7275419770247638 70 90 62
12.9529851881485 -0.6055014876497812 2.5747905675243845 64 83 57
12.487815487545625 -0.3299774279913345 2.6363296495907784 64 80 55
12.058407157768734 -0.8102051017058399 2.537959170191524 65 81 58
13.013386454079608 -2.5369274647102356 2.730164627536778 73 92 60
12.344632416723487 -2.1938640276587065 2.5051074871187677 65 84 54
12.440441776958187 -2.1554152986955173 2.6432572931995653 67 86 55
13.323433334152984 -1.979558017556899 2.8971713543856543 69 90 57
13.276496970960663 -2.395368362597206 2.6868786506066207 71 90 58
12.214807511778444 -2.002033471723977 2.6783428165658747 65 86 53
12.632345967858278 -1.883885043895788 2.8059456030551035 66 87 56
12.82306836082993 -2.7125636099450445 2.765628300986304 73 93 57
13.424762163160674 -2.0643625389088 2.403103292614865 61 82 46
13.768744129296905 -1.921918800506166 2.3760578348928396 60 81 49
12.490608768276836 -2.220030596961062 2.367036050127961 61 82 49
13.110710496310315 -2.387722979257646 2.55616048429866 67 86 54
12.492255204111522 -2.6309727334390516 2.6356875316369432 75 94 61
12.466377878335896 -2.8788336461897446 2.492009832040466 91 108 70
12.755483696200384 -2.839347093917545 2.5996043354311205 90 109 71
22.24909575810151 -3.040362245234311 2.084194683014297 58 66 46
20.18902437973472 1.6346536602505848 1.4679567973017897 28 40 30
12.248331350181692 0.003865048169967188 2.0759450487467026 18 18 20
12.52178829414112 0.11888747763838516 2.3644947401334155 64 72 54
12.804660558632444 0.09685797369764904 2.142431911941452 19 16 21
12.02540917405862 -0.14172078880353184 2.5419505516014516 60 77 47
12.574985166223486 0.005367283689427029 2.4807224977675997 57 72 39
13.239084893982913 1.180612577041576 2.310844716872213 57 70 33
13.959748308364807 1.5157609454813126 1.9315441123135424 43 54 57
13.147452428494809 1.4163970760809932 2.1257485394784768 35 43 40
13.553977267724743 1.0898048235416538 2.2898294247437407 59 69 42
12.146795913639234 1.3829709480011865 2.2818537499033678 61 75 37
12.37716046599014 0.18014237079240297 2.6527359560728447 63 79 40
12.229832577060451 0.8269935610405209 2.6758892774856045 59 74 35
12.201625271039115 1.019061644400062 2.521139743592281 57 71 32
12.09271412940362 0.8184768369125619 2.533856700766434 59 73 34
12.516815328165167 0.7225586464872739 2.486722967541165 59 72 34
12.012427745659139 2.4925790776754146 1.8169753244072058 46 60 15
10.809195680204146 2.1519304944418667 2.0441291379867232 54 68 25
13.232389635264434 2.8249334103257753 2.31130685980691 65 79 35
11.730917386068858 2.730923781098086 2.100505696111173 58 72 31
12.34356945630011 2.4490074858343043 2.268202178377161 57 71 30
13.2032409648459 2.7727592436884496 2.6983628055873643 66 80 41
13.288974908295264 2.86825313689204 2.5362247106388547 65 80 40
12.957920686021827 2.634900306512019 2.4435912098189694 67 82 39
11.971447616257509 -0.47179152591444584 1.9950034840323367 17 20 19
12.885877398119367 -0.29551415632174727 2.2334395204167006 11 16 16
12.166627733525718 -0.3660370086376321 2.394641316928549 51 64 50
12.346852045640754 -0.4148120526630104 2.5048642932920915 58 74 49
13.567517631608478 -1.796012206313267 2.2889561516749497 52 72 40
11.64090868246352 -1.198363826647227 2.444795044466636 60 77 56
11.979342067138454 -1.1642147782134014 1.481141130880729 67 75 73
11.447687408111232 -0.8059575816045778 2.3357334707673787 38 51 37
10.988047767188156 -1.0356297719725378 2.1405720671649817 27 40 34
12.997281691288176 -1.6775534044902072 1.9596330087562173 28 39 38
11.64625831061407 -1.2761787698444798 2.207838103171215 62 72 63
11.703343634988068 -0.9273550875087536 2.5834791873280283 60 79 53
12.920148621911547 -1.6275127694062363 2.7470303924451027 64 85 52
12.483673903400424 -0.7143471908472478 2.4901879120596466 62 78 60
12.64620614009664 -0.48479067406738746 2.80281785459249 72 91 61
12.587693455891369 -1.391254615397957 2.816267171961221 69 89 61
12.857180652099643 -2.122382107615655 2.45298416714171 63 84 51
12.740787285798865 -2.283053544886992 2.601523063659635 69 88 56
12.9529851881485 -0.6055014876497812 2.5747905675243845 64 83 57
11.600629475316548 -1.4507988477631197 2.5978265604348385 63 84 54
13.162249256061026 -2.1938640276587065 2.5502802159924247 65 84 54
12.766110797786318 -2.4984040711766147 2.5982234287085735 69 88 56
13.074113821550554 -2.15669255165951 2.322428862510381 61 80 48
21.131396438270833 1.5841755392118404 1.6621348525969861 4 16 3
13.05444653808125 1.5058179518932318 2.130171353710243 31 40 39
12.597216222369834 1.6863453293228259 2.060693037491327 37 45 36
12.319604302746054 1.40130076460852 2.16797210420478 21 33 9
11.434918230470105 2.1171133569084826 2.336805919072826 55 69 26
13.262098129969406 -0.16608345376604555 2.689104527235397 68 85 55
12.333338802513062 0.007244402737501055 2.6594582538487033 59 78 40
13.4918475852035 0.27307285653227725 2.8513200139955854 65 85 47
13.244897506279882 -0.3390027695851963 2.922204574661646 73 93 58
12.595700061776004 0.9352903234446187 2.6210557032673765 59 73 34
12.012427745659139 2.4925790776754146 1.8169753244072058 46 60 15
11.799990704102541 2.8539801236970663 2.0015755598553735 57 71 27
13.394343102932666 2.619111857755235 2.669200773540116 67 82 39
12.97005057859972 3.0164963386346004 2.4424770988870614 64 79 40
12.303909023938768 -1.0693088201531131 2.664048981352202 67 86 58
11.724652319986916 -0.9010271652960745 2.436302801892415 60 75 56
12.51221796127356 -1.7826433005782447 2.6328150542939235 65 86 55
11.57249158099755 -1.2436672642563726 1.5645252063678419 0 3 0
12.14461811010491 -1.4679119124362834 2.527739075766249 61 82 56
12.336164566369503 -1.8876254032333277 2.50603680878318 63 85 54
12.574105342385593 -0.3868049033127247 2.1542722517808666 14 20 23
12.705576413717644 -2.0166292943899684 2.2445617100618063 58 79 46
12.726529046214871 -0.24850638452389334 2.465554481233295 59 71 51
11.643404417227922 1.4524291199597597 2.5917800348119164 58 72 29
13.227475269008556 0.007244402737501055 2.69451908925232 60 79 47
12.827633334387402 0.006166150108825379 2.5903345568108183 55 74 42
12.71533120828563 2.902989230501366 2.787712587936973 64 81 43
11.855312024668997 2.1519304944418667 2.1948519282437253 54 68 24
10.969014026030894 -0.9477426996870139 2.036681028224789 57 68 69
11.978584137440494 -0.7255273241873417 2.2940136857423985 16 28 13
13.140059744207518 -1.9618840794585903 2.4272264054231285 63 84 48
11.072199877926225 -1.1427755713193581 2.5086530420552724 59 78 53
13.323433334152984 -1.979558017556899 2.8971713543856543 69 90 57
12.740787285798865 -2.283053544886992 2.601523063659635 69 88 56
12.304392290339514 1.7745625346005303 1.9828161091503238 18 26 19
12.042083765207337 2.945589007194726 2.0854416035059318 60 74 33
12.683165238523443 -0.47744821926408293 2.609149641139375 68 87 61
12.223918729102163 -0.6358100024931068 2.3895932751262325 63 76 59
11.266008263077934 1.2422792350640772 2.649157413457315 58 72 32
12.92448015221859 0.18820486048069468 2.1364795995874903 18 18 19
11.109558276101097 1.9582475573845668 2.2440789962033705 56 70 25
