15.363430551569838 0.17932414544439382 2.0915659950734597 72 71 66
15.710345852175623 0.028744200887719475 2.1534161170126476 45 46 35
15.710345852175623 0.028744200887719475 2.1534161170126476 45 46 35
12.254042426218726 0.4886767591177605 1.2073783683557067 39 41 20
22.46569861467818 2.072546070280676 0.8182097827143786 49 46 22
11.459227702317836 0.4886767591177605 1.5397284128416435 40 42 16
11.049051516299542 0.7379153205954825 1.447764599623871 41 43 15
10.971309190217054 0.7379153205954825 1.5383462788065532 39 41 15
11.704448136945837 0.6105684059812454 1.8873973268567834 39 40 13
11.754920558900793 0.4886767591177605 1.797668279931511 42 44 21
12.359382234604954 0.4886767591177605 1.9560027184011386 40 42 15
10.917288737874268 1.2502535367567174 2.010182778715059 31 31 1
11.072913000503867 0.8668137348581532 1.4480310673319567 38 40 14
10.499879252086426 0.9403847372724008 1.728020598255818 36 39 10
10.702128304496028 0.9403847372724008 1.8204389514138435 37 40 9
11.851653816031858 1.0227857847889832 2.165907106027651 35 37 4
14.005449448102324 0.4084654353276962 2.235964422269396 46 49 19
13.053443653409472 0.5330586590850073 2.1964113102248484 42 45 13
14.413484366030245 0.35488009641348794 2.4016068470318963 45 50 15
14.376600483185545 0.3222841291700242 2.306103855869438 45 49 16
13.701911080827502 0.5852924749978275 2.3515944042006374 44 47 14
14.851413414695068 0.4947473108334848 2.471937901887198 48 51 16
14.08106510448285 0.4947473108334848 2.4278420514897903 47 50 17
14.005449448102324 0.4084654353276962 2.235964422269396 46 49 19
13.496164267689352 0.6105684059812454 2.1729107655500197 37 40 9
14.05646562495826 0.4432542206350755 2.5469991921321187 53 56 23
13.14813919708403 1.214989477869471 2.3942403746469907 47 47 15
13.134541158566256 0.6472877786154825 2.3953582713138353 47 50 17
12.9038756636592 0.8788185113194934 2.304842930531578 45 48 14
12.9038756636592 0.8788185113194934 2.304842930531578 45 48 14
13.400673921961479 0.7214246227387453 2.4886370250868506 51 54 19
13.574617128073625 0.7308887162083442 2.360929181922869 46 49 16
13.420354856322719 0.8949591909911633 2.4867221248452704 50 53 18
13.898482456235726 0.9979536061971018 2.564023610585984 50 53 18
13.636041169102555 1.1166544536598526 2.594261925184329 50 53 17
13.319444115866045 1.171470423860211 2.4966523839966897 47 51 16
12.975047812702115 0.8105528422646097 2.5328140586496843 51 54 19
13.468992384680208 0.9178027963274693 2.614965715223918 51 54 18
13.885397271362853 0.6472877786154825 2.444269326196884 48 51 16
13.449382623439899 0.7079916313622653 2.617478983792188 53 56 20
13.807242725446885 0.8105528422646097 2.5742437306273827 52 55 20
13.319444115866045 1.171470423860211 2.4966523839966897 47 51 16
14.444587774744585 0.5047032652383874 2.636951715748955 52 57 24
14.499300145281488 1.1166544536598526 2.6301616958708856 50 53 17
16.4178938980694 1.4985353064825082 1.9217290925019441 54 55 30
16.883765036466155 1.4342325401286582 1.9752501056924596 57 56 36
15.7126827129302 1.7689606374490516 1.9382100972103742 53 51 31
15.560031936279824 1.7012946835832776 1.941988802967595 55 53 33
24.176472092042374 1.9096567988817175 1.7640870356150247 21 18 1
14.178994522749635 1.8535752223653452 1.7583703839636458 29 27 7
11.546037139185518 1.4526444606069242 2.1839374577387005 37 37 7
14.873330994690221 1.9468434401688328 2.0338792707291287 41 35 18
11.146707294209525 1.3491503633860336 2.101733504056087 31 32 2
9.96919383351953 1.3491503633860336 1.8392298052523681 31 30 2
15.030240965755144 1.8535752223653452 1.9557459789045901 22 17 2
14.168520800473413 2.078559807203274 1.5456705926562753 35 30 13
14.86420579706885 2.1381354945941125 1.4116263986579942 35 30 14
16.51481379553405 1.6369998127768826 2.194398563347087 74 71 50
12.91288446636672 1.7923460089664611 2.4141152539660005 46 47 12
12.184190547764546 1.7923460089664611 2.359510205131972 45 46 12
11.702145852188922 1.90267134801591 2.2826219959181477 44 46 11
12.98086315590564 1.6904468837729958 2.532171703508015 48 49 14
13.829073933257916 1.4210389998963102 2.571771186842791 47 50 15
13.268399173626166 1.9438120766008182 2.501784034911387 46 48 13
12.805029522127914 1.6762764875571983 2.423625986514911 47 48 13
12.01033092528474 2.0557258275991326 2.374191370607014 45 46 10
15.458142364012591 2.3084783454461757 2.6522550617397136 50 53 18
15.491091336556293 2.502251669005248 2.648275903338197 51 54 19
15.491091336556293 2.502251669005248 2.648275903338197 51 54 19
15.770681290822361 2.29695467205669 2.7613139273500034 50 53 20
15.802783600532162 2.4014295762702704 2.6127566260670694 49 52 17
16.140258300513985 2.620772506522941 2.7076120863498443 51 54 23
15.652273197493647 2.685690481859831 2.629451439769151 51 54 23
16.469620990978378 2.42627194336544 2.823624714804403 53 56 27
22.137280986925862 2.2683187371067524 1.1344471758850045 42 32 14
22.989188395212167 2.3388551418187378 1.0541471302322267 41 32 14
22.942951049008993 2.261665390302957 0.9494409825100303 38 32 12
22.441149673268868 2.21891674065375 0.9333381120361751 35 29 9
22.531030676009348 2.1868697608279404 0.9903498677139517 37 31 9
22.531030676009348 2.1868697608279404 0.9903498677139517 37 31 9
22.294381894160257 2.198646858792761 1.1377307234027945 31 23 3
23.163439462562046 2.30531816236347 1.1072958314815697 41 33 13
22.83689039886865 2.0948324974045156 0.8910058191028256 39 35 10
22.697207851980288 2.2740990572467723 1.2407457937325261 42 32 13
22.28720867896083 2.2089033298366814 1.3281056795970567 35 25 7
23.6067064041074 2.3736159751348076 1.068946696660955 36 30 12
22.63848855105325 2.2072819442695852 0.8253335254536373 33 27 8
22.440210649475564 2.253925824220741 0.8766331042411626 34 30 14
22.877909613613554 2.337535044995171 0.9474040441986002 37 31 14
22.32991142189113 2.2972803476250006 0.9296436886654634 37 31 13
22.942032564095186 2.2972803476250006 0.8947047639649985 37 31 12
21.972465719933872 2.2072819442695852 0.8587804349976147 33 28 11
21.892826281102835 2.2089033298366814 1.416899295376344 35 27 7
21.48930847843715 2.105622944096586 1.4609415888602264 54 46 26
21.497659450804363 2.8495738729731737 2.0887757929373745 49 37 14
21.086518072155023 2.954990109071117 2.0999228929927733 35 28 5
21.269586341418098 2.901602904509117 2.0948973357605514 40 31 13
21.7704324614508 2.833328871332561 2.19049476737332 67 55 34
22.146913030225495 2.8879771736639577 2.2345396437251734 63 51 32
22.07433545964729 2.9350232806721555 1.8293509463923632 36 28 8
21.571383705111625 2.973385478303466 1.9330262618881529 18 10 1
21.97345472174535 2.877526261476477 1.9261012372561424 37 26 3
15.47354612145739 -0.1450160725763517 2.3293694144988972 52 54 33
14.94465890215826 0.11319507152782506 2.187566559867401 46 48 29
14.77852224745511 0.12328209891546897 2.281769574832641 44 49 20
15.49589617233932 -0.051384233790015194 2.2425519167484778 49 52 32
15.400801547341226 -0.0559987253469291 2.3338555440649733 50 53 31
14.212475957484658 0.2551515142343248 2.4172308739290074 45 50 18
14.904991732511778 0.2107191646650747 2.274484853511021 44 48 19
15.47354612145739 -0.1450160725763517 2.3293694144988972 52 54 33
14.258411700853221 0.16812692124459716 2.5263679156486694 52 58 28
15.44968626723616 0.12328209891546897 2.3308340806925942 46 51 20
14.77852224745511 0.12328209891546897 2.281769574832641 44 49 20
15.392814785746847 0.03391356861385337 2.3343518459751946 45 50 22
13.592949533535645 0.2850101721817445 2.470360896631852 46 51 19
15.069734185763762 0.19377400007653167 2.1816938502487244 54 57 37
16.41939567923932 -0.06825373293980949 2.551647299117053 58 62 37
16.41939567923932 -0.06825373293980949 2.551647299117053 58 62 37
16.202921475917712 -0.061522636755644074 2.466030839367507 51 56 31
15.086099236334357 0.16812692124459716 2.5646338008268477 50 56 25
15.210011469300309 0.2850101721817445 2.5522341266237456 50 55 24
16.48764676185489 -0.17624428986479804 2.5454923218938372 61 63 41
15.670175806486792 -0.17624428986479804 2.5096573807182936 59 61 40
15.70397022184144 -0.2132476846774638 2.2320603813644855 51 52 36
15.842487248980156 -0.3440014046675456 2.396445771430328 56 57 42
15.122708629627128 -0.3440014046675456 2.351592219780099 54 56 38
15.70397022184144 -0.2132476846774638 2.2320603813644855 51 52 36
15.610143203864281 -0.2317832402940272 2.3211084351992213 55 57 37
16.08919641234927 -0.31269421837042266 2.5830439659869526 61 63 44
16.25706719008836 -0.4694614694480434 2.461885304684964 57 61 47
14.575521600128472 0.07360474068358304 2.7821498007568257 58 61 35
14.955668682364028 0.06159763812643526 2.7196597968431764 56 60 33
14.244018297326843 0.3708505797165771 2.6630650403154865 53 58 27
13.394903161353628 -0.3758303948308079 2.805178198637721 69 71 48
14.96388876625743 -0.10155692543382817 2.718437720289183 62 65 43
13.84434402323741 0.43516743051480605 2.7221111945334955 52 57 24
12.917072786340357 -1.1313981272787563 2.5392825492170403 59 60 49
13.300109549655351 -1.0651632698336102 2.6372343285104853 59 60 46
12.917072786340357 -1.1313981272787563 2.5392825492170403 59 60 49
12.909181723120655 -0.9781482250151866 2.6951691276689487 59 60 46
12.909181723120655 -0.9781482250151866 2.6951691276689487 59 60 46
13.552467375881138 -0.56768813158985 2.773373404774934 66 69 49
13.780976498296617 -0.7221266119243633 2.732544405572373 61 63 46
13.532722650982109 -1.122200285077586 2.0839891696446986 70 69 68
12.712997309449559 -1.20138242075683 2.030807903811967 68 68 66
11.74402765881267 -2.4430835418304175 2.0721218327302795 55 56 45
12.18498457082203 -1.894558821686252 2.633219752921015 57 58 44
12.677530921415734 -1.848345473396261 2.5673410180281224 57 58 44
12.93113786835234 -1.550685486814662 2.69163485311809 58 59 47
12.864431368802103 -1.9818565819411131 2.545260299915463 56 57 44
13.102164638409983 -1.2113267237270264 2.665323104694678 59 60 45
12.339775216109434 -2.050957941939171 2.80419320197376 58 59 43
12.585641728809446 -1.4042861919236882 2.5787262933776556 59 60 43
12.195181180522644 -1.539589561556974 2.8398057097821425 59 60 42
12.567656348113779 -1.7039173903134859 2.5809985304815757 57 59 40
11.757036519416353 -1.9583155525528246 2.7029614402000894 57 58 43
12.559545751229313 -1.7603401144220252 2.7574151489760577 57 58 45
12.57754272975796 -1.3345182431235536 2.753891035016251 59 60 44
12.713165362992102 -1.2619500136913842 2.5630230673695733 59 60 50
12.567656348113779 -1.7039173903134859 2.5809985304815757 57 59 40
13.102164638409983 -1.2113267237270264 2.665323104694678 59 60 45
13.084990650843338 -0.892642490511981 2.881247783226256 61 64 44
13.321520994426225 -1.0427839977036342 2.821302461964407 60 62 43
12.961125896766262 -1.1694633375444778 2.9199417794595535 60 63 43
12.91373643416159 -1.527704766023872 2.936861946322136 60 62 42
13.232006696963804 -2.4040594546484244 2.842366997575656 60 62 42
13.62524094228736 -2.91015487361773 2.5955639613627013 60 60 40
14.07746616555231 -3.062768311075707 2.544796742881199 61 61 36
13.148132436061642 -2.8725833951381823 2.6585899201642187 60 61 43
13.542571744801746 -3.0513808625596517 2.60569441171287 61 61 39
13.242655430958708 -2.9826699184116334 2.8397712541574416 61 63 42
13.327185154239483 -2.7460502752658638 2.8200236687143834 62 62 43
14.04141988880456 -2.8725833951381823 2.6916724169121653 59 60 43
13.952404450457777 3.07763454442169 2.7050687705547087 62 61 41
13.652386909055457 -2.820946897203307 2.7548473701058755 60 61 45
13.327185154239483 -2.7460502752658638 2.8200236687143834 62 62 43
12.339060590404596 -2.5222278672366403 2.2389014012811264 55 56 42
13.447579938185614 -2.383940783730481 2.617710940685991 55 56 45
12.897500674523338 -2.648990832758065 2.6970650386535007 59 60 45
12.897500674523338 -2.648990832758065 2.6970650386535007 59 60 45
12.249433441862262 -2.7109777356655465 2.3541629365721626 56 56 36
13.502205126830427 -2.1756284809395487 2.6107501244305653 56 57 44
12.992123057017023 -2.2862727493711876 2.5309312577190974 54 55 45
13.096828663559053 -2.2974232386786193 2.3984779163698033 55 56 46
12.731487120986001 -2.820526561204221 2.430264394442907 59 58 38
12.236198484283813 -2.3757281963112553 2.2455530071434695 57 58 47
11.980014888960998 -2.5504099072828073 2.3768182647057476 56 57 40
13.137407085175182 -2.5036418835300527 2.6601489617235927 57 59 44
13.117301628563885 -2.269913399161804 2.663091026281923 56 57 43
12.799127343004429 -2.3913246287710943 2.7134847467540224 58 60 43
13.455155249975919 -2.206489979706883 2.4833614076453463 57 58 47
11.727381043998188 -1.6627017902070236 2.1730985315033005 47 47 43
12.044877521563388 -1.862254160332607 2.1550863774088636 55 56 47
12.179433358342166 -2.040693989995601 2.052633186723394 66 66 59
12.613976419411344 -2.119814531576299 2.0347011006897917 73 74 67
11.616646513125533 -1.9215615865853848 1.8004169400139693 24 24 22
12.247790263046598 -2.001961141507735 1.8728971700302872 78 75 76
11.784728380871012 -1.3744415635374667 1.975855313679041 69 68 65
11.594284426787263 -1.5601501863312683 1.9829088645980957 20 21 14
12.06833912039506 -1.731734777740762 1.7916772377300345 17 18 11
13.151308431882995 -2.0863937938756036 2.2879953149186587 58 59 47
12.39113732537673 -1.3304776240786873 2.3428370367067535 55 56 42
12.941590952328973 -2.2283912055923767 2.3022166928505445 57 58 46
13.743735309969844 -1.4424210221111882 2.4566654050054155 52 53 41
12.436946795666257 -1.8134474738469724 2.4581999352249815 53 54 43
12.813395697134672 -1.9942832315213976 2.3112323697430184 53 54 42
12.436946795666257 -1.8134474738469724 2.4581999352249815 53 54 43
12.469889315913175 -1.3546381399092344 2.2306485029750256 58 59 46
12.339851852039919 -1.4556371831559183 2.238850798483377 58 59 46
12.324927643563093 -1.6866215746251034 2.4694394249726805 54 55 45
12.47326857249387 -1.3003846729764825 2.454631653847179 55 56 47
12.47326857249387 -1.3003846729764825 2.454631653847179 55 56 47
12.937386850217448 -1.5576811915847142 2.411990706154537 56 57 46
15.043352947105268 -2.756859143846169 1.4805372013555846 52 52 29
14.256246973678355 -2.7301627991136113 1.4047768545900818 54 54 29
11.506595482145432 -2.704211361002151 1.893035921507202 55 56 34
11.672456980035566 -2.754487184567425 2.1763372369669485 56 56 34
13.214334157221797 -2.9609582493761346 2.3888502517998553 59 59 35
20.459694517321157 3.0094745965678094 2.061637466478882 33 26 6
20.558390226625605 3.060228451405856 2.172913819735186 31 21 12
20.774424192461538 3.121632826832073 1.999938172819357 39 32 21
21.73687928547395 2.99307245174879 2.3099947281884488 54 43 32
21.770654661770248 -3.045778683463896 2.2481295336370266 69 68 52
21.140848957591917 3.060228451405856 2.2119069094989134 13 6 2
22.36075913441396 -3.10471861610826 2.284845538423805 79 77 61
21.71334893233875 3.1192696287383392 2.2502539482871846 67 62 47
20.9386691869112 -2.913186192424047 1.794448854591314 78 79 63
20.987377444171614 -2.961390161918705 1.8430736854480099 58 57 39
21.98884117536429 -3.06757552169079 1.5090914889817526 72 70 51
20.718115397465997 3.0724599701745867 1.8467042929330117 25 19 0
21.367131330961605 -3.0601630846246985 1.936651221244806 51 49 31
21.74493934808881 -3.0601630846246985 1.979608596945068 54 53 36
21.46625823442088 -3.0104552049587867 1.9348827302318008 43 42 24
15.240765715186052 0.10462827981649572 2.096188615297483 65 65 56
16.289536334860884 -0.04747181787506009 2.204383049763571 40 41 28
12.254042426218726 0.4886767591177605 1.2073783683557067 39 41 20
11.279799783677067 0.7379153205954825 1.8074029341430387 39 42 13
12.472781488723951 0.6105684059812454 2.040372940155323 36 39 9
11.378720460737945 1.2502535367567174 2.0898024273031353 31 31 1
11.455806490781432 1.114376866736951 2.1894902136960055 39 39 7
11.250949258351879 0.8036107205423626 1.9962883572393528 37 40 11
14.89537887410499 0.4432542206350755 2.5846151644470208 51 56 25
14.32962960419257 0.551628300856762 2.5193700945381705 52 55 20
13.663106423878723 0.5330586590850073 2.2557740493503498 42 45 12
13.577850715220016 0.5047032652383874 2.601335224326963 54 57 24
13.14813919708403 1.214989477869471 2.3942403746469907 47 47 15
14.666026841686572 0.6472877786154825 2.488069431740964 51 54 19
14.58802322751324 0.39443103262027934 2.4950841830240695 47 52 18
14.478423648189858 0.2950110641880447 2.210589194307807 44 46 22
14.852322849793534 1.9853664037755308 1.7497724907992775 35 30 13
14.97978176511032 1.9210539103570732 1.886011169828408 33 28 11
9.96919383351953 1.3491503633860336 1.8392298052523681 31 30 2
11.546037139185518 1.4526444606069242 2.1839374577387005 37 37 7
14.822337640172695 2.0147595898960087 1.9614355319741092 42 36 19
14.677845560043854 1.9853664037755308 1.4782832152349017 32 27 9
12.098465346320532 1.558735745311833 2.2546943329580267 39 39 9
13.784668658719406 1.5554664365159634 2.576818823912836 48 50 15
12.184190547764546 1.7923460089664611 2.359510205131972 45 46 12
13.784668658719406 1.5554664365159634 2.576818823912836 48 50 15
13.087269098307562 1.8212082503060143 2.5206197172875284 48 49 14
12.805029522127914 1.6762764875571983 2.423625986514911 47 48 13
12.069825811711924 1.6762764875571983 2.369094893924738 46 46 14
13.443043663717948 1.2508220509960652 2.6182953247209717 49 52 17
15.05756476446126 1.875085023986168 2.1032567311311365 37 31 14
16.140258300513985 2.620772506522941 2.7076120863498443 51 54 23
15.802783600532162 2.4014295762702704 2.6127566260670694 49 52 17
15.238761500522624 2.620772506522941 2.6800154167496877 51 54 23
15.80297863784366 2.536907599064108 2.7562334393756056 51 54 23
15.522896947701986 2.42627194336544 2.8034829752186883 52 55 24
22.83596764809235 2.1244416129893464 0.8332876129863112 37 33 10
22.942951049008993 2.261665390302957 0.9494409825100303 38 32 12
22.9224975287138 2.3015931887423036 1.001509032500835 37 30 11
22.510202874251082 2.2288743325891054 1.0420162126873032 40 32 12
23.499248863167047 2.3388551418187378 1.0171383828831155 36 30 13
23.053915884706207 2.2683187371067524 1.0557414978845419 41 32 13
21.601010947719452 2.2740990572467723 1.4615119446040203 35 26 6
21.48930847843715 2.105622944096586 1.4609415888602264 54 46 26
21.7704324614508 2.833328871332561 2.19049476737332 67 55 34
22.038733817674494 2.7805167474335986 2.181835760021767 68 52 31
16.108158623445693 -0.0559987253469291 2.378737630147995 47 51 27
15.47354612145739 -0.1450160725763517 2.3293694144988972 52 54 33
15.392814785746847 0.03391356861385337 2.3343518459751946 45 50 22
14.38945318484156 0.2850101721817445 2.5135970643629815 49 54 22
15.54448183888283 0.11319507152782506 2.2400691597141433 46 49 30
15.427269270514929 0.0372640347867105 2.4261000508359953 48 54 25
15.484014204097498 0.13533069750382046 2.4218936262529764 46 53 21
14.850202020574017 0.14996988847468137 2.472040946407161 50 56 26
15.956700784399997 -0.19743716530970928 2.5964757264624576 61 63 42
15.901591807135656 -0.29062658663583874 2.2224258839928743 50 51 39
15.610143203864281 -0.2317832402940272 2.3211084351992213 55 57 37
15.644119053555482 -0.2537719698163608 2.4102943873650298 56 58 39
16.001446570568746 -0.3783980745456447 2.481900997420544 59 62 44
15.515602336142534 0.07360474068358304 2.8048226482193566 58 63 35
14.96388876625743 -0.10155692543382817 2.718437720289183 62 65 43
15.014196097838973 0.22156079940020804 2.711058206414264 54 59 29
13.300109549655351 -1.0651632698336102 2.6372343285104853 59 60 46
13.5162538236662 -0.8609470236692373 2.7803815092673636 61 63 45
13.780976498296617 -0.7221266119243633 2.732544405572373 61 63 46
12.42554243360181 -1.2857246596017706 2.042303031535893 68 68 66
13.30618525253113 -1.2243346744150072 2.381509830231989 55 56 44
12.585641728809446 -1.4042861919236882 2.5787262933776556 59 60 43
12.713165362992102 -1.2619500136913842 2.5630230673695733 59 60 50
12.978463791649936 -1.3753674121530108 2.684143246887971 59 60 48
12.53683300938148 -1.5537213728156691 2.584927225110283 58 59 45
12.53683300938148 -1.5537213728156691 2.584927225110283 58 59 45
12.677530921415734 -1.848345473396261 2.5673410180281224 57 58 44
12.226865837365729 -1.8108746238422624 2.8315894839153373 58 59 43
12.53171403133969 -2.243603106372327 2.7629467049416583 58 59 42
12.084043657312211 -2.1944082905229076 2.870908892064129 59 60 43
12.528702458676829 -1.5463368689614516 2.763551356470553 58 59 45
13.19987597608804 -1.272716585985431 2.8503613081834653 59 61 42
12.94366226653647 -1.8968566345720248 2.9260105859255368 59 61 42
13.346644109177829 -2.9386451518533248 2.4939480864607786 60 59 38
13.327185154239483 -2.7460502752658638 2.8200236687143834 62 62 43
14.402895338379762 3.086901390547348 2.6422176464310314 60 61 38
13.652386909055457 -2.820946897203307 2.7548473701058755 60 61 45
12.94623675320998 -2.7776911891261413 2.5360138211216365 59 59 41
13.012421928125436 -2.475881045515279 2.5287059713690807 55 56 44
13.137407085175182 -2.5036418835300527 2.6601489617235927 57 59 44
13.447579938185614 -2.383940783730481 2.617710940685991 55 56 45
13.125067566370355 -2.101514377493249 2.516605314961847 57 58 47
12.392049927471485 -2.657309712844494 2.462661504274121 57 58 41
11.981227415545506 -2.3116404559436075 1.7933101301354912 71 71 59
11.746277696682325 -1.7465875710472754 1.9772592856105324 36 36 32
11.710854303383638 -2.001961141507735 1.6258194741457148 80 80 79
11.784728380871012 -1.3744415635374667 1.975855313679041 69 68 65
12.231577270526287 -1.4753204209497766 1.873310275889533 55 53 47
12.375562442761309 -2.169816950712155 2.137516616962258 66 67 56
12.23447623241676 -2.3055091305718123 2.1448722067802115 60 60 47
12.241801205453667 -1.6732893500899508 2.3547840576653756 60 61 51
13.108332088936578 -1.3304776240786873 2.397523308446915 54 55 41
13.139418518269016 -1.425802115185893 2.515093027276245 55 56 46
12.983067036251219 -1.4556371831559183 2.2993532567125836 60 61 51
13.092674408897452 -1.555960953747152 2.5200428430405215 56 57 47
12.290067042512849 -1.559043957626861 2.2420513140048213 56 57 50
12.020490556672891 -2.661915574535643 2.1564286427484753 55 57 37
11.496171650612359 -2.577457115660612 1.9866426860623965 54 56 38
14.415636834584118 -2.8863900010143806 1.4765955267826563 53 53 24
15.353380605462132 -2.756859143846169 1.3504362741357125 53 53 26
11.394372822477965 -2.5011379865633767 1.804979092227288 55 56 42
14.824589056071657 -2.8202307930364037 1.411197394467625 53 53 27
13.880229532826089 -3.071607274667247 2.4447138742303975 61 61 34
12.67187762541526 -2.8545911647309463 2.321486810519416 57 57 35
20.817758482222906 3.1205172578439155 2.1074888160992886 96 93 76
20.816598167233046 3.068812208887166 1.9990113164815948 23 15 6
21.913493134857458 -3.106778412083758 2.185844731587083 50 48 31
21.650354785627595 3.055131723657943 2.3136440505204803 16 7 0
21.73687928547395 2.99307245174879 2.3099947281884488 54 43 32
22.29959393247619 3.1178650191426223 2.3483516493321925 19 14 6
18.090347975580414 -2.488583602513468 1.8304168958068692 48 48 37
22.194080081295514 -2.977548714353866 1.5998190837808817 55 54 35
20.2215250418953 3.122636247014767 1.7519923447340797 16 9 0
22.372640568107723 -2.9334314373401655 1.5548852835856473 54 53 35
15.718171269815484 -0.04747181787506009 2.1530881042357977 12 13 5
10.390350252561028 0.9403847372724008 1.6328208092512948 36 39 10
11.754920558900793 0.4886767591177605 1.797668279931511 42 44 21
11.321378548461425 1.0227857847889832 2.0926981274597596 34 37 5
11.128421381330545 0.6105684059812454 1.5388045693830026 41 41 17
11.002882038483435 1.07158484924204 1.8134759420468785 35 38 7
11.111870235438657 0.8668137348581532 1.7192952656316463 37 40 11
11.36273391930371 0.9403847372724008 1.9918345670980044 37 40 9
13.898482456235726 0.9979536061971018 2.564023610585984 50 53 18
14.207960708709694 0.7214246227387453 2.5314103683509925 52 55 20
12.8197387430092 1.06217141746319 2.4223133845825497 50 51 15
13.174668772301018 0.9647090409163056 2.392069869697518 49 50 15
13.971918420890423 0.4477645220803319 2.332623539116965 45 48 16
13.802982856939503 0.39443103262027934 2.4514273461906764 46 51 16
14.005449448102324 0.4084654353276962 2.235964422269396 46 49 19
13.072097331675291 0.9979536061971018 2.5222439501236815 50 53 18
16.380508057671225 1.5634414685560964 1.9225647518533617 55 55 31
16.787951810324106 1.4985353064825082 1.9776943975116363 56 55 35
16.774472699435275 1.6284095729862602 1.9780407114085734 57 56 36
17.17257162170046 1.5634414685560964 2.032116809277219 57 57 35
16.39178958299087 1.7012946835832776 2.055937948616536 78 76 55
16.306960524692535 1.6324070803321769 2.0586822504032285 61 59 39
12.378542058069778 1.90267134801591 2.3438281973537074 46 47 12
15.80297863784366 2.536907599064108 2.7562334393756056 51 54 23
21.77764128328624 2.1574823441092867 1.1267321981069864 31 24 4
22.640350112279773 2.1422105993015634 0.9398386609371402 34 30 6
21.531735552845262 2.198646858792761 1.2221421571686988 36 27 8
21.753247337968315 2.113935978461313 1.0746217915968936 34 30 7
22.440210649475564 2.253925824220741 0.8766331042411626 34 30 14
14.512413156328504 0.05295538899951001 2.6285540379457877 54 59 31
15.805073586620379 -0.28024929818234656 2.4980898680639876 59 61 41
14.38945318484156 0.2850101721817445 2.5135970643629815 49 54 22
14.70096095755017 0.3225091111779491 2.6062281882828837 52 57 26
15.487958448796254 0.031115712958670574 2.242959487017512 47 51 32
15.808937728937746 -0.3151442911211076 2.3094495363763223 54 55 41
16.1587921353375 -0.36458851434931844 2.210340106241439 48 49 38
15.507821242506521 -0.15912523969533907 2.420143972776854 55 57 36
12.677710178575548 -1.2579154296658261 2.2179917990702713 57 58 48
12.559545751229313 -1.7603401144220252 2.7574151489760577 57 58 45
13.327185154239483 -2.7460502752658638 2.8200236687143834 62 62 43
13.455155249975919 -2.206489979706883 2.4833614076453463 57 58 47
12.91373643416159 -1.527704766023872 2.936861946322136 60 62 42
13.125067566370355 -2.101514377493249 2.516605314961847 57 58 47
12.226865837365729 -1.8108746238422624 2.8315894839153373 58 59 43
13.541243262742848 -2.5899054329741196 2.6058596337151787 56 57 43
13.308618554474293 -2.7224368032529367 2.63607722703054 59 60 44
12.55275744488686 -2.547964645846166 2.7587550626787527 60 61 42
12.856507995391178 -2.1290137455681597 2.703806731182582 57 58 42
11.674537809724644 -1.6469547158071376 1.6259908108019392 20 21 14
12.436946795666257 -1.8134474738469724 2.4581999352249815 53 54 43
11.917607323695137 -2.5513734337615857 1.6248639636764655 54 54 34
21.229450143030885 3.001749714237066 2.2087959490430085 48 40 21
12.491418199095198 -2.3712666424303963 1.7027930889834695 64 63 50
18.120548761002453 -2.4447098573691175 1.6063459479208362 72 70 64
21.062804526794324 -3.111775593897822 1.6966597591419188 53 47 31
22.05291929388663 -3.0223194643409066 1.6000049111959918 54 52 32
15.240765715186052 0.10462827981649572 2.096188615297483 65 65 56
13.461364717483972 0.6661561091442627 2.268079272510293 41 44 11
13.078380417810047 0.8065262250992908 2.4000144261620777 48 51 16
13.574617128073625 0.7308887162083442 2.360929181922869 46 49 16
14.316723196588526 0.5330586590850073 2.3098933683763327 45 48 15
13.701911080827502 0.5852924749978275 2.3515944042006374 44 47 14
16.04643862531066 2.411177498287379 2.720404786597207 50 53 18
22.21997659082929 2.1571867629688652 0.8078031706743863 34 28 8
22.59520543259981 2.1732109217718185 0.8823293101882388 33 29 7
22.30889585403481 2.337535044995171 0.9838057595416467 32 29 16
21.269586341418098 2.901602904509117 2.0948973357605514 40 31 13
21.661812973983107 2.981298121963106 1.786862027397813 12 6 0
15.568196409867186 -0.13319153533957293 2.2388647178589958 48 50 33
14.976066198424052 0.2551515142343248 2.461493099699654 47 52 22
16.202921475917712 -0.061522636755644074 2.466030839367507 51 56 31
14.572720897200206 0.19122521183738153 2.6212552635300663 52 57 27
12.681034054933997 -1.1830834727217223 2.43489326685794 57 58 49
13.961215248732293 -3.0361618729693958 2.703718022964485 61 60 41
12.070627357846957 -1.7272358962972973 2.650490386342414 57 58 46
14.068728171728564 3.0938245250958603 2.5457114796882916 60 62 35
12.070627357846957 -1.7272358962972973 2.650490386342414 57 58 46
13.823290037692669 -2.2862727493711876 2.5724245648396966 55 56 46
13.248990116527311 -2.0451160852519346 2.6442693236069457 57 58 44
11.813754388471535 -1.9546767062360786 2.06889015571489 57 58 50
12.546286506858586 -1.8938591588044105 2.330866390449071 54 55 43
12.354574089502815 -1.7862234467712927 2.345722558938717 54 55 45
12.627408672304888 -1.9328164152509917 2.439881760698309 56 57 45
21.964678978845242 -3.051105290245155 2.184199373383629 25 24 8
22.104735585846242 -3.0223194643409066 1.64524021520861 67 66 49
21.43759632574129 3.022629661458245 1.9353922747673096 25 19 1
13.860450525596908 0.6213892443865014 2.5682477152778445 53 56 20
13.898482456235726 0.9979536061971018 2.564023610585984 50 53 18
13.885397271362853 0.6472877786154825 2.444269326196884 48 51 16
22.942032564095186 2.2972803476250006 0.8947047639649985 37 31 12
22.32991142189113 2.2972803476250006 0.9296436886654634 37 31 13
16.177722815970395 -0.1450160725763517 2.374249774445887 51 53 31
12.324927643563093 -1.6866215746251034 2.4694394249726805 54 55 45
14.30702655243065 -1.004852321791772 2.219534813522878 60 61 54
16.08919641234927 -0.31269421837042266 2.5830439659869526 61 63 44
15.570705330322852 0.2107191646650747 2.3234720893020517 45 50 17
13.283191489754639 -0.7001586576815249 2.8301187543918482 63 66 45
16.25706719008836 -0.4694614694480434 2.461885304684964 57 61 47
12.705147655171892 -1.1420648365861692 2.729993722466107 58 60 43
13.552467375881138 -0.56768813158985 2.773373404774934 66 69 49
12.917072786340357 -1.1313981272787563 2.5392825492170403 59 60 49
11.558198607405831 -2.3732098446231946 1.891545654030272 58 59 47
20.431448852927193 -3.1102772189402113 1.8000992613410742 79 77 59
20.29246290573593 0.45409980370502095 0.9768757239327202 67 64 66
12.037727814911747 1.557296190340353 2.3718348986529505 46 46 14
13.945231503002956 1.2918231446684239 2.5588997466677186 48 51 16
13.725835330340766 0.3222841291700242 2.2520462486252284 45 48 17
10.868546511353248 1.1574332120649586 1.9127023273360302 30 33 2
20.54854667666538 2.021227954946943 1.4558904167271562 38 32 10
13.569883088747215 -3.014798907076607 2.770061136188157 60 62 42
13.394903161353628 -0.3758303948308079 2.805178198637721 69 71 48
21.36454099912172 2.944217082801602 2.204115832791326 54 46 21
21.92834396387694 2.1449432306616174 1.5089210367441885 35 28 7
15.88468080417134 0.17932414544439382 2.146201540267656 70 71 58
22.46663657316715 2.0447118189669427 0.8776117515967424 47 44 18
21.75037134581555 2.9249506978690425 1.9299096437932062 30 20 3
12.620656867625426 -2.3791213473116826 2.440514948110269 55 56 45
