17.192368553910097 1.5985842690382346 1.7795153878619592 35 40 15
17.297269984945284 1.7255812935556745 1.9599311608474028 33 38 13
18.5373998281619 1.6633243236444644 2.112787082300934 35 40 15
11.698162451973886 0.8635518569462742 1.7047541574572036 40 45 33
11.849541472538181 0.7413815291175181 1.7887608869237808 48 52 49
11.159318665147383 0.8743938672455038 1.9919791463110879 41 46 36
10.9984437405333 1.0101826083435455 1.9006434150255023 37 43 23
11.604100522215488 0.8743938672455038 2.0707055735982585 38 44 30
10.522179099166015 1.0101826083435455 1.7198316873317594 37 43 21
10.984392246022258 0.9329015134177644 1.6220166304721675 37 43 24
11.003841359933384 1.1895479791959775 2.1007509565983966 35 41 16
10.140759979204251 1.1895479791959775 1.9297480847600714 37 43 16
11.383289344403146 1.4158547479541859 2.0813314079854854 34 41 11
11.292205294780972 1.5165642804061013 2.085854663869126 33 40 10
11.432783257442757 1.1461397173271533 2.2935658662505904 34 43 11
10.980791467549954 1.3770787075908102 2.3304791601244785 36 43 11
11.094076292152945 1.3986016054216013 2.203740153035274 37 42 11
11.603325438608973 1.5027198272355422 2.400786120917717 35 42 8
11.27581059857928 1.2909490283206002 2.191966625837514 37 42 11
14.565255968369623 0.90850464421115 2.6109644742233424 37 46 17
14.81825084221859 0.9375967929222931 2.7269199523421297 40 47 14
12.570663922058381 -0.9526858190208749 2.029168381491372 52 54 53
13.503565194074227 -0.019640235096480007 2.357652899885365 51 53 53
14.136628290506343 -0.4138796803127399 2.313694988535321 38 38 40
13.632250860568615 -0.5073441369674907 2.457207767261812 49 52 48
13.232082386549427 -0.6030554702610176 2.378448189432758 50 53 49
13.12322312095946 -0.575711314361529 2.094462535839687 33 34 34
12.974503653064707 -0.6876461444895686 2.2915335827317866 51 54 50
13.433410028890426 -0.8411903664926552 2.4755560978943385 46 51 42
13.075013824933784 -0.976518608657377 2.284801212896668 48 53 43
12.57302554764733 -1.0287506042521042 2.1199212822699494 50 55 45
13.480068310721657 -0.7619350021671863 2.259048261821273 50 53 49
12.947851782546767 -0.8330707192731414 2.2933430658145397 50 53 47
13.452211060665087 -0.8270129931995677 2.167799032429657 50 52 51
13.10354081435755 -0.32421607494003196 2.853195630049011 41 50 22
12.82155977756792 -0.6128500383078164 2.694694201819192 42 51 28
13.231677085383657 -0.5543783520939196 2.8221701051516757 43 52 28
13.00045778474528 -0.7123410674597241 2.8812535134764 44 53 27
12.971339463348858 -1.4051959172535677 2.8898182890341086 47 55 30
13.330248308665787 -1.2199066623887125 2.8005199591183345 47 53 30
12.786873043399346 -1.4968158904981694 2.5428286997657334 45 53 30
12.681452553469317 -1.385734067055111 2.424994305417214 45 51 29
12.599756465383397 -1.5058247804551366 2.432470129028 45 51 29
12.569948438475336 -1.5128799421942853 2.320167397792382 43 49 22
12.65183700593915 -1.40549092635597 2.3141620133223264 46 52 32
12.867381167391274 -1.36069248412605 2.533719594616792 45 51 30
12.36225039239879 -1.1634443246500314 2.3359154363461965 46 53 40
13.255197088869753 -1.1139543967239784 2.4928565381551127 45 51 35
13.255197088869753 -1.1139543967239784 2.4928565381551127 45 51 35
13.55601806371266 -1.0081394466053057 2.4641292822259517 44 50 38
13.825172420911889 -1.1165906536421333 2.710859237490788 46 52 29
13.601641103561626 -1.4684632281761194 2.7481450066243434 50 56 31
12.76500139951598 -1.2834985885245596 2.704030713752181 46 52 30
13.458877678558984 -0.8526386853765082 2.6042840350771765 44 50 30
13.875009368816515 -0.938534021087161 2.5558901764844255 43 49 35
13.203020766020849 -1.3279673155079834 2.6377572330751606 45 51 29
13.12457166802235 -1.4849136217597385 2.6487084943687265 45 52 30
13.203020766020849 -1.3279673155079834 2.6377572330751606 45 51 29
13.03839200421823 2.0415738533620016 2.5151159200035913 36 43 7
12.098580814235156 1.9884837585441653 2.3570586162119844 34 41 7
11.683595742596735 1.7564436284896288 2.393304547570198 36 43 9
11.478247006268504 2.0415738533620016 2.412779943972026 36 43 7
13.645138247520968 1.9182635376103296 2.5817947815025852 38 45 11
12.45466398811201 2.325580150462523 2.446157342893727 36 43 8
12.437173449518374 2.3189878261709738 2.5853760190785025 37 47 10
12.48969191584864 2.5326324605780677 2.5786486506723625 39 46 9
12.45466398811201 2.325580150462523 2.446157342893727 36 43 8
13.455715699551375 2.756112354922672 2.7751533863204347 40 49 14
13.677117638230664 2.0445216803021156 2.7350564159312807 38 47 10
12.710508743140279 2.5796711470024896 2.713286938952212 40 47 11
12.949712204143305 1.6510180854330607 2.674469673343342 39 46 10
13.358070351227125 2.1451450516236727 2.794699712481655 38 48 11
12.968520960044465 2.435083006318523 2.6716021708576765 39 46 9
13.024195571750882 1.818060600579337 2.66325511625401 39 46 9
13.332185276530748 2.4600478021683663 2.800110876772343 40 47 11
12.995130439964909 2.19511090802433 2.667586857448065 37 47 10
13.397720646937287 2.1086390437181204 2.611995838084374 39 46 9
13.332185276530748 2.4600478021683663 2.800110876772343 40 47 11
12.203627465572536 2.409446780281714 2.348472721823363 37 44 8
12.203627465572536 2.409446780281714 2.348472721823363 37 44 8
12.25176013051449 2.952407677400535 2.2360367209257204 37 43 7
12.338461981052843 2.5690870525873253 2.3377684226670423 37 44 8
12.900407508809062 2.930688160436787 2.405721356285064 38 44 8
12.900407508809062 2.930688160436787 2.405721356285064 38 44 8
11.857755850832676 2.8527972398138766 2.1572670558088003 35 41 7
13.07845622674956 2.8208719520802945 2.3908096865506274 37 44 10
12.700453727809291 2.731351287863675 2.552875263166615 38 45 11
12.631182240681056 2.7184970254652505 2.3156662798366816 36 43 7
12.13391433955357 2.7587367632528914 2.142219206873109 33 40 4
12.517029260593656 2.868310926000351 2.5751972100529468 39 46 10
13.37164078824782 2.868310926000351 2.615337234818563 39 46 12
12.609059326511144 -2.4880120997991306 2.5638208445451927 49 55 29
13.250085592660959 -1.6819400222870942 2.817995925105006 49 57 31
13.322889789153056 -1.9078487732668683 2.8020794654947 48 57 31
13.0431934630897 -2.0022400322150333 2.869225010825419 49 58 30
13.357798531400531 2.961627967468286 2.7947560059551564 41 50 19
12.396794842395513 -3.0997019676043225 2.772599364790766 43 52 22
12.452109017462739 -2.881833694236204 2.7612776804766774 44 53 25
13.688266529260497 -2.262417113650725 2.7331686864683125 49 56 30
12.586878707650667 -2.6862901580753764 2.7353337886387434 49 58 29
13.214372756185119 -2.578819419005271 2.826153325123491 47 57 29
12.975520788091202 -2.761035271405049 2.670541245004603 47 56 26
13.416189621414134 -2.3982556570984563 2.7829086326847774 48 57 29
12.798594150118308 -2.521890160700164 2.6984532222928705 50 58 29
12.722740353162477 -2.0815864108610596 2.550256885415349 48 54 27
12.328782334514404 -1.8036457265250452 2.5996827216653866 47 56 28
12.56734768624652 -1.6216178184170789 2.3203599614874872 44 51 21
11.971382146173227 -1.635724540981532 2.496043922653368 47 53 30
12.454632184570796 -2.0202857687290714 2.446160402821442 46 55 27
13.057272282957095 -1.9713970594012287 2.3925500911571165 43 49 22
12.10094952848029 -1.863500686040041 2.3568625507264738 44 50 23
12.722740353162477 -2.0815864108610596 2.550256885415349 48 54 27
12.454632184570796 -2.0202857687290714 2.446160402821442 46 55 27
12.784316420876404 -1.635724540981532 2.5431218511222538 46 55 29
12.975472003661773 -2.3824742488695216 2.5218474740445727 46 52 28
12.214059060438078 -1.9014811544053667 2.4701086707726576 44 53 25
13.138431464030669 -2.1600186627186546 2.6467479905505877 48 56 29
12.757316845358847 -1.8464635230094952 2.7053201297410556 49 56 31
12.936755345460496 -3.116522176330434 2.5260542278661915 38 45 11
12.386485165179971 -3.1126477052626154 2.5919936931609318 40 47 13
12.44184517527671 -2.9600373612471875 2.5847723390112574 40 49 16
12.576724851243632 -2.815468044917998 2.5677761389523104 42 50 18
12.544256568801686 -2.7381757764231724 2.437642275343816 46 52 23
12.576724851243632 -2.815468044917998 2.5677761389523104 42 50 18
12.544256568801686 -2.7381757764231724 2.437642275343816 46 52 23
12.788608391933112 -2.68370209403792 2.542629857066935 49 55 28
13.561702192978766 3.045898849264205 2.4636084511417753 38 44 8
12.82747066838727 -3.0022853708214683 2.412022384213828 38 45 11
12.773782021390646 -3.1194820011431306 2.416735447106112 37 44 9
13.273103404564647 3.0165773234222573 2.6282613003327517 40 47 13
12.460551203772146 -1.1521604158297643 2.0335334273377477 50 55 46
12.698556788268752 -1.5185542272039896 2.208722193463095 43 50 20
12.214498128225905 -1.4214647332337913 2.1379829889050974 50 56 36
13.625715525583127 -0.3783907397199444 2.1591686283934823 5 5 5
17.829586315333895 1.5409003713911846 1.6023433976007455 35 40 15
17.5342823220487 1.6003405892497709 2.016719526937729 36 41 16
10.235996921422865 1.0957482727036512 1.8238175022546026 37 43 19
11.364413779579806 1.0957482727036512 2.082261876787128 37 43 20
15.75870594821874 0.8100782899595854 2.607297237043091 39 47 24
11.780233821558305 1.0450888026775804 2.2678413982720884 34 43 14
11.691986020911626 1.3770787075908102 2.392531919524084 36 43 10
11.094076292152945 1.3986016054216013 2.203740153035274 37 42 11
12.445899105925884 0.1237770418414802 2.5842493311692114 41 46 29
13.154034525725534 -0.5462275355220758 2.279607421920246 53 55 57
13.227594048939025 -0.4983436835589477 2.179387656479552 31 32 33
12.918846950937896 -0.897331026861812 2.196139588667279 51 54 50
13.179766529163244 -0.9147480538161105 2.382607371076648 48 53 45
13.044015765887252 -0.9526858190208749 2.097972497941537 50 54 48
13.179766529163244 -0.9147480538161105 2.382607371076648 48 53 45
12.94326488262892 -0.7000181266941407 2.102509828769155 56 58 57
13.433410028890426 -0.8411903664926552 2.4755560978943385 46 51 42
13.942037273397546 -1.4051959172535677 2.9076877027005383 50 59 32
13.231677085383657 -0.5543783520939196 2.8221701051516757 43 52 28
13.10598686662246 -0.7458039409097077 2.651355202667199 43 51 29
13.25255236140436 -1.4442593276314373 2.817441394857163 46 53 29
13.050709687689563 -1.1225603703478957 2.867170601212633 44 52 27
12.811493102046072 -1.3018033637484978 2.3027654455651856 48 53 37
12.786873043399346 -1.4968158904981694 2.5428286997657334 45 53 30
13.024395340508457 -1.2319971990198768 2.5166023189403246 44 50 30
12.786873043399346 -1.4968158904981694 2.5428286997657334 45 53 30
13.356089743143407 -1.1822642859517196 2.6173450879478315 44 51 30
13.356089743143407 -1.1822642859517196 2.6173450879478315 44 51 30
12.683843457356376 -1.4684632281761194 2.7179149499129105 47 54 31
11.818831518301167 2.151187729497955 2.38106017825792 34 41 5
13.03839200421823 2.0415738533620016 2.5151159200035913 36 43 7
10.997625971920689 1.6237735139249558 2.210189494563851 34 39 7
12.098580814235156 1.9884837585441653 2.3570586162119844 34 41 7
12.049233624413501 2.2260556539581837 2.487513949936551 35 42 6
12.857246470184505 2.2260556539581837 2.534853453342649 38 45 9
12.544885917137497 2.1086390437181204 2.571714716737912 38 45 8
12.221575216441934 2.666438532965904 2.614434649859847 38 45 11
13.174380228773288 1.9722140890693325 2.6417148269714414 39 46 9
12.91766825897211 2.821437348235742 2.6794123630585482 40 47 13
13.332185276530748 2.4600478021683663 2.800110876772343 40 47 11
12.710508743140279 2.5796711470024896 2.713286938952212 40 47 11
13.892378162542133 2.19511090802433 2.7004492115239676 39 46 10
13.578389728882081 2.30877997046976 2.7522910403056007 39 46 9
13.332185276530748 2.4600478021683663 2.800110876772343 40 47 11
13.237679139989083 2.7813540742316403 2.4946038953154805 37 44 10
12.507109010326255 2.501835976986226 2.441147624256731 38 45 9
12.71758218120073 2.669507193423517 2.4217389593069885 37 44 8
11.975892824249954 2.7184970254652505 2.254239661373518 35 42 6
13.65815762658757 2.930688160436787 2.454886387787071 38 44 8
12.900407508809062 2.930688160436787 2.405721356285064 38 44 8
13.180995271242601 -2.6137935137489077 2.640796679312343 49 57 28
12.815640829361145 2.9940168621044596 2.695658902601145 39 48 15
13.193161858957962 -2.229556257769551 2.831117688965565 48 57 29
13.939692516475523 -1.7163783207972472 2.908394715182547 50 59 32
12.975520788091202 -2.761035271405049 2.670541245004603 47 56 26
13.214372756185119 -2.578819419005271 2.826153325123491 47 57 29
12.77669302741121 -2.262417113650725 2.702078684573872 50 56 30
12.791213643963626 -3.107357339021803 2.699670485265624 40 49 18
13.469744483656546 -2.1032696603271415 2.772449054430202 48 57 31
12.487333501308903 -1.9502451241474517 2.5789480039117185 47 56 28
12.644083675303758 -1.7291705803065953 2.3147258606326173 43 50 18
12.597161867184525 -1.627812499620562 2.432710216127724 45 51 28
12.673717340588164 -1.7481328624466936 2.425695262289444 45 51 26
12.769200717900238 -2.1269187112218613 2.417140618596524 45 51 24
12.586828416910008 -2.281762695739184 2.566535449278219 47 53 29
13.122080840710144 -1.6461814527430905 2.6490620272999976 47 56 29
12.798242477452522 3.045898849264205 2.4145801823062243 38 44 7
12.989770417010208 -2.983919675734792 2.5203064514780893 39 46 13
13.788034599221996 3.033178152443315 2.565468780328902 39 46 12
12.858099088930302 -1.0732665523432154 2.0181678397585703 50 54 47
12.779621292660012 -1.4214647332337913 2.204027925252451 47 53 29
13.310330505278463 0.42860592337870285 2.086364129522237 37 39 37
17.82425360113696 1.5970250028753266 1.54624180357506 33 38 13
18.485144529271594 1.6003405892497709 2.114490131264378 37 42 17
22.631335183688776 2.037339253878286 2.1592648376538808 36 41 17
17.183158173368824 1.6633243236444644 1.9626557510865519 35 40 15
11.582837363558736 0.7413815291175181 1.6193681146609455 44 48 42
11.00059784271688 1.5104246482073314 2.2099886217410303 34 39 8
14.565255968369623 0.90850464421115 2.6109644742233424 37 46 17
13.12457166802235 -1.4849136217597385 2.6487084943687265 45 52 30
12.974601229022122 -0.024852981629607755 2.5219415398034433 43 47 39
13.12457166802235 -1.4849136217597385 2.6487084943687265 45 52 30
13.581255800029073 -1.0520014858115403 2.589346274648271 44 51 33
13.379662421102477 -1.065172154961091 2.366984280843723 46 52 39
12.412694128323709 -1.2037049038082888 2.225905086099913 49 54 44
13.13000856906962 -0.7582474970655864 2.3866111389829996 48 51 44
13.947370461347317 -0.3574847140571098 2.429968897657968 54 55 55
13.528538812493105 -0.897331026861812 2.256105291295608 49 54 46
12.840740428215822 -1.2707879380541138 2.4108673755329004 47 53 33
14.209280045251994 -0.456204368187123 2.4088515382363345 53 55 57
13.25255236140436 -1.4442593276314373 2.817441394857163 46 53 29
12.893036188386327 2.952407677400535 2.2970973993404344 39 45 8
13.882917614500563 2.9034412721010874 2.555032000565362 39 45 9
11.850781982531862 1.8766900163450189 2.378230790571446 35 42 8
13.578389728882081 2.30877997046976 2.7522910403056007 39 46 9
13.532513542166626 1.866724212327957 2.760639742852167 38 48 11
12.366133648623945 2.8208719520802945 2.3356139412429195 35 42 8
12.24234087894496 2.0415738533620016 2.4672068998895815 37 44 10
12.234295662427451 -2.196147926335979 2.468029916675322 46 53 23
13.083520506261891 -2.388543453188459 2.654582450175186 49 55 30
12.844829430703005 -2.9277586421835036 2.690928804556621 42 51 20
12.100382138137654 -3.0022853708214683 2.356909504806276 38 43 10
12.328174084007387 -2.8566533265794174 2.4585444327124897 40 47 14
12.586878707650667 -2.6862901580753764 2.7353337886387434 49 58 29
12.484766241238374 -2.3982556570984563 2.754787274748813 49 57 32
17.58924217517557 0.9906253135803762 3.0863169794358236 46 56 26
12.132599079459633 -1.2369970126811387 2.047064082964983 51 56 45
11.265273398068238 0.9329015134177644 1.8002629107909698 39 44 27
12.817210970866093 -0.021941299287117903 2.412918060799655 49 51 51
13.155835681836804 -0.9729135477182058 2.644301973845498 44 51 29
12.681452553469317 -1.385734067055111 2.424994305417214 45 51 29
12.733434391484673 -1.1124689386216562 2.2066931869318283 48 54 43
12.65183700593915 -1.40549092635597 2.3141620133223264 46 52 32
12.030851897911491 2.821437348235742 2.6423407692137793 39 46 10
11.600507978332127 1.6305391637507205 2.401051720329998 36 43 9
12.958666145629806 2.608898394353668 2.5236673677093084 38 45 8
13.061801010260224 2.9034412721010874 2.512643846773697 38 45 9
12.454632184570796 -2.0202857687290714 2.446160402821442 46 55 27
12.773782021390646 -3.1194820011431306 2.416735447106112 37 44 9
13.599237656250235 -1.66064241182383 2.7485709970313863 49 56 30
12.910606384440422 -2.014774462868452 2.6805115655826013 48 57 30
13.057272282957095 -1.9713970594012287 2.3925500911571165 43 49 22
13.457493498087976 -3.1218168294232163 2.3610923366644196 38 44 7
17.663718285758584 1.284985728284216 3.034422710266048 43 54 21
12.379795652730175 -1.3271229854045767 2.1295003656550975 51 56 41
13.31588241482098 -1.6166364474009927 2.2692313536737223 42 49 17
13.138431464030669 -2.1600186627186546 2.6467479905505877 48 56 29
12.830351029277493 2.419781443817366 2.537880238634808 38 45 9
12.790812279654967 3.0559544247068127 2.3042190862858343 38 44 7
12.214059060438078 -1.9014811544053667 2.4701086707726576 44 53 25
13.237923504550166 -2.0202857687290714 2.494579461139755 47 53 26
12.051913317427747 -1.772183785435701 2.487223986014835 48 54 29
12.85975779204909 -1.772183785435701 2.534572150300135 46 55 27
11.292205294780972 1.5165642804061013 2.085854663869126 33 40 10
11.422390865744989 0.8036467551169408 1.8879639726196766 45 49 45
13.073752377208116 -2.5670135446860876 2.5113883768306753 50 55 27
12.870718460522044 -0.1382535363103906 2.408272266056441 50 52 53
12.972215117817667 -0.6273888127506979 2.1931724014831997 53 55 54
11.606658817684528 0.9546139937391241 2.171711639205565 35 43 21
11.164369983691005 1.2573120483806006 2.314974124647366 36 43 11
13.508465044904732 -3.016838905527556 2.357289182197579 38 43 9
