17.759577521305072 0.7249724212346124 1.2807366230804589 62 78 33
17.4738964601866 0.808149283101557 1.335164717199839 60 78 35
13.096239784808468 0.34999754146526857 1.874826385682514 52 61 10
13.523444541775234 -0.5196501647169124 1.5649245095712212 48 63 21
23.046976075655447 -0.5356554232824284 1.4804487535977249 56 64 33
22.37452784936176 -0.45739794414368284 1.3874470768545437 52 61 25
22.590868854096904 -0.3978463350426774 1.4786195137218363 42 52 15
22.09908086036378 -0.5587538253326744 1.5672031045402437 52 58 29
21.99964187380365 -0.45739794414368284 1.5671868630064159 52 61 27
22.826522179986423 -0.4973570600087557 1.3911176228309503 54 63 29
21.02017565133123 -0.6496579441158553 1.5670186739121064 61 66 40
14.620013302920247 -0.6386731175315761 1.565364927585124 58 67 36
15.275281365843144 -0.6913904761614693 1.5000737622933467 57 66 37
14.063271687168843 -0.05202075243756037 1.7799941055307977 53 66 11
14.103700714494412 0.09324215463904881 1.7793855640331033 52 65 11
13.52216098151873 0.17747248137116195 1.8649587637720941 51 62 9
13.658376947377008 0.022345915394454966 1.939344991072983 51 63 4
14.04795330984473 0.020719828293580995 1.780225614809093 53 66 8
13.64507778758513 -0.060864074631629135 2.102712919555821 54 67 12
13.816522455907899 0.19223614141999715 2.0954260454349747 47 58 6
13.686742166277355 0.10901278747431507 2.1009224015620966 48 61 8
13.834995910544494 -0.5196501647169124 1.7834984055569587 47 63 18
13.661581766415393 -0.30654153451111654 2.0190311237340777 51 66 14
13.424164704327275 -0.22732679597245 2.027553433104762 52 67 15
13.717900459766561 -0.354533886140991 1.7112641611967532 43 59 12
13.952020159823114 -0.4531163449069935 1.9312295225104243 49 65 18
13.258113729236106 -0.14510527744316096 2.033717541635063 52 66 14
14.149425037741713 -0.12421542426592633 1.7787016014142452 52 64 14
14.080067413482805 -0.5196501647169124 1.8529761203323658 47 62 20
21.457325789515252 -0.5836947451681077 1.7073318542848528 64 69 46
21.6707436321005 -0.5194618998822071 1.6595388483399105 52 61 28
17.98215169908007 0.812692269456545 0.9069720152440214 64 78 41
17.47261410020852 0.9119062240861187 0.9559061154799081 60 75 29
17.99356406887247 0.8588356423140228 0.9762085440169466 58 74 30
17.42952661664325 0.7615700765671055 0.8819217165852377 7 20 0
17.20061885861621 0.9005235921477683 1.146610824219752 54 72 27
16.109818532329438 1.163070853598986 1.1158136988458858 52 68 20
17.59837525644614 0.9525292762286525 1.0287115429307698 55 72 25
12.134580936440484 0.8760065762512165 1.4817256512607169 33 44 2
15.925426033966884 1.1888318082574505 1.3117520476268842 55 73 25
11.95926589788915 1.061891546195526 1.3960339772089094 41 55 3
11.376580423632127 0.6949395544730977 1.5638164277305586 28 35 0
11.33665997452555 0.819501355674693 1.5637918485992235 29 37 0
15.080292797435892 1.296507997717108 1.1558554167351889 51 69 19
15.080292797435892 1.296507997717108 1.1558554167351889 51 69 19
15.884014084421478 1.250527827766561 1.2452979299875904 54 71 23
15.358754352557686 1.2282050696758742 1.1638283048773257 52 68 22
14.864021207283848 1.3675367312540385 1.1494367564944528 49 68 16
10.421353660227465 2.4912918955815657 1.6592488271332217 67 83 37
12.909696191672154 0.9430187302321605 2.0472334555058254 44 55 9
11.93267727336009 1.061891546195526 1.7324519035947352 42 54 6
12.763712096426998 1.061891546195526 1.9665614461574932 43 57 5
12.940091200114376 0.457344794772291 1.9608732385597514 49 57 12
12.210277397046383 0.8879898575239925 2.077029206243755 43 52 8
12.989140277257087 0.37966072060233025 2.0440795071204594 50 58 8
12.23511548725552 0.5731166936179305 1.8969879287837945 45 55 15
13.979552181592032 0.6235173795749225 2.2628467717527005 18 28 4
12.68222312505262 0.7552289843872548 2.1480115325210902 40 51 5
12.796308301654019 0.6235173795749225 2.142216715614704 21 31 0
14.22443678868217 0.4972094263460119 2.248661439201077 8 18 0
14.5466974544121 0.41450238833905984 2.32126623498314 42 53 8
11.998338954574137 1.2221829470754115 1.9933668345783908 44 59 6
12.17888417657693 1.3106053815526524 2.0784588971446603 45 60 7
11.973764732306046 1.3327620826831483 1.8171981413981542 44 60 7
12.432912390332293 1.4179785506695992 1.9777041971633875 44 60 7
15.096820180648518 1.0989363474569094 2.379467667866545 52 66 14
16.726472438803594 0.9036088792252194 2.5539487240427516 61 75 28
16.726472438803594 0.9036088792252194 2.5539487240427516 61 75 28
15.539476643772602 0.6821237395122053 2.4451308728692824 60 72 29
16.31580517772885 0.8308339185010366 2.592880259483554 61 75 28
15.696561952214706 0.5439344720268469 2.4332478679604654 66 79 28
15.388719097808682 0.45589664333569585 2.456929213560005 70 84 39
15.90388926403283 0.9036088792252194 2.5190821538949275 57 70 21
15.658153070809032 0.5056924514302111 2.541294329955428 66 80 36
15.957321734838551 0.74429169885468 2.6308137813974994 61 75 28
15.761349247937982 1.4991569190948106 2.4284628772405554 52 68 14
16.005250369684095 1.3857425658955187 2.51031169240881 56 72 18
15.927709659284352 1.4914718201688275 2.5170014016238635 57 72 19
15.446639043747354 1.3640044717552489 2.561599344001566 61 75 24
15.79717906967715 1.1469449577084727 2.528556789930818 61 75 23
16.15000530756664 1.0966935874556294 2.609911467223519 60 75 25
16.522747927229766 0.8398840038657686 2.697575728311779 60 74 27
16.15000530756664 1.0966935874556294 2.609911467223519 60 75 25
16.61609088532605 1.0342187550321986 2.68590927412522 61 75 28
19.413710255611146 1.4002169638082094 2.9157222671939658 62 78 32
19.65862476210567 1.4320352974035762 2.866712089017049 59 75 27
19.413710255611146 1.4002169638082094 2.9157222671939658 62 78 32
16.718855736818984 1.7684876656095545 1.6859263781715654 45 62 13
17.363006048681495 1.717717775921872 2.0444900343571586 48 64 17
18.122586928151566 1.7278401084760366 2.2175460449492634 51 67 21
18.274355051891632 1.7952996220703625 2.2112897888742635 52 68 24
10.240902350996544 2.512501532551099 2.0720032287989096 57 73 30
10.783644335678519 2.4912918955815657 1.845057148322623 65 81 35
10.38416732012036 2.7082999910755556 1.7568213793182559 58 74 30
15.74623846223797 1.5962605027583032 2.4295730238183912 51 67 15
18.465256807737035 1.742326846998218 2.7296570935406517 59 73 28
18.560431152585494 1.8718645175047839 2.718074473820398 59 74 29
18.992462143083937 1.6124525152945168 2.804026287081393 59 73 28
19.12488978909031 1.9162757135135249 2.7848229360274543 58 74 28
19.646511729349342 1.6203230812576364 2.8689068213306834 60 76 30
19.40144431435476 1.6318560828970634 2.9184902086177025 62 78 32
10.568467422442334 2.9225283394828936 1.4684832670450845 60 77 31
9.395828833235525 3.003765734456042 1.6689327027395637 60 78 31
10.449063906679335 -2.670687154552368 1.467309947874932 60 79 38
10.669845144938206 -2.8829209146770487 1.4694587347895502 60 80 41
9.46432535990294 -2.9584678839883587 1.6682201926091342 59 79 38
13.741570381171309 0.29685405364114964 2.185108410183294 49 60 9
13.960596759624616 0.13116737135033793 2.3611666006865195 62 77 26
14.341267135930567 0.29685405364114964 2.2421196201993703 52 64 15
14.796747883879988 0.20963974485648088 2.305621805640407 57 69 18
14.171546339440829 0.2557393771306994 2.450578348520148 63 79 30
13.3623811480916 -0.06651615333303058 2.205269291622895 58 73 18
14.366701336749902 0.35956519348284577 2.434312978379582 78 91 44
14.622071831385643 0.02650612453179028 2.3164701878391183 62 75 22
14.341267135930567 0.29685405364114964 2.2421196201993703 52 64 15
14.636789367677215 -0.06651615333303058 2.3155419424686237 61 77 25
14.045046956221473 0.14597676387500666 2.461541464729968 62 78 29
14.366701336749902 0.35956519348284577 2.434312978379582 78 91 44
14.649255445631818 -0.07332337018343155 2.412037336341336 61 77 24
13.989065814199794 0.032569061063308286 2.466504842916311 61 77 26
13.190510604872243 0.29685405364114964 2.1231173474445573 48 59 8
13.904275609911819 0.029226559222920185 2.3652662169035965 62 78 25
13.919752102244349 -0.07332337018343155 2.36413467400276 61 77 25
13.571467542035824 -0.6552447064968309 2.193977107153043 59 75 30
13.704730903119083 -0.6037083505242525 2.100153281825274 58 74 30
13.744631514878135 -0.7837076561087877 2.3771662853471254 59 77 32
13.496096875957054 -0.30128553738792374 2.396568142241185 62 78 26
14.045639095370701 -0.8637110235287242 2.461489338525051 60 78 34
13.616698081765946 -0.24767607710624467 2.1915917736017656 59 74 22
14.00678824497191 -0.17435642345094376 2.357841427275784 62 78 26
13.453023760419851 -0.1584028965827085 2.200319411711474 58 74 22
13.43613646784296 -0.5472781249704306 2.401419259342377 60 78 36
14.022866521174894 -0.4509399058556943 2.26028948504108 63 79 33
14.151879852269202 -0.4137705952033135 2.164801829475793 61 75 28
13.850815319016988 -0.3331021789153592 2.179555924589105 58 73 20
13.718971066342416 -0.36447880397634536 2.2786936981954806 62 78 26
13.995182570483772 -0.48911213454859603 2.0880537921394406 61 77 31
14.471227859452789 -0.40202931567989725 2.425904333413608 59 78 27
13.79239708313234 -0.5307349968068438 2.1825114581246248 61 77 33
13.105499337796504 -0.5792319730251115 2.2197733657586216 61 76 35
14.04725822542148 -0.7034561955882319 2.461346845552059 61 76 37
13.347834321150184 -0.4948462267707034 2.3027412095188335 60 78 32
13.670948953899439 -0.6105937403782201 2.49612329235027 61 78 40
13.353942069133751 -1.0628646925911749 2.5283402468694574 61 81 39
14.214747429048396 0.03677443243742535 2.5655181429469813 60 79 28
14.574777068252628 0.042226090010160235 2.660529897271755 60 79 28
15.232826208290467 0.287096993831157 2.5833876558083393 61 79 33
14.937612645085585 0.45358455061856856 2.615887774142924 62 78 34
14.750013216474352 0.32690722927699584 2.638242808276332 60 78 32
14.62851695277807 0.18840084846297736 2.6535385337378314 62 78 31
14.797491923599692 -0.08167927154102515 2.5074534585887305 60 78 29
14.589542314302047 -0.1057635104035389 2.6585945643524447 60 79 33
14.468963318990061 -0.3374794433529374 2.5390078132444973 61 80 29
14.315036890442602 -0.21814451449581798 2.554820647430825 61 79 31
14.188213892947003 -0.5039114213987909 2.5684035436712143 60 80 35
14.043305927148467 -0.8786145688583029 2.584593365385256 61 79 37
14.043305927148467 -0.8786145688583029 2.584593365385256 61 79 37
13.666887831980475 -0.7829923542525882 2.630528292011266 62 80 40
13.666887831980475 -0.7829923542525882 2.630528292011266 62 80 40
13.701848126868843 -1.4613297606476399 2.625996484934708 62 82 40
13.333646468466336 -1.2755780485017323 2.6770431736672213 64 82 42
13.240469166167486 -1.4423710510650114 2.6912890872437463 63 81 41
13.953238007839072 -1.1836415190244882 2.595046110819439 61 81 39
13.86350231066937 -1.2176503959843512 2.770650489056643 64 84 44
13.86350231066937 -1.2176503959843512 2.770650489056643 64 84 44
13.76259717331787 -0.6700187163550732 2.0155045207364077 58 72 31
13.889045019883895 -0.7842290586690529 1.709522017628473 43 53 21
13.362929859562218 -0.6700187163550732 1.9478977684065937 56 70 31
13.759291727646666 -0.8982052412592538 2.015619006041247 54 68 30
13.815549552063272 -0.9313246736942339 2.3718279651069487 61 77 35
13.495897346611168 -0.7839264440636858 2.198007434093931 57 74 29
14.218273290731313 -0.8982052412592538 2.079149539933436 55 70 29
14.175152403393705 -0.9126566717629693 2.2514639153834803 59 76 31
14.39791748056166 -0.988547249656846 2.330945736133857 61 78 36
13.554655178881394 -0.8447240468023166 2.106643300222535 56 72 28
14.149373888062645 -0.7840950898079683 2.0818648379080935 54 70 29
14.029394975238603 -1.0728436943439044 2.3562260360467926 60 78 36
13.64852676047912 -1.2297757184840052 2.4983079428779496 64 82 40
13.48355214050444 -1.3492218866835828 2.5148113674764634 62 80 38
13.64852676047912 -1.2297757184840052 2.4983079428779496 64 82 40
13.39141792044028 -1.4754257891867322 2.5243749755495344 62 81 40
14.029394975238603 -1.0728436943439044 2.3562260360467926 60 78 36
13.991450685023205 -1.48631332876815 2.4662919576539664 61 79 40
14.185714347298141 -1.0200660298953126 2.4493716105058345 63 79 38
14.218694048446451 -1.4754257891867322 2.565090978338914 61 81 39
14.218694048446451 -1.4754257891867322 2.565090978338914 61 81 39
10.228060366146723 -2.5364163464616585 1.7596945995704623 62 77 39
9.35835670473472 2.763184087055072 1.8881821147421467 61 77 31
9.174014951063523 -2.824060816252221 1.8947899923682405 64 84 44
9.426062013801845 2.871802951906718 1.9997628638578546 61 79 33
9.545825579115593 3.003765734456042 1.7733762749825814 60 78 32
10.079326993902404 -2.668697615843991 2.198638323232596 62 82 42
10.1624739972427 -2.7601065608513196 1.7609285635727077 61 81 40
10.168296555372866 3.107148206023304 2.1923021881828904 59 79 37
10.189449111191191 -3.0552292562390395 2.1908162307282026 60 80 40
10.925236478468756 -2.321273622228694 2.143515116468272 62 80 40
14.614976780590919 2.848821889870137 2.8321000170708657 64 82 36
14.884624961447505 3.0875416559773097 2.7797131041116754 63 83 39
14.575965937127675 -2.9753062560381203 2.840582377485799 79 103 63
14.561186924449498 3.074893450191178 2.843869167257605 72 92 50
13.503250155016353 -1.8982314527967032 2.8467594330035864 63 87 47
14.207097175830087 -2.492779856980723 2.9404240707255833 69 93 53
13.633108975693562 -2.11767457109693 2.8168609873207084 63 83 44
14.362180493052806 -2.2653585589468435 2.892974898045371 72 93 54
13.684463368578484 -1.6097841160992048 2.6282425756795407 63 81 41
13.81189281382159 -1.8322958225496782 2.780379263908627 65 83 43
13.279977971691304 -1.7881108275240358 2.685173646140668 63 81 41
13.938876521968464 -2.0180748614075763 2.7569871910806345 65 83 43
14.65910643087953 -2.7589581663421523 2.82282024007152 87 108 69
14.809457103601092 -2.5743357824827253 2.7933679711859796 84 105 66
13.834216853054008 -2.2913086820228323 2.7761317397162135 70 91 52
14.103526209126237 -2.424612170886959 2.7291016027426185 71 92 53
14.55321696770902 -2.4473938911968425 2.8456591491534162 77 98 59
13.834216853054008 -2.2913086820228323 2.7761317397162135 70 91 52
14.103526209126237 -2.424612170886959 2.7291016027426185 71 92 53
14.065426565466398 -2.022977442821531 2.582073167343658 62 80 40
13.616372722461023 -2.0894221857564736 2.6371836794192607 62 80 40
13.616372722461023 -2.0894221857564736 2.6371836794192607 62 80 40
14.135634909294694 -2.1759829223005105 2.723941210277695 65 83 43
14.415413659071616 2.9392421059332112 2.6821595438905694 62 80 36
14.375861284293304 -3.027854558386429 2.687752263292656 67 90 49
14.36087634212118 3.096160316883568 2.689896080170854 61 81 39
13.16634973170353 -1.8663026523760788 2.1242486876639237 67 77 48
14.124844873846135 -1.778837004682316 2.2543513857434045 63 75 44
13.887909118860668 -1.5977521697845434 2.3664669996860628 61 77 41
13.942665286376219 -1.6999658183907136 2.362466393841892 61 77 43
13.586924595097203 -1.8947233306942926 2.287041601777968 65 78 46
14.153882119545784 -1.8247309328907975 2.452088734109305 62 78 42
14.347692310897422 -1.9289337910579527 2.4358643035687706 62 78 40
13.974426208815284 -1.6008433344527893 2.4678144834324627 62 79 41
10.682183176445566 -2.252586377493911 1.9466015985710627 63 80 42
14.255491981397936 -1.7329248050264876 2.5611328590112628 60 80 40
14.255491981397936 -1.7329248050264876 2.5611328590112628 60 80 40
23.522145021995087 2.844506137388386 0.8749010895638556 50 60 30
17.464020887623622 0.679236282500499 1.2152416867681195 37 52 7
13.575906152450303 0.3244805103498171 1.712743249757273 50 60 9
14.549133432387244 -0.4851582930409914 1.4273821526223118 50 65 23
22.853368103063747 -0.5962065344715053 1.4356389062734911 58 65 36
14.046856254195019 -0.5814832301080279 1.56514330666181 50 63 25
14.046856254195019 -0.5814832301080279 1.56514330666181 50 63 25
22.459182107262105 -0.4973570600087557 1.567260717023354 51 59 26
13.144706211102054 0.27285355780842696 1.9544815718002804 50 61 10
13.165088542086188 -0.2100217464087403 1.7172041426062918 50 65 14
14.760437692566034 -0.060864074631629135 2.219756532856273 58 73 18
13.674131752626451 -0.056096386966865655 1.9389000710127675 51 64 7
13.258113729236106 -0.14510527744316096 2.033717541635063 52 66 14
13.475052234968247 0.25236669242047566 1.7892709667368263 50 61 10
13.343729098388117 0.19223614141999715 2.0305178396895958 48 59 8
14.305133597775988 -0.19513374682610127 1.776405967649072 49 65 14
13.890083657908159 -0.05202075243756037 1.709511577292196 53 67 14
21.22195429226844 -0.6496579441158553 1.708855802827386 41 45 23
18.11188805175976 0.8665244277402219 0.8407119637627294 73 87 48
17.557672319851335 0.9382459846716363 1.217221641865644 51 69 23
17.088585856415136 0.852476106662461 1.268995905004094 54 74 31
17.59837525644614 0.9525292762286525 1.0287115429307698 55 72 25
15.925426033966884 1.1888318082574505 1.3117520476268842 55 73 25
15.358754352557686 1.2282050696758742 1.1638283048773257 52 68 22
15.781322781654653 1.2282050696758742 1.1056047802277171 50 66 18
10.864417448117425 2.6230857609151026 1.378212017566574 69 84 41
10.663861380092737 2.6230857609151026 1.5633499179104304 59 74 33
11.067593266519784 2.4189715882537635 1.4731124612525608 62 78 32
13.82491711780409 0.457344794772291 2.0950746717117568 50 58 13
11.837934625219132 0.9430187302321605 1.8200850844748488 41 52 8
12.861512237257163 1.4179785506695992 2.0491678877682538 47 65 9
11.69418099003898 1.1390884018577496 1.8232158800337 44 59 6
14.014283363380995 0.37966072060233025 2.1714478055218622 43 54 6
13.498948498190234 0.5731166936179305 2.1090955407352876 0 7 0
14.237263925095979 0.5439344720268469 2.341729344996135 47 58 19
15.270421881592569 1.0512914874036192 2.4664741133069548 58 71 20
19.65862476210567 1.4320352974035762 2.866712089017049 59 75 27
15.960800081366191 0.5991900728735031 2.5141310726860713 63 76 29
16.292324704328035 1.3640044717552489 2.595242285875624 60 75 22
16.04814131625563 0.5663952833988775 2.620804186043789 64 79 35
16.04814131625563 0.5663952833988775 2.620804186043789 64 79 35
15.99154133258551 0.9248014732997449 2.6270081259496068 61 75 28
15.571049717883696 0.9941313489672133 2.5495151749888953 62 76 27
16.410325281366102 0.9941313489672133 2.583529961754924 60 74 27
16.936333640668796 1.8427268900727931 1.927918463029148 51 67 21
17.5213548175002 1.7810548653386438 2.0398627035970613 49 65 18
19.40144431435476 1.6318560828970634 2.9184902086177025 62 78 32
15.960567852643413 1.7058855819915162 2.5141511356652355 56 72 20
19.032538292373506 1.768958227422866 2.798077632644495 57 73 27
18.992462143083937 1.6124525152945168 2.804026287081393 59 73 28
14.480997994727417 -0.7354361119802123 1.5653127864849494 32 42 11
10.635289062315671 -2.3259337429734166 1.6574650358252563 62 80 40
10.973636534177725 2.8318130251078104 1.380152470338525 59 75 29
13.989065814199794 0.032569061063308286 2.466504842916311 61 77 26
14.995939840676352 0.3253205202894976 2.3865417636020503 65 78 30
13.404924216263932 0.11907312695243148 2.2029354963139576 53 65 14
14.675638530934666 0.11907312695243148 2.3131044228511675 59 72 21
14.004448604124356 -0.08167927154102515 2.4651339650311543 61 78 26
14.004448604124356 -0.08167927154102515 2.4651339650311543 61 78 26
14.045046956221473 0.14597676387500666 2.461541464729968 62 78 29
13.346258336902014 0.02650612453179028 2.2061586856496156 57 70 17
14.004448604124356 -0.08167927154102515 2.4651339650311543 61 78 26
13.587250659564836 -0.5588689180478967 1.9413674256981384 53 69 25
12.74942525182694 -0.5307349968068438 2.053732090496479 59 75 30
13.528634397371203 -0.48911213454859603 2.023762181661838 57 73 25
14.065028788518656 -0.1584028965827085 2.257820466306671 60 76 24
13.206768752965704 -0.6878698913547752 2.5443575803682097 60 78 38
13.617434296871988 -0.4137705952033135 2.1039079881307807 58 72 25
13.890296301893263 -0.4476296353235097 2.475436826437308 60 79 28
13.59593171672536 -0.7834124583726342 2.5034860953317457 59 77 35
14.09096160867341 -0.19383860324218033 2.4575224286785273 62 78 28
14.44597769363338 -0.3331021789153592 2.236374476925166 61 76 24
14.221661406931537 -0.24767607710624467 2.2488185729168317 59 75 23
13.667621343584006 -0.9563486908040235 2.4964466563734398 61 79 35
13.667621343584006 -0.9563486908040235 2.4964466563734398 61 79 35
15.140782470625782 0.35956519348284577 2.4772412738619565 75 89 44
14.955731749879584 0.2557393771306994 2.4932049608073346 64 81 35
14.22988625475219 -0.09217850228869852 2.563882392807763 60 78 31
14.574777068252628 0.042226090010160235 2.660529897271755 60 79 28
14.214747429048396 0.03677443243742535 2.5655181429469813 60 79 28
14.822819625290748 -0.3830738360750633 2.629393988651793 61 79 29
13.353191326650087 -0.9004929680759673 2.6741308516131452 65 83 43
13.791908732934395 -1.317534443110572 2.6145888566333686 62 82 40
13.701848126868843 -1.4613297606476399 2.625996484934708 62 82 40
14.391088182458445 -1.1240297685997154 2.6855879824592557 65 83 43
14.303424226779985 -0.7842290586690529 1.8484518568538664 55 66 31
13.643948338354603 -0.7300316782647455 1.8622556889619366 53 65 29
14.347114668342353 -0.7300316782647455 1.9961773412787494 56 69 31
13.56811553370625 -0.9126566717629693 2.19415467900812 58 73 29
13.56811553370625 -0.9126566717629693 2.19415467900812 58 73 29
14.175152403393705 -0.9126566717629693 2.2514639153834803 59 76 31
14.106042383096113 -0.7839264440636858 2.2554376226897888 57 75 29
13.88374542900177 -1.119627014282953 2.476037345837987 62 80 38
14.079658968783626 -1.3739535283011963 2.4585075081276986 61 79 39
13.723986992322505 -1.1656215507743592 2.378736292437536 60 78 36
13.991450685023205 -1.48631332876815 2.4662919576539664 61 79 40
9.504792367783843 -2.56569743111528 1.995977625364964 62 80 40
10.417918128633623 2.871802951906718 2.1752451870730507 61 79 32
10.308030439473017 -2.936885248925342 2.182627079438432 62 82 40
14.884624961447505 3.0875416559773097 2.7797131041116754 63 83 39
14.8990831461031 -3.0064808672546515 2.7771582381518933 76 100 60
13.222477806160958 -1.6165969302625904 2.69411194102405 63 81 41
14.308140936062621 -1.9476508242542618 2.6975536155605364 62 80 40
14.362180493052806 -2.2653585589468435 2.892974898045371 72 93 54
13.740030323116232 -1.756550973745629 2.6211140911405413 62 80 39
14.9804304659793 -2.8264712951716233 2.7631790289054954 84 106 65
13.75661613574753 -1.626291909379609 2.791169640408483 63 83 41
14.460152351091963 -2.8742253746713877 2.675944925196023 69 91 50
12.962849776506678 -1.9493561925694167 2.0451184015960795 71 80 54
13.99954810399358 -1.688026869570972 2.2616635703376575 60 73 41
14.06846867580504 -1.799544258322338 2.353452308848431 63 77 44
13.239608341020023 -1.9841998700298782 2.21211149645594 67 80 47
13.602025147923653 -1.9289337910579527 2.3881629941249045 64 79 44
14.028844694407685 -1.7145936054043531 2.4629707721720786 60 77 40
14.201941981205024 -1.6047349817590775 2.566907725781352 61 80 40
14.201941981205024 -1.6047349817590775 2.566907725781352 61 80 40
17.380601336144675 0.7657088157076103 1.2134588389965486 60 76 32
13.199988319169655 0.42303579799689794 1.7938998227788328 49 59 10
13.300713821035277 -0.28379728898915607 1.6400655320702007 49 64 14
21.739273900420194 -0.6864641114492649 1.4749977856810024 62 67 43
23.508286765766705 -0.5356554232824284 1.3530099964106923 54 63 31
13.58644034307566 -0.28379728898915607 1.7874511213790836 47 62 10
13.601541433523042 -0.2100217464087403 1.8631911695121948 48 63 11
13.629289397386124 0.024248914281761635 2.1033947779616886 50 63 8
13.715707874006808 0.10051469324274205 1.9377312211550703 50 62 8
13.762721298483605 -0.13385503492122536 1.9364186434596742 51 63 12
13.762721298483605 -0.13385503492122536 1.9364186434596742 51 63 12
21.299497288263026 -0.5434185040299335 1.8039214374450414 50 54 32
21.308019564007225 -0.4783222369020409 1.708294618174064 59 68 34
20.928120118296558 -0.5434185040299335 1.7108068558274507 36 40 16
21.014830446103023 -0.6106727393772002 1.8071390639450597 34 38 17
15.696096319404468 1.163070853598986 1.173073777615934 52 68 22
17.821031065023263 0.891013193016771 1.2817657277119872 52 70 24
11.923287014223632 1.2509220731751798 1.6480829327418616 44 60 7
12.695133174170067 1.3106053815526524 2.1473494555743793 47 62 9
13.27096888405436 1.1390884018577496 2.1193851518792117 42 57 5
15.35587696221379 1.2840252832390975 2.459553134838503 56 71 18
16.343568195316582 0.6650975406404676 2.5901078496084455 59 74 24
15.658153070809032 0.5056924514302111 2.541294329955428 66 80 36
15.590855080900244 1.2516020837623014 2.547629060844118 60 74 22
16.942373881565484 1.8267701166395611 1.684400872283715 46 63 14
16.070582496382062 1.8097624897760938 2.5047719310475656 56 72 22
15.79455353290651 1.6928876235408459 2.4260358783129545 52 68 16
9.335032735162455 -3.0645146915322266 1.6695739137202825 58 78 38
14.809079311582188 0.23044685481772798 2.400047111576438 63 76 26
13.537406505392084 0.20963974485648088 2.195786637996229 50 61 10
13.40893727881707 -0.4509399058556943 2.2027163204066564 61 77 33
13.347834321150184 -0.4948462267707034 2.3027412095188335 60 78 32
14.247309128697083 -0.30128553738792374 2.444173340725273 59 78 27
13.119420528766096 -0.6361637439993321 2.318495268816155 60 75 34
13.2279424932024 -0.6037083505242525 2.0348562308950093 58 74 30
14.09096160867341 -0.19383860324218033 2.4575224286785273 62 78 28
13.81884154095584 -0.6361637439993321 2.3715822041171375 62 77 38
14.672605879405241 -0.2492756427984367 2.647908354725181 61 79 32
15.140782470625782 0.35956519348284577 2.4772412738619565 75 89 44
14.024008012110796 -1.0447091714017294 2.742257223813004 66 84 44
13.738207195906984 -0.9915848809800156 2.6213456547957423 64 82 42
14.188213892947003 -0.5039114213987909 2.5684035436712143 60 80 35
15.414550786203069 0.40143476592173943 2.5647844678960676 64 80 36
14.269843240908104 0.1645218618486785 2.55960115227122 61 77 31
13.905039521682278 -1.4949740048147795 2.3652102748199186 60 76 38
13.48355214050444 -1.3492218866835828 2.5148113674764634 62 80 38
13.728031222780109 -0.988547249656846 2.2781289758079684 60 78 34
14.185714347298141 -1.0200660298953126 2.4493716105058345 63 79 38
13.583236996676861 -0.8529099186173309 2.28727793630233 57 75 28
14.185714347298141 -1.0200660298953126 2.4493716105058345 63 79 38
13.39141792044028 -1.4754257891867322 2.5243749755495344 62 81 40
10.24517625453366 2.9873330915421 2.1869382219899602 61 79 33
13.938876521968464 -2.0180748614075763 2.7569871910806345 65 83 43
13.867672078411024 -1.8956946130282124 2.6052745177128105 62 80 40
15.289737536320125 -2.9257206536771148 2.921406138084322 74 96 56
14.561186924449498 3.074893450191178 2.843869167257605 72 92 50
13.633108975693562 -2.11767457109693 2.8168609873207084 63 83 44
14.212766401167316 -2.6652055007542357 2.711875513275417 78 100 59
15.217888610097182 -1.8559813875074531 2.584961549122591 62 80 40
14.569380316954978 -1.9707927418686224 2.5290607386683934 61 79 40
17.962581897671953 0.7672821726360622 1.3985107576115274 65 83 40
15.275281365843144 -0.6913904761614693 1.5000737622933467 57 66 37
21.257781409805773 -0.5836947451681077 1.5670608982750167 48 53 28
13.52216098151873 0.17747248137116195 1.8649587637720941 51 62 9
14.229678685496834 0.16479563532098251 1.7775119982843122 52 65 12
17.547843894715562 0.8102146178723624 1.0923262275927872 60 76 33
11.522671135514196 0.9430187302321605 1.4769819945257447 37 50 4
11.05529193708853 2.2905036687617963 1.6541645930744031 58 76 34
12.23511548725552 0.5731166936179305 1.8969879287837945 45 55 15
16.29140258321645 0.8243607243125545 2.486666235603427 59 72 26
15.90388926403283 0.9036088792252194 2.5190821538949275 57 70 21
15.869480661949178 0.7505991690062035 2.522109593183032 62 76 28
15.565315984086574 1.1880472752205313 2.443148118236505 55 70 17
10.692636307883895 2.354631035624326 1.8474526130944495 63 77 32
19.68525637947468 1.8051998432815894 2.8619551092267304 61 77 31
9.311939530248644 3.110864644522145 1.6698196806614853 58 78 36
14.190523235805543 -0.5472781249704306 2.448962967134806 60 77 38
13.732270359877313 -0.40202931567989725 2.378105469413637 60 79 26
13.12184293970545 -0.48911213454859603 1.9551850580228596 56 72 26
14.995939840676352 0.3253205202894976 2.3865417636020503 65 78 30
13.240469166167486 -1.4423710510650114 2.6912890872437463 63 81 41
13.773909826629552 -1.4155335441669414 2.7877505707211423 64 84 44
13.791403565770775 -0.6230356147382292 1.8590496488634753 50 63 24
14.34552938208621 -0.8383069474006832 1.996227406343749 53 67 30
13.556332950788782 -0.7233179114368977 2.1065698115857163 56 72 28
10.639657638184442 -2.395283717687338 1.9481790906197987 62 79 41
13.633108975693562 -2.11767457109693 2.8168609873207084 63 83 44
14.937250144902805 2.9021298686722385 2.7705178723427335 63 81 35
14.584335667646087 -2.11767457109693 2.8387392510566736 67 88 49
14.400191170872226 -2.657476200527474 2.8827819195005095 76 97 58
13.887909118860668 -1.5977521697845434 2.3664669996860628 61 77 41
14.378558593471324 -1.8559813875074531 2.5482090589489617 61 79 39
23.65705790146765 2.859904785326646 0.9333488353117966 22 30 14
17.421717974454072 0.7638362236729493 1.022593207531908 50 65 26
16.005250369684095 1.3857425658955187 2.51031169240881 56 72 18
15.761349247937982 1.4991569190948106 2.4284628772405554 52 68 14
18.274355051891632 1.7952996220703625 2.2112897888742635 52 68 24
11.706554529336211 0.819501355674693 1.822943273664162 39 47 5
14.62776431816647 0.45589664333569585 2.413682036349568 85 97 52
15.471403041552698 0.8308339185010366 2.559160762061115 61 75 28
14.636789367677215 -0.06651615333303058 2.3155419424686237 61 77 25
13.509214757328438 -2.3057362536782655 2.6517451163836956 65 82 44
13.584911238655796 -0.7147543122729116 2.2871706138648578 58 76 31
15.781322781654653 1.2282050696758742 1.1056047802277171 50 66 18
12.589351943027795 0.5295203557090079 1.723951330618488 47 57 14
16.06321795174487 1.0512914874036192 2.505392072110528 64 77 26
12.032926835525917 0.6949395544730977 1.9026774550274117 32 40 0
13.890296301893263 -0.4476296353235097 2.475436826437308 60 79 28
14.36087634212118 3.096160316883568 2.689896080170854 61 81 39
9.768024622085305 -2.936885248925342 2.098724845483022 62 82 43
13.88374542900177 -1.119627014282953 2.476037345837987 62 80 38
13.573070698576771 -0.3819808354752424 1.9417733498792993 50 66 17
16.83678423787002 0.74429169885468 2.6598529115244216 62 77 27
14.164064928227015 -0.27192801433493025 2.346762218833985 61 77 25
12.950236555318943 -0.7147543122729116 2.2288999797194657 59 76 31
13.43613646784296 -0.5472781249704306 2.401419259342377 60 78 36
13.083060214003167 0.17747248137116195 1.7181287708093542 52 64 14
