12.941825295694306 0.43129284622750247 2.0246594831562925 46 50 11
12.630083823141925 0.5065407979004598 1.865974756663861 37 43 7
12.535644868822734 0.43129284622750247 1.95290156113886 43 46 10
12.941825295694306 0.43129284622750247 2.0246594831562925 46 50 11
13.081063293246594 0.3504579146973779 2.1062373198811253 48 52 13
12.330478188842125 0.2645582207074783 2.0489929235675794 49 52 16
12.635824755953282 0.17447676950984473 2.127273991905388 52 56 17
12.047422675742231 -0.10723561739823448 2.061209911844419 53 56 21
12.498556622442456 -0.013008618401086773 2.1341204629716386 55 58 23
12.527529383473064 0.08144927341024014 2.132660440180022 54 57 22
12.527529383473064 0.08144927341024014 2.132660440180022 54 57 22
13.054940749852875 0.5497948875471115 2.1074248125091777 45 49 10
12.15461141164565 0.5497948875471115 1.9655316798137794 39 45 8
12.340931466613583 0.600152463741744 2.1422082217191574 41 47 9
12.21091056977462 0.8074434074010044 2.2503845382807146 47 53 17
11.703565628667087 0.8893025347681458 2.2859279799697085 48 53 18
12.909184295325733 0.600152463741744 2.2074125398254036 46 51 12
12.268420870355264 0.6591897622250917 2.2466027614845547 47 53 17
12.79966451718225 0.8749834193783085 2.2137532104098607 47 53 17
12.333337085738647 0.6222789560223538 1.8732988521849667 38 41 6
12.356181229085418 0.6754083923798794 2.0479150256146967 40 44 8
13.478806615478614 0.38374263751089627 2.2699177468785825 50 55 17
12.788484634973532 0.4235950996801447 2.3162211432317394 51 57 21
13.102303150155706 0.8893025347681458 2.4014326094495457 48 54 20
13.125182439430507 0.5162749459185596 2.2927925587434306 48 54 18
12.66305992792952 0.6374017355587579 2.440243168659385 51 57 22
12.862922943486243 0.8074434074010044 2.3108922797879488 48 54 18
11.719895661502429 -0.11834567579329788 2.176667230023952 55 60 27
11.50202548746957 -0.016045256859587465 2.3012483267705615 60 65 30
11.55731437250968 -0.1320089864546456 2.2969714261239815 58 63 30
11.533501858662895 0.10034970918049389 2.298806430475946 59 65 29
12.593835923222835 0.2907473723125234 2.226054003153975 52 55 19
12.332687851405002 0.21409043535534442 2.3508989047729143 58 63 28
12.332687851405002 0.21409043535534442 2.3508989047729143 58 63 28
12.192007218724523 -0.016045256859587465 2.3623815803812476 63 68 37
12.332687851405002 0.21409043535534442 2.3508989047729143 58 63 28
17.810367670272157 0.4749815804306602 2.7824796094604647 59 64 34
12.594328833987005 1.4132842988452554 2.2260239249922393 39 45 9
11.922071151987366 1.513425426089661 2.164965992291565 36 42 9
12.182017796329193 1.3162208064352967 2.150618463520444 38 43 10
11.91649663426854 1.6147279002475905 2.165282076022037 33 38 11
12.959655712480059 1.9058142529221915 2.204536397594791 30 34 9
13.405785114804113 2.0346123565392302 2.0078444315320314 71 73 78
13.203382191255638 1.876949812805249 2.1007502369899247 65 69 67
12.731282916679406 1.812711410919183 2.2177830996559447 40 45 17
12.959655712480059 1.9058142529221915 2.204536397594791 30 34 9
13.859714991537635 2.000318893668169 1.9147933128454744 69 71 75
13.141529265979509 1.6147279002475905 2.2916976953660173 40 45 13
12.253890035668162 1.1882072374014976 2.247553849336624 45 50 17
12.001038808692003 1.2889231727822175 2.264596413789971 45 50 17
11.89813576638721 1.0446252894281782 2.271811612576564 48 53 20
12.786213023078718 1.3463809404864417 2.5586075382556785 53 59 24
12.786213023078718 1.3463809404864417 2.5586075382556785 53 59 24
12.49961974126601 1.3958541771823858 2.337769551651068 45 50 16
12.479221933092681 1.4988771391909697 2.4578700750484463 49 54 21
11.985337182798904 1.255285818135746 2.379997865415884 48 53 21
12.238512814222892 1.1449529599214565 2.358541781831293 49 54 21
13.553700773591807 1.4884415001575813 2.608680381807301 52 57 24
12.946819377363063 1.2129211589932387 2.540055968440393 51 56 22
13.313283099510585 1.1581591044143187 2.640140621986298 54 59 25
13.0758452824543 1.4744743204825883 2.674338377636609 53 58 25
11.743177005606984 -1.1087585305703405 3.0331727942888898 63 70 40
11.080911510857847 2.3182366216555863 2.3358318127075597 45 52 22
12.257110162278202 2.1755031384787813 2.2473428249729763 44 48 22
11.64094818822087 2.2404991941977155 2.29060918501603 42 48 18
11.947390016609019 1.7767307947005426 2.514497408907955 50 55 23
11.581273741040137 2.0347105116551214 2.4173284002030564 49 54 22
13.141991965210241 1.8106184707223096 2.664458606270087 51 57 22
11.795552111643321 2.3182366216555863 2.397025063576178 44 51 16
12.408654908539246 1.6196774044214173 2.3448593109808 44 49 16
12.200449839013585 1.982533563622014 2.36168121982882 46 51 18
12.304255024722334 1.682574806222202 2.8201978880064678 57 62 29
12.473896405568935 1.6258825019059813 2.4583941936017353 48 53 21
12.379895120512488 1.9261816970327177 2.802325141271237 55 60 26
11.859493094176743 2.2974660239617295 2.690697608931892 50 56 22
11.748759496506974 2.523610336586747 2.5382175984103688 46 51 17
12.483662448204022 1.7311618728620843 2.3390022819387037 45 50 19
12.653843942564869 1.6597236171671574 2.745520033131181 54 59 25
11.821559810894511 2.100617941570909 2.5293380496734237 49 54 19
11.358882055606328 2.185620733576969 2.589994531280515 49 55 19
12.114389151589263 2.411597443904738 2.495717073297691 44 50 14
12.697301541450294 1.6338896503881601 2.5693132848853004 52 57 24
12.921133440897675 1.9115761907693294 2.542958255475814 49 54 22
12.105235577447806 2.035082895459731 2.873941261002309 60 65 33
12.817682778165265 1.7995005215989373 2.9918386635002894 59 65 32
12.890310441690632 2.226773431438039 2.9582325810639913 59 64 31
12.263924325720222 2.2753712959078287 2.830226498067559 54 59 25
12.934532846425565 2.800972280908526 2.9406304300044894 57 62 29
12.784171012380025 2.5999410350735435 3.0103483431398073 58 63 31
12.71093690458314 2.0365629042071904 3.0655713829017763 61 67 36
11.816785905989194 -2.4708550584148994 2.9861023359913412 59 66 35
12.906473768844881 -3.0851663012122374 2.95159796733187 60 66 34
11.737517525716447 -1.9349569599232843 3.037696627790973 61 68 37
12.682383142884179 -2.834560121213441 3.1057221561338957 60 66 36
12.755781185971987 -3.0459956780518707 3.028451141704041 59 65 34
11.70745652622927 2.7438795376856526 2.7183108742550135 48 53 19
11.572488999409119 2.446641118535867 2.744991766998255 53 58 25
11.70745652622927 2.7438795376856526 2.7183108742550135 48 53 19
12.310397091040382 2.644563315195191 2.8187026681852276 52 58 22
12.539448296972125 -2.8904516808974368 2.7679389215838435 62 67 35
12.926905084896433 -2.935232307495801 2.6977194169624106 56 61 29
12.221728687503788 -2.8216927453201808 2.8411393237355584 68 72 38
12.517504272465768 2.949445289509387 2.772436010077644 52 58 23
12.877497811426801 -3.1162992202723965 2.7058575902259094 53 57 25
12.961138928208511 2.387394213474591 1.6228387669150337 78 83 75
12.394131563525235 2.446776748238319 1.706292610322592 58 62 50
11.785135654908334 2.5126736874135434 1.7133409803644113 50 54 43
12.683271770412391 2.992899037993596 1.703185315155546 54 58 50
13.35453884700703 2.7687979396039064 1.5463995678011122 69 74 65
12.75950219321415 2.7529692680199536 2.2161133538401327 33 37 17
13.017428060109964 2.5597975141471365 1.8569394567080038 63 67 60
11.47689898610117 2.458542777700913 1.8966745455161873 23 28 10
11.583279896790845 2.473805580568316 2.1848615039286927 35 42 15
12.537205482921076 2.6656606485635828 2.132174634028282 29 34 18
11.132323952507187 2.494384329807965 2.3314072467897233 43 48 17
11.533877773554547 2.3239419403010357 2.1878843435406883 37 43 17
11.73418232949581 2.5341330514886553 2.075517865763496 23 29 8
12.415482180410095 2.562317159981418 2.344321879500717 43 48 16
12.058985154759075 2.66238172393749 2.37361398549768 44 49 17
12.30263169406754 2.9466622720630293 2.2443752671335764 40 44 18
12.493191001872017 2.8469810228529653 2.2322601387503345 37 41 16
12.437772467213955 -3.033001859293837 2.137210101224107 42 45 35
11.766491047439983 2.8597932042417566 2.53603422270066 45 51 16
12.884460023777134 -3.007528231636529 2.4201359674686125 40 44 26
12.230795078063755 3.0260762787289055 2.48319343920021 45 51 18
12.128932764923773 3.0396725659875705 2.36766079477608 39 44 18
12.492945468028577 3.008318829484987 2.595230227546394 46 51 16
12.09900554618687 -3.1252946141741225 2.3701949951607633 41 45 25
11.96559176885398 2.7229557387180896 2.512401326660378 45 50 17
11.776843726284175 2.7740113569664904 2.398750579130196 44 49 17
13.33030612419633 -3.120229400034326 2.6378160310039447 50 54 22
12.615281223717524 2.8158053408016737 1.8663315572272543 35 39 31
12.63646385614998 -0.8176407894248737 1.7036786111336009 45 44 24
12.760182422672807 -0.929613200289959 1.7023827024853069 54 55 42
12.933189580220684 -1.0380725534065427 1.5456045823710958 71 71 71
12.231586431534284 -0.6409963051626898 1.7912093851919928 47 50 18
12.840818970093489 -0.7048571577507143 1.7805916142695322 47 48 19
12.504784280818306 -2.024687264689741 1.7050863337988453 53 57 52
12.240410919060361 -1.6883616706930245 1.6259060987509668 48 52 37
13.03564694077302 -1.210950139542098 1.4689163495334854 80 80 80
12.760899332220392 -1.285002550258204 1.7023752669786114 75 75 70
12.25668491163087 -1.4424471619786288 1.6258328519260339 74 75 66
12.155039563796272 -1.5241610805714483 1.5439914645274126 64 65 54
11.972543330562443 -0.2886351494788511 1.971875415906458 53 56 23
12.760020363111556 -0.5262155941127092 1.8628799234779383 52 52 21
11.821960736904758 -0.49283053232733415 1.9772831940601876 52 54 31
11.867277707264197 -0.40820386383847385 2.069332498532971 52 54 32
10.90481328823787 -0.5003963931980947 2.22943890739798 54 56 32
11.945092345750435 -0.5704201866534906 1.883458508966179 52 54 21
11.556701734954943 -0.316911648058537 2.0840221122564633 53 56 23
11.945092345750435 -0.5704201866534906 1.883458508966179 52 54 21
11.224458889752382 -0.3930756613352938 2.3236247429135646 57 60 34
12.013441079077397 -0.5402131326557156 2.159836399185309 53 53 27
11.62100862102103 -0.4499430483050004 2.182574536994682 53 55 31
11.067881052333675 -0.24452282795840538 2.2180858704293844 55 60 27
11.326183373056054 -0.2198227736901735 2.09553049735809 51 57 21
11.867277707264197 -0.40820386383847385 2.069332498532971 52 54 32
11.90355093807689 -0.6391905730003052 2.519597457322681 60 62 36
13.205198364096825 -0.7516432933015958 2.392941031584941 55 59 28
11.322722223752407 -0.4457323300035213 2.443531910112313 59 61 35
11.322722223752407 -0.4457323300035213 2.443531910112313 59 61 35
12.440580752191726 -0.5132539354314685 2.6021918666829604 61 66 38
11.364183849012335 -0.3666294995572254 2.5892367812760835 69 74 45
13.205198364096825 -0.7516432933015958 2.392941031584941 55 59 28
11.707348200346368 -0.2753183567445015 2.4052376176796892 62 67 40
11.364183849012335 -0.3666294995572254 2.5892367812760835 69 74 45
13.504188362165172 -0.8217436971043759 2.1752161579162017 51 51 25
12.970359085326871 -0.8918379654671568 2.2039301140081156 50 52 26
12.970359085326871 -0.8918379654671568 2.2039301140081156 50 52 26
13.504188362165172 -0.8217436971043759 2.1752161579162017 51 51 25
13.172666961323761 -0.929613200289959 1.853473887912813 49 50 36
13.344780469138382 -0.9960112049648947 2.0099811745615024 47 48 32
12.488400871974155 -0.6409963051626898 1.8694261979019766 49 50 18
13.248369730168642 -0.9084376821928432 2.3894402645503123 56 59 29
12.189542447720132 -1.1077320439980305 2.8497822463912765 63 70 40
11.41794131602784 -0.8851757639264244 2.778672738122309 64 69 40
12.026435919809632 -0.6019946641139057 2.6628252614530754 63 68 39
12.484385057959006 -1.2088730390583284 2.7793547317365555 62 67 39
11.732191146025313 -1.0155880801996162 2.7136552215902863 62 67 39
12.325180977328753 -0.7361519079909187 2.6180433756799357 60 65 36
11.519708029675863 -0.963971267498772 2.567706900081991 59 64 37
11.949324071217502 -1.2748445204656638 2.6754110879174466 59 64 35
12.577525967697825 -1.1747330537604705 2.5842703810523133 57 63 36
12.819011193794513 -1.0443941135185149 2.5547390015173015 58 63 36
12.333348563878086 -0.9311282418411428 2.4725174900762785 56 61 32
11.971216308051229 -0.938360410737576 2.9183794875330324 64 71 41
12.14260715055328 -0.6944528460672248 2.862938667358579 65 73 42
11.455450546536886 -0.5399237281919196 2.770145745603951 66 72 41
11.85974102754618 -1.4609822938845718 2.690654431977137 56 62 33
11.602807255653508 -1.2969805339376106 2.183675516233515 52 56 37
12.776516072697937 -1.1073489718437695 2.2151112087886493 56 59 41
12.150484943632211 -1.514978034492851 2.152319040215451 50 54 35
12.585524006135863 -1.1816925932722144 1.867051480161484 59 60 51
12.08157430823026 -1.0594229656771508 2.2590647187435215 56 60 38
11.740168194995064 -1.1577358011938956 2.283223440100911 57 61 39
12.912933989456205 -1.1816925932722144 1.9411874702818157 57 58 46
12.348201779166939 -1.3443162772107689 1.959009181257307 56 57 43
12.091828238194163 -1.5199807475150902 1.9676957332640932 49 53 34
12.123850313872452 -1.3547535693477557 2.494682412823953 58 64 39
11.907196706120931 -1.5012989858017516 2.386905496650748 55 61 38
11.996425380786274 -1.3806246449941362 2.379028981493125 51 57 34
12.125921090032772 -1.001635402465588 2.367914956535614 57 60 34
12.540076693155306 -1.1074050925475156 2.4519360724357107 58 63 35
12.416923892567148 -1.1577358011938956 2.344208501938887 58 63 36
12.123850313872452 -1.3547535693477557 2.494682412823953 58 64 39
12.035566372824723 -1.491600183263343 2.504457002458826 58 64 37
12.393308405682411 -1.675203126741193 2.799271583217426 58 65 35
12.096246031217252 -1.708113427977868 2.87666479429973 61 68 38
12.56664245103645 -2.4012244952464403 2.7624578316583066 58 63 33
12.56664245103645 -2.4012244952464403 2.7624578316583066 58 63 33
13.208722605665915 -2.1599543432107233 2.6547768276435413 53 59 29
12.762014669674121 -1.6549878648437413 2.725718379660538 55 62 32
13.086784931315323 -2.196382429068236 2.5246466511528407 52 57 30
13.208722605665915 -2.1599543432107233 2.6547768276435413 53 59 29
12.551084290830557 -1.9482891222170644 2.587659961679866 55 60 32
12.468408267290672 -1.9043335152199088 2.7827512708226623 58 63 34
12.320531397328827 -1.6413200519622653 2.6186974704823576 55 62 32
11.154820308416307 -2.420880306798974 2.846984156569498 61 66 37
12.6693602357442 -2.6923590112759888 2.742601486576185 60 65 37
12.381691150571006 -2.617938981187065 2.610190701367318 53 58 31
11.954553707211492 -2.1615729987305197 2.9246052344754347 61 66 37
12.396072176058412 -1.800257114296536 2.6082203311383685 55 60 32
13.052961359957381 -2.766804504332275 2.677825364783306 56 61 31
12.672063799505885 -2.490794225078451 2.572412390668375 55 60 33
12.27656668035748 -2.3907266111918055 2.6249442542911807 55 60 29
12.354981881879562 -2.584777547785022 2.808085931376886 65 71 40
11.940474042655477 -1.6182089226190388 2.2688226510481337 52 56 38
12.435254423618783 -2.1595285899910737 2.2358921397678646 50 55 38
11.679290683826094 -1.897368828669117 1.9825475385655569 49 54 42
12.32126797803059 -1.7859171585737252 1.9599033311677085 52 55 45
12.17822414501792 -1.8310818555674078 2.2525550677285975 51 57 35
12.114218116921052 -1.897368828669117 2.0582682893398663 49 54 44
13.11146360139667 -2.1072697747533495 2.1960543474675616 45 50 34
12.15297974087978 -2.022539205448455 2.1521841042008507 46 52 32
11.625529929421965 -1.6135379587525058 2.0806884719441725 49 53 37
12.502931809803878 -2.0191783625442548 2.455546117091605 55 60 33
12.26605855028915 -1.899390899694131 2.479485804249678 56 61 34
12.847973346142364 -1.6314654607504955 2.5513578294079386 56 61 34
12.693182847720966 -2.0696636687616703 2.3231741476012844 49 54 32
11.979797843086727 -1.745174492446624 2.3804829329116677 56 61 34
12.813680787427543 -2.126634528805608 2.426438051967239 52 57 31
13.237896335343606 -2.5368528137833346 2.3902862505066196 48 52 33
12.321522842646537 -2.4514101872069567 2.2431522364253427 47 51 36
12.597303243316219 -2.7422084446022583 2.446446327499164 50 53 29
12.992416906387476 -2.9187740945218263 2.3018272640790016 43 47 29
13.499885619738581 -2.8208294963268647 2.6154779961584773 52 57 29
11.971818008222685 -2.3110190286640035 1.9719011084169518 50 55 43
12.851979895316227 -2.687856295902597 2.5508926264865224 52 57 28
12.274194394605251 -2.7282677479042 2.1457080720615194 49 50 36
11.996525026559564 -2.439240581228839 1.9710278379209831 52 55 44
12.882817013164647 -2.633701990475295 2.4202809635251947 50 53 29
12.38689930883927 -2.4938785952866476 1.871949668290568 54 57 47
12.600228854068174 0.3504579146973779 2.0379280110568767 47 51 12
12.941825295694306 0.43129284622750247 2.0246594831562925 46 50 11
12.549455878045844 -0.10723561739823448 2.13156086753526 54 57 22
12.137364522668443 0.17447676950984473 2.057257553262443 49 52 16
11.554956435674592 -0.013008618401086773 1.9872515493170213 52 55 20
12.858062765068414 0.38374263751089627 2.2103550689962246 50 53 15
12.316595440051543 0.954741063585924 2.24347076462102 47 53 18
11.669005996447913 0.6591897622250917 2.1796917293520046 44 50 13
12.268420870355264 0.6591897622250917 2.2466027614845547 47 53 17
12.486871680341066 0.5162749459185596 2.2326541565852347 47 51 13
11.930078158125017 0.6754083923798794 1.9733853641545172 40 43 7
11.608526488577363 0.8074434074010044 2.1833291027504647 46 52 16
12.495500212069105 0.5711873414902279 2.3380873511016116 50 56 20
12.358386295980717 0.7288242832828291 2.348843467637387 49 55 19
12.874816520924464 0.47199840162535045 2.4209878800514235 53 59 24
12.404822790015066 0.19228928633243073 2.237817653830704 54 60 23
12.29449281761132 0.08991966419568792 2.2449037131536267 55 61 25
12.404822790015066 0.19228928633243073 2.237817653830704 54 60 23
10.836910398563925 -0.14921254497300518 2.3576796392442954 60 67 35
13.235131814855665 0.32249168061850425 2.3905099053161827 54 59 25
12.522789802978142 0.32249168061850425 2.33598780370406 54 57 22
17.810367670272157 0.4749815804306602 2.7824796094604647 59 64 34
12.154715751407009 1.812711410919183 2.1520902483972586 26 31 11
13.498015141858845 1.9583096374464595 2.0880094713953925 70 74 74
12.786213023078718 1.3463809404864417 2.5586075382556785 53 59 24
12.414008424265347 1.5069686892579064 2.344437817230403 45 50 17
12.238512814222892 1.1449529599214565 2.358541781831293 49 54 21
12.702533406885097 1.4884415001575813 2.5686742309378507 52 57 24
12.786213023078718 1.3463809404864417 2.5586075382556785 53 59 24
13.157150845422356 1.3097001731450468 2.6622347627501894 54 60 25
11.83364249517166 -0.6280570122907132 2.9772642159354112 65 72 42
12.822865526869972 1.2755594033725892 2.9891832711911683 61 68 35
11.209128567348966 2.1443911150042037 2.3249068689669485 47 53 20
11.369605891894805 2.218286733888267 2.438631184481071 47 53 18
12.483662448204022 1.7311618728620843 2.3390022819387037 45 50 19
12.418961896555741 1.9642541887089298 2.6051070031707377 50 56 21
11.97937977437574 2.0348201357763713 2.6704492534162636 52 58 22
11.821559810894511 2.100617941570909 2.5293380496734237 49 54 19
11.957586077164677 1.870957424332443 2.3824349788798767 47 52 19
12.263924325720222 2.2753712959078287 2.830226498067559 54 59 25
11.458982280175757 2.6567154214457287 2.5759571531582846 47 52 19
12.105235577447806 2.035082895459731 2.873941261002309 60 65 33
11.737517525716447 -1.9349569599232843 3.037696627790973 61 68 37
12.62588563311816 2.7438795376856526 2.7508493678337635 49 55 19
12.905619887966749 2.9841635306335332 2.7012005665399594 49 55 20
12.890310441690632 2.226773431438039 2.9582325810639913 59 64 31
12.755781185971987 -3.0459956780518707 3.028451141704041 59 65 34
12.488508253663364 -3.1105975380325597 2.778484506431389 57 62 30
12.263924325720222 2.2753712959078287 2.830226498067559 54 59 25
12.221728687503788 -2.8216927453201808 2.8411393237355584 68 72 38
11.979296332818091 -2.7043571863035116 2.9154272630130627 61 68 36
13.131498755829924 2.4958031501854836 1.4696625656060756 79 83 75
12.709128430220126 2.7394793259820664 1.7827984747983934 51 55 49
13.057206758333047 -2.9897531198950897 2.527847518353706 50 54 28
12.437772467213955 -3.033001859293837 2.137210101224107 42 45 35
11.803152538178187 2.618579084382979 2.17178866183543 31 37 11
12.021853379046705 2.964939300082719 2.062345850722374 28 32 17
13.462307986328213 2.1055126640618567 1.9253888678234983 71 73 79
12.432262852546316 2.814372020811799 2.3430046341562285 42 47 15
11.786671428868203 2.3281566609478017 1.9785723521836613 30 35 18
12.601538052020338 2.8597932042417566 2.581220377506236 45 52 16
12.69985174890573 2.712108926205098 2.3226827265036194 41 46 17
12.050298615233757 2.585546077252289 1.9691406879958333 28 33 19
12.217776928685891 2.3281566609478017 2.053780062320178 33 37 15
10.968375526298997 2.402600155565514 2.224961677140842 40 47 16
11.599525777795765 2.3961155340740556 2.0819425811235797 28 34 14
13.008294397777098 -3.123102588485828 2.5332051005531713 48 52 24
12.734985407157197 -1.1073130084465592 1.7823614815788915 62 63 55
11.957585736839341 -1.8698401332612966 1.7963464042279247 53 56 48
11.676334246734905 -0.5704201866534906 1.8018768793382567 51 51 21
13.276228551977459 -0.8691955962167742 1.54625563386027 68 69 58
12.424138342014537 -1.3624175337816244 1.6250903309297369 74 75 68
12.14957193809464 -1.6065016053670182 1.543979398745234 59 60 47
12.29352512721187 -1.6883616706930245 1.462742817926714 59 63 46
13.66394459233432 -0.9740514354851256 1.399750942225167 80 80 80
13.044604349945999 -0.6814981644891299 2.298245285621133 52 55 23
13.167089711641848 -1.0236473867887959 2.1930080281722386 55 56 40
12.610463979068866 -1.0236473867887959 2.128525484856569 51 52 36
12.644826775540803 -0.4525511793303323 1.9494341407330567 53 55 31
12.926259247369984 -0.7562317643297031 2.206436316423356 50 53 20
11.593946685437707 -0.5132539354314685 2.5578764912086953 60 64 37
12.493891558830077 -0.9708543753246077 2.232216490102361 55 58 36
11.930504057866647 -0.3930756613352938 2.3848303558546022 57 59 33
11.224458889752382 -0.3930756613352938 2.3236247429135646 57 60 34
12.706322942466848 -0.7597222903963917 1.9475094357431437 51 51 21
12.536779921503667 -0.9084376821928432 2.3349166394712664 56 58 32
11.087340229542768 -0.3146957684314162 2.4692327037655715 64 69 42
11.858789124827316 -0.2198227736901735 2.1685756658113275 53 59 23
11.805093635489223 -0.437787360451301 2.700311000837261 67 74 44
13.106920237786559 -0.6944528460672248 2.883926206296954 64 73 43
13.132400256813106 -0.9311282418411428 2.5197664047644976 57 62 34
11.462047463252057 -1.4347359980157692 2.7686709963558993 61 66 38
11.470032101824096 -0.7361519079909187 2.5744414417324495 59 63 35
11.85974102754618 -1.4609822938845718 2.690654431977137 56 62 33
11.683418695517654 -0.7214954882480158 2.7229011221939596 64 69 40
12.69586591432525 -0.8441745546227213 2.5694888447142494 58 63 36
12.121024473100197 -1.1075049162990942 2.648001712293361 60 66 37
11.476003691540784 -1.2652841072127938 2.3032812477651072 56 60 39
12.179704374922474 -1.4310664464154126 1.964673539765112 50 51 35
12.540076693155306 -1.1074050925475156 2.4519360724357107 58 63 35
12.167461133502295 -1.2652841072127938 2.364426171577619 59 64 39
12.035566372824723 -1.491600183263343 2.504457002458826 58 64 37
12.293113314034857 -1.225618134942508 2.4766674893262977 59 64 38
12.381691150571006 -2.617938981187065 2.610190701367318 53 58 31
13.032886331483397 -2.3841970665503616 2.5305012917306415 49 54 30
12.330993107236226 -2.2305089515189516 2.813747512886524 59 64 34
12.381691150571006 -2.617938981187065 2.610190701367318 53 58 31
12.680007950035153 -2.2954357536314474 2.438662126720997 50 55 29
12.78267688541871 -2.080859933497223 2.5590271697896716 55 60 32
11.876204901277172 -1.770917935668 2.9569007623191643 61 68 38
12.354981881879562 -2.584777547785022 2.808085931376886 65 71 40
12.115216292748888 -2.420880306798974 2.8709534391281375 62 68 37
11.703839818379917 -2.1024762591260124 2.718997321590019 56 61 31
12.672063799505885 -2.490794225078451 2.572412390668375 55 60 33
12.163327386244191 -1.6988072359613258 1.965233171040417 49 53 39
12.22164094254128 -1.7112765540401245 2.148496672665179 49 53 37
12.416773123794343 -1.9302391539506236 2.2370600419866107 49 54 33
13.06922499868117 -1.899390899694131 2.5265434408137057 55 61 34
12.693182847720966 -2.0696636687616703 2.3231741476012844 49 54 32
12.478344325131545 -2.2214730418135957 2.339414144147912 51 56 34
12.847973346142364 -1.6314654607504955 2.5513578294079386 56 61 34
12.297468799350355 -2.3043725408756064 2.244710379773441 47 52 35
12.556222187215708 -2.1362918895868055 1.86776387562997 56 61 54
12.559035494534244 -2.8205154201488574 2.228185317464039 46 48 32
12.533183547613564 -2.1842590379946993 2.0406279023267464 36 41 28
12.382995878878148 -2.512488740572788 2.1400256408625697 47 51 38
12.882817013164647 -2.633701990475295 2.4202809635251947 50 53 29
12.821432918068972 0.2645582207074783 2.1182938594862986 51 54 18
12.22632250700852 0.8749834193783085 2.148247079952835 45 50 14
12.573107343657648 0.5497948875471115 2.039016273168469 41 46 9
12.268420870355264 0.6591897622250917 2.2466027614845547 47 53 17
11.685132692763354 0.7366525722492364 2.0778383211843523 43 49 13
12.607349960606285 0.8112995898296365 2.4454913946750643 51 57 21
12.221706706954299 0.10034970918049389 2.3599243163463663 61 68 36
17.075884212907546 0.6066180465985357 2.7335917666527227 58 63 34
12.578491691099089 1.7151390918355254 2.2269918593120868 39 44 13
12.182017796329193 1.3162208064352967 2.150618463520444 38 43 10
13.089631371507524 2.0743523360696785 2.105849041449594 66 69 66
12.199213160270407 2.895477171713206 2.8471546847751115 55 61 25
12.784171012380025 2.5999410350735435 3.0103483431398073 58 63 31
11.700056112457732 2.3100807582174454 2.544285043844503 47 53 14
12.108147657278257 1.9115761907693294 2.496401299838837 50 55 23
11.868993922295383 1.6338896503881601 2.52367018053618 51 56 23
12.215874973845967 1.9404141483186492 2.250056226966678 45 50 20
11.621364855064018 1.0915150949253591 2.4134373122312107 48 53 20
11.966161022359385 0.9836598602415008 2.381680049223119 48 53 20
12.716163159963367 0.9897125824798813 3.0603541662261553 61 68 37
11.020034637690477 2.5682795776833394 2.642205234239679 49 55 21
11.609498911208087 2.1330122006394836 2.737447521466483 53 59 25
12.805658079732416 -2.4708550584148994 2.998196075672553 59 66 34
11.847769327968008 2.084236193951969 2.2754051340127064 45 50 19
12.001038808692003 1.2889231727822175 2.264596413789971 45 50 17
12.659093768564222 1.4548275212801025 2.7445294888006213 55 60 27
12.240755075787696 2.9242332469364083 2.3583577568597587 43 49 17
12.47600489665978 2.2687296090110616 1.9548233257910275 71 76 66
11.84386281120296 2.494384329807965 2.3926091913270446 44 49 17
11.877491698525201 -3.1284183680555695 2.068864401183323 34 38 23
12.09900554618687 -3.1252946141741225 2.3701949951607633 41 45 25
12.654787724533366 -1.285002550258204 1.5450502497418028 78 78 77
13.570097351615495 -0.7597222903963917 2.0849903266524707 49 52 23
11.62100862102103 -0.4499430483050004 2.182574536994682 53 55 31
10.914692576515593 -0.5622524485739514 2.350557444561799 55 57 31
11.488007523214504 -0.5402131326557156 2.0873954623097353 52 55 23
11.7501858968944 -0.19959438134457297 1.9799141136356673 53 56 23
12.079147515356448 -0.316911648058537 2.1562061976083777 54 57 24
11.303668262083152 -0.35107770309631714 2.202409765623611 55 58 25
13.585973079222281 -0.8918379654671568 2.2633039359924 53 55 31
11.707348200346368 -0.2753183567445015 2.4052376176796892 62 67 40
12.226738087535205 -0.3666294995572254 2.6321636347033706 66 71 42
12.101737749854564 -1.3921782974669539 2.8749972776454227 62 68 39
11.901615221462224 -1.6240249831823184 2.3874043249440993 55 61 38
12.018403880915857 -1.7264155370262915 2.263395247480475 53 59 36
11.990712973188487 -0.8593834906990411 2.6685971909465778 62 67 38
12.354981881879562 -2.584777547785022 2.808085931376886 65 71 40
11.881798322460948 -1.3117433084419776 2.9543977065361555 63 70 40
12.173178694540848 -1.9993863997470873 2.854291173778245 61 66 37
11.996425380786274 -1.3806246449941362 2.379028981493125 51 57 34
12.984731086624231 -2.013173860823106 2.6884444597649675 55 60 31
12.834957339643228 -1.8429142714510502 2.713031825735338 56 61 32
12.860264849089727 -1.001635402465588 2.4222773733364535 56 60 31
12.412142077401354 -1.3209045084512592 2.606031687278877 57 63 34
11.996425380786274 -1.3806246449941362 2.379028981493125 51 57 34
12.07441941184933 -2.0628179602181027 1.8799979969272695 51 56 47
12.091828238194163 -1.5199807475150902 1.9676957332640932 49 53 34
12.6693602357442 -2.6923590112759888 2.742601486576185 60 65 37
11.867458093774525 -0.8441745546227213 2.5238522793537395 57 62 35
12.140126352007606 -1.8613866977569022 2.366717826557484 54 59 33
12.152551181293148 -1.2325113906883474 2.0565967801515646 58 59 45
13.182017050530522 -2.8616036515357877 2.5145334481982364 49 54 29
12.851979895316227 -2.687856295902597 2.5508926264865224 52 57 28
11.56663636039165 -0.14921254497300518 2.4187600639775546 65 72 40
12.382322000802148 0.8893025347681458 2.3469404092194774 48 53 19
13.235131814855665 0.32249168061850425 2.3905099053161827 54 59 25
11.922071151987366 1.513425426089661 2.164965992291565 36 42 9
11.994582256836525 1.7151390918355254 2.1608873117206127 30 35 11
12.069745857208899 2.488335686417871 2.88488201157592 55 60 26
12.548513976497363 1.7511426733661075 2.4511212389260226 48 53 21
12.56438890570876 1.3741423703473312 2.4495932461178485 49 54 21
13.070762844308913 1.6446155458181857 2.675109685822616 52 57 24
12.479221933092681 1.4988771391909697 2.4578700750484463 49 54 21
13.338918470157068 2.6010185685246596 1.5463709925962328 77 81 75
12.216793092979742 2.8738226970445835 2.053822294205017 27 32 16
11.766491047439983 2.8597932042417566 2.53603422270066 45 51 16
12.230795078063755 3.0260762787289055 2.48319343920021 45 51 18
12.567210172734656 2.5126736874135434 1.9518924164741591 22 27 13
12.415648737176287 3.059110658891861 2.1383436714773354 34 37 22
12.320531397328827 -1.6413200519622653 2.6186974704823576 55 62 32
13.139623780551663 -2.3797437684489267 2.3983282187227273 46 50 29
10.986971929386282 -0.2753183567445015 2.3440732968905373 59 64 35
13.75041881601829 -0.8176407894248737 1.996166866149744 52 52 28
12.189542447720132 -1.1077320439980305 2.8497822463912765 63 70 40
12.379409490124866 -1.9700759017845557 2.347171391353621 51 57 30
13.011677037136042 -0.8270423609108103 2.3005006282612537 53 55 29
13.543877872945004 -0.7562317643297031 2.265885027551418 52 55 22
12.13555446953424 1.2129211589932387 2.4934066461951496 49 55 22
12.959655712480059 1.9058142529221915 2.204536397594791 30 34 9
11.321052876180675 2.424915891934278 2.595449349552055 47 53 16
12.16945877680408 -3.101578966820873 2.855327512553769 61 66 31
12.637499878250775 0.47025837889440864 2.127191539763031 46 50 11
12.727406570243199 1.8574907605319502 2.7319190489079266 53 59 23
12.216793092979742 2.8738226970445835 2.053822294205017 27 32 16
13.378041207718168 -2.966599511268924 2.6313802969745494 53 57 28
12.03004444697331 -1.6314654607504955 2.50507746333438 59 64 37
12.354981881879562 -2.584777547785022 2.808085931376886 65 71 40
13.032886331483397 -2.3841970665503616 2.5305012917306415 49 54 30
11.973842210157596 -2.8737766245130847 1.7110795158020056 40 44 31
13.037035404262404 -1.0380725534065427 1.699572627690082 64 64 59
11.864148714946284 -1.198671090156402 2.168268111932461 53 57 38
12.852837339778738 -2.2634871349717423 2.7099970489074003 54 60 30
12.951243803684106 -0.9960112049648947 1.9400390945320063 46 47 32
12.14834653441146 -2.6429090072083707 2.0567795363184596 54 55 44
13.368828217494553 -0.8176407894248737 1.9279789792532211 43 43 19
12.325923187781163 -1.4787641391929958 2.6179390770382627 55 62 33
12.398668547746334 -1.4347359980157692 2.7980604649451264 58 65 35
12.737518412808264 -0.834148201923233 2.433350074740399 54 59 29
12.02458077218286 0.08144927341024014 2.0622244207324925 52 55 19
11.665377367487274 -0.01436825761820191 2.179908640215724 56 62 26
11.469612525330387 2.6008984488617375 2.4284028579599943 45 50 17
10.62635819224902 2.218286733888267 2.377756201720842 45 51 22
13.059487202274706 0.3222994892015916 1.9368334967338283 47 50 14
12.770613842568418 1.7767307947005426 2.5604624533791744 51 56 23
11.869590098350242 -1.8063939789727297 2.069226442889923 49 53 39
11.968677539479968 -0.6216837199252196 2.064726019053233 50 53 22
13.000694851086047 1.7211124148948969 2.9170150771954635 59 64 32
12.02458077218286 0.08144927341024014 2.0622244207324925 52 55 19
12.034978080593293 -1.4010157032548316 2.2622531308730123 49 53 34
11.422951915958437 -0.40820386383847385 1.992368934883506 52 54 28
12.786150162153477 -2.6854970917661416 2.316389691912094 46 49 29
13.096945102886304 2.6656606485635828 2.196854808783114 30 34 18
13.389371934327526 0.39796827474028895 1.9274064441176868 44 47 11
12.509365701748454 1.513425426089661 2.2312539871436554 40 45 11
12.63760023114291 1.8387804421202485 2.327299042320418 46 51 20
