6.007605433513262 1.0567605176736166 2.085638511878721 61 75 34
6.485023938641957 1.2950963308096484 2.0444580004192057 64 78 39
5.8500440984243225 1.2950963308096484 1.7353191854528487 59 70 35
6.193949646097981 1.1371975684530664 1.7261080038202206 53 66 29
6.013559525340687 0.509379358220623 2.085078461821997 61 77 31
6.5014695930754725 0.6607546133479187 2.043161842253684 60 76 31
6.886455419801275 0.9993129211737742 1.8591195930423305 59 73 32
8.193996806779259 -0.3125969071920447 1.8121026218633052 59 80 33
7.18802074290888 -0.5540716063395803 1.9949351685769758 64 84 42
8.256152381103616 -0.18883333287925008 1.937236263031942 62 81 37
7.9528480668486266 -0.18883333287925008 1.8195719279768512 61 80 35
4.892360616875435 -1.4430913512842378 1.9825776075125738 72 97 63
6.671070188890687 -0.7716372282700004 1.8687091418161565 66 88 47
5.5671759839317865 -1.2312026843752268 2.130991987365804 73 96 61
5.37135477986502 -1.4430913512842378 2.1540267912523245 71 96 64
5.997581176238685 -1.2899961891786318 1.9033804136851322 70 94 56
6.920202958815332 0.32753552547052467 2.369527830351663 62 80 37
6.242831827429878 0.32753552547052467 2.2575472027147727 61 78 35
6.507203116711393 1.350768568537662 2.7278454112503705 63 80 39
6.622191588226487 0.6206927776047692 2.416916824495946 61 78 36
7.210784818316638 0.509379358220623 2.328973707461828 61 78 34
6.507203116711393 1.350768568537662 2.7278454112503705 63 80 39
6.140962885923476 0.781906096771781 2.510505253125129 61 78 36
5.910766588654355 0.6206927776047692 2.3045303371752457 61 76 33
6.2342270206910975 1.2385480110978717 2.258679381265693 61 75 35
6.960596318348573 1.4114546987602177 2.59823934476158 61 78 36
6.298860024343354 1.1544912449982794 2.4769661124022138 59 76 33
5.907738493326683 0.944411606850609 2.3049925945327674 60 75 32
7.25879540082117 -0.41385347951871704 2.147528295569873 64 84 43
7.471197216400197 -0.08004683094300134 2.2964607007364113 63 82 41
7.647669098634809 -0.3065595818484863 2.463989951478201 66 86 46
6.766313640848112 0.12041754120333766 2.3931753562897726 63 81 39
7.833729306519337 -0.12449861216464608 2.6642676387081132 66 86 46
8.734046863478861 -0.12449861216464608 2.7168912320574705 67 88 50
8.734046863478861 -0.12449861216464608 2.7168912320574705 67 88 50
7.9536850668699905 -0.38496357178983975 2.635883070369344 68 88 49
7.833729306519337 -0.12449861216464608 2.6642676387081132 66 86 46
7.505710958753744 -0.7716372282700004 2.126273859289758 68 92 52
7.754510233895317 -0.7677162840474777 2.4470457869087303 71 93 55
8.194809176428787 -0.6007329599582978 2.585056405047854 69 91 53
5.569808224535933 1.6478976057849566 1.5632789204752089 52 66 26
6.306468342502253 1.6478976057849566 2.0590256548432 58 74 30
6.0591490264285515 1.8226654620094465 1.8998727250613476 59 73 32
5.779863832669391 2.2162867508844344 1.7373354152853255 60 74 33
5.6782357461466315 2.4654898366196685 1.5634224701075228 62 77 37
5.5287846441512505 -1.881721751331701 2.1353533356569088 73 98 64
5.432237440584645 -2.070736003812108 1.9395623729095952 76 99 66
5.064701360966673 -1.881721751331701 1.9677633188164982 71 96 61
4.6595404992843665 -2.825836022033005 1.5618103161163794 77 96 63
5.150890416363354 -2.1846647512763284 2.1825388660683065 76 100 65
5.24150894789571 -2.353592104165597 1.953663226459797 79 102 67
5.519066674841517 -2.825836022033005 2.1364688723460654 77 97 62
5.147415324351147 -2.5218051146961873 2.1830125478898674 79 100 67
5.519066674841517 -2.825836022033005 2.1364688723460654 77 97 62
7.424146813127782 1.7372726226065043 2.7853951166485595 66 86 44
6.465384098910764 2.618668287994132 2.2296405173062523 67 83 45
7.047659089209479 2.7163032287734183 2.5781202575536 69 87 48
6.88155923584734 1.8749126279375101 2.375312373514608 63 77 36
6.88155923584734 1.8749126279375101 2.375312373514608 63 77 36
5.965632752416938 3.0173534582439867 2.296268371339427 76 93 57
5.956724387768872 -3.0410308997732636 2.2975953684761357 77 95 59
5.707592226357129 -2.6043593813191532 2.6233484842126096 74 97 64
5.710726449620148 -2.099372553305379 2.6223868266556405 72 97 65
4.867867789573393 -2.099372553305379 2.520277629758959 74 97 64
5.266110934720704 -1.6946199466469025 2.421315514389297 71 96 62
5.664010918829622 1.4683314023946952 1.7407746891202294 52 65 26
6.485023938641957 1.2950963308096484 2.0444580004192057 64 78 39
6.317716297830347 1.4683314023946952 2.0580803023330883 58 72 32
6.796876617215242 1.1371975684530664 2.0210778411321106 63 76 36
5.841841371074439 0.782886444564324 2.1017656350347016 60 75 32
14.753151609303783 -0.5348028875369816 1.4319483200549632 43 59 6
7.349969787360685 -0.2167355278002313 1.9850079023771718 62 82 37
7.61024619642792 -0.35647001881184454 1.9700204250445659 62 83 38
7.392237396755741 -0.6736561157337816 1.8388861890798438 61 83 42
5.5671759839317865 -1.2312026843752268 2.130991987365804 73 96 61
6.671070188890687 -0.7716372282700004 1.8687091418161565 66 88 47
6.298860024343354 1.1544912449982794 2.4769661124022138 59 76 33
6.507203116711393 1.350768568537662 2.7278454112503705 63 80 39
6.669759266047503 1.019181972873875 2.6754422058179057 62 79 37
6.140962885923476 0.781906096771781 2.510505253125129 61 78 36
7.008205582776488 0.2718806192680609 2.170969111467292 61 79 35
7.529891104919926 0.12041754120333766 2.4836692954963624 64 83 41
8.713734041088149 -0.7606712169343087 2.7220757871706613 69 92 56
7.898141169752824 -0.4914940784265237 2.4254919687249354 68 89 50
7.522835326330292 -0.09745789870442952 2.48488393527845 65 84 43
7.573517377470674 -0.6461068331364384 2.2845379863531647 70 91 52
7.173867448714083 -0.4914940784265237 2.333858311726993 67 87 47
5.756139048926847 2.3384219994427475 2.1105313384724114 63 77 38
5.827907654346889 1.8226654620094465 1.3910575290640124 55 69 28
5.948221727570162 2.0608698431635264 2.0912955574889605 62 76 34
5.4256454446316305 -2.6368542051161947 1.940031933668597 81 102 69
5.6965733191434085 -2.2276653314237183 1.739793684761605 79 102 69
4.6595404992843665 -2.825836022033005 1.5618103161163794 77 96 63
4.761687552357033 -1.9638051390707962 2.2411148391722087 74 99 65
5.064701360966673 -1.881721751331701 1.9677633188164982 71 96 61
5.358120557274792 -1.6669709154269394 2.1556573223778996 72 97 63
6.496283255620124 1.7372726226065043 2.731690459617707 64 82 40
7.082789604190681 1.953184078996913 2.570317766261531 63 80 38
7.390639076789016 2.9177017297039614 2.7977872302154534 67 87 49
5.433079512749585 -2.7423012091830046 2.3869614064409945 78 99 66
6.745209691430199 1.664740816022084 2.3965506344776655 62 76 35
5.8500440984243225 1.2950963308096484 1.7353191854528487 59 70 35
6.333480577886118 -1.129789048484991 1.885117753151238 66 90 49
6.507203116711393 1.350768568537662 2.7278454112503705 63 80 39
7.596879566076904 -0.25410509964816125 2.2818777232701133 64 84 42
4.790219571658894 2.804323838036393 1.7721725643608868 69 85 47
4.565084319027928 3.0173534582439867 1.7822507885989354 72 89 53
5.612388106210468 -2.48025181374255 1.5633359543486343 83 105 70
5.358120557274792 -1.6669709154269394 2.1556573223778996 72 97 63
5.249203801709178 -2.352524663329718 2.4249935215635583 75 98 65
7.390639076789016 2.9177017297039614 2.7977872302154534 67 87 49
5.358974275666975 -2.3499725893724803 2.7523620044384582 73 96 65
5.358974275666975 -2.3499725893724803 2.7523620044384582 73 96 65
6.9503888266858596 1.6909546974251268 2.6006757660275346 62 79 37
15.07650717946555 -0.6846785085922342 1.4349449457041807 55 71 23
7.02989596158656 -0.7716372282700004 2.005115452754679 65 87 47
6.755727203362488 1.446039105696446 2.394864332585862 60 75 34
6.563471484697767 0.509379358220623 2.218120836272471 61 77 32
6.2342270206910975 1.2385480110978717 2.258679381265693 61 75 35
8.841796531733564 -0.38496357178983975 2.6906989679338205 68 89 52
7.471197216400197 -0.08004683094300134 2.2964607007364113 63 82 41
7.478301715711615 0.09895851366921815 2.295618219362936 62 80 38
7.522835326330292 -0.09745789870442952 2.48488393527845 65 84 43
4.693606691988467 2.804323838036393 1.561875538309422 66 82 43
5.160674609337694 2.0608698431635264 1.5626829347046034 59 73 31
4.553436738878168 -3.0410308997732636 1.7827999248749973 76 93 58
12.741739454149497 -1.7798922070420848 1.163969481173142 59 75 26
5.439662499815307 -1.9638051390707962 2.385675246646011 72 97 63
5.793913090597884 1.019181972873875 2.5977912670474375 60 76 32
5.906346737266883 2.618668287994132 2.0953643804603255 66 81 42
5.5287846441512505 -1.881721751331701 2.1353533356569088 73 98 64
6.960021961260272 -0.6461068331364384 2.1757148114283233 68 88 47
6.563471484697767 0.509379358220623 2.218120836272471 61 77 32
7.117827793079389 0.4102442595847127 2.5627043568456727 61 80 38
6.452096301985508 1.8226654620094465 2.0470756660697864 60 74 33
