24.48641584206863 1.12339388107043 1.74825936268762 37 47 20
24.623880626546082 1.2157543047970452 1.7472582179966683 43 51 23
18.815299566658336 0.9547888037236657 1.8576022319411631 48 65 35
12.583389197507781 0.39242667079033156 1.7564423697827283 42 62 23
12.242650277972398 0.31548219129754906 1.761672073215956 40 57 19
18.730908788462273 0.9212689892564621 1.9724489492979558 50 67 37
18.638949291460705 0.8766716305854019 1.8603939026360028 48 65 35
13.035501425861288 0.673868188925679 2.1672929508419614 43 64 25
12.715105515381024 0.5461217859834736 2.091229357806032 42 63 24
12.296939066290237 0.46501009325793446 2.1108306557476384 42 62 23
12.286753893673312 0.34350416646629456 2.018840066547241 42 59 21
13.108674530546395 0.4166612188701018 2.361975287415007 41 61 21
13.157143368502247 0.5971112911465328 2.255648287325465 42 63 24
13.81432445590324 -0.1675069300021926 1.7397329913137485 49 65 21
12.791876198290026 0.2162159794685639 1.6743799794013434 28 46 3
14.279956737978253 -0.3079278633611291 1.734174002924061 51 66 26
14.999958956747006 -0.43689849538153935 1.7262663721514617 60 77 39
13.35185655723638 -0.18070511538766462 1.9004864017191285 45 61 15
12.239098674040575 0.06376177061025515 1.9317692142732752 32 48 3
12.608792985396848 -0.023658796379136843 2.006599702979739 33 49 3
13.278323882173915 0.07724009428247872 2.349133360356182 34 52 10
13.31898980349014 -0.13395403039777984 2.3461273985819906 33 50 4
12.339154518042136 0.15021961085071991 1.9287097875873433 35 51 6
12.316300076409693 0.16437919159686848 2.1098885553137308 39 57 17
13.255511566026634 -0.19613204507595028 2.068015809646489 42 56 11
12.49601718306226 0.25603478334409285 2.10130724459336 40 57 19
13.982131787234776 -0.0286756201527475 2.4013059270233947 33 50 6
13.602333334523411 0.3132444467093596 2.4324017005679703 39 59 19
13.437420670510724 0.20243209892299063 2.4468251453960557 43 58 17
13.386062926589547 -0.1496257949933772 2.4514416641806456 47 65 22
13.51767298048733 -0.2631690747722082 2.4397314871230558 50 66 21
13.34560138806232 0.08636270032047774 2.4551221906747345 43 61 20
14.525666253885154 -0.6569481359766478 2.180912197942861 41 59 15
14.518476896988842 -0.7118463091509148 2.2680619329191276 48 66 22
14.051838953904783 -0.586951024483186 2.204685302237772 43 61 16
14.216960062374744 -0.566644014890444 1.879736966192839 43 61 19
13.309578095481507 -0.35763865306824194 1.9822172439386225 41 59 15
13.78089781923875 -0.6088863127095545 1.9673423549202858 42 60 16
13.929030683569499 -0.42534068409286424 2.3040587894297317 42 60 16
13.736298714060409 -0.30392802149765225 2.2216781559763383 36 52 6
14.079292359535877 -0.5018694881381407 1.9584842099542865 43 61 19
14.083003702172777 -0.4321459265246319 2.0363939094446124 42 60 16
13.655661596972829 -0.33392486149014683 2.3222417793801506 40 56 10
13.78848013975989 -0.46800121916336274 2.1306602891032007 37 55 11
13.462889326212554 -0.2787466319884888 2.0596750610606716 42 56 11
13.438057241721024 -0.3887116366179222 2.14708957428382 36 54 10
13.993180020029808 -0.4690316642667078 2.400442137847543 49 67 22
13.035013102207206 1.6937382827720306 1.7499392937237181 49 68 38
13.434672866268937 1.2616350810922632 2.147253297395918 48 67 37
13.904023924111419 1.232135452970837 2.305680105106155 46 65 33
14.297729740638866 0.9361610165439583 2.2810654695300423 43 64 29
13.547349925100551 1.1437838519950074 2.2323438860918583 46 65 33
14.225404607663075 1.101458824786353 2.3827745401736413 44 65 28
15.52963529897316 0.6344079464970458 2.601938181305037 43 63 22
14.408719579894674 0.8771483464658826 2.3694502932557393 42 62 25
15.484658201347647 0.8125083656416087 2.6068074369266823 42 63 24
12.976453093824304 1.704100672841878 1.9934460155623872 47 62 32
13.653845448775064 1.438569688726443 2.2262854096427054 48 67 37
13.585778033122264 1.53101477684583 2.2301434920008374 49 68 38
13.566548102351689 1.7310745059043984 2.328396576036781 42 62 26
13.107435217894261 1.3667577602540286 1.9889561540818406 50 69 39
13.450296362834075 1.5372598994937547 1.8979831400205782 51 70 40
12.737776322234696 0.0979209794841318 2.515626448556537 48 67 27
13.216071402756945 -0.3395727666433881 2.5997003613652896 49 67 24
13.02240143204032 -0.04204744717447809 2.624936177120102 48 67 25
12.917946896996796 -0.2966714095116156 2.4965839849358673 49 65 19
12.719738510207863 -0.03639145131043135 2.517590646649726 49 67 25
13.651207476461916 0.22879991361484212 2.548874981939621 51 66 26
12.780162358156764 -0.16941068752245889 2.5110534031995884 48 66 24
13.543894190039063 -0.03639145131043135 2.560744338250691 48 66 25
14.530694425762462 -0.6171538239212112 2.464222519947795 50 68 21
13.702049028825366 -0.5864596683465426 2.5433880053886115 49 69 25
14.045887288495384 -0.6868369495183259 2.5083608883256567 52 70 23
14.19860128189049 -0.521817934728107 2.4938519232065772 47 67 23
13.9305231857716 -0.4147879804194829 2.519730558030661 49 68 26
13.424058456947812 -0.47070113841787836 2.5744888994383137 49 68 26
14.922529364275563 -0.7011543552969611 2.432208034087948 52 70 22
14.648459396726318 -0.7747392931772508 2.3527861332561137 50 68 22
14.16546125049037 -1.023846537965369 2.4969502018097782 54 72 30
13.885465842577126 -1.1303120587358901 2.5242724100074283 56 74 34
14.459534605590079 -0.7707542173395431 2.5910045647673066 52 70 28
14.244672042398973 -1.0706084667648514 2.6160893818303554 55 75 33
14.517741297091328 -0.9560375908333522 2.5845080997298395 52 72 30
14.178736211833462 -0.7011543552969611 2.3862521542223782 50 68 22
14.045887288495384 -0.6868369495183259 2.5083608883256567 52 70 23
14.99564377742409 -0.8721444571076543 2.6647215045360273 52 71 31
13.531367267125665 -1.3769761210721094 2.562156270440994 59 76 38
13.462680615095636 -1.5121234678523354 2.5700002640019814 60 77 39
14.393777470123837 -1.7838602929283924 2.598491784463653 58 78 38
21.16306619934486 1.3266941055026311 2.8588327494785064 40 61 22
20.870123198411335 1.4807442195964318 2.912039370137093 46 68 27
20.666466665824835 1.4567858389862238 2.9589331405847297 47 71 26
13.993163501302071 -0.6705603863747749 1.8848455652895761 40 58 16
13.623502342030601 -0.7201333646885959 1.9721849422814688 40 58 16
14.721507043267769 -0.928758229387854 1.8688172820690312 38 56 17
13.91025866521491 -0.7770194531172746 1.886781964728156 39 57 15
14.595756173147336 -0.8281864554023842 1.8714648013950477 41 57 16
16.34943987724278 -1.6671714375296778 1.5905329038675238 49 69 19
13.586652339893094 -1.216699468029919 2.3269978563843607 57 72 31
14.223409695029481 -1.0411674298478084 2.285567849519998 57 72 31
14.507682198318681 -0.8390708825161954 2.268685345341649 52 70 26
14.693111814096625 -1.1965082290714733 2.172967197629158 56 72 28
14.287684344844147 -1.2487304791796077 2.2816702740178036 57 72 31
13.656229416460299 -1.2487304791796077 2.2261511893510675 57 72 31
13.954318355777076 -0.895349067566075 2.1232288820343426 51 67 23
14.42336313096837 -1.2756037290921614 2.185879410855568 57 73 29
14.507682198318681 -0.8390708825161954 2.268685345341649 52 70 26
15.29884842224752 -1.026501306913453 1.9261399353767554 52 70 28
14.959378825720638 -1.2245395849322886 2.082316052139271 50 68 22
14.163985344677894 -0.9447002296009984 2.0335233092791856 50 66 23
15.226488575375685 -1.0883014210674076 1.99900393827452 52 70 25
14.694518844713864 -1.2984412082852508 2.0924632282251214 54 70 26
15.285193673133064 -1.1543732092322816 2.070389992722127 54 69 27
14.694518844713864 -1.2984412082852508 2.0924632282251214 54 70 26
14.289886753313752 -1.0846735793637514 2.1924941748066598 56 71 30
14.905008654040838 -0.9881281880179997 2.0088713733384598 54 72 28
14.898010115970775 -1.0411674298478084 2.3362838087418547 55 73 31
14.705918334349391 -0.9101652975844362 2.348912919183714 55 72 29
14.563535787774873 -1.125270762531909 2.358594554432445 55 73 31
13.948325078984121 -1.0793166564061083 2.4039626716623115 56 71 30
13.663880917779153 -1.1779576055126006 2.4271685022604554 57 72 31
14.375612342046873 -1.698290351991601 2.105261425932356 53 71 25
13.154266588594673 -1.5247612460979216 2.3584752192415013 57 75 31
13.369479833985851 -1.3147354743768354 2.3424328464792628 56 74 32
13.882413365219758 -1.6265235957041722 2.3070878580942513 56 74 30
14.6327145037885 -1.5329217951582688 2.2615403620029957 57 73 29
14.098324373447266 -1.709463958982786 2.202263700645526 55 73 29
14.300781831164983 -1.6174548497494978 2.108361622242397 53 71 24
14.909847493241482 -1.698290351991601 2.1630098171859347 53 71 24
14.837711516453183 -1.6174548497494978 2.166284193282026 53 71 23
15.023983338874936 -1.3755186079311144 2.157907607691782 54 72 26
13.963229927176265 -1.7388684265199665 2.4027888137296576 57 75 31
13.303885905543279 -1.399927941408279 2.458957771513239 59 77 37
14.085038625941474 -1.3147354743768354 2.3933436189768496 56 74 32
13.94755112270592 -1.4180574470065075 2.404023735941229 57 75 33
13.886177327578636 -1.6325203907175623 2.4089010036248473 55 75 31
14.717918061400526 -1.7388684265199665 2.4485588252101538 58 76 36
14.033190681491 -1.639961137669381 2.5095944340285903 55 75 35
14.10944045415401 -1.7587401339045365 2.502250270853005 59 77 35
13.963229927176265 -1.7388684265199665 2.4027888137296576 57 75 31
14.768754267032405 -1.4636705339390232 2.013197447277532 51 69 22
15.729168659716434 -1.4636705339390232 2.128362734490013 51 69 23
14.384310488020434 -1.6887754215452853 1.949840230177322 52 72 23
14.384310488020434 -1.6887754215452853 1.949840230177322 52 72 23
15.349773791058448 -1.3899024598164502 2.068095223584603 51 69 22
12.6521616693958 2.120427857026867 1.675528004111125 37 54 16
13.054199084510566 1.7702316336871193 1.6722912243928898 46 62 28
12.202812838322492 2.1649310849681873 1.8465648329255135 36 56 17
13.310921099308235 1.9425333326487697 1.9015389031693404 36 52 21
12.338583167813521 2.2853632102250514 1.9287271071259067 43 63 20
12.411825654057271 2.0909617730673014 2.0140023019608204 38 59 21
13.286466211458299 2.1389702545042844 2.2477243810558787 43 65 22
13.135227600710019 1.7867303849944165 1.9880161287735767 44 58 26
13.771615331308016 1.9736813326665472 2.131428008249051 37 54 18
13.718494692919268 1.8293225219688096 2.3179710299813467 35 55 18
12.532840095032373 2.3459570450729714 2.0995846061008527 47 69 27
14.419469392475644 2.583324349864206 2.4738706519218 48 73 25
14.936774141568618 2.6839706100708556 2.540977483347157 50 72 29
12.871398411108062 2.802470364862478 2.0842837245085173 47 67 27
13.537978793907124 2.6827087579031716 2.2328829457676944 45 67 25
13.51947937832504 2.637453164619689 2.3316949039970734 46 70 24
13.251045183881347 2.5524354006918775 2.249874304051379 48 70 26
12.062553895976032 3.0786324225007204 1.849856741888849 51 73 32
12.345995392343315 2.9099653191058965 1.8432845095317896 48 68 29
12.641072493914269 -3.040891904522495 1.5963239138224368 55 75 33
12.252657380816329 -2.9478709611187393 1.84541384674023 56 76 36
12.476714913167445 -2.8661834248620828 1.8403580002438245 56 76 36
13.57537555365601 -2.6450544546272314 1.8180648443736673 56 74 34
13.143440161921808 -2.714250968565861 1.8263694435174358 54 74 34
15.565774826584251 2.795646395962125 2.598074365426614 52 71 31
16.20373643371118 -3.1059015703651776 2.654956570207245 52 77 37
16.251211540865537 -2.9753848052094236 2.649463482459573 57 82 42
16.3597884668092 -2.8503150822380023 2.637223685458533 66 90 50
15.565774826584251 2.795646395962125 2.598074365426614 52 71 31
15.99352365142219 2.747984867359965 2.6804144158383965 49 73 30
15.775753644570049 3.0310447102014764 2.7090211580798464 50 74 33
14.605790594430786 -2.533588452736312 2.457855288442749 69 94 56
14.234448772776071 -2.3058542246598734 2.382104697968254 63 80 42
15.020600438668897 -2.1322523247859504 2.5328786592641612 60 78 39
14.746951153099692 -2.027569049628383 2.5600338411703514 58 78 39
15.669657263278495 -2.733931075108415 2.587200001097558 80 105 67
12.147772517105691 2.8889408656411595 2.0243463847142174 49 69 30
12.356833360089372 -3.118231951601355 1.928174729429578 52 74 33
12.340798331381217 3.072695590153373 2.1087014709574934 51 74 34
12.147772517105691 2.8889408656411595 2.0243463847142174 49 69 30
12.923708050876673 -3.0220099882743177 2.173178319446051 54 78 37
11.962824886293806 2.9794415026391583 2.0318962832657568 49 70 31
15.029154912396475 3.056692310375814 2.532062513289768 49 73 33
15.844924158117708 -3.110061857830765 2.569584662286904 52 77 37
15.65576478082777 -3.0096559865129584 2.4768905137657113 60 84 43
15.65576478082777 -3.0096559865129584 2.4768905137657113 60 84 43
14.184143271570655 2.962845068400836 2.3858474029385093 51 71 32
15.257584773326574 2.833344244508 2.510938010930825 50 69 29
15.768442313855521 -2.908726426475222 2.467824465389538 62 86 46
15.893471103232429 -2.994475869506167 2.564857518374005 57 82 42
14.117009536213741 -2.7577293228713944 2.2012960145209393 60 83 43
14.117009536213741 -2.7577293228713944 2.2012960145209393 60 83 43
14.304604871092321 -2.5392084294520396 2.0286253968180175 59 78 39
13.899116458085489 -2.6791614337359086 2.1256790635819542 59 79 40
12.583878259774407 -2.7577293228713944 2.0075218654828997 58 78 39
13.030359713357042 -2.60629056973044 1.9089412736376963 59 77 37
13.891594525293677 -2.5392084294520396 1.9640079980396565 59 76 37
14.15011283647173 -2.561701099094056 2.199589567184384 62 82 43
14.132414730737244 -2.510090296173696 2.291169417807798 64 84 45
14.603627914129458 -2.4382233504298667 2.2631878300617094 63 83 44
13.756765933512304 -2.8123938309218808 2.3153970429174224 61 84 44
14.41629862522575 -2.590382059015473 2.368910589274707 67 87 48
16.30688989426323 -3.093110267030922 2.792382842214525 53 78 38
16.76242592777943 2.8842861127561013 2.724097879007458 50 72 32
16.826827731792477 -2.8090068160396853 2.715551658039523 64 90 50
16.341854697246088 -1.9207271603304137 1.467974571977264 51 69 25
15.495054083957164 -1.9431071724107092 1.721260350530776 52 70 24
15.542026040897468 -1.7377201072548227 1.6560016141481755 50 68 24
15.853888000899838 -1.8006393490743664 1.7178297266046996 52 70 26
16.309266725841198 -1.9207271603304137 1.651984231803037 52 70 24
15.155959014006598 -2.2749345322084866 1.7918228903180886 56 74 29
14.241015386471876 -2.206155586911962 2.0308268276595416 57 77 34
14.249795691331611 -2.162434787500269 1.879001616324611 59 77 31
14.90291690288019 -2.0625741868250387 1.9360172484150306 58 76 30
15.003194256141127 -1.927531585162 2.0806774182499606 56 74 28
14.72922159047362 -1.8541448126363496 2.0911095518027807 55 73 26
14.948269029355595 -2.067956580825529 2.2442144800573045 58 77 33
14.089535547159082 -2.242330313812148 2.293843781248556 59 77 36
14.152941069792217 -1.9971184596564742 1.8811809775690447 55 73 27
14.489688160478822 -1.9971184596564742 1.946945186747325 55 73 27
14.041323918068885 -1.7774880217835205 2.0378858944253664 54 72 26
14.244599656191435 -1.795241267691794 2.1947738903559233 55 73 28
14.089535547159082 -2.242330313812148 2.293843781248556 59 77 36
14.604960723937594 -1.9896962671752196 2.26311214683193 57 75 31
14.54994518824576 -2.0300143920886597 2.0981838650430893 57 78 31
14.498325839360865 -2.0987737181865436 2.022052090595638 57 78 31
14.085825925537081 -2.1875528662574433 2.2029127994655715 60 78 36
14.107201681952944 -1.8162637680630866 2.292739216717979 57 75 31
14.748353047307127 -2.0758845844995504 2.446077586378596 59 77 37
14.951764675252166 -2.1120636020393424 2.3328347084604553 60 78 38
15.063493967687696 -1.9386649481665343 2.4213752121771916 57 75 35
15.264775479668558 -1.9785934308240793 2.5102931049183694 58 76 36
14.951764675252166 -2.1120636020393424 2.3328347084604553 60 78 38
15.063493967687696 -1.9386649481665343 2.4213752121771916 57 75 35
15.028191609697865 -1.9683837166000595 1.862554776498718 52 72 24
14.737711038972044 -1.8338004965558135 1.940307106046733 53 72 23
14.53139457602794 -2.3741541761091254 2.1806366404389705 62 79 41
14.690391879196916 -2.3210603043801257 1.8694679505233323 58 76 32
14.805490416427444 -2.2210845133410286 1.8670753461786505 56 76 32
14.121316735034965 -2.31712603507124 2.0350311886075554 59 77 37
14.142724398949035 -2.4290635608616924 2.034273377135734 57 76 36
18.595878281819175 1.0014772564937309 1.9177167933719432 49 66 36
17.91580482938949 1.7812049337388594 1.8724431192682809 8 15 7
12.352816393532054 0.5024538388071927 1.8431302118461421 43 64 27
13.157143368502247 0.5971112911465328 2.255648287325465 42 63 24
14.999958956747006 -0.43689849538153935 1.7262663721514617 60 77 39
14.999958956747006 -0.43689849538153935 1.7262663721514617 60 77 39
13.533111254590187 -0.2143947046781087 2.233163327468476 32 47 2
12.762341938996165 0.06985778636469132 2.181899039465729 34 50 6
12.80464665789043 -0.12123933053389238 2.179586355998033 28 44 0
12.669745959622665 -0.11072007738231805 2.0043606026994794 38 54 6
13.278323882173915 0.07724009428247872 2.349133360356182 34 52 10
12.858326859863157 0.16437919159686848 2.1766790044514908 36 54 10
14.008094249207485 -0.3887116366179222 2.20698278935146 35 53 7
13.462889326212554 -0.2787466319884888 2.0596750610606716 42 56 11
14.216960062374744 -0.566644014890444 1.879736966192839 43 61 19
13.711953348608873 -0.5414175638497051 2.0500372962764146 38 56 12
13.721089058095181 -0.3701911026282419 2.4223741774836363 50 68 24
14.330034515162323 -0.5588966602667912 2.375105198819361 49 67 19
13.168561782191347 1.6157740371017248 1.8258710197809824 50 69 39
13.758790311214565 1.2865361723561641 2.0482691540006615 48 67 37
14.526876568271616 1.0619925852982852 2.2675777031088034 44 65 28
14.593395881191315 1.232135452970837 2.35654068952471 47 66 34
14.567644525642777 1.0145839979085207 2.358311192203896 41 62 25
15.032745867718983 0.7280878138088693 2.531720476179664 41 62 23
14.74457158486407 0.9586524798521805 2.4463849149871972 41 61 24
13.794260629435838 1.3483373316315626 2.218481897679956 50 69 39
12.833944970370599 0.22879991361484212 2.5053346885810037 50 65 26
13.730210271388348 -0.2966714095116156 2.540385036441586 50 67 21
13.081427337641252 -0.19514864193778228 2.617048675175241 48 67 25
12.719738510207863 -0.03639145131043135 2.517590646649726 49 67 25
13.543894190039063 -0.03639145131043135 2.560744338250691 48 66 25
14.509115176774644 -0.9295645107693385 2.4660737753341717 52 72 30
13.885465842577126 -1.1303120587358901 2.5242724100074283 56 74 34
14.459534605590079 -0.7707542173395431 2.5910045647673066 52 70 28
14.450873740154895 -0.7730605547871431 2.471119539174369 52 70 23
14.19860128189049 -0.521817934728107 2.4938519232065772 47 67 23
13.130657034833071 -0.4147879804194829 2.4753503761495534 48 66 22
14.511972745099714 -1.2486003984430558 2.585146580487163 58 75 37
20.87361759597744 1.6913470420960897 2.911324045238036 45 69 26
20.51071053772058 1.3618338614158065 2.799565288657519 37 58 19
20.666466665824835 1.4567858389862238 2.9589331405847297 47 71 26
14.033239450862235 -0.8330150469421842 2.0381764456914158 44 62 19
14.522068041058446 -0.7201333646885959 2.099302253085302 37 55 13
14.445817785029407 -0.7760159182507037 2.1847816304186125 47 65 21
14.721507043267769 -0.928758229387854 1.8688172820690312 38 56 17
21.153926950967623 -0.9185319233163162 1.8251456737951106 57 71 30
13.893751452194724 -0.7760159182507037 2.125918430987972 46 64 20
15.045533944925033 -0.928758229387854 1.9323952028150542 46 63 21
16.5104460395652 -1.6671714375296778 1.7119427939115093 51 69 26
14.637752659037488 -0.9447002296009984 2.094693684712742 56 72 28
14.15661231133321 -1.0116325444089342 2.1144435612894243 56 72 28
14.694518844713864 -1.2984412082852508 2.0924632282251214 54 70 26
14.839158745465907 -1.0883014210674076 1.9376606849454248 52 70 25
14.959378825720638 -1.2245395849322886 2.082316052139271 50 68 22
14.507682198318681 -0.8390708825161954 2.268685345341649 52 70 26
13.586652339893094 -1.216699468029919 2.3269978563843607 57 72 31
13.872680079166049 -1.125270762531909 2.307723924014633 57 72 31
14.694518844713864 -1.2984412082852508 2.0924632282251214 54 70 26
14.898002358241628 -1.0525311455484796 2.0846302181243033 55 71 27
14.022079446132256 -0.9101652975844362 2.298097099611569 56 74 28
14.504079523957595 -0.895349067566075 2.1819530493367836 55 71 27
14.494700531311608 -1.122031495598261 2.100405094878951 55 71 27
14.29134156991678 -1.216699468029919 2.377921145514595 55 73 31
13.663880917779153 -1.1779576055126006 2.4271685022604554 57 72 31
13.224555200746309 -1.4180574470065075 2.3531501298464415 56 74 30
13.959486740889295 -1.7227676849444664 2.3020951858984993 56 74 30
14.909847493241482 -1.698290351991601 2.1630098171859347 53 71 24
14.832795212610991 -1.5360058527685416 2.1665087775368534 54 72 24
14.895165141515673 -1.4550150314182106 2.163673119360211 53 71 23
13.886177327578636 -1.6325203907175623 2.4089010036248473 55 75 31
14.229997646675494 -1.2853465511106186 2.4909415531335712 57 75 35
13.880924016315594 -1.5247612460979216 2.409321712457336 57 75 33
14.10944045415401 -1.7587401339045365 2.502250270853005 59 77 35
14.710806947698405 -1.6139434048415784 2.0150642923863034 52 70 22
14.705848218522444 -1.538625630249097 2.0152248047063948 52 70 23
12.546281852822023 2.232189616962263 1.7569978683821679 36 56 17
13.210322249435556 2.049841810674167 1.9854979030150481 38 55 18
12.62479344340481 2.2161815279397725 2.095334160888915 45 66 22
14.22985717047497 2.010159159913038 2.2851746938544206 40 61 24
13.001336519211295 1.866475649812639 1.9097263811788328 7 21 2
13.472621111249515 1.8922450195784009 2.1454232066929584 28 45 9
14.622613600654326 2.1389702545042844 2.354543181800034 42 64 23
13.345064467007568 2.6022616293602883 2.1516248736472914 43 67 22
12.599950484294178 2.4760763776886945 2.096475352806032 48 70 28
13.57537555365601 -2.6450544546272314 1.8180648443736673 56 74 34
12.775336283528391 -2.7880935032972327 1.8339055605489993 56 74 35
12.645205958248475 -3.1200893692415006 1.6755858252940476 50 72 31
12.164062000850887 2.99323863034412 1.8474664276085893 49 70 31
13.147586137887295 2.8889408656411595 2.1615156448495525 49 69 30
15.429843006590978 -2.721994110697061 2.3947180733624718 64 88 48
14.113229597159219 -2.465734547079828 2.501889264152048 65 86 49
13.844991759674468 -2.533588452736312 2.4122132189127656 66 87 50
13.549143031768729 -2.4500093075187586 2.3296123601130514 65 85 46
15.99352365142219 2.747984867359965 2.6804144158383965 49 73 30
13.539980664397579 -2.5392084294520396 1.8957360246548878 59 74 33
14.039945834229888 -2.376573444841659 2.2969650225586355 63 82 43
14.564305156836808 -2.2247889932349287 2.4613584287570385 61 78 40
15.11074767336246 2.9425139182853055 2.524371342784338 50 70 31
13.823202175519826 -2.60629056973044 2.0458597152442533 60 79 39
14.081507870924327 -2.6794454205080136 2.3936137526172834 67 91 53
16.675146993350797 -3.1004772772091846 2.736059290978445 53 78 38
16.461964107881794 -2.754725211745342 2.7673692563705976 68 93 55
16.32096369369291 3.01141475100306 2.7900223627728207 52 77 36
16.461964107881794 -2.754725211745342 2.7673692563705976 68 93 55
16.628070492331748 -1.977262525773095 1.5902021432473894 51 69 24
16.108744022154795 -1.8617612592545856 1.715487009715995 52 70 24
15.349141796902998 -1.8809064390837842 1.7889957631282076 53 71 25
15.954800775396132 -1.8617612592545856 1.5283299490771403 51 69 25
15.686144224099753 -1.8006393490743664 1.5913675892466872 51 69 25
14.135246505161778 -1.927531585162 1.9568682769421484 55 73 27
14.353203989748645 -2.163749284765659 2.373430180748912 60 78 38
15.062121404983381 -1.872406658132264 2.5289348242075635 58 76 36
14.617180832415574 -2.4290635608616924 2.09550698348443 61 78 40
14.686751643285913 -1.9026493083296165 1.8695442624250753 51 72 23
14.398161910502733 -2.2663538653159736 1.9494570796462305 57 77 35
13.982707400975869 -2.3741541761091254 2.121977773195856 60 78 38
14.1021941032253 -2.477785235231948 1.882335421503276 57 75 35
14.58430661044953 -2.162434787500269 1.9443841400695072 57 78 31
14.110905684094936 -1.8415251730008588 2.391371067589012 57 75 33
14.458716699327123 -1.8777931049654764 2.1841529430548645 55 73 27
14.737718881076301 -1.956247418455758 2.1708883249489284 55 74 28
14.608538519574317 -2.029056203099353 2.3555039483648224 57 75 33
14.032499391336367 -2.2557539092249 2.1197979578863744 61 79 37
14.349638793171817 -2.3722483121509716 1.950802800941865 58 76 36
24.29982235195606 1.2549757122820986 1.7496367243086526 41 51 23
12.506031928463402 0.3767306298759117 2.1963304360237474 43 61 21
13.427454926940312 0.5114311399494367 2.3382409585891435 42 62 23
12.209365668388699 0.2344775602762969 1.8464129601657695 35 53 13
13.993180020029808 -0.4690316642667078 2.400442137847543 49 67 22
13.328386194203446 -0.032076210468818825 2.4566999709936104 44 62 20
12.744338896178276 -0.02592680354987376 2.18288901752315 30 46 2
12.868059635836206 0.28184151295965515 2.27413666479439 39 58 18
14.72720921758517 -0.639700785709568 2.3474891360012293 50 68 22
13.929030683569499 -0.42534068409286424 2.3040587894297317 42 60 16
13.35185655723638 -0.18070511538766462 1.9004864017191285 45 61 15
13.370605184026939 0.18145355841876878 2.342350968983907 37 54 12
13.002842455732146 1.624143242174048 2.168999385528372 47 66 36
13.85628149052598 -0.5423360289500313 2.666651162925356 51 69 27
14.530694425762462 -0.6171538239212112 2.464222519947795 50 68 21
14.034729106047264 -0.8573692237108654 2.509444738061675 51 71 27
14.530694425762462 -0.6171538239212112 2.464222519947795 50 68 21
13.02240143204032 -0.04204744717447809 2.624936177120102 48 67 25
13.560835803820934 0.0979209794841318 2.5588437681245266 47 67 27
14.648459396726318 -0.7747392931772508 2.3527861332561137 50 68 22
14.319041889498495 -1.6494375224935522 2.607200942241585 60 78 41
14.319041889498495 -1.6494375224935522 2.607200942241585 60 78 41
14.244672042398973 -1.0706084667648514 2.6160893818303554 55 75 33
14.31178848205595 -0.8836680642565405 1.9518593686422725 43 58 17
21.427411124766873 -0.9185319233163162 1.870328761613981 66 83 45
13.963229927176265 -1.7388684265199665 2.4027888137296576 57 75 31
14.297199141187951 -0.9900725387932378 2.3774933392991664 56 71 30
14.42336313096837 -1.2756037290921614 2.185879410855568 57 73 29
14.826482903808257 -1.3586869676467341 2.2507852250259974 57 73 29
14.295680877675837 -1.5360058527685416 2.1085743437130375 52 70 23
14.29134156991678 -1.216699468029919 2.377921145514595 55 73 31
13.940829697287164 -1.1638117159250654 2.210551407084491 56 71 30
14.0813278196389 -1.3387371173539317 2.294358274751893 56 74 32
13.014139965220375 2.120427857026867 1.828966307732628 38 55 17
14.683588421075958 2.7312459733608074 2.451378912250596 48 68 28
13.111198538129571 2.415090374009153 2.258513622090513 50 73 29
13.96385986235328 2.0909617730673014 2.2093246412364596 39 60 23
13.30750357136687 2.493887912331319 2.346973683178068 49 72 26
12.645205958248475 -3.1200893692415006 1.6755858252940476 50 72 31
12.107304025211011 -3.032256964681487 1.8487978240978884 54 76 33
12.663349935690027 3.083628331373314 1.6754351326906607 50 72 31
13.750590159407855 -2.3797458180776156 2.4199275796846207 64 81 43
16.094645432108578 -2.6799023977956185 2.667927137918387 74 99 61
14.620755637711207 -2.492055300814523 2.176372687126938 62 82 43
15.921583132732481 -2.8090068160396853 2.689592219075142 73 98 60
14.537080143057493 -1.910933926194087 2.582376057158174 57 77 38
15.893471103232429 -2.994475869506167 2.564857518374005 57 82 42
15.363551214219305 -2.777153232188355 2.5015514316522554 75 99 59
16.35406555436312 -2.91746350419083 2.784545165275779 55 83 42
16.721283724123523 -2.9506692108214225 2.7296799879411067 55 82 41
14.311054751077373 -2.0625741868250387 1.8051089364926654 55 73 27
15.177189799864674 -2.0306832230126295 1.7915085806457904 53 71 25
15.109869646284103 -2.370708112611585 1.7925083341649017 54 72 29
14.54994518824576 -2.0300143920886597 2.0981838650430893 57 78 31
15.331494374026152 -2.029056203099353 2.4016733778687014 59 77 37
14.223430390535391 -2.1401010859893383 2.1116066794025437 57 77 33
14.527706544462086 -1.7623054351669332 1.9459118196728515 53 71 23
14.886113833060294 -1.9971184596564742 2.00946603186629 57 75 29
24.14884973179864 1.2008381521754685 1.8357042254795206 43 49 22
12.47107885836853 0.31548219129754906 1.8404828644651812 38 55 17
12.238390296440349 0.4258342727328825 1.9317910654764747 42 62 23
18.61822051998617 0.9691044016372855 2.034224144373757 52 69 39
13.417662127178911 1.704100672841878 2.06146896887751 47 65 35
14.655965479207815 0.8083888116424726 2.4536647084420413 41 62 23
15.143164852346588 0.7168349836253756 2.646196578210415 44 64 23
14.125768611918962 -0.6666841074913479 2.6307918870718607 51 69 28
16.399680068906385 -1.6671714375296778 1.6515356555695497 50 70 20
14.710814804144812 -1.709463958982786 2.2571598913703084 54 72 28
14.832121343970934 -1.1543732092322816 2.01117455961833 52 70 25
13.886234936241856 -0.8390708825161954 2.2134803359575397 50 68 24
13.234018641892 -1.5192043417302223 2.4654774179282084 58 76 36
12.780356643270093 -2.9629394738277535 1.59604564708083 57 76 34
15.42187239231041 2.917051854542429 2.613720675071166 52 69 31
14.830178218140626 -2.6794454205080136 2.439492987054293 72 96 58
12.28060218083954 -2.8416091301528335 2.019080849422378 58 79 40
15.341934370133648 3.0455461288383527 2.622726666205304 48 72 32
16.3597884668092 -2.8503150822380023 2.637223685458533 66 90 50
16.00447518171297 -2.8827024184343855 2.5542812129532453 71 95 55
13.539980664397579 -2.5392084294520396 1.8957360246548878 59 74 33
12.419023022033564 -3.032256964681487 1.9263054740367263 52 76 35
12.957422359003548 -2.6791614337359086 1.9941066739418276 56 76 37
14.36419901056125 -2.6383255190707224 2.277092674312941 64 84 45
14.349630738980952 -2.2210845133410286 1.7333736482477475 56 75 29
13.964797137731088 -2.31220019330796 2.209274823967812 60 78 37
14.85809480681597 -1.8415251730008588 2.4372746901585627 58 76 36
14.710971438277776 -2.42174131344665 1.8690372758526528 56 74 32
14.519094304915933 -1.7774880217835205 2.0994218514681036 55 73 25
14.197128821251438 -0.6088863127095545 2.0323590725510363 40 58 14
13.328386194203446 -0.032076210468818825 2.4566999709936104 44 62 20
13.451256131613002 -0.23633774067782473 2.3365353414235823 37 53 8
14.530694425762462 -0.6171538239212112 2.464222519947795 50 68 21
14.11467357881467 -0.8721444571076543 2.6321963043587973 51 71 29
13.959486740889295 -1.7227676849444664 2.3020951858984993 56 74 30
15.851210600442283 -1.3899024598164502 2.1235689211706315 51 69 23
14.634189903319786 -0.9645887275058054 2.2614570293990375 57 73 29
15.29884842224752 -1.026501306913453 1.9261399353767554 52 70 28
14.63769800807539 -1.6215879394203179 2.261258977282808 57 73 29
12.52667992143839 -2.9300678142068213 2.099871963401215 58 80 38
12.745921386347469 -2.8416091301528335 2.089844231374892 58 79 39
14.711720944374102 -2.721994110697061 2.3485242753014255 62 86 47
13.638320869988068 2.8638266888853963 2.3234303748440386 48 68 29
13.192264612735118 2.0143403121150483 1.747781193313578 44 59 24
14.58289687136583 -2.31220019330796 2.264367431885381 62 78 40
14.279703947953879 -2.1120636020393424 2.2821515823535643 60 78 36
14.345920148637477 -2.067956580825529 2.1896985068653594 57 77 33
14.258493840457529 -1.8541448126363496 2.0302195376924743 54 72 26
14.489688160478822 -1.9971184596564742 1.946945186747325 55 73 27
14.167682658916789 -0.8468892782749592 2.387081084150184 53 71 26
13.687980522183738 0.736170256588425 2.3200380544813166 43 64 25
13.557760716939882 -0.2573327986685357 1.8952942622148647 46 62 15
21.119214951888836 1.4963972052127312 2.8660693956700705 42 63 24
13.873103258462757 2.7700853054681285 2.307696243239732 47 67 27
12.86395847519388 -3.116023391557416 2.176375737192786 52 76 35
14.951764675252166 -2.1120636020393424 2.3328347084604553 60 78 38
15.088399081222809 -2.163749284765659 2.4194960808829262 59 77 37
14.993476267511706 -1.9055871196433105 2.3301831063432616 56 74 30
13.035013102207206 1.6937382827720306 1.7499392937237181 49 68 38
14.267399830263491 -0.5097810022990229 2.282895107490659 43 61 15
13.123141992192153 2.275498816678283 2.2577661940028952 48 70 29
13.566323947512723 2.9794415026391583 2.2312554051932834 49 69 30
12.780162358156764 -0.16941068752245889 2.5110534031995884 48 66 24
13.892908556018838 -1.698290351991601 2.0432807081166846 54 72 26
14.227496080613234 2.637453164619689 2.3826195206851466 48 70 27
13.475383021704403 3.072695590153373 2.23650879174388 49 72 32
14.564305156836808 -2.2247889932349287 2.4613584287570385 61 78 40
