16.847775491355307 1.1574814781047518 1.5439648861492283 45 51 34
16.886508332616767 1.024772862503778 1.6032542140701915 1 5 0
16.389792849681676 1.0769677093673098 1.6042382569835758 25 31 18
16.726363359227708 1.4040384994507136 1.663477713931686 16 19 6
16.471754156587377 1.213129008582353 1.5433522191871132 26 30 19
14.977245307655153 1.3154995051051859 1.473697029318233 38 47 18
14.117214731744888 1.2765826881315163 1.9746834426426656 41 51 20
14.153941219987392 1.4297170045127372 2.051753104163282 40 51 16
13.23194344883539 1.5897558710167814 1.921665329652049 39 49 13
13.579777606465264 1.1034681125979213 1.9123061042744434 45 57 31
14.002625554893589 1.1756609355223766 2.0574004465685496 43 56 26
14.532991123922272 1.333367010534239 2.1996019798225084 40 52 18
14.288111246203457 1.5039791515657979 2.2121240928481263 41 54 17
13.996681476448662 0.562913988386846 1.681620988428918 1 10 1
13.492961153456458 0.49977805318355695 1.6857762983300897 3 10 4
13.755919816776276 0.6640007427099617 1.683568879125822 10 20 9
10.971109274523604 -0.6437299155650276 1.6207668693559285 48 58 39
10.894231701011789 -0.4382844179528156 1.7133728122259089 56 63 49
10.341547025837452 1.993206931827145 1.5270756069601683 52 68 25
13.202610246651615 0.43197394593219923 1.7650073531467623 5 12 5
13.19540865124334 0.8260922612264511 2.0900513848405895 44 58 33
12.937786745332144 0.5818751474464955 2.013984426773799 38 49 35
12.71526154805476 0.8816279188736129 1.853585468532858 45 57 38
12.652580319202048 0.7595560349164436 2.3125660598738005 41 57 26
12.563394131266989 0.8318209527622996 2.2152895423902477 43 57 30
12.892672203651147 0.3899026605749797 2.0156461054607506 5 10 6
12.561375356206867 0.4253680529182022 2.1191474701349726 1 7 0
13.0564127227621 0.3079263125343555 2.0961468925815243 5 9 8
12.773855175837518 0.4152832863397984 2.4150334791739407 45 55 36
12.897158809992384 0.6758220858487186 2.404340210769856 40 57 23
12.388591232433122 0.18132819114230003 2.4507501164415455 30 36 25
13.223907824804783 0.13148243897792056 2.178257524269256 5 9 6
12.509580876499744 0.5791417094153144 2.439132994902057 43 58 25
13.201741707522213 0.24328528109510836 2.275083328602805 3 6 6
12.542897766815884 0.30255188567062935 2.4360008871510948 2 5 2
12.313817485241637 0.054495518107737395 2.458127908857941 36 42 30
12.807695634883988 0.3372218011528289 2.201029935704999 1 7 6
12.775069345906486 0.5541382286041842 2.202894206717528 30 40 28
11.014129807572196 -0.22896383706248172 2.4592449720240785 59 72 47
10.467939807959329 -0.5948118171243992 2.246606224031798 44 56 34
11.130894369494841 -0.32039512957228794 2.315988412624088 10 17 7
10.374712712061104 -0.6894306552575399 2.135022624602493 39 56 27
11.56230950522366 -0.07410701577708506 2.402825106177244 20 26 17
10.768180417303316 -0.43165074406161796 2.224446567948079 34 41 29
10.467939807959329 -0.5948118171243992 2.246606224031798 44 56 34
10.70641790332264 -0.35109847712037257 1.811090628502002 5 7 4
11.71555185995554 -0.0850130804249926 2.5235003899221518 56 71 34
13.592471621384458 1.0656376247116226 2.073432765924319 42 56 27
15.009091197315586 1.3857034251475298 2.4486986158365016 50 67 27
12.870700953039865 0.8394249823029076 2.406606831272473 45 65 27
13.585704093022537 1.102688713207401 2.2513083843110837 44 59 26
14.933984797535821 1.403112635381927 2.3550665410306406 41 56 18
14.849075658806917 1.4975908171849903 2.3607881618179056 47 62 23
13.33159943802348 1.3027265651519382 2.6183691033083525 51 69 26
13.33159943802348 1.3027265651519382 2.6183691033083525 51 69 26
12.694767022280123 0.9706694391312999 2.2075345698966147 45 59 28
14.924609360290717 1.4898547260483654 2.4555451157230324 54 71 30
13.778917686674008 1.2536922349266293 2.442641747393133 50 68 26
13.750243233331535 1.0002076704136649 2.4451265488669294 48 65 27
11.71118987574774 0.7380098417802192 2.6921224260098526 48 69 22
12.879613810647891 1.2562685105762048 2.6828524190220966 48 69 22
12.153464592994434 0.11204149996742815 2.824615834633393 52 69 26
12.855887985739907 0.15203064112895767 2.9222980367734834 52 71 29
11.66133092699642 0.2903429974103485 2.7010686065754546 49 68 24
12.401929340151282 0.7549390486121341 2.449450282853444 44 64 24
11.413438411130844 0.39799460515389834 2.5617668159365357 47 67 24
11.206463046701849 0.6230766910403567 2.5906066043520344 49 67 18
12.119077148449158 0.7197864320102347 2.833382913940803 50 70 27
12.119077148449158 0.7197864320102347 2.833382913940803 50 70 27
10.64122266424076 1.993206931827145 1.812592114484395 51 67 23
13.21642294843011 1.6074532566475315 2.633680199149346 52 70 26
13.271962233962658 1.7608260067090864 2.6262121743164846 50 71 25
12.766803249632694 2.037403645378863 2.5431351385273597 51 71 27
13.21642294843011 1.6074532566475315 2.633680199149346 52 70 26
14.880770809902764 1.6887825018849854 2.358640887759748 48 63 22
13.671969579694625 1.6142042785611757 2.7332760131029223 50 70 26
19.030184644983517 3.041926681639338 2.9160027772080004 56 76 37
20.006097468595613 3.041926681639338 2.9271836680444063 55 76 37
19.030184644983517 3.041926681639338 2.9160027772080004 56 76 37
12.15975369605377 -0.15195159421812143 2.8230429365623375 53 70 30
12.12329237491012 -0.2669523159298025 2.626122424196028 55 71 31
12.861833626564122 -0.20557977845855985 2.920233510664171 52 71 32
12.945256759637466 -0.5182680297240057 2.89321647091421 51 72 31
11.446882459530043 -0.4203209430955184 2.5573207751555715 53 69 35
10.912745670867585 -0.5553101194497044 2.470760477005 54 68 38
11.680983006386702 -0.31954103764845915 2.6975132218183204 52 71 31
10.401116208775154 -0.8824474041754137 2.5354212266922147 54 71 38
10.8685932095052 -0.7597974532847624 2.643499048454865 55 72 36
12.247959760066866 -0.39658763597512964 2.801882387335029 53 71 29
11.237403022461484 -0.8824474041754137 2.586141979320534 55 72 38
10.54252901877827 -0.6710183875907696 2.3687911587675305 55 68 42
11.018694410718139 -0.920397181507692 2.098450904202605 42 58 30
11.795409663976802 -1.0637218574406277 2.1593174529699644 44 63 33
10.878240975634302 -0.9770071842524134 2.4747674050746156 55 73 39
11.087014060186393 -0.943837290421865 2.3196462911795908 49 65 33
15.53952724021079 -1.931548923914462 2.510679920822676 59 79 42
15.53952724021079 -1.931548923914462 2.510679920822676 59 79 42
15.413829638372775 -2.025197296541344 2.8048259843952437 64 85 50
15.403476830864733 -2.0280182805844813 2.645695031762707 60 80 45
15.250748707240694 -2.2203788816652854 2.664535664577038 61 82 49
15.250748707240694 -2.2203788816652854 2.664535664577038 61 82 49
15.856229274783791 -1.9744074457121599 2.5952450001198626 58 79 43
16.09009486617315 -2.080556757104753 2.5717928053027492 59 80 43
9.085187310761611 2.3413467723157653 1.7420194337957025 51 67 23
10.580490862820694 2.2080314895993696 1.4331285663220399 48 66 22
10.321823958265746 -2.6815317218748995 1.6239130943788367 56 71 32
11.71083240597928 -2.3978550219603902 1.2715820672571072 57 71 31
10.652264022700377 -2.4677411281820696 1.7166343515220608 57 72 30
11.199625910863194 -2.3978550219603902 1.530427242740855 57 72 32
16.40113285274069 -2.515242721084433 1.4821500560075687 25 36 2
10.533550323333412 2.126903880710787 1.9143432845101032 51 69 25
10.644275802105271 2.1850476495787414 2.119075611255699 51 69 25
10.5617008094146 2.2546527618836185 2.2395088192300308 48 68 24
10.158966436134268 2.1850476495787414 2.0349696492376035 52 70 26
10.024157243224048 2.269439920714964 1.82780267674807 50 68 24
11.209171793150922 2.2546527618836185 2.3095641908382483 51 70 26
10.543888197010341 2.4257295896663376 2.2408444044024605 52 70 26
10.71436571312175 2.5928614614789915 2.2282995275197637 50 68 24
9.713737663569635 2.498368802934489 1.9447044679939727 48 66 22
10.195653434646456 2.440065725839305 2.404336442789194 52 71 27
11.431124336402306 2.855393868892682 2.2920182989100684 52 74 31
11.9873804844494 3.083122777036794 2.492288359723296 59 79 40
11.877391488290606 3.090209099764985 2.3741477138473552 60 77 39
11.28930353222258 2.947331110375013 2.429777242600505 56 76 36
11.458423360442275 2.8183889664433455 2.412834194383346 53 75 32
10.20185274121583 -2.577622766333286 2.1457825089215516 64 84 47
10.22639516601365 -2.7721277668146627 1.8226086794474665 60 75 39
11.335981046562338 -3.0792568006071885 2.1866188291441753 58 75 36
10.90082908442163 -2.6815317218748995 1.9023158753360223 59 74 36
11.077647523652628 -2.869538684519597 2.0953523030246526 58 75 37
11.872792059772307 -2.7721277668146627 2.154973769583554 64 79 41
11.756398935059698 -2.6825253810129657 2.384875532944729 64 85 48
11.951475985547265 -2.6208437890165848 2.496256270319936 63 84 47
12.031350004231685 -2.9725283542325562 2.2489565033368755 61 78 40
11.214017608052032 -3.0620911179888073 2.437594858895803 59 80 43
12.083174564244539 -2.9270696597848325 2.4819153427666687 59 83 43
11.281942959277215 -2.952460448664886 2.3037047099729673 64 85 46
11.464516791906611 -2.8383939154514612 2.289460251788029 67 88 49
11.49173649126836 -2.799510264349446 2.4095927024552406 64 85 48
11.974065526677478 -2.952460448664886 2.365814760250777 58 82 42
11.512252671048579 -2.893965165649953 2.5487889975803775 63 84 47
11.941544062172271 -3.0792568006071885 2.255030057249804 57 77 38
11.38867216478365 -2.5463894160178837 2.0796209405907202 62 83 46
10.267123685559365 -2.5463894160178837 1.8215882389726483 55 73 31
15.56490573339946 -2.1754781715478186 2.508451334621454 65 86 49
15.558164484261784 -2.324676969073464 2.6276175790655074 62 83 49
15.558164484261784 -2.324676969073464 2.6276175790655074 62 83 49
16.850158392048964 -2.3838675044643978 1.5439686814846445 21 32 0
17.246103786497628 -2.150566917633367 1.0586131158075816 25 36 0
16.357961758729346 -2.428796660802296 1.4203330693192573 23 34 0
17.064447082502337 -2.216802113582971 1.4856043670441441 21 32 0
18.1162297108538 -2.0310889539600963 0.8864842352029985 33 44 5
16.528377618657334 -2.2042087515382383 1.2346445674238076 24 35 1
16.870376409100093 -2.2999428081718816 1.544000840323719 19 30 0
20.216181507810383 -2.0310889539600963 2.374053767306135 47 65 19
20.852983074185296 -2.0013515449560164 2.3429031285251796 32 50 8
20.852983074185296 -2.0013515449560164 2.3429031285251796 32 50 8
20.168066213484057 -2.0013515449560164 2.3073720458955047 51 69 28
16.148988543651722 1.271188980955068 1.5428035590702134 42 46 29
13.608098167413367 1.5897558710167814 1.9907287144295454 40 50 14
14.061600104307923 1.2045947033367161 1.900152977677803 41 53 24
14.200023828123715 1.252470620141645 2.131224234297853 41 54 20
14.26959245990672 1.5914151095357774 2.213093378543714 41 54 16
11.253673892968981 -0.5188976072630351 1.5306212278362132 48 57 43
13.017346635510046 0.46741322316182715 2.2871812831762774 23 32 22
12.542897766815884 0.30255188567062935 2.4360008871510948 2 5 2
13.366145377859565 0.3596561261731492 1.9179928534326875 5 11 4
12.807695634883988 0.3372218011528289 2.201029935704999 1 7 6
13.232237988663835 0.9951550786880661 1.921657182472205 44 56 32
12.71236491627536 0.37239265886825 2.3082650942258653 0 3 0
12.250018235542361 0.04828799219398902 2.3431111640896027 5 6 4
12.979046455106172 0.7655682221560344 1.928806505732802 46 57 38
11.70902417145783 0.06253207105327645 2.5242848823029695 54 70 31
12.768766617438258 0.6500379980104084 1.8523680783101844 27 38 25
12.758117066457803 0.6097266426189001 2.3050120528153624 40 54 32
12.325179042739968 0.1610170296243594 2.337187585620886 4 6 4
12.325858707276549 0.8260922612264511 1.9487084384901905 43 56 34
13.027784281227126 0.5380177372333614 1.8466218347661267 1 9 0
10.688014168934677 -0.28591297791657344 2.1165781923168505 1 3 0
10.473374045289557 -0.7713091090068759 2.019995632233553 41 56 28
11.71555185995554 -0.0850130804249926 2.5235003899221518 56 71 34
10.883173032053428 -0.4812199196708448 2.0019214242334886 58 66 51
11.71555185995554 -0.0850130804249926 2.5235003899221518 56 71 34
10.942755646057718 -0.20031257999526686 2.331970136816195 8 12 6
11.484832269685592 -0.902970941854299 1.884863656896802 44 60 33
11.201069759338804 -0.3639182270995937 2.438957258963829 56 70 44
14.41199723427027 1.2854486452170322 2.391888533451502 47 64 24
13.39783694060565 0.9105461352934057 2.3640686312158863 45 62 28
13.236415283748428 1.4523494759378102 2.6309732557067296 52 70 26
12.70456714674987 0.9105461352934057 2.3088228264447688 46 61 27
14.403358901461448 1.3115545280798302 2.2954834437066918 40 54 17
14.636752313702411 1.1907466412292753 2.375538553779264 45 61 27
14.23503927864275 1.1014905521239633 2.5170625323710496 48 66 24
12.912175031290943 1.056048840463109 2.294295294098789 46 62 26
14.013829834424163 1.1505288559994784 2.422927644071078 48 66 27
13.236415283748428 1.4523494759378102 2.6309732557067296 52 70 26
11.206463046701849 0.6230766910403567 2.5906066043520344 49 67 18
11.243641967805667 0.2421093867113987 2.585248552511129 49 69 26
12.385511089257541 0.5720057926712633 2.771738584799692 49 69 25
12.027817812741679 0.07334399298160055 2.640311039803957 50 70 27
11.458834000077855 0.5720057926712633 2.7401874380286424 50 69 23
12.229218833500587 0.3615359017425078 2.8062455654691707 51 70 26
13.271962233962658 1.7608260067090864 2.6262121743164846 50 71 25
13.271962233962658 1.7608260067090864 2.6262121743164846 50 71 25
10.524683958924697 -0.8637632682000389 2.3705315199186825 50 69 36
10.030755908690178 -0.7652772061806142 2.422625051518912 52 69 36
15.257625781938366 -2.080556757104753 2.536428457032303 64 85 48
15.77808774336086 -2.029520382446645 2.4902663106784013 63 83 46
10.977352323317204 -0.4957284154054599 2.6255752651167588 50 69 31
11.25411801811948 -0.6439219508565485 2.583753466636149 52 69 34
10.94305134216081 -1.0274010250552181 2.6311279016370714 55 73 38
18.836923580291696 -2.965281197394726 2.966222755229744 61 82 44
15.590294740918788 -2.1862077432222917 2.7738601447605427 65 86 52
15.644112134184146 -2.142978218215283 2.617969028606545 61 81 46
15.003805855297605 -2.0965450958444736 2.6974308848832855 60 81 47
10.051357896893789 -2.5463894160178837 1.425831444248317 55 72 30
10.8908565997864 2.0779167051345433 1.7134172989965237 54 70 26
11.234295313531792 -2.2715955487790565 1.6195952672345948 60 76 37
9.629779077070578 2.3413467723157653 1.9481276726320085 51 69 25
9.9851105313418 2.3385613857093346 2.28600746603781 52 70 26
10.608897963417961 2.498368802934489 2.121113536134118 49 67 23
10.066105833269283 2.524582546639626 2.279039202109602 52 70 26
11.261594555382153 2.970430670665873 2.3053324045488073 55 75 35
10.956612490190539 2.440065725839305 2.465731485328798 51 71 27
10.66763519360754 2.3385613857093346 2.3568372614123474 53 71 27
11.458423360442275 2.8183889664433455 2.412834194383346 53 75 32
10.8885888122733 -2.9725283542325562 2.1054285600322515 60 77 39
10.898218877093168 -2.7721277668146627 2.001286473694694 60 75 39
11.473663479559404 -2.63438876482512 2.17815272830849 67 88 51
9.760170102977213 -2.63438876482512 1.8349179466029675 55 70 31
11.335981046562338 -3.0792568006071885 2.1866188291441753 58 75 36
10.933844033156591 -2.63438876482512 2.102979395782535 59 77 39
11.88382669436247 -3.0717109948916694 2.3735865661223716 57 78 41
11.993756676474735 -3.0620911179888073 2.4915883519323314 61 82 45
11.49173649126836 -2.799510264349446 2.4095927024552406 64 85 48
11.476917941922473 -2.3978550219603902 1.7946729749393155 61 76 37
16.386137566777283 -2.294797359381403 1.2316098705804621 20 31 0
16.389792849681676 1.0769677093673098 1.6042382569835758 25 31 18
14.376333920577409 1.4175520075548753 2.2075501968493816 39 51 16
12.71236491627536 0.37239265886825 2.3082650942258653 0 3 0
12.755569901815804 0.7027548888713127 2.0207763782133066 41 53 33
12.366182087328562 0.5178568238759589 2.3340004371952885 47 59 40
10.095276184114828 -0.5325985661688482 2.0381307610118853 41 53 32
11.722803031959106 1.9057131610822313 2.5226309858295575 51 72 25
14.003838375689824 1.2143190577884664 2.5403465130372487 48 66 24
14.90688131519193 1.5957894605227236 2.456998995077738 53 71 29
14.27236920894563 1.3996776777137496 2.8216295847588166 50 70 26
11.264022803011924 -0.2669523159298025 2.5823457449625744 53 69 32
11.707894307102993 -1.0094357392569004 2.271418684193983 52 70 40
10.886084090626763 -1.157189775039688 2.1055648116856256 46 65 32
15.326590676768141 -2.306195120274113 2.8214809668653174 65 86 53
15.682756799318463 -1.8577226944992573 2.61371688516301 58 79 44
15.91257988021565 -2.0965450958444736 2.7244380312207164 62 83 49
10.877625318734196 2.0779167051345433 1.4369120706480616 51 68 24
9.710391950653621 2.269439920714964 1.6272611388764315 47 65 21
10.594093250513513 2.2080314895993696 1.7174409026809356 47 65 21
10.42286228088091 -2.6815317218748995 1.7198678951383426 57 72 34
12.59140875970831 3.095764497841672 2.317026953418036 53 73 29
12.222580505274266 2.8183889664433455 2.4673459141263274 53 75 32
11.28930353222258 2.947331110375013 2.429777242600505 56 76 36
9.452909995658823 2.2546527618836185 2.0727306005727444 51 70 26
10.134180989785888 2.5928614614789915 2.1501158479674753 48 66 22
10.3718563084379 2.639490872253648 2.3858158399352427 49 69 25
11.691230469783283 -2.749770599273666 2.5264321970985972 63 84 47
12.031350004231685 -2.9725283542325562 2.2489565033368755 61 78 40
11.3096020818252 -2.9270696597848325 2.4276992672618816 58 82 42
11.05065190925366 -2.6825253810129657 2.3227090109188944 66 87 50
15.943945260031116 -2.2431600744165165 2.586263998487695 63 83 48
17.012824084826065 -2.168153486682787 1.3060290052102126 29 40 3
16.538158954267434 1.213129008582353 1.664535511547292 12 16 5
10.958343914012922 -0.7731457099875458 1.7125330149788518 48 62 35
12.42348116056342 0.14476906613412424 2.22378069194631 4 6 6
12.471536962348146 0.5070096108637071 2.031806760792973 0 6 0
13.320549805684626 0.9482092661846939 2.0846898772144105 43 57 30
14.849075658806917 1.4975908171849903 2.3607881618179056 47 62 23
11.825131316539332 0.4705636544412723 2.672544366323144 49 69 24
20.006097468595613 3.041926681639338 2.9271836680444063 55 76 37
10.80333616992937 -0.7652772061806142 2.483626281913418 54 69 39
12.02908323313791 -1.157189775039688 2.2491083249235544 56 75 43
10.925773119132236 -0.9790261779506421 1.901530103505164 42 61 32
12.034172579451816 -0.09967062209204954 2.6393482154753634 50 70 29
15.82809009630224 -2.3175301413545175 2.736651760769627 64 85 52
10.638736010775578 -2.4677411281820696 1.4338870304281541 57 73 29
11.458423360442275 2.8183889664433455 2.412834194383346 53 75 32
17.041642631599764 -2.2999428081718816 1.426412596325336 20 31 0
13.627515905183087 1.5093433008784662 1.9900926026418937 41 52 16
12.773855175837518 0.4152832863397984 2.4150334791739407 45 55 36
13.725665673330246 1.7947898907541997 2.7243259125224126 51 71 27
10.748063257550958 -0.4863548618384311 2.349372435147071 54 65 41
11.207197802224117 3.083122777036794 2.4383117880705 59 79 40
12.202716552466901 -2.869538684519597 2.2376937472875267 63 80 42
10.936445737813388 -2.5463894160178837 1.999681942575374 59 76 38
11.3096020818252 -2.9270696597848325 2.4276992672618816 58 82 42
14.831257327310896 1.5933925625354388 2.3620013975797245 48 63 24
13.996056350114715 1.2242261637726735 2.227795878702313 43 57 24
10.695996773539921 -0.5666554364336259 1.8113293673633706 45 56 36
11.349863475925604 -0.35109847712037257 1.9830880117775824 0 2 1
12.590497783850196 0.691169743398197 2.213672654302673 39 53 31
10.933844033156591 -2.63438876482512 2.102979395782535 59 77 39
11.3096020818252 -2.9270696597848325 2.4276992672618816 58 82 42
10.644275802105271 2.1850476495787414 2.119075611255699 51 69 25
14.313032734920895 1.3518482674473085 2.04596163130208 41 52 19
10.923531506071765 1.871776018480111 1.5294063303545873 47 61 20
12.247959760066866 -0.39658763597512964 2.801882387335029 53 71 29
11.112697481109224 -2.7318973358735654 2.200909555819317 67 88 51
13.368576207787022 0.22145147095782458 2.1707544746051224 3 9 6
13.691296731871462 1.4307727065900122 2.7300253081439094 50 71 26
12.684554001830598 -0.3157768461222642 2.9947293191729596 53 73 33
20.216181507810383 -2.0310889539600963 2.374053767306135 47 65 19
