10.728179882352581 0.08944448648221312 1.481496053889334 48 59 19
10.736662755770135 -0.09792394714898763 1.4815667965958372 47 58 20
10.00673216338692 1.6066725857190616 1.4750387600925172 49 60 19
10.165315353341333 1.5063201903004422 1.3770938430031103 49 63 22
10.182317196910633 1.5063201903004422 1.7728338823995378 50 61 19
9.21034370948232 1.0424776245176295 1.5754914357337346 39 49 3
9.167679464090693 0.5751520850748745 1.6848391674232635 51 63 16
8.844426230357168 0.4774846777376852 1.8039227104256166 49 61 16
9.016284949703023 0.8891554737237324 1.6867626451459699 40 52 5
9.43416158858926 1.0424776245176295 1.7891054866185256 44 56 11
9.812460861085455 0.5369641812159757 2.2342916715690113 54 68 23
9.629661641583246 0.8122742123549367 2.122007840044084 48 63 14
9.127451022089145 0.4774846777376852 1.910721522930001 46 60 15
9.458666286906086 0.8891554737237324 1.89836430954312 39 54 4
9.288025639711542 0.9821571004798862 2.0211876382065466 48 60 13
9.50772575209458 0.4774846777376852 2.010044063475914 50 62 15
9.425648208907875 0.7308181960173661 1.899554905472779 47 59 10
9.638875033908233 0.7205439419013454 2.2484484340321096 57 71 24
10.295358115952338 0.7205439419013454 2.324190558255655 57 73 27
9.22064925837698 0.6408406329179219 2.0247239370731576 51 63 13
10.316995391912874 0.9821571004798862 2.196609016551289 55 69 20
9.893954769953856 0.19998043235707522 1.6764352063130235 46 57 17
9.856922001787668 -0.004720717876983232 1.7796005123829557 29 43 4
9.745839253825507 0.09866306208578224 1.6780468243857174 33 47 6
10.445645900748717 -0.13595572285209212 2.3107795579978143 69 85 50
9.496129857933315 0.48234224366216255 2.4063920222440265 57 75 35
10.445645900748717 -0.13595572285209212 2.3107795579978143 69 85 50
10.393289975379068 -0.005956042348684351 2.3153887828999675 56 71 33
10.006644659376265 -0.005266915904251886 2.0990078892510526 35 50 12
9.362981327359122 0.25036515530528675 2.1396142627407695 44 58 17
10.122347392687805 0.4184958723822879 2.3403451613956765 55 70 29
9.137170828465225 0.3688793103527375 2.029186406971389 45 59 16
10.575367273494008 0.25036515530528675 2.2996360997809404 49 63 22
10.436926498773552 0.12424412924571693 2.3115426276375857 53 67 28
9.104014833946835 1.3893617332101242 1.5755462719127125 51 62 19
8.965044514918317 1.1413546710303923 1.3507599444649188 45 57 11
10.547106061552464 1.0882948977915663 2.3020310216782907 58 72 26
9.59909092289175 1.3893617332101242 1.8933974199401942 53 65 21
11.41065551806936 1.4991431459364497 2.2360407151331323 54 70 25
9.78222860138679 1.2500390291240417 2.1124475746187192 51 65 20
10.297091129014749 1.4991431459364497 2.0826263848118716 53 67 24
10.283221832660873 1.6106750677399733 2.083384214287071 53 67 24
10.633151822753073 1.1413546710303923 2.175283016585821 55 69 24
10.750792323502543 1.3671445083843816 2.285160461706167 55 69 24
10.093883933556219 0.7055147340482075 2.4928486176350706 59 77 33
11.266094256027435 0.25036515530528675 2.3658963067475414 56 71 30
9.745641827792452 0.5667326968827595 2.541559601702616 62 80 40
9.745641827792452 0.5667326968827595 2.541559601702616 62 80 40
10.259774319893145 0.48234224366216255 2.471813995177163 59 77 37
11.693401776891353 1.4632741598802572 2.6038776481769177 69 87 45
11.506413681350127 1.0807874020920945 2.631785678247154 66 84 42
11.525777673866834 1.3388380393055594 2.472863578513303 59 73 28
11.971069878454804 1.1530935179483104 2.5661648126464143 66 81 39
10.638900095966635 1.6221256832099815 2.4280105549661557 59 73 28
12.692151208193403 1.4096762439051347 2.820443482432658 66 86 50
13.634212652314416 1.6609005698006667 2.846088414552323 66 86 50
11.423898707444962 1.0217739896691251 2.484231593334315 65 81 37
10.833453920143779 1.6307268285663428 2.558477904883018 66 82 38
11.330515784374798 1.4901720641032252 2.3601162335338497 51 67 23
10.846619671556645 1.4632741598802572 2.5566403215818387 66 82 38
10.951465324737171 1.3016128684347146 2.542338417800382 64 79 36
10.649834499256617 1.0217739896691251 2.426825470151307 61 75 29
10.833453920143779 1.6307268285663428 2.558477904883018 66 82 38
11.318662524646644 1.2506407776140418 2.662290923670257 67 85 44
10.648513794793512 1.803319308041662 1.2894300317380045 51 63 20
9.875334602653421 2.3113622442515758 1.2667239412173117 59 73 28
9.619896081326718 1.9295036593139943 1.6794564582697729 54 68 25
9.31814547402251 1.8282078656999234 1.6829898148754447 53 65 22
10.009817847988051 1.9295036593139943 1.270937166904727 54 66 23
9.129513016996995 2.0719314175759975 1.6853180208360972 58 72 29
9.507692232536817 2.4795773887314407 2.129913753895754 63 77 32
9.918302777380108 1.7212270891807544 1.9906805842006796 54 68 25
8.937339578206117 2.2025248964995683 2.1703682459786258 64 78 33
9.291210301802588 2.2271856891243713 1.9044951440852624 61 75 30
8.947265913344099 2.292148653582894 2.312342709964528 63 78 35
9.148688985218035 2.1305047103853907 2.0285652568441477 63 77 32
9.805963401960224 2.020549878857703 2.2348097469806314 61 75 30
9.621524836353156 2.585125283692363 2.2499005277132724 67 85 43
10.264078669251852 1.8588980090018876 2.200340061822705 57 71 26
8.752829447204117 2.1305047103853907 1.925899194316526 61 75 30
9.650909498098896 2.292148653582894 2.388827152515233 64 79 38
9.537427617160496 2.2025248964995683 2.2570385494130876 63 78 33
10.141726661716655 2.3952371844354587 2.3384956033693216 65 80 39
9.5358980860487 2.9925663003361818 2.4017921317123596 69 90 56
9.687224088251174 2.8433247854172605 2.3848339364082682 69 90 55
9.488118574249624 -3.134432344783822 2.407326181432455 68 90 54
9.545440579173608 -2.978591437433281 2.400697504506958 70 92 53
8.347832339570328 -2.9060969282652276 2.5749747321585508 74 95 58
9.522278513674205 2.4611877461379144 1.6805748601267887 61 73 28
9.715601298302007 2.6064591327900297 1.5752472660272971 59 73 26
9.46873402266077 2.699632271035318 1.788295555420347 61 77 31
9.665108775526672 2.4611877461379144 1.3669313994034447 60 71 21
9.279834701341782 2.6484033634419633 2.0216144816960995 63 79 33
9.733622697038337 2.699632271035318 1.8887807847797309 62 79 35
9.454372237102483 3.0399403613169627 1.4694255381942798 61 81 38
9.357493413602487 -3.136727937220426 1.5754176030503255 62 82 41
9.415610694858161 -3.0303207885046466 1.5753890783040427 63 83 43
9.415610694858161 -3.0303207885046466 1.5753890783040427 63 83 43
8.899796281698844 2.759731797231664 2.042390935029322 64 81 42
8.970782809497381 3.012580655801605 2.167822326842687 64 84 46
9.578283487901519 -3.000430882263784 2.253549944708734 67 89 49
8.919976792945551 -3.135405545342684 2.171699305123326 64 85 46
8.970782809497381 3.012580655801605 2.167822326842687 64 84 46
9.9689190732272 2.759731797231664 2.222080848377617 67 84 47
9.7195879161653 2.881937520481185 2.2417832045662953 67 87 50
8.61959486445007 2.881937520481185 2.059040348423084 63 83 44
8.980925774005742 -3.000430882263784 2.1670547908507927 66 86 46
10.025566089574331 2.1663476821466876 2.501889908737306 60 78 38
10.281360226372302 1.9477493649762248 2.4691671533070476 61 77 31
10.912299912500462 1.7949103368787866 2.5476133986895135 63 81 39
10.577518456251921 2.0148875788042337 2.5962496729911644 61 79 39
9.147772942878994 -3.131145952700082 2.6450964928788663 68 91 56
9.207214105579519 -2.9060969282652276 2.63330791856988 73 94 57
9.612940471048837 2.5457469297123536 2.5620441557018747 68 88 53
9.612940471048837 2.5457469297123536 2.5620441557018747 68 88 53
9.147772942878994 -3.131145952700082 2.6450964928788663 68 91 56
11.01274180602854 -0.18988358553495813 1.3921667264881756 48 59 22
9.800398269609163 -0.6692395824499527 1.6774474781279531 71 87 62
9.158071721439976 -0.5834939896805816 1.5755182344425271 56 70 44
9.59953942433971 -0.4377907030384409 1.6796877956103942 58 72 41
10.157390226561517 -0.30592152203074463 1.4764633309297563 54 67 35
10.05331911848785 -0.5284141563548701 1.475483851244131 60 74 46
9.167262204864867 -0.48683550527247355 1.9091861117438096 56 70 41
9.269640527336286 -0.547022530146476 2.1460650723185255 68 84 56
9.382408348741246 -0.26151382104256127 2.1382910962162662 58 73 43
9.095704635597386 -0.7295820380192745 2.15851543252105 69 85 57
8.628497164258325 -0.9158996582663389 2.058492439263145 69 83 56
9.75851085287321 -0.23239934025699857 1.9980028007806931 38 52 18
8.581687246784371 -0.7295820380192745 2.0613879788350897 68 85 55
8.969700009962494 -0.9881480241170844 1.9169481445732561 65 81 56
8.674791966986827 -1.0285053167071876 2.1912049094258084 69 83 56
8.674529423282394 -0.9454767392684377 2.3415348925192165 67 84 54
8.133659627982874 -0.8377424974593369 2.408325887605251 67 84 56
7.346722766026469 -0.5116577016630246 2.5367239374482455 66 86 54
7.795857089360787 -0.6586986753616255 2.6985693591662443 66 88 56
8.133659627982874 -0.8377424974593369 2.408325887605251 67 84 56
11.630769125300152 -1.2522369386860133 1.5745143532958286 74 86 67
9.651119613749374 -1.2119451619815658 2.2474278046529497 64 80 53
10.096789695531106 -1.3417309937732935 2.342800360954322 67 83 56
9.636556973031606 -1.3693868412385128 2.12156800522845 68 82 57
9.902864883088432 -1.2865498782755334 1.883160637549564 64 78 53
9.34136636583287 -1.1456467495902725 1.9026344258349221 64 78 54
9.982971886981456 -1.4798245946248945 2.3539610215053317 69 83 58
9.384145029655011 -1.253428580504153 2.016240781039391 65 79 54
9.914480134154752 -1.6102741133793252 1.9908527185362996 68 83 54
10.082418992541168 -1.46488120290174 2.4943498211775905 67 83 56
10.255659161087234 -1.7437178139133884 2.9377105875660225 81 103 69
10.068253983766692 -1.6298264236842686 2.496213433656978 66 85 55
9.913331506361178 -1.6588834259470333 2.719492347407444 69 86 58
10.500932653812516 -1.6875767193819093 2.8452619936847476 69 90 59
10.068253983766692 -1.6298264236842686 2.496213433656978 66 85 55
10.255659161087234 -1.7437178139133884 2.9377105875660225 81 103 69
9.73005630120379 -2.4948073929226284 2.380183666049776 68 87 55
9.217343982087064 -2.3932796062426878 2.440486920657816 68 89 56
9.082505826123574 -2.7768557346810385 2.458261165343317 78 99 62
9.03258040695954 -2.4948073929226284 2.3037254791024644 69 86 57
9.706002144139864 -2.8302937834854087 2.3827873518202463 74 95 59
9.659771439267221 -2.381325602231445 2.002661133144257 68 83 55
9.870509008489105 -2.077725446962478 2.3653690957784828 67 88 53
9.594531088632591 -2.1953102703027367 2.2521735791003366 72 87 57
9.358576486468555 -2.62467032934352 2.422794596711231 71 92 57
9.697962252743102 -2.2831297962543173 2.383662092425122 71 87 58
11.56666815343317 -2.0607282035028422 1.7483774581124818 68 82 53
9.707175304772429 -2.3048892438754276 1.7828703897740574 66 85 53
10.071546951530285 -1.966114997918758 2.095251740369618 69 86 50
10.15349268637779 -1.7379231384101952 2.2082966911824715 71 85 55
10.15349268637779 -1.7379231384101952 2.2082966911824715 71 85 55
10.512753676281871 -2.0154784664637346 2.3049664751367365 69 89 50
10.873479452257083 -2.1246696437815236 2.2754173295332407 68 88 49
10.184598539535429 -1.8257283846896852 1.9790377175976068 69 85 52
10.96526836670057 -2.06715106858353 2.154509282622703 69 89 52
10.054295538585489 -1.7611096534528023 2.346923385583911 66 86 51
10.054295538585489 -1.7611096534528023 2.346923385583911 66 86 51
10.000574077073187 -1.7197354291028828 1.9870109244198164 70 84 54
9.343381151788417 -2.690768999090807 1.682685517153836 65 82 50
9.973780623991825 -2.5984368991930396 1.7771185051376879 65 82 52
9.126566517178727 -2.7921339433279537 1.7965886580781176 64 83 48
9.343381151788417 -2.690768999090807 1.682685517153836 65 82 50
9.578348841457009 -2.9263761835583617 1.5753110459622683 63 83 43
9.126316970025785 -2.901552666196088 1.9107654687748097 64 84 44
9.770964383335329 -2.690768999090807 1.8875231171687208 65 82 51
9.425450190904813 -2.7491216111407195 2.135382883797618 67 86 53
10.345325021446243 -2.4537559695359494 1.9723273701615294 67 84 54
10.334353843496546 -1.9425848651688002 2.462752549558451 67 88 53
10.002295581541413 -2.3932796062426878 2.505023205431221 70 88 59
9.373571003491461 -2.7026833853502445 2.602308992726963 74 95 59
10.444125088632635 -1.8335828324880328 2.617681013832245 69 85 58
10.444125088632635 -1.8335828324880328 2.617681013832245 69 85 58
10.15304406678671 -1.7916447840995462 2.485202253901016 68 87 55
9.608920405542127 -2.2634910415623226 2.5626836632109247 71 88 58
9.999435338832496 -1.8944979478238517 2.700710125492726 71 87 60
9.566670742371363 -2.4268863513493644 2.809267584603151 73 95 58
9.829152092854077 -2.2294915222517124 2.738986758187378 72 93 61
10.070868539086256 -2.157920556663764 2.4958687093596943 72 86 59
9.232567876194056 -2.404847528764966 2.6284002752759967 73 93 60
9.829152092854077 -2.2294915222517124 2.738986758187378 72 93 61
20.09866011916376 -2.590847167753499 1.2699006026316473 61 77 56
20.02690840922694 -2.8866136660263506 1.5230045816700415 44 59 28
19.164092646813856 -2.7560005567598003 1.7833739133889277 51 67 45
19.542220540560844 -2.684476856361392 1.939505461813199 52 67 57
19.219484193591022 -2.590847167753499 1.520995188508989 60 78 63
19.644412401775355 -2.6364517423849083 1.8834993207196675 56 70 63
18.941094184305445 -2.518072504034555 1.520262608495549 66 83 71
18.972837202088453 -2.443529205955579 1.4143169589133333 64 83 69
19.691290786655095 -2.443529205955579 1.8827297222375035 48 64 61
10.685732794695369 -0.0042771603516075785 1.4811403735296613 45 56 18
10.168291352974746 1.6066725857190616 1.7731164301253752 51 62 20
9.744501269166973 0.6618695910714494 1.6780616073267445 51 63 14
9.799236269598882 -0.13595572285209212 2.2353470811440204 62 77 44
9.163491305890473 1.3893617332101242 1.6848915178163555 50 62 19
9.637994814944886 1.1413546710303923 2.003702721366137 51 63 18
9.359505947178217 0.3293923726908756 1.790875368396752 46 58 15
9.193142267954856 0.3293923726908756 1.6845219252622727 47 61 18
10.123885062893343 1.3671445083843816 2.210464533743812 54 68 23
9.961377081626265 1.3893617332101242 1.988750975985052 52 66 23
10.445645900748717 -0.13595572285209212 2.3107795579978143 69 85 50
10.333367467877835 1.2500390291240417 2.195464418532804 55 69 24
9.688592166480666 0.6618695910714494 1.5752596741047122 52 64 17
9.764932518985743 0.9821571004798862 2.1135136327226816 49 64 14
10.093883933556219 0.7055147340482075 2.4928486176350706 59 77 33
11.031972141057892 0.9085555505787821 2.3877801665758973 62 77 33
9.745641827792452 0.5667326968827595 2.541559601702616 62 80 40
11.136243601736082 0.12424412924571693 2.3778581945184527 60 75 35
11.43092395213473 1.3671445083843816 2.351302194057704 52 67 23
11.317912947202121 1.6156820810967976 2.3612391677548943 54 68 23
11.145403860715037 1.1530935179483104 2.5173186468380715 63 77 33
11.790720061782778 1.3016128684347146 2.59019318348623 68 86 44
10.951465324737171 1.3016128684347146 2.542338417800382 64 79 36
11.971069878454804 1.1530935179483104 2.5661648126464143 66 81 39
13.389108666358824 1.35659371271328 2.913804056896173 66 86 52
10.235368450321413 1.7063096220246057 1.378436242353554 50 62 19
9.637925079351056 2.163509696255269 1.4713625803256465 57 71 28
8.710495722695478 2.3888998033364484 1.5757608646598376 60 74 29
9.278391427305642 2.0719314175759975 1.3583069414887436 54 68 25
9.259662426818805 1.8282078656999234 1.5754664285112385 54 66 23
9.650909498098896 2.292148653582894 2.388827152515233 64 79 38
9.226711016625316 2.3888998033364484 1.9069195108184123 61 74 29
10.073862139470004 2.4795773887314407 2.2141641920252546 66 82 37
9.692557013115161 2.50571868027268 2.384251454123766 67 85 45
9.474604628403668 2.3952371844354587 2.262481480931892 64 78 35
9.510118437753777 1.897601341018946 2.259392764505332 59 73 28
10.366253749556403 1.7212270891807544 2.078882280788993 54 68 25
9.815011300477602 2.084191564924104 2.371145205681728 61 77 31
9.687224088251174 2.8433247854172605 2.3848339364082682 69 90 55
9.937367295439993 2.7065493578005513 2.358540223848193 69 87 50
10.345314991180674 2.7417482936454833 1.3805057592873475 59 75 29
8.822641754878214 2.9118562040246476 1.8045090364002383 61 81 41
9.578283487901519 -3.000430882263784 2.253549944708734 67 89 49
9.52115921530007 -3.135405545342684 2.258438808584804 67 88 50
9.568773747538396 3.012580655801605 2.2543584193245745 67 88 53
8.955368203813126 -3.017136275651978 1.9175254121113543 64 84 44
9.7195879161653 2.881937520481185 2.2417832045662953 67 87 50
10.281360226372302 1.9477493649762248 2.4691671533070476 61 77 31
9.859727775751269 2.7917708451637253 2.5248509019673797 68 89 54
12.474408809403222 2.001438362565616 2.8779073779719053 68 88 53
9.702819840742677 -2.8396931193188735 2.770749704874038 73 95 58
9.197320699146875 2.92594509702502 2.635242108979006 69 92 57
9.403730500255245 -2.724133872076128 2.8638088017222145 71 94 59
10.40319859259169 2.292148653582894 2.454590837486128 61 79 37
9.912341200541196 -0.20903247168397987 1.6762385263229755 42 55 22
8.511545591636501 -0.8269507960555392 2.2049772921906423 68 84 55
8.628497164258325 -0.9158996582663389 2.058492439263145 69 83 56
10.208188625336483 -0.37920109591242873 2.2043339754914504 68 83 54
10.195573407655418 -1.3693868412385128 2.205243151186741 68 82 57
10.04329553730205 -1.3911486158263646 1.9851313861545092 65 79 54
10.502450727599557 -1.6063477171333251 1.8647776983874302 68 83 49
9.636556973031606 -1.3693868412385128 2.12156800522845 68 82 57
9.517236775186538 -1.4910805127690245 2.12928636101723 69 83 57
10.082418992541168 -1.46488120290174 2.4943498211775905 67 83 56
10.361717199698449 -1.6414901940365438 2.6316147229383113 67 86 56
8.530963986624823 -2.7026833853502445 2.542077572689984 75 96 60
9.659299889156994 -2.574865977048594 2.2467478559118774 67 85 55
9.522528581196426 -2.3861545480310298 2.258320697547293 68 86 55
10.254075705896204 -2.1246696437815236 2.2010508238129702 68 88 50
10.237354361244854 -1.8936674901621997 2.329518256759404 69 89 50
9.783736119519986 -1.8558125167527921 2.112354868437545 70 86 52
10.117021603988988 -1.9261910522584558 1.876332208162514 69 86 52
10.477533214522905 -2.1582482032972554 1.966975724714326 68 88 52
10.000574077073187 -1.7197354291028828 1.9870109244198164 70 84 54
9.730758474544377 -2.2209084676278947 1.999301553609331 67 87 52
9.794393961483326 -2.638852198356569 2.1117004159797883 66 83 53
9.151397135394907 -2.870414747639933 2.1544662531324086 66 87 47
10.338912436464074 -2.15663045754647 2.9018634510503105 76 97 63
9.232567876194056 -2.404847528764966 2.6284002752759967 73 93 60
9.641310861548309 -2.5315720288047894 2.5575637057352503 73 95 60
9.641310861548309 -2.5315720288047894 2.5575637057352503 73 95 60
9.999435338832496 -1.8944979478238517 2.700710125492726 71 87 60
9.638343494811684 -1.9900396143791017 2.7883532919790257 71 92 60
18.541602490319757 -2.4858332649121824 1.3557436961152336 64 82 65
19.762973141699156 -2.7075490789161303 1.3172791398485415 57 73 49
19.760012439715375 -2.775129524422934 1.471607683103543 51 67 42
18.765434317642747 -2.443529205955579 1.5197891626615452 61 78 67
9.853194431615522 0.611270148572606 2.3671605299784995 55 73 30
9.838894967092921 0.19998043235707522 1.575191489826266 52 64 21
10.325595503634219 0.9085555505787821 2.321447379653481 60 74 29
9.912111436058378 -0.10800404145219898 1.7784208671182973 35 49 13
9.831852092569768 0.8083225414512701 1.780140841217404 49 60 11
10.575367273494008 0.25036515530528675 2.2996360997809404 49 63 22
7.595021131387547 -0.37672779746885554 2.7580641793988683 65 87 54
8.898366898905255 0.9821571004798862 1.9198409718634424 40 52 5
11.510364625482886 1.3893617332101242 2.229262545946854 55 69 24
11.39814129112838 1.6106750677399733 2.236902370114727 56 70 27
11.095357737753266 -0.005956042348684351 2.3817141407489326 64 80 43
10.956390766603842 1.2076474112201823 2.3951577542283045 59 73 28
11.426203066981007 1.4786403629337335 2.4839703638557555 58 72 29
10.833453920143779 1.6307268285663428 2.558477904883018 66 82 38
9.745641827792452 0.5667326968827595 2.541559601702616 62 80 40
10.252254121872905 1.7063096220246057 1.7714367955725874 52 64 21
8.894244087855567 -3.1361458550498926 1.920009679575535 62 83 43
9.632496922639325 2.1305047103853907 2.1218268943999115 62 76 31
8.894244087855567 -3.1361458550498926 1.920009679575535 62 83 43
8.945196259604382 3.027876111720403 1.9179363211983018 62 82 41
9.746835830558483 1.8282078656999234 1.8883346054508467 54 68 25
9.998969429529406 1.9701757689171975 2.0994558567755592 60 74 29
8.972408676617569 2.3034491766223057 2.038268115633511 63 77 32
10.099099096649727 1.7949103368787866 2.492167859924051 63 79 35
10.555611476599037 2.084191564924104 2.437172901699603 62 78 34
9.650375024021466 -0.5834939896805816 1.8916215198528752 62 78 53
8.511545591636501 -0.8269507960555392 2.2049772921906423 68 84 55
9.655728300897422 -0.33879353059134326 1.8914372904818961 45 58 27
9.928864526725615 -1.499861895190898 1.9902057442436558 69 83 58
9.684074474785138 -1.3911486158263646 1.8904653573760393 66 80 55
8.902615942834242 -1.093620906871032 2.042229421435267 65 81 56
10.068706381251182 -1.6151748318190664 2.2145481839610737 68 84 60
8.68153393429496 -0.9881480241170844 1.8083802563250282 66 82 58
10.255659161087234 -1.7437178139133884 2.9377105875660225 81 103 69
9.927717563193173 -1.4132417682390481 2.716277177386744 68 85 57
10.255659161087234 -1.7437178139133884 2.9377105875660225 81 103 69
10.253853598874109 -2.1953102703027367 2.32799391775183 70 88 55
9.794626487408708 -2.540470181071767 1.9963248230515673 67 84 54
9.50663706332512 -2.901552666196088 2.010097872177718 67 87 51
9.84051870076747 -2.8269351284916326 1.5751907645982186 62 82 44
9.284989637967016 -2.6948368095647663 2.279515124279185 69 89 55
8.824306676028613 -2.5315720288047894 2.4950376620247394 73 94 59
10.823824577868267 -2.0197020173308866 1.9536298237125465 71 87 53
10.962243868776095 -1.7916447840995462 2.540900426969682 67 86 55
18.77315941828632 -2.3680018497609137 1.46637505751337 59 74 64
19.434839775820585 -2.823453497332697 1.6761239886565078 49 64 36
19.2951311436665 -2.590847167753499 1.4692097555472678 60 76 59
9.667158580253355 1.1844382950300207 1.5752695701021782 48 60 14
9.947004175806354 0.9538053686266782 1.372786758032562 44 55 7
9.334496964095948 0.5751520850748745 1.7914747521039565 49 61 12
9.671165167045022 0.9085555505787821 2.245764308233097 57 71 24
9.368985012432463 0.2224009010092745 1.901618823017551 37 51 10
10.05195978740017 0.10999166487220637 2.096379355010658 34 49 9
11.525777673866834 1.3388380393055594 2.472863578513303 59 73 28
9.377515848896627 2.5489350477750543 1.9013064046171462 61 75 28
9.70900737007572 1.8588980090018876 2.1169913907400613 56 70 27
8.830664845112034 2.2271856891243713 1.4622384327232314 60 74 29
8.925327946187794 2.801784094444746 1.6879498534401343 62 80 38
9.545440579173608 -2.978591437433281 2.400697504506958 70 92 53
8.840453339026796 2.2271856891243713 1.6890798597213192 61 75 30
9.664176910371001 -3.1330958479827595 2.553993506961039 69 92 57
9.96582072527974 2.4046184909956256 2.5099910425489855 64 82 42
9.711090236602404 2.9652779059462406 2.546779814943679 68 90 55
9.269886216191791 -0.6495894414135385 2.022134047368196 68 84 58
9.968665569510348 -1.6214635505215325 2.355390771816422 66 85 53
9.483424772530743 -0.7383659485988681 1.8974772978378396 68 84 60
10.096789695531106 -1.3417309937732935 2.342800360954322 67 83 56
8.811918687591751 -0.8198468375443034 1.9234137505609574 66 80 55
10.375481568874173 -1.4440949755970014 2.629247916987611 67 85 55
10.195126639756658 -1.3054776971404534 2.479862414411955 68 85 56
9.52276774550393 -2.295910702324355 2.128923480774339 71 85 56
10.237354361244854 -1.8936674901621997 2.329518256759404 69 89 50
10.607664437249381 -1.966114997918758 2.17694364267265 69 89 52
9.217343982087064 -2.3932796062426878 2.440486920657816 68 89 56
9.770731294294215 -2.7921339433279537 1.997433491800089 65 84 52
9.738303566131032 -2.870414747639933 2.2402584361826166 71 92 55
10.1189483702696 -2.4707295537537424 2.210827568986247 68 85 55
10.15304406678671 -1.7916447840995462 2.485202253901016 68 87 55
10.446863580617693 -2.2831297962543173 2.4495112347423555 73 87 59
9.638343494811684 -1.9900396143791017 2.7883532919790257 71 92 60
8.95261234595897 -2.594378498137681 2.6869640484548305 74 95 58
19.326292672147726 -2.518072504034555 1.3646039931592784 63 81 63
18.560251006930965 -2.4858332649121824 1.7904014227737164 58 75 63
10.061012827272263 -0.12038634430504581 2.095857542769367 36 51 15
9.700869010682197 0.6408406329179219 2.117501441006726 53 66 19
9.856922001787668 -0.004720717876983232 1.7796005123829557 29 43 4
11.506413681350127 1.0807874020920945 2.631785678247154 66 84 42
9.664670461063315 0.8083225414512701 1.4716386534875963 50 61 15
10.10560191381036 2.6376074624420838 2.491320855918315 67 87 48
9.9741333354557 0.4774846777376852 2.100910958328636 50 64 17
10.181397958108128 0.3688793103527375 2.206268189999655 52 66 23
10.719177244193599 1.7635401969938242 2.4194030644437006 59 73 28
10.10560191381036 2.6376074624420838 2.491320855918315 67 87 48
10.02098413576647 1.5063201903004422 1.4751753646288195 48 61 20
9.154584426387203 1.9701757689171975 1.9096735205818873 58 72 29
9.557274412145835 1.283815257778296 1.786248677105244 51 63 18
9.783037748627896 -2.0078638606643504 2.535995224849067 72 85 59
10.183480379318809 -2.098390309642501 2.6638405648916983 72 89 60
9.739271715839472 -0.8148166644486899 1.6781194260857524 59 75 54
9.688592166480666 0.6618695910714494 1.5752596741047122 52 64 17
10.325595503634219 0.9085555505787821 2.321447379653481 60 74 29
8.910716599132485 -2.9488563962382863 2.4822970368467194 76 97 60
8.864253613846715 2.801784094444746 1.5756747499100834 62 78 34
9.75714194324513 2.6484033634419633 2.113995270434233 64 82 38
9.385202914153682 1.283815257778296 1.4686758330870024 51 63 18
10.500932653812516 -1.6875767193819093 2.8452619936847476 69 90 59
10.15304406678671 -1.7916447840995462 2.485202253901016 68 87 55
10.367297376395738 -2.5153448078578227 1.6715952233714122 66 83 53
10.841974153938011 0.4184958723822879 2.4066385324435258 59 75 34
9.504542922778478 0.42911510923739304 1.5753461044904704 48 62 19
9.354125628376075 2.71994139536212 2.6057927466000073 69 90 53
9.589338285361709 0.10999166487220637 2.006048922221507 32 46 5
9.555450240767074 -2.4707295537537424 2.1267894591355643 66 84 53
19.596226586683994 -2.6611788472303646 1.5219533975223003 56 72 55
8.910716599132485 -2.9488563962382863 2.4822970368467194 76 97 60
9.649903014748018 -0.37920109591242873 2.1207188185892427 60 75 46
9.827132544671255 -0.9591656334254726 1.5751967505772981 66 81 58
10.01057790367551 -0.48683550527247355 2.098778635563482 64 79 52
