24.217805552776632 0.3681676398623477 0.8880896927658599 63 79 47
18.897433284715348 0.6060044189561319 1.5560371593288338 4 14 3
19.644120116403617 0.4168498628988708 1.3512151074724954 62 79 47
21.02619957007764 0.3499214282186434 1.2172975032649846 62 80 49
18.75318218155664 0.48742069716549713 1.5025469154058895 64 79 40
20.176519036047733 0.23918308909579233 1.6562022312578335 61 82 49
20.432582257666986 0.3966959770815165 1.7539343183177187 60 80 45
20.544081262025653 0.2869116719591681 1.703638454819881 60 82 51
20.283181757332503 0.3499214282186434 1.805710305181949 62 83 51
18.34633014387995 0.5611834282395729 1.555593776863587 90 107 73
12.150458119849631 0.31541630997856424 1.630178755812775 23 33 3
16.635530059244864 0.8809237006706788 1.6744410565755463 55 68 31
16.52545381349628 1.473991164007183 1.8605190771013083 49 62 25
11.386834741416202 1.0077718604653432 1.9983109205784744 34 45 6
12.188765041705727 1.1362897651850221 2.059378984698781 66 77 39
12.056621754542574 0.9812141157390339 1.798451050909121 29 40 8
11.576439039352165 0.8608621737503941 1.6331269690413475 24 32 0
11.504416367768242 0.6702957881535326 1.9001691994676917 34 45 8
11.285506308272018 0.4634155594544859 1.9068072998260042 29 40 3
11.022218938659572 0.2565549103399055 1.7275861415764016 24 34 6
11.794650740400186 0.1828710042376376 2.1771111745030582 17 28 0
11.45411461455508 0.2821295969235463 2.0937946185793432 10 22 0
11.800745051756625 0.8005601616049164 1.9823873008317474 34 45 7
11.661575879426746 0.7382904920834107 1.7189246736456494 37 48 10
11.254847249133812 0.1828710042376376 2.1040328456430393 24 35 1
11.269578903521701 0.5438200659193588 1.7241171704233598 32 43 8
11.53724200224006 0.7382904920834107 1.5466200611321033 35 45 8
11.189111542094217 0.871372766695254 2.0063770415042006 43 53 13
11.31434776439964 0.34316029744417725 1.7235057371785831 27 38 6
12.072206794027785 0.5007046653754246 1.4646595968367544 30 39 7
11.493595147600638 0.4153979639551359 2.1953917638298304 30 42 2
13.256322284735788 1.5215280283239376 2.192531607326565 39 58 18
12.642458207515524 0.6300959785371909 2.4479540488714444 48 62 18
12.32536835328333 0.7229974200920138 2.356854256739303 42 55 14
12.165428909802559 0.8028408847859481 2.2583848683454626 36 48 7
12.344168395279414 0.8852736446924168 2.355330418007494 44 58 15
12.19168230123488 0.30851483783816847 2.645351003807306 47 63 20
12.289460141628723 0.07984279200761363 2.2501239376519044 30 42 3
12.576697857837999 0.1162420015057668 2.591464339036103 49 62 20
12.06593582488259 -0.042901898762294215 2.6649553876825856 48 65 21
12.032515926634707 0.40018819741851996 2.5113805047177316 50 64 21
12.300674555761049 0.5226894027341337 2.482078422590423 49 63 20
12.375874608942723 0.46324769887590217 2.6185238515689195 46 62 19
11.84907619661392 0.35160010786213347 2.397961366902012 49 63 20
12.223406374011965 0.08915533564411092 2.3652421293302845 40 53 12
11.832995136549636 0.31318246831620705 2.2816830224664066 33 47 9
12.422465584489295 0.22991414026300266 2.4695344544207396 47 61 19
13.766662333538985 1.2127107589179684 2.589467622940939 53 70 24
12.85714081842495 1.1877688038472334 2.31625358613081 46 60 17
13.542461314525367 1.4924832853588985 2.6169586892062795 53 71 27
12.523668859320422 1.042480358560654 2.3411225461284277 45 59 14
13.824564013158483 0.9045113046021721 2.582705825255533 52 69 23
13.176704298163175 1.3978571484929638 2.4005260615561315 49 66 22
13.098250626938675 1.5103077381454661 2.4070953952383953 46 64 20
13.324510521812432 1.3761065399965111 2.505822976940238 50 68 22
13.101416908160775 1.5164908364738718 2.299175292845308 40 60 18
12.5405857993112 1.4152716168407575 2.2340562724777175 42 57 16
12.925896190167755 1.2127107589179684 2.5488792011064896 52 69 25
13.476050880025003 1.2556505544155965 2.4907389839185874 50 67 21
12.701482545947862 1.317156330349089 2.224196401986841 36 51 11
12.987546753225908 0.9045113046021721 2.541867462576227 52 67 22
12.679090116509563 0.9805144405197606 2.4444865189342053 47 61 16
12.679090116509563 0.9805144405197606 2.4444865189342053 47 61 16
13.461111606002612 0.9805144405197606 2.4921976810320574 51 67 21
13.9755251400466 1.478964031767859 2.714662682030707 51 72 25
14.891524516541692 1.478964031767859 2.7424725728146493 51 71 27
14.049080739151831 1.3111669099179533 2.7032953457138285 52 71 27
14.533834574011529 1.4598263302624963 2.805588828910315 52 73 28
14.604578532085934 1.2598256687250782 2.791983684800574 52 72 28
12.232173178269269 0.6930435650579696 2.639271327595912 52 68 20
12.692187138754685 -1.0313142520893472 2.1288618640574652 54 74 37
12.966273939588534 -1.0754758892735594 2.027764374565118 54 74 37
13.7694990785585 -1.113435101774288 1.9992786072231628 54 71 33
13.635555977251364 -0.653767433170484 2.605279184755031 50 65 23
12.614397290528318 -0.18725833451189552 2.5866103958483775 47 62 19
13.019364493509023 -0.22011266504660884 2.691213268947278 49 64 23
13.358650448708685 -0.529582774669163 2.6412462963023984 50 65 23
13.152136587369146 -0.3844202265124961 2.670765957067688 50 64 24
13.151465025617423 -0.7581706852114758 2.5238740956970687 46 64 18
12.614397290528318 -0.18725833451189552 2.5866103958483775 47 62 19
12.610563958150488 -0.9182825026495985 2.334458028247446 50 68 24
13.24891745962128 -1.0313142520893472 2.192932134797867 53 73 34
12.806001633270284 -0.8453815922718678 2.4327334471433404 49 67 22
12.763215333328269 -0.8576240203329992 2.5680793850327475 47 65 20
13.614031920470643 -0.8576240203329992 2.6079448917932737 52 69 29
13.26148634707373 -0.751964310668823 2.654815655205859 55 70 31
14.130781852423887 -0.723970858562717 2.9002076501801195 54 74 37
13.495374007226081 -1.2241524575727545 2.8012091147355243 57 78 41
13.418783585697359 -1.4462076933691959 2.817710031812032 59 80 45
14.107838509442118 -1.4083197497698794 2.9069047277220346 60 83 48
14.202911600905953 -0.9776472464457865 2.680728322392506 51 72 32
14.180707813209834 -1.1291369542045775 2.886299078623202 55 76 40
14.323192408075894 -0.907315837691411 2.8506147864799836 55 75 37
12.823408348229508 -1.0679437058272414 2.318684690074317 47 65 19
13.221975437770165 -1.1658676801685905 2.3967918638861745 48 68 24
12.623224210914852 -1.116926282227589 2.4497886066106194 48 68 24
13.205094117153292 -0.9425900172442162 2.5181806048505115 49 67 21
13.185343377716048 -1.2057150505193224 2.2935118530900613 47 67 23
13.185343377716048 -1.2057150505193224 2.2935118530900613 47 67 23
13.599532792515182 -1.1541459183574718 2.174563238509147 42 62 23
12.008094560125368 -1.5064617633160138 2.3836741252752263 52 74 31
12.497616197398571 -1.330148736729377 2.6018706484307623 55 75 37
12.380808649029936 -1.2344187484463844 2.473774772105225 51 71 29
12.131021781104408 -1.4976024081609214 2.500331901184659 58 79 42
12.659059099815103 -1.185363667272749 2.5809456682068577 52 72 31
12.141578915993103 1.7777213763375193 1.713027943207773 49 66 29
12.773611379708951 1.7064784207105872 2.124887507390672 42 60 20
11.652346653984955 1.796328449724303 1.8958328301822993 49 67 27
11.630718652895622 1.8826295111752316 1.806943018086053 53 72 32
11.9134687497124 2.042448313739085 2.170211581904325 41 63 18
11.72908750410823 2.0001185060778335 1.9850557528829182 39 59 17
11.714852235317535 2.1560233016222807 1.5469866701120294 40 60 21
11.536613051708468 2.276688384450888 1.633342423601806 39 61 17
12.557435856785315 2.52142849195071 1.9562294187263323 38 56 17
12.550828031113895 2.675589121227187 2.1359083948672604 47 64 19
11.51005672618714 2.2067603221961534 1.9000016975597398 42 64 21
12.432920759744523 2.7146646093832767 1.9602961142596897 45 61 21
11.119623087895523 2.5739704890774813 2.2198539571069382 49 66 21
11.522052520972569 2.334034939043013 2.1936124875387866 45 65 20
10.965059931164122 2.4139087148017406 2.2305927848226688 47 66 19
12.474223013155404 2.5949081806845595 2.047253433007934 43 61 18
11.633753305499138 2.1845860472701464 2.1867339659695464 44 65 21
11.612090673577775 2.2655727731809447 2.0859685527392147 42 63 19
11.806410038663904 2.3997071611435077 1.803363636742211 39 55 14
12.364778681369256 2.454917865529537 1.7104435051333815 38 52 24
12.51640819618104 2.63842292141562 1.8726574889346028 41 54 33
12.07615491320609 2.3997071611435077 1.8840295447038171 39 56 13
10.968841999471165 2.334034939043013 2.1194949937051355 42 62 18
11.522052520972569 2.334034939043013 2.1936124875387866 45 65 20
10.973338038830189 -3.1189186035109295 1.2673549824490353 53 69 32
10.831260830604574 2.8835995960246112 1.5450439152741553 50 66 21
11.452858361242466 2.7965763643366706 1.8106817382450908 48 63 19
10.959820009408126 2.9748002668124323 1.8217001683601248 49 67 26
10.583624628787245 -3.1165250827606323 2.03317234285265 58 75 37
10.608405407274994 3.061234651395332 2.0320084123411823 53 71 29
10.83900507120507 3.0517947741486338 2.239646815224976 54 72 31
12.206478987184015 2.7633779042540727 2.1539000021798445 48 64 17
11.403103734328113 2.8577310533983225 2.0963756921755303 50 67 22
11.403103734328113 2.8577310533983225 2.0963756921755303 50 67 22
11.81216358733774 2.8835995960246112 1.9819653623530606 49 65 18
14.06634447119482 1.6311816931341125 2.5557972887875824 49 70 24
13.854421759772391 1.6243044041204528 2.4556772436819627 46 65 21
12.68939815315746 1.8185372704678113 2.224925687483509 38 56 16
13.321524874279358 1.8185372704678113 2.2845320844980725 39 57 17
14.531723254645351 1.6690217794485536 2.806005087347048 52 72 28
14.97474138654382 1.7578652570516167 2.5858403947985984 51 71 27
14.889463917536784 1.6520591195188963 2.7428008357119866 51 70 25
14.732557395080311 2.0491209625877778 2.7688866822747897 53 74 29
14.414544434943876 1.6400843144183976 2.651986903452568 53 74 28
13.973329462405946 1.6520591195188963 2.7150082295053837 51 72 25
14.182073293939682 1.9756354203643438 2.683696443304936 54 73 27
11.342537191497303 2.4251571293659855 2.4478908273156 56 76 28
11.078632833334677 2.3300907697010764 2.3419125490292894 54 73 26
12.132596333132412 2.334034939043013 2.2606094331065223 47 68 22
11.000741714051784 2.875596947413287 2.4861427645828793 52 73 32
11.092245358785036 2.787338703708148 2.3407205907673307 50 68 25
11.491085215206112 2.6738696361330456 2.579175756036759 56 76 33
11.701852961985864 3.0242580489978033 2.5512170703310484 59 79 41
11.000741714051784 2.875596947413287 2.4861427645828793 52 73 32
10.445059778412979 2.738005769156146 2.4026939181848204 49 68 22
10.658463300891023 2.6738696361330456 2.5291258522936246 56 77 31
10.752880022424224 2.6148097965231494 2.371792053484419 50 68 20
12.0379306321198 -3.098209988535287 2.669480780522741 62 83 46
10.96029173601096 2.5390046286005665 2.4909580740433057 56 77 30
11.595317392047807 2.936408147217358 2.29947018908321 50 68 25
17.943919465155545 -2.320823655382936 1.0273305261982493 40 54 23
18.524611020848592 -2.2710131693590805 0.9161732249265977 51 66 35
17.335206972344388 -2.367392992664635 1.005976885332024 41 55 26
17.94854191299871 -2.418624570349746 0.8912990578472602 60 77 46
11.43186602558328 -1.897535710053272 1.9023393344187824 55 75 39
11.687629398817807 -1.832005433554414 2.1834750238170506 52 75 40
11.748861567282068 -2.0214222228960907 2.079389868051134 56 78 45
11.406012221731576 -1.9300683271275616 2.096227802351173 54 75 42
11.687629398817807 -1.832005433554414 2.1834750238170506 52 75 40
11.984712198271312 -1.807480290961279 2.0684515290729966 53 74 37
9.961812310750433 -2.58775373964661 1.5427957285289362 66 85 55
10.619481705139084 -3.0239433304512864 1.4500736755271655 62 79 44
10.033386633147996 -2.812164955827129 1.6427283672837625 63 82 52
10.545880293862217 -3.0239433304512864 1.5443468725926923 59 76 42
9.881103269319171 -2.909566791969335 1.745870247329967 65 84 52
10.88272580420689 -2.99651265484016 2.2364754582796764 68 85 50
10.105548153761594 -2.58775373964661 1.741942977261024 65 86 55
9.800857741311653 -2.7764783185821247 1.9602367790964805 67 86 55
10.29521837761894 -2.99651265484016 2.160006505289656 69 86 51
10.905027400176253 -2.625556364621044 2.234870583741352 68 87 57
9.853398295852628 -2.6776839791924254 1.8505912005730183 66 85 54
11.3497849481864 -2.1817490037912246 1.4578759330978315 55 76 43
10.404266489555743 -2.3719610680482424 1.543986779985597 61 82 51
10.762348746403548 -2.5068052251978927 1.3574336848563089 65 84 55
11.408076824344311 -2.1817490037912246 1.7222413504862844 58 79 46
10.87223912104927 -2.1053738323434823 1.7297672949960463 55 76 43
11.423639369922991 -2.1569225420712423 2.095333384219086 60 79 47
11.267800352373637 -2.3002144860132305 2.1033544225656104 59 80 49
19.34083053514683 -2.0265696545989975 1.0704185057902433 28 41 6
18.042185495252266 -2.229356207943761 1.030617749460018 42 56 25
20.031093167648763 -1.972300712906074 0.9727007865536208 29 43 8
18.778031569669555 -2.1399683576840793 0.9915544270576017 37 52 18
18.443903564935784 -2.204847477536289 1.2805233124557467 24 37 5
18.443903564935784 -2.204847477536289 1.2805233124557467 24 37 5
19.298926358759527 -2.0780995156837956 1.127430342359384 25 38 4
19.298367023160644 -2.0019402681082954 1.1840500563179017 27 39 3
17.673242196703303 -2.278484288534976 1.146302124317645 33 48 14
18.976159337371442 -2.17279790144609 1.343352200889788 28 41 6
18.997693200168285 -2.157713869402162 1.119886615096819 29 42 11
18.00723560761042 -2.2399563326645056 1.2146258426683847 27 40 7
19.45264457394945 -1.9298356800410352 1.2421324105002072 27 40 4
20.373612616032876 -2.0055541362308444 1.4091547722497777 36 48 12
18.080703040141493 -2.5039976849476346 1.0318947503547482 34 48 28
17.956838087449725 -2.4128853713652743 1.0277651109921588 33 49 24
17.461106310471074 -2.4128853713652743 1.0768163959498949 33 47 20
18.133639097281062 -2.45417191562239 1.0966835106851485 32 45 24
18.06557717272115 -2.3664067051819684 1.0947492578027063 31 45 14
18.293205488365015 -2.2847525773253876 1.2780616528514948 26 39 6
18.776538859017823 -2.2489276410377896 1.340890875850077 27 40 7
12.18483068897466 -2.0113651044429393 2.646390555763362 58 81 48
12.741560562533689 -2.277227847260526 2.5707158920438857 58 81 50
12.426131024733573 -2.1558456342810732 2.611552226606042 57 80 47
12.426131024733573 -2.1558456342810732 2.611552226606042 57 80 47
13.240646512063938 -2.3828220656935426 2.657797917535258 59 82 51
12.937391032683651 -2.256855774501395 2.7045003864962425 60 83 51
13.150283757335515 -2.4054232228368835 2.885405408499718 66 89 58
13.667744127988986 -2.67745038572426 2.7672243196014663 66 88 55
13.488551425913608 -1.9045708742967 2.802640155315644 56 81 48
13.577313475841988 -2.3907570119692436 2.7845596877575596 61 84 51
13.356826265861697 -2.2224022817318643 2.831824834065829 65 88 55
11.342756423894915 -1.6355514926808699 2.447867585142458 59 80 43
11.598939173111674 -1.8995987211575889 2.421716982592457 57 78 43
12.182473336366453 -2.1240050282362546 2.3686694674732482 59 80 47
12.059907866776145 -2.0783947736370156 2.508273326904184 59 80 47
11.811127991443561 -1.9477522956330295 2.5375493233929314 57 78 43
11.559648687591094 -1.6458968992235845 2.5698349097217554 63 84 48
11.385490860211512 -1.7473108676053408 2.316042239396659 56 77 42
11.557163815263129 -1.8620403744515281 2.302420587613659 56 77 42
11.811294119515225 -1.9694144853782107 2.283266158283757 58 79 44
12.720066714626029 -2.8086184238781158 2.573352485678308 70 91 60
12.461802881714862 -2.8505501434392904 2.4655767273006126 73 94 62
12.797751081020492 -2.461038127502803 2.4334855581700987 63 84 53
12.993414423791252 -2.919090570426979 2.695361531728053 69 90 57
12.463398769903822 -2.6071321853334934 2.606471295256081 65 86 55
12.422060526892894 -2.5617083486200998 2.469575440299428 64 85 54
12.582736277398743 -2.952599829473601 2.590682330712335 76 97 63
12.321594298821326 -2.977416363225706 2.479891703675247 83 103 68
12.93348144246195 -2.6776032841881934 2.5480089566895563 65 86 55
11.847906091641525 -2.3744421634476547 2.2805998422140403 59 82 51
12.036463139900214 -2.2906761216880716 2.381187275675492 58 81 50
21.51026532577709 0.30149485586569763 1.1247846666411827 62 80 49
22.579864771348195 0.43902174088286133 0.9421061160820035 62 80 48
23.00840074332578 0.3681676398623477 0.9555830697310068 63 80 48
20.297152772323386 0.46352146025697527 1.3076904183146052 63 82 49
19.948789588424273 0.46352146025697527 1.7584279462484955 64 80 42
20.103825985524857 0.3966959770815165 1.6066728041185452 64 81 49
19.411840621214296 0.25156568351799924 1.4010702350258688 61 81 48
16.380749620175756 1.3504419987961864 1.7376856535070289 50 63 26
12.200232847917583 1.5215280283239376 2.0588793941910746 44 59 20
11.687113890349204 0.07984279200761363 2.1835060290629915 23 34 1
11.45411461455508 0.2821295969235463 2.0937946185793432 10 22 0
12.149766571745507 0.73171078414889 2.156982069055074 34 45 6
12.367167260673032 1.2237765467457917 2.1453535415803673 48 62 23
12.173132728691998 1.055359279812945 1.9690719203423026 50 61 23
11.281830397533279 0.37600322520280477 2.0025556341304735 27 38 0
12.35828144228383 0.6835097324027247 1.467125440107507 32 41 5
11.325574618871759 0.5941012044904931 2.0007767402265757 31 43 6
11.018455191922511 0.16583819169204012 1.8203364686451997 15 25 1
12.22840432078376 0.6531666059050967 2.25416259134641 36 47 7
12.467995697674159 0.5639194183287511 2.345464378795052 39 52 10
12.581555462488474 0.8059291316554328 2.453796377747232 50 64 21
11.84907619661392 0.35160010786213347 2.397961366902012 49 63 20
12.121293731082998 0.46335392265504427 2.3738581022583727 41 54 13
12.555802403881543 -0.03633892055244052 2.5941839816646275 47 62 19
12.526980370913563 1.0936026038974036 2.234905161546826 43 57 12
13.618356183128293 1.3482009756425875 2.6074077001352998 52 70 26
13.158273404749036 1.089632216488163 2.5231461877442194 51 67 22
13.239504567188298 1.042480358560654 2.3953568630934514 49 63 18
13.529863394683042 1.0210969313989824 2.6185698302148435 52 69 24
13.542461314525367 1.4924832853588985 2.6169586892062795 53 71 27
12.931477661484298 1.1439298120763157 2.421491889219366 50 65 20
13.9755251400466 1.478964031767859 2.714662682030707 51 72 25
12.568517818014199 -0.052355353500702785 2.772281253575066 49 67 22
15.060109373163764 -1.3818991732818104 2.0334059169200147 46 63 29
12.692187138754685 -1.0313142520893472 2.1288618640574652 54 74 37
12.126897885615914 -0.22011266504660884 2.6553095563233655 48 65 22
13.24891745962128 -1.0313142520893472 2.192932134797867 53 73 34
12.763907322512242 -0.4587056737049462 2.7345617442906467 53 68 29
12.976601062514495 -0.6204277838314274 2.698077493653274 54 69 28
13.986337229083954 -0.9708023396078312 2.946532221617131 55 75 38
13.418783585697359 -1.4462076933691959 2.817710031812032 59 80 45
14.58179295411691 -1.0324217340881834 2.796295168151659 55 76 36
14.107838509442118 -1.4083197497698794 2.9069047277220346 60 83 48
12.86360941480754 -1.1148013300061148 2.2145825818659803 43 63 22
12.205120100493547 -1.0114725897329004 2.366768922314923 46 64 18
12.938591737672201 -1.0114725897329004 2.4208653403146823 46 65 19
12.140102350713454 2.0409657647797914 1.4652554044212396 50 70 31
11.675951812777672 1.9643921300458953 1.6325950520207466 54 73 34
11.73371051211048 2.1560233016222807 1.6322904653960522 41 61 22
11.226718414272181 2.2067603221961534 1.8156116161610563 41 62 19
11.15340532414671 2.2655727731809447 2.007867455683039 42 62 18
11.321816486051706 2.0814618956402486 1.7234042089049484 40 60 19
11.12708086820359 2.4058125573302402 2.0089730611421928 40 59 14
11.586808367028002 2.4058125573302402 2.0872043608091713 43 62 16
11.821614186413374 2.467779406009569 1.9816168182381455 41 59 14
11.159495550322513 2.826287901268262 2.217145862999666 49 67 22
10.474129285625207 2.5069955791370004 2.2674905479168497 49 67 19
10.496806450591938 -3.1189186035109295 1.6395475354572682 55 72 34
10.814752698586311 -3.113566740298354 2.2414205186478138 61 78 41
11.257253890536258 2.7965763643366706 1.7242863639028423 49 65 18
11.159495550322513 2.826287901268262 2.217145862999666 49 67 22
11.44923618095722 2.8835995960246112 1.9018171043274548 50 66 23
10.69340248432985 2.9748002668124323 1.4509122359273703 49 67 25
10.637212987897989 3.068881781550847 1.7333106167724677 52 70 27
10.741578198903301 3.068881781550847 1.357014718563054 53 69 28
13.099074712601215 1.6188323736367471 2.2993347997512616 42 60 18
13.172865734196797 1.7201801188626444 2.294347501881973 41 59 17
13.924210412893158 1.7369316388972682 2.449576443016833 44 66 21
14.064930463652844 1.8454757481559243 2.4375901309499026 43 65 20
14.954423060636522 1.820452398508916 2.732614991732638 54 72 26
14.182073293939682 1.9756354203643438 2.683696443304936 54 73 27
14.954423060636522 1.820452398508916 2.732614991732638 54 72 26
11.142243211251463 2.5069955791370004 2.3363792441993514 54 72 24
11.630187464433687 2.250857249139537 2.296797350070844 50 71 24
11.630187464433687 2.250857249139537 2.296797350070844 50 71 24
11.204529140544388 2.738005769156146 2.4628374938180144 53 72 27
11.382577129170595 2.674959239328471 2.3162784736414075 50 66 23
11.617011301713816 2.9098562227639233 2.419944621795661 51 70 29
10.752880022424224 2.6148097965231494 2.371792053484419 50 68 20
11.204529140544388 2.738005769156146 2.4628374938180144 53 72 27
12.282996217080134 3.0398504926427945 2.4839369689663067 60 80 40
18.480856210828012 -2.320823655382936 0.9809999927899434 45 59 28
18.48310043798502 -2.367392992664635 0.9144483232530247 52 71 41
10.653097192036729 -2.3744421634476547 2.13771614552402 59 82 52
10.896519552260653 -2.6363770929289396 1.4531574068249637 62 81 53
10.556740860730846 -2.7326038287246934 2.2609611240580363 69 88 57
10.377932975381745 -2.720828182178963 1.5439187356631119 62 81 51
9.951088732100908 -2.88331344661868 2.065113272318779 69 88 56
11.30229158969 -1.9824230501940876 1.723669912828825 56 76 39
9.929932341545289 -3.011651895540692 1.8483773158554342 66 83 47
11.517901182040188 -1.7285362104718132 2.1938713576458237 51 74 39
10.104479929604748 -2.445828738383835 1.843458660166593 61 83 54
10.915646987411336 -2.0214222228960907 1.9186660853510515 55 76 43
11.687629398817807 -1.832005433554414 2.1834750238170506 52 75 40
11.938982967111471 -1.9300683271275616 2.1687521075174447 55 78 44
10.39610147158905 -2.3002144860132305 1.9368487885990877 60 81 50
9.852302732686521 -2.530067369595257 1.9580947606058994 64 85 54
18.734868626255746 -2.191746513788456 1.0526456970885545 38 51 20
19.48555600894449 -1.972300712906074 1.0151248982439725 30 43 7
18.182952955978816 -2.204847477536289 1.3332435595610468 27 40 7
19.34027241144909 -1.9499400415952965 1.128445347411448 24 37 1
18.754609546081284 -2.204847477536289 1.2294114466183008 24 37 6
18.89155255894843 -2.0780995156837956 1.1752642829713273 24 37 2
18.10804490431384 -2.278484288534976 1.0959580802555908 40 55 21
18.700636095752305 -2.1268397273914186 1.2846216709491527 27 40 4
19.676560841354252 -2.0274864276876046 1.3515830485748492 44 56 20
20.16688518875978 -1.9595167211747815 1.356996664637648 45 58 22
17.908777807401865 -2.323805504948174 1.2125796995734806 27 42 8
12.18483068897466 -2.0113651044429393 2.646390555763362 58 81 48
12.741560562533689 -2.277227847260526 2.5707158920438857 58 81 50
12.426131024733573 -2.1558456342810732 2.611552226606042 57 80 47
12.705803926068425 -2.0984281560464413 2.745303330896696 60 84 51
12.955302970577735 -2.5146999388658187 2.7015505823544084 62 84 53
12.645206274892978 -2.3907570119692436 2.7569175637130563 60 83 51
13.208564440223826 -1.9968504907832765 2.869069411960546 64 87 54
13.54002897154237 -2.871488170322234 2.79201634584807 64 85 50
13.374176468975943 -2.5687987776134977 2.8277970366312166 63 86 54
13.41649679479142 -1.6811019835841863 2.8182181440313414 55 79 46
13.374176468975943 -2.5687987776134977 2.8277970366312166 63 86 54
12.384668387970535 -2.192532045751203 2.4733797255601155 59 80 47
11.643200208937147 -1.8021433819855042 2.5587773453574845 61 82 47
11.852173778105518 -2.0177944221258004 2.3976772623578473 59 80 45
11.557163815263129 -1.8620403744515281 2.302420587613659 56 77 42
12.582736277398743 -2.952599829473601 2.590682330712335 76 97 63
12.759747407202493 -2.4824308620850326 2.568500285607735 61 84 53
13.126449001400081 -2.75327788655813 2.6746252118293583 67 88 57
12.321594298821326 -2.977416363225706 2.479891703675247 83 103 68
13.125776125379458 -2.3778498149049554 2.526634161872661 59 82 51
11.912560196257537 -2.2179351562682594 2.275945986735685 59 80 47
19.53936822909437 0.30149485586569763 1.4538990606960005 62 81 51
19.174468782588065 0.4168498628988708 1.556250417065855 62 81 49
19.770184466939334 0.5334591471685572 1.8119251801049234 69 86 51
11.262192199127126 0.9303148286340622 1.8148247872229648 27 35 0
11.68948949660999 0.6171123084934869 1.5469350003952407 31 42 6
11.556619794419651 0.8028408847859481 2.191466008242698 33 44 4
11.662729071691112 0.9517433568426003 2.184976561368694 43 56 12
11.152272629521885 0.8005601616049164 1.817279653637519 37 47 10
12.375874608942723 0.46324769887590217 2.6185238515689195 46 62 19
12.326265386817928 0.20374913529761868 2.356781389152344 38 51 12
11.832995136549636 0.31318246831620705 2.2816830224664066 33 47 9
12.032515926634707 0.40018819741851996 2.5113805047177316 50 64 21
14.533834574011529 1.4598263302624963 2.805588828910315 52 73 28
12.636749081084998 0.5973884001454438 2.583763948888175 52 67 21
12.969679346087625 0.7109140064855026 2.5438853042225844 53 67 21
11.842984612110603 0.26361092928453567 2.533662336388833 49 62 20
14.068525631971728 1.5025382127773435 2.555563656550987 50 69 23
13.158273404749036 1.089632216488163 2.5231461877442194 51 67 22
12.679090116509563 0.9805144405197606 2.4444865189342053 47 61 16
14.192886820176486 1.1569949069702143 2.682152899609634 53 70 26
14.137224928646608 -1.4556745727263947 1.9112853954437603 57 73 39
12.964285903945093 -0.4602217029077937 2.5444966797311075 48 64 20
12.349851530822164 -0.7581706852114758 2.4769594144398415 47 65 19
12.751386748164249 -0.33006866521121486 2.569517088591388 48 63 19
12.572150526218136 -0.9795174389648077 2.2320960683368294 51 71 27
12.62705369988229 -0.2666180165503083 2.7604842666455163 51 69 25
13.314672300002773 -0.9776472464457865 2.6473211795770415 52 70 28
13.26148634707373 -0.751964310668823 2.654815655205859 55 70 31
13.614031920470643 -0.8576240203329992 2.6079448917932737 52 69 29
12.62705369988229 -0.2666180165503083 2.7604842666455163 51 69 25
12.215688933857232 -1.3623720916604738 2.491104183701792 53 73 34
12.406946085003705 -0.9425900172442162 2.471108229502082 46 64 18
12.131021781104408 -1.4976024081609214 2.500331901184659 58 79 42
12.823408348229508 -1.0679437058272414 2.318684690074317 47 65 19
12.896245343810113 -1.055715395480892 2.5523017262553025 49 68 23
12.990737769729058 -1.2727308645370523 2.4163071421781366 49 69 28
12.436300958002336 1.796328449724303 2.0488278675460365 43 61 21
12.697500319155834 1.614375063458438 2.1286006689607726 40 60 20
12.75709330720637 2.568075033852616 1.7857487230706437 38 53 23
12.349787825203144 1.9122461221019407 2.1462648983570087 39 59 17
13.053129344238624 2.5035797117140643 1.6260679025841653 36 49 27
12.797349366670394 2.454917865529537 1.8658290196336176 36 52 18
11.583228074197992 2.4844729650046236 2.189824699056026 44 63 16
11.733183986329896 2.5441381292741014 2.080134958384964 45 63 16
12.088644222219404 2.7146646093832767 1.8836949314569154 45 58 27
11.397143684401106 2.336943791094446 1.903388309563567 40 59 15
11.448121939414227 2.723522465560558 2.19825810240172 49 65 19
11.357155101602954 2.128796813268674 1.9995019054521457 41 63 19
14.481634044258922 1.784742793763434 2.643362838721094 52 73 26
14.616988674713632 1.9208985164256243 2.626598331586144 51 72 25
11.604944583267457 2.4139087148017406 2.2987300096676133 52 71 23
11.29247025327493 2.829835101054525 2.6077300006709265 56 76 36
12.523993262078822 -3.1049093368337104 2.5983651376433783 65 85 48
11.204529140544388 2.738005769156146 2.4628374938180144 53 72 27
17.890422054477355 -2.367392992664635 0.958744941799865 43 60 32
10.768113488902213 -2.530067369595257 2.1309307657389676 66 87 56
11.532697109344143 -2.0679114488394066 2.1929497808351126 61 81 46
11.142642481809355 -1.832005433554414 2.1099873061301384 53 75 40
11.517901182040188 -1.7285362104718132 2.1938713576458237 51 74 39
18.215288795434887 -2.157713869402162 1.2188718712805127 22 35 2
19.277728986330636 -2.098755288496217 1.3469713469675775 33 46 9
19.359953578771034 -2.051568288921447 1.2404991689096971 34 46 9
18.3798350031034 -2.2399563326645056 1.1636109314009146 32 45 14
17.959147797549488 -2.4635658473633955 0.9614287287824148 38 54 29
18.574192068859794 -2.2489276410377896 1.3933364652263003 31 43 8
13.54002897154237 -2.871488170322234 2.79201634584807 64 85 50
12.937391032683651 -2.256855774501395 2.7045003864962425 60 83 51
12.059907866776145 -2.0783947736370156 2.508273326904184 59 80 47
12.322491607093657 -2.3778498149049554 2.4797982121674402 58 81 50
12.426131024733573 -2.1558456342810732 2.611552226606042 57 80 47
11.300034017784737 -1.6277085281171455 2.323043276714519 56 77 40
16.64788246045518 1.4116047452249703 1.8583274817783162 49 62 25
11.5053774082001 0.2565549103399055 1.9001406471332825 23 34 3
11.508981919373358 0.34316029744417725 1.8094891429760518 23 34 3
20.234899663288243 0.19031794006466218 1.7557440431863265 61 82 49
19.767505287234897 0.3499214282186434 1.5060540081250489 62 81 51
12.08767811997881 0.13701731347662463 2.661483493598876 49 65 20
12.589392167367325 0.16675107291052557 2.7680210023975516 48 65 20
13.618356183128293 1.3482009756425875 2.6074077001352998 52 70 26
13.329925087425073 1.289640801333521 2.388049156555785 49 64 21
13.856636279154735 1.5103077381454661 2.4554820097376533 46 64 20
14.846752558054565 -1.3101442836209023 1.9663763787841713 40 57 21
13.437501976302757 -1.0754758892735594 2.094596945484595 50 70 31
13.614031920470643 -0.8576240203329992 2.6079448917932737 52 69 29
12.008094560125368 -1.5064617633160138 2.3836741252752263 52 74 31
12.86360941480754 -1.1148013300061148 2.2145825818659803 43 63 22
11.507814587579917 3.0398504926427945 2.430794734251717 59 77 38
11.202929071176806 2.957563033129502 2.106770586256011 50 68 25
11.092245358785036 2.787338703708148 2.3407205907673307 50 68 25
12.085212601193946 2.7965763643366706 1.9721349500104643 48 64 18
14.598274352623601 1.8700447202170727 2.793170095485892 53 74 28
12.51640819618104 2.63842292141562 1.8726574889346028 41 54 33
15.10567816811731 1.8787795778818137 2.5720362297178445 50 70 26
17.94854191299871 -2.418624570349746 0.8912990578472602 60 77 46
11.438473792790255 -2.8416900013233017 1.2800624323217273 61 79 49
11.361777258802855 -2.1053738323434823 1.9044637282345995 59 80 47
19.513744226364153 -1.9796927712734336 1.2968609521774694 40 52 16
19.83999814270607 -2.0265696545989975 1.026180214828868 30 44 9
11.852173778105518 -2.0177944221258004 2.3976772623578473 59 80 45
12.993414423791252 -2.919090570426979 2.695361531728053 69 90 57
11.427893796175958 -1.7710907410994787 2.4389568117162366 58 79 43
12.350886786044898 1.0077718604653432 2.146207178234663 43 56 11
16.268018448947956 1.473991164007183 1.8015765419994985 50 62 25
11.560935142211854 0.4247294402007419 1.546669617930372 28 38 7
12.320409741392192 0.10091871637298666 2.480015162029073 45 59 17
13.24693224753406 1.5025382127773435 2.51380170289172 51 69 23
14.533244903802293 -0.7420954251885146 2.8057050235735197 54 74 33
13.299846822409773 -1.2386899231562396 2.190188678496803 46 66 26
12.953451791439532 -1.3033973461369042 2.3094113975191592 47 67 24
12.207869348486563 2.3391776417580785 1.6298991654332387 40 56 13
10.4989129125583 -2.2365445603127254 1.63953371970811 60 79 47
19.207229250871983 -2.216027753034576 1.4518681252964531 31 44 7
18.987667421675706 -2.1074301010829397 1.0602197550274495 33 48 14
10.249183176934388 -3.011651895540692 1.9423494922224585 64 81 46
14.105663427622451 -1.7147595914018268 2.907550531799266 62 85 51
24.155559383318472 0.48742069716549713 0.8859925123032161 68 85 50
17.215110442297025 0.8360640615150127 1.6126961904407768 59 74 36
21.299776001504206 0.4168498628988708 1.1200541543181042 63 81 49
19.38690800036737 0.20032249499175894 1.3482531293519893 60 78 45
13.542461314525367 1.4924832853588985 2.6169586892062795 53 71 27
12.5405857993112 1.4152716168407575 2.2340562724777175 42 57 16
12.953451791439532 -1.3033973461369042 2.3094113975191592 47 67 24
13.912449906847009 -1.3379146086136293 2.975547333667338 58 80 45
12.26160026533142 -3.1098169776690434 2.4861995506278407 68 88 49
10.945594419540063 -2.931047555703878 1.3610594885588025 61 79 48
11.659172092577046 0.8852736446924168 2.2945925861596974 39 51 9
11.32191171720971 0.5091840250642184 2.100540003334614 30 42 2
13.865347198868777 -0.87612798125661 2.732480341235482 54 73 33
17.890422054477355 -2.367392992664635 0.958744941799865 43 60 32
11.115474385087964 -2.2365445603127254 1.9121548260041212 61 80 48
