13.387675303711319 0.6778287249596463 2.3083063124551875 49 53 51
14.043713287065486 0.8209492828117877 2.3634813863066926 8 12 9
13.712379988258114 1.275274470472157 1.9442320366307522 13 24 12
13.251666255416703 1.2506204717671434 2.040881352402108 15 23 20
13.64028294318839 1.060413661509654 2.1099026769629132 15 22 16
13.691641368766867 1.2021465900073243 1.867460592872367 16 23 17
12.75208338178764 1.1380452175509868 2.0608889270652377 16 23 18
13.25715933822066 1.3106833129792497 2.2188505844618085 12 23 7
13.806724460989633 1.1380452175509868 2.189045179695111 15 24 14
13.497738959926968 1.221661123043191 2.20542341991369 20 29 16
14.280888865300957 0.7392840700371388 2.568926164146179 12 19 7
14.093956763649333 1.0153498544226192 2.2636677350756695 48 56 48
13.977035492170504 0.9915676829712667 2.477026252300167 46 56 38
12.880831997787345 1.0948696578276895 2.4599545421518276 33 45 21
13.776074460702722 1.0493853451006152 2.3833969429589565 53 62 47
13.407693710437247 1.1872249363648961 2.306950657047326 46 55 35
13.165468746745761 1.2839075931096307 2.323749481951484 36 46 26
13.461497166934011 0.9626371142202124 2.303335184786038 65 73 64
13.171678957437068 1.0315576303518659 2.559502025972612 39 49 16
13.910683069918521 0.8352464975230012 2.6116305844360683 35 45 14
13.09051138411698 0.8269017878747091 2.4404464204733287 89 92 85
13.09051138411698 0.8269017878747091 2.4404464204733287 89 92 85
13.48813589304132 0.9213532975923173 2.5247640465996124 37 45 20
12.925031653594948 1.1584156275997668 2.5891692875960097 36 49 16
13.225235760624743 1.2511960201686663 2.4284649161461718 39 49 26
16.141376314635846 0.2793313074582359 2.620933021855397 56 62 60
14.984326892348543 0.446194668497513 2.6214336743922835 63 71 65
15.614169877648413 0.5370213509736403 2.860764094921722 41 54 19
15.882033379873691 0.43870712220610425 2.8072341265433987 39 52 18
14.563425733851245 0.5120291769890919 2.674361736093945 48 57 46
15.248284988686931 0.0785096581272524 2.9618028305469712 44 57 21
15.28629002433124 0.36937989596511284 2.728832380201069 56 65 49
14.62150211346754 0.8687342913605155 2.849575478970629 37 50 14
15.438803244603811 1.0798014710516652 2.903289772805298 40 54 19
14.459750934033611 0.728978606417945 2.6887805147455515 57 65 46
15.787020372708316 0.7127518998654293 2.825014133715159 38 51 15
15.295028812541007 0.4199751213588548 2.945700528395966 44 57 22
13.572658232264494 -0.7977152580672604 2.850714258537917 41 56 22
14.408082587274682 1.7090106341441718 2.439719378067589 30 48 5
15.302325490368492 1.8135463587510452 2.472456914426336 32 49 3
16.362292710176483 -2.8645614252517912 2.731026199627099 50 65 27
16.501421497957384 -2.724126812572267 2.712069060006206 48 63 27
15.848352535073428 -2.564714132347119 2.813406390710334 48 63 27
16.401486906061432 -2.397232266535165 2.5939104636429016 44 61 25
15.744273224014592 -2.207856774861993 2.6667641789872176 43 60 22
16.699377239077084 -2.599168168090001 2.6868792541221045 46 61 27
17.02885365009519 -2.8499730860654027 2.536203990093081 47 62 28
16.505106480956716 -2.817063545901652 2.583702515068453 46 61 27
16.36600901954914 -2.929171672220148 2.5974750856360513 51 66 28
16.36600901954914 -2.929171672220148 2.5974750856360513 51 66 28
16.074966968357728 -2.951478646780161 2.5130181498511805 48 63 29
13.060701183100077 -1.7792592344147973 2.13666652703695 58 68 68
15.232389144760708 -1.9282546191210375 2.478283941516068 41 52 46
14.364078702109177 -1.7339408974965842 2.5600050037154016 38 52 22
14.678330638654664 -1.9696767359320606 2.528204136095066 38 55 25
14.487583430269774 -1.8558564130336976 2.5471633047496773 38 53 22
12.838035777234198 -2.098160818041749 1.8068581903121814 60 69 60
12.27572947417285 -1.9486785076531707 1.9029186121569353 17 25 22
14.933743905207063 -2.073568435307072 2.5043122255117938 39 56 26
14.957091675484117 -2.065703323789872 2.3033178427495886 42 54 34
14.716792818520354 -2.0242480682424957 2.4152607131313153 40 57 27
14.716792818520354 -2.0242480682424957 2.4152607131313153 40 57 27
15.27905177651303 -2.1336565917166515 2.588686515479923 40 57 19
15.588865894541746 -2.2321649988090924 2.5572756764959266 42 59 23
15.27905177651303 -2.1336565917166515 2.588686515479923 40 57 19
16.8089312105853 -2.8769657674918205 2.4552158481279767 46 60 29
12.929963346719815 1.221661123043191 2.143101946642031 13 23 17
13.604058959015086 0.9512890366709268 2.6514668116007316 37 49 12
13.09051138411698 0.8269017878747091 2.4404464204733287 89 92 85
13.722995128266447 1.4041207927718347 2.286324121149839 17 29 8
13.707585086111733 1.386419038559603 2.388687708730855 36 47 22
14.093956763649333 1.0153498544226192 2.2636677350756695 48 56 48
13.290733027335964 0.8852189371638854 2.2169393598015 60 67 62
13.461497166934011 0.9626371142202124 2.303335184786038 65 73 64
13.59371912237194 0.900529437666113 2.3976700838683636 62 69 61
15.581826880598703 0.8687342913605155 2.868052193556979 41 54 18
13.408220171913126 -1.018154952976206 2.8949644970025403 40 55 21
14.984326892348543 0.446194668497513 2.6214336743922835 63 71 65
14.563425733851245 0.5120291769890919 2.674361736093945 48 57 46
14.685864967929913 0.1787494539195627 2.6580970784036277 63 71 65
15.406674451571433 0.6834684096742577 2.912031876602118 42 55 20
15.457906663179667 0.05745042484316316 2.8982544956166003 42 56 19
14.353728684668908 1.601355809307855 2.4442100457150797 31 47 8
23.4681408695894 2.448817351593316 2.7863086678482354 42 55 20
16.21656103350978 -2.8499730860654027 2.5011041574754516 46 60 31
16.14724728133589 -2.656177538743626 2.7627840315508534 49 64 28
16.23045014714115 -2.6621077360385934 2.6114409732744632 46 61 27
16.79807378715729 -2.564714132347119 2.8325958770303896 48 63 26
15.712198042327115 -2.405372495725221 2.670750854290177 46 61 27
16.075959816133807 -2.4905039507037796 2.6280737096798803 47 62 28
16.349491841777986 -2.5196488069864764 2.7328285613031604 46 61 27
14.364078702109177 -1.7339408974965842 2.5600050037154016 38 52 22
15.038194956572852 -2.112049922409381 2.3915168157485787 40 57 27
13.491612342059172 -1.6890662913113774 2.205757785334762 51 61 61
13.825709275320568 -1.8661454158072637 2.188068837846897 61 70 70
14.096579501933299 -1.9486785076531707 2.1744947923063416 59 67 66
13.883705506880494 1.3106833129792497 2.2763063295191093 14 25 7
12.348608086540684 1.0315576303518659 2.514966379013797 35 47 17
13.557218431855972 0.7464078564275851 2.4006002325543268 94 97 92
13.08875816904003 1.4041207927718347 2.2286283495754438 10 22 0
13.945609530159231 1.0992320476811466 2.0157569962255257 17 24 18
14.179644694175119 1.060413661509654 2.1704607913394085 12 20 12
15.458548952864849 0.39455705270150365 2.5701479733190586 65 70 66
15.882033379873691 0.43870712220610425 2.8072341265433987 39 52 18
15.458548952864849 0.39455705270150365 2.5701479733190586 65 70 66
14.459750934033611 0.728978606417945 2.6887805147455515 57 65 46
15.504018501273103 0.3155435457122498 2.8865499044089624 43 56 21
15.262009512031659 0.9107519523261812 2.956920659441903 43 58 22
15.744273224014592 -2.207856774861993 2.6667641789872176 43 60 22
16.026703443287346 -2.776153886515182 2.633549719312677 46 61 25
15.404864511986698 -2.3006169158919842 2.7115939338524546 46 61 27
16.138600561144653 -2.1336565917166515 2.6212330362923293 41 58 20
15.250574537208426 -2.1668374437325224 2.4767594376178597 42 59 22
14.933743905207063 -2.073568435307072 2.5043122255117938 39 56 26
15.048666464799563 -1.824872341473671 2.4940675604793867 35 47 42
14.716792818520354 -2.0242480682424957 2.4152607131313153 40 57 27
13.718707444371631 1.0975219884172311 2.28659581120102 44 53 40
13.154403710297792 1.172522490291452 1.9609073332139402 15 22 17
14.179644694175119 1.060413661509654 2.1704607913394085 12 20 12
13.48813589304132 0.9213532975923173 2.5247640465996124 37 45 20
15.687808834229461 0.31831835610327736 2.673814266764149 77 84 77
14.487583430269774 -1.8558564130336976 2.5471633047496773 38 53 22
13.84754376200454 -1.7574616226064315 2.619465728464767 42 57 19
14.067612685963718 1.1329232437046348 1.8593009326397265 16 23 17
13.09051138411698 0.8269017878747091 2.4404464204733287 89 92 85
16.045106918966408 -2.3106446118942374 2.6314935290937003 43 60 23
13.946902003772468 0.6350653531867952 2.6072146023363794 103 110 102
13.59371912237194 0.900529437666113 2.3976700838683636 62 69 61
13.64028294318839 1.060413661509654 2.1099026769629132 15 22 16
15.883416966739961 -2.901048402907299 2.649995309606377 50 65 27
13.557218431855972 0.7464078564275851 2.4006002325543268 94 97 92
14.706219881215725 -2.1414513546691576 2.229580766250103 38 50 29
13.434439122147069 1.2104289838384505 2.530423052845935 31 44 15
13.902225198152792 -2.026146363866741 2.0986687605085335 49 57 49
13.466385715382827 1.1457065013789052 2.408002705922927 45 56 36
