16.35089928163048 1.073810331069585 2.242917917728514 4 3 1
15.482153093795471 0.9648375874811808 2.2055702652209352 3 3 4
15.477894454249194 0.9159644241788374 2.288646547618661 1 1 3
15.592954193855292 0.7298466258083602 2.3703496672394895 2 2 4
16.33386247615587 0.8599697774329805 2.4124441867397435 2 2 4
16.34686696695062 1.0338186953889892 2.323993939238375 3 2 0
15.17342992199262 0.9339151546770125 2.3992251663990656 0 2 3
14.501319275127372 0.5668954496519315 2.7115338702866465 51 60 43
15.906236915399777 0.6569238279925718 2.443066180533862 2 2 2
15.341236257568134 0.5230027026089661 2.3873787926305474 0 2 2
14.269565580578746 0.608150541442008 2.593700259723133 16 21 15
11.453745870537603 1.551701811240099 2.6656608043598107 48 61 24
11.944950250446311 1.5547579388483108 2.591189831442229 46 59 23
13.534900750694762 0.8191041346650426 2.9123617110959263 54 68 41
13.416152387131838 1.1154395036975189 2.95402687968252 55 69 38
13.736341592648962 0.9966337330420816 2.856232160886922 50 64 37
12.946757685859662 1.3173027197610556 2.7959016093343387 50 63 31
12.900315543425748 1.5472070768959783 2.8060404615037235 48 62 28
13.985504111185486 0.5012807468887975 2.8007249151379483 52 64 41
13.619349723592663 1.2440811780870886 2.887146983217005 50 67 31
13.924348236321586 0.8084876509877711 2.813331103767367 51 63 40
12.854723811812885 1.3964617542700797 2.6255629471487367 45 59 25
14.442347775952031 0.8029565418043146 2.7205239984615055 51 60 43
13.924348236321586 0.8084876509877711 2.813331103767367 51 63 40
14.180545379595468 0.6697561672034511 2.7638569614816353 53 64 44
13.287137446445088 2.3220122546739703 2.570811166718035 48 60 16
12.686560149762892 2.075697399553632 2.649432809549207 48 60 20
12.495967425132243 1.9182008789263565 2.678681782006382 47 61 20
13.799136706253787 2.4274699235473856 2.652427189971215 47 61 18
11.994000722344492 1.7795878531998646 2.7712497996552616 48 62 23
13.012445274592716 0.030455397197267874 2.469295473561398 18 24 20
13.706070429555716 0.12281896655956584 2.3047869488159045 15 17 19
13.670013993496173 -0.07443788305354303 2.307168995290452 15 19 20
13.711953453081177 0.13615715933080152 2.4075609101297633 15 19 22
13.651477011706879 0.024427437538813202 2.308400541097387 13 19 22
13.031891267405898 -0.09272233331049051 2.467423070474681 17 23 21
13.670013993496173 -0.07443788305354303 2.307168995290452 15 19 20
12.94870221782735 -0.08258238049541375 2.358899299491829 11 17 22
13.031891267405898 -0.09272233331049051 2.467423070474681 17 23 21
13.045127331965245 -0.1903264290347443 2.351495039771658 11 18 16
12.69483398367012 -0.26612578361710143 2.172018953416643 11 17 16
12.5491597978507 -0.32764578105429154 2.391448478313329 8 16 12
11.928160720562829 -0.3699172680283803 2.4491335266910963 32 41 34
12.368304396754327 -0.2131547718297008 2.407275161263148 10 17 13
12.413587795371836 -0.33110245336953614 2.692161192209125 46 61 33
12.758961455721977 -0.12285433783380394 2.638951497367912 45 59 35
13.20779846631915 0.0483469017293683 2.744648244188052 45 59 34
12.447842264277009 -0.5515672015984773 2.528514001952008 44 60 41
13.27296974438597 -0.439858408056503 2.142437287979193 11 18 18
13.460618970523841 -0.3911790298271461 2.321361766866501 12 20 16
13.176362771913347 -0.7501998022690566 2.5840415329517596 45 61 37
13.176362771913347 -0.7501998022690566 2.5840415329517596 45 61 37
13.569192823387976 -0.8454940211766919 2.53920949475021 42 55 38
13.860042684826261 0.2951919445626983 2.82723808251823 51 64 39
13.405222725205926 0.5357335049745603 2.958372439584014 57 71 43
13.349399023686317 0.11696270170873704 2.9825150911311322 55 71 42
12.874471051336752 -0.1816798860276148 2.811845007456983 52 68 41
12.874471051336752 -0.1816798860276148 2.811845007456983 52 68 41
12.854786924351888 0.060112652116989865 2.8163488720963237 49 63 38
12.874471051336752 -0.1816798860276148 2.811845007456983 52 68 41
13.36835488288731 -0.34435718338132687 2.9739075350108326 54 71 41
14.235901929118729 1.490603691862117 3.053617505259337 55 72 42
14.278000461965977 0.8477697763026552 3.024869601668347 54 71 39
13.46177440963994 -0.695598950043587 2.9369392677458874 48 67 37
13.144007030359791 -0.5913323691396674 2.756390541174895 46 63 31
12.886712694366697 -1.0251388937351271 2.481648882239348 45 60 38
13.437910675405345 -0.9928553087933932 2.7056063123187224 43 62 36
14.168230101169875 -1.1547436573234418 2.766053670791928 43 63 36
13.650433546780345 -1.4298356864287733 2.5306082136702797 41 60 28
13.389226220934779 -0.7412464436211152 2.7134775588109465 44 61 31
14.423758481217773 -1.3818463728659027 2.723411018359057 45 65 33
13.703205346800697 -0.8590252360048799 2.665745480266787 45 61 36
13.823310070362767 -1.0765445268432574 2.649152110722801 45 61 36
13.927999817395522 -1.555960553103145 2.6353204226995866 46 66 31
13.971026174543656 -1.40930092937512 2.629793700169218 43 62 31
13.7671612713544 -1.3062642197596808 2.518605003044762 42 61 30
14.099119269839305 -1.5605235029268736 2.3776164591919504 40 54 20
13.471417878617995 -1.4457616256974168 2.4275749217641014 41 55 18
14.200014103509606 -1.5593499962576787 2.477348271463618 38 58 23
12.224370093011927 -2.9953124225263643 1.7501580767501523 43 53 11
10.966357979245508 3.1189565698051753 1.6786845704087896 41 49 9
11.118574623795045 3.1189565698051753 1.7682208048567751 42 52 11
13.202889549281297 -2.7615711885548175 1.8141105351757543 43 54 11
13.014793053448559 -2.6559307330492024 1.8978329003633438 43 55 9
13.821710499153001 -2.7615711885548175 1.955014050805362 43 55 10
15.564580009151681 -1.9287008171746867 2.5808283597533754 58 75 42
12.535985830586291 -2.8703379022906543 2.180736844921971 45 57 14
13.693996898022043 -2.693964035318532 2.2110562457254797 45 59 16
13.379801682454698 -2.7792134546719454 2.2286661230827933 45 59 16
14.69543436420123 -2.56772095885027 2.3361468386858295 47 61 20
14.021201689463314 -2.56772095885027 2.2846920561940633 48 62 19
13.51555824553021 -2.615151916035064 2.1309333646888646 45 58 13
13.121122539901068 -2.693964035318532 2.1498998458458556 44 58 15
14.548630265086143 -2.434283635293765 2.3458864511265967 46 60 21
14.460309636997014 -2.492479138268602 2.258675099737502 47 61 19
15.597861268651668 -2.221267347450944 2.466950631530708 58 75 40
13.456534202666004 -1.673233240142372 2.428852269817967 44 58 24
14.393887029427152 -1.8597900737505142 2.356472779814432 46 59 23
14.127447424384199 -1.6627928732585802 2.3755257488519206 43 55 20
13.560159264960928 -1.784521802130703 2.4200552799076736 47 61 26
15.779737881021278 -2.0811102604184613 2.452667307123896 54 70 35
15.021266033786912 -2.0811102604184613 2.4103341305465698 54 69 33
15.498403822657098 -1.9899246087017173 2.47501458372707 53 69 35
15.021266033786912 -2.0811102604184613 2.4103341305465698 54 69 33
13.581494957090172 -2.8099697821261427 2.1278915612122007 44 57 12
14.234278516215271 -2.5869050788175536 2.0199715544089454 44 54 9
13.891128940827148 -2.7303714043849054 2.1140659497232868 44 56 11
15.403638147350515 0.7943643738695894 2.2928641064546507 1 1 3
15.379405845480083 1.0667522520155464 2.3847408032575297 1 3 4
15.569016554591501 1.0169226445367543 2.469270341903997 0 1 4
15.56221673319034 0.5390361399608797 2.5810702156984817 0 2 0
11.99509191052956 1.3964617542700797 2.584415283972353 47 61 26
13.725666897734765 0.6271238828938948 2.8588952569723305 53 67 41
12.924955686652975 2.4274699235473856 2.6160639739286555 47 61 16
12.3834403679422 1.74064066473664 2.697235012102259 46 60 20
12.951772657715145 2.2099806965337345 2.612504565341545 49 61 18
13.79135684846267 0.02222756711505999 2.2058075303587215 14 18 19
13.900159699948693 -0.1566516570822672 2.200052291664355 14 18 19
13.79135684846267 0.02222756711505999 2.2058075303587215 14 18 19
13.012445274592716 0.030455397197267874 2.469295473561398 18 24 20
12.435022981445426 -0.10569034816812793 2.5299808976365363 46 55 46
11.99732724709472 -0.2798623684233749 2.5841162991102054 46 60 40
12.542731391226912 -0.2937910221552563 2.281329597059354 13 20 16
13.115412545080824 -0.17187107131506477 2.244338195777285 11 17 16
12.535400054657037 -0.24208417231348167 2.5186543891946633 45 55 46
12.948562385615075 -0.35578616363250587 2.1586390213480984 13 19 18
12.874471051336752 -0.1816798860276148 2.811845007456983 52 68 41
13.597808270776275 0.38236591776378165 2.8933111503857347 55 69 44
14.243391911842494 -0.6003366818790851 3.0478444955016415 55 72 42
14.235901929118729 1.490603691862117 3.053617505259337 55 72 42
12.971447985206888 -0.4040676883133791 2.790654733611495 49 65 33
14.243391911842494 -0.6003366818790851 3.0478444955016415 55 72 42
13.542778435388046 0.0794310262978938 2.909881921949812 53 68 42
13.36835488288731 -0.34435718338132687 2.9739075350108326 54 71 41
13.22583080270837 -0.9516125641752812 2.5780716806508495 47 61 37
13.633910218458183 -1.2207803434241205 2.6757043287804487 43 62 34
13.86478583384815 -1.0606349262818235 2.826187601767853 46 62 35
14.200014103509606 -1.5593499962576787 2.477348271463618 38 58 23
12.029623248425091 -2.9953124225263643 1.5858303787355348 44 51 12
12.070947960815325 3.1189565698051753 2.0144028477620766 43 55 12
13.202889549281297 -2.7615711885548175 1.8141105351757543 43 54 11
15.564580009151681 -1.9287008171746867 2.5808283597533754 58 75 42
13.134406537053653 -2.8703379022906543 2.243184667619443 45 58 15
12.792865149210323 -2.7792134546719454 2.1667720950971354 44 57 14
13.121122539901068 -2.693964035318532 2.1498998458458556 44 58 15
15.114967718581678 -2.492479138268602 2.3098119168964377 46 60 20
14.22618632214289 -1.7631745030300618 2.3683382241737063 45 57 22
14.72544826870186 -1.9899246087017173 2.433013689243446 50 64 28
15.021266033786912 -2.0811102604184613 2.4103341305465698 54 69 33
15.376541867448157 -2.1638686561109535 2.3849380295682536 51 67 29
13.787973995332594 -2.6559307330492024 2.035634473649558 43 55 9
13.401558450969352 -2.7303714043849054 2.050147545063882 42 56 11
15.17342992199262 0.9339151546770125 2.3992251663990656 0 2 3
15.602351395031304 0.8599697774329805 2.369730273473099 3 3 5
12.351112856856044 1.551701811240099 2.702764511750181 48 61 27
13.736341592648962 0.9966337330420816 2.856232160886922 50 64 37
12.399612181806695 1.3641008173867257 2.6945035488192675 50 62 31
13.575208780608468 1.5399456945501642 2.89996532077691 49 66 30
13.371340673931282 1.5262299764905682 2.972593490149049 53 67 36
13.534900750694762 0.8191041346650426 2.9123617110959263 54 68 41
13.039070296885566 1.9914463399503786 2.776752062521653 47 61 22
13.670013993496173 -0.07443788305354303 2.307168995290452 15 19 20
14.022462403568909 -0.9239605990855496 2.4936921375332592 39 52 38
12.758961455721977 -0.12285433783380394 2.638951497367912 45 59 35
13.303329467564643 0.17382456239963937 2.5689183098062705 23 27 22
12.849516641331073 -0.6344151327944738 2.626277730605193 45 61 35
12.805774854073142 -0.43390044873607164 2.3701852768602096 8 15 11
12.183690699254523 -0.4239631090531714 2.5600436213369964 47 60 40
14.168230101169875 -1.1547436573234418 2.766053670791928 43 63 36
14.439377995418967 -1.557873820450324 2.5747215617172214 41 61 28
13.703205346800697 -0.8590252360048799 2.665745480266787 45 61 36
13.426790614437026 -1.5593499962576787 2.431419117090278 41 56 21
13.821710499153001 -2.7615711885548175 1.955014050805362 43 55 10
16.002902321131923 -2.2980179519129176 2.435903654713962 53 69 32
13.693996898022043 -2.693964035318532 2.2110562457254797 45 59 16
15.787262154818734 -2.238336426266552 2.357769376152721 44 57 18
12.829218719482043 -2.894173720629222 2.073479963596564 47 57 13
11.960620668845513 1.5472070768959783 2.7785057509230806 48 63 25
15.540747433442396 0.574780442581684 2.4715587315746768 0 2 0
14.501319275127372 0.5668954496519315 2.7115338702866465 51 60 43
13.736341592648962 0.9966337330420816 2.856232160886922 50 64 37
15.739330278522056 0.9876246426304981 2.3608290405680394 3 2 8
14.180545379595468 0.6697561672034511 2.7638569614816353 53 64 44
13.42492699967769 -1.1404264283062526 2.555019403176506 45 61 37
13.26421812040509 0.23975351663946376 2.734621140878456 45 59 34
12.758961455721977 -0.12285433783380394 2.638951497367912 45 59 35
12.197847193533692 -0.486272120260207 2.422891099779755 20 29 21
12.593792912964084 -0.4950000843950033 2.6633524347595254 45 60 33
15.255529763457972 -2.2980179519129176 2.393377832476111 47 62 23
15.376541867448157 -2.1638686561109535 2.3849380295682536 51 67 29
13.476519108964855 2.3136295839803958 2.6994970497266944 47 61 20
12.739098847539386 0.040430914540162455 2.641795093953159 48 58 40
13.167134410795589 -1.1904116922126595 2.4546703555956535 45 61 35
12.94870221782735 -0.08258238049541375 2.358899299491829 11 17 22
14.085097295588634 -1.2692863513681545 2.6155560283604427 41 60 32
13.510485673771187 -2.836065605613787 1.9643454288842122 43 55 10
14.072384624656092 -2.615151916035064 2.1911715477046654 46 60 17
10.966357979245508 3.1189565698051753 1.6786845704087896 41 49 9
13.069708261589106 0.15272010707539144 2.463810135844162 13 16 22
14.757432118697373 0.6943455382833414 2.675134430517475 64 72 58
13.349399023686317 0.11696270170873704 2.9825150911311322 55 71 42
