20.419138811466514 1.6922006247074313 0.8759661402478249 36 40 25
20.912644478684058 1.8756709504731235 0.8954777645482284 36 40 25
19.28967149531714 1.801933310645495 1.0810761528237691 38 43 28
19.724220538455945 1.8756709504731235 0.9747026877681801 37 42 27
15.252756779157906 0.0377138440413052 1.4344343793586791 45 46 37
17.244843213255567 1.0887197487724505 2.04839425167975 9 7 5
13.573219225295409 0.5984985725375861 1.7132144413405894 37 41 24
15.565983124488186 0.6691441688543608 1.4371949369493882 12 11 5
14.861256846311637 0.313406010373789 1.4985015358363651 39 41 26
14.822619317480658 0.313406010373789 1.565840649958164 39 42 26
14.82789523735271 0.6162217069459022 1.5658424132541282 39 42 27
14.303147741985226 0.5590152903575571 1.6356207588852563 37 41 24
15.49731816671943 0.9168962473762748 2.1077007675134998 12 13 6
14.474875023743648 0.8105315215967626 1.9926328129332493 27 28 16
15.077527309161786 1.0032812502975774 2.289443295360574 33 37 20
15.509115813886808 0.9324580876626436 2.2653541793296026 29 32 17
15.077527309161786 1.0032812502975774 2.289443295360574 33 37 20
16.580028107300727 1.1189574552525363 2.1393233682732484 3 1 0
15.167247209618143 0.9521588662161514 2.3751808458214323 36 40 19
17.139148765845647 1.1189574552525363 2.188511039792843 4 2 1
15.509115813886808 0.9324580876626436 2.2653541793296026 29 32 17
15.420874031905498 0.3738194125827686 2.4549876501625603 44 48 27
15.174147657998281 0.4658483423750248 2.5903597007109846 45 49 28
16.645375591452222 1.2964587207206153 1.9999751444277862 7 4 5
9.871784867961923 2.0901684470468282 1.5633552723756827 31 35 14
11.266412050376509 1.9242409892767363 1.5642763867597953 26 30 15
9.657053086248672 2.232825085742226 1.4594084330928123 32 38 15
11.012710641799194 1.8385372983172803 1.4731670497382499 27 31 16
15.092489224689109 1.1659845362824064 2.380339769701411 38 42 25
11.415460029390802 1.7667471370745793 2.1166737869921555 30 36 14
11.147142940398602 1.864997336017383 2.028574093018286 29 33 12
11.642389684876917 1.8385372983172803 1.9148040836038973 27 31 16
13.214077699551863 -0.35096490280276615 1.7941197121714882 48 49 36
12.919197834694744 -0.35096490280276615 1.6425763498166646 46 47 35
13.389781120790513 -0.5898684207944258 1.640049529239993 36 38 16
12.876007597483627 -0.634244655127497 1.8000867915823195 39 41 20
14.511850387628046 -0.23863627726815878 1.5657345240430325 34 35 27
14.237927134593074 -0.030502736428289254 1.7065233879466515 45 46 35
13.514802045844629 0.11925693867543287 1.7890690181700908 47 48 35
13.435413805261446 0.04346472787319357 1.7903798365978054 46 47 35
14.303112908392542 -0.10108633604339853 1.7059010179720113 45 46 37
14.461575285882608 0.18026894476533137 1.7044116879625848 43 47 30
14.203026103310489 -0.10108633604339853 1.6360783748627918 46 47 39
13.734140390008715 -0.48845548740533684 1.6383104504738488 43 45 26
13.307983312091169 -0.21553115382793642 2.1182097682706997 49 51 33
13.28898365741786 -0.19820202360940858 1.9505846944738972 47 48 36
13.954277267712593 0.04705163163852198 2.0902135052967 50 51 36
12.66447241995288 -0.12813912453166573 2.057784284401932 48 49 35
13.091274967489213 -0.03873903687808998 2.1283314734277745 48 49 33
14.474330647442427 0.22749405056878277 2.2353597302487005 52 56 35
13.555341502243 -0.14066631030244 2.289654690329133 49 51 31
14.330621670804614 0.14048337856779256 2.2432405899868852 51 55 35
12.619695434412364 -0.299709908425507 1.9718464420897517 49 51 32
12.481058001939628 -0.49329229750095144 1.9765612421188659 46 48 27
13.042614815911513 -0.299709908425507 2.042493151616519 49 51 32
13.175904828453202 -0.27623334185349 1.8734030031712843 49 50 37
12.079583563498268 -0.4133491146446805 1.9908840661525968 48 50 30
12.310719762618856 -0.26095688247185816 2.2703461855554856 49 51 31
14.644554691697067 0.3071958897741999 2.5224930472676363 44 49 28
14.644554691697067 0.3071958897741999 2.5224930472676363 44 49 28
12.819446739271752 -0.05306279441982663 2.4564595608947464 47 51 30
12.891806874184427 -0.17476183258187059 2.4496195948828947 47 51 30
12.62099534255903 -0.6151327483986652 2.059609287654479 49 51 30
13.158647089163097 -0.6847041453384867 2.0380002283537135 49 51 27
12.447560734769224 -0.6709580977268238 2.1609129846197765 50 52 29
13.849416393954332 -0.751097010854045 1.6377476500727142 42 45 16
13.975659163067998 -0.8533817340845902 1.7090866573596375 45 47 19
13.52668820706378 -0.9104693996816918 1.7888741167980249 43 48 23
13.107616847747332 -0.805347120025186 2.0399651282257003 46 51 22
14.017275357223808 -1.0149367969707528 1.8547172973949662 48 53 28
14.844004790503051 -1.0518060616604963 1.8385030479029112 50 55 29
14.815352672676747 -1.1510886619988745 2.1353304794666226 55 57 33
14.310691089507696 -1.1814218857050616 1.9222427767435428 53 55 31
13.927740672006873 -1.0415696654879436 2.091303276033266 49 54 25
13.950871787605564 -1.0749986972899854 2.2651067481065725 49 53 24
16.00841731409338 -1.3725051583949242 1.75464307379298 52 54 31
15.06497452556641 -1.326358122045974 2.1248716108283086 55 57 35
16.138049647950975 -1.351640967505808 2.4997565926430454 55 60 35
14.971290466199779 -1.1962277236842198 2.2956670159079486 51 56 27
16.138049647950975 -1.351640967505808 2.4997565926430454 55 60 35
14.327820833763177 -1.1962277236842198 2.243396250621405 51 56 29
16.57435815688034 -1.6430405477334595 2.290609071195504 58 59 38
17.226818634370265 -1.562717670097764 2.3355014424740794 58 60 38
16.045522448450935 -1.40340076080828 2.2378181297579767 57 59 36
16.51977029141879 -1.5620109254149823 2.3774210613791933 59 61 39
16.51977029141879 -1.5620109254149823 2.3774210613791933 59 61 39
15.453127982176735 -1.3059221908012668 2.268376108712038 56 58 34
15.959975756278643 -1.499600917481353 1.819372809787288 50 49 27
14.262452256320799 -2.129828759786098 2.247052126756252 57 63 38
16.3285198384531 0.3986848508476456 2.724176429064996 47 52 30
15.981855854209238 0.4667099777151681 2.7761569270743496 50 56 32
16.6454787060509 0.5598262425462485 2.8466163146929513 51 57 35
16.6454787060509 0.5598262425462485 2.8466163146929513 51 57 35
20.950288655259243 -2.6954854483435935 3.0939778255063435 59 65 43
18.252056939225533 -1.54152920252651 2.9524494859253108 64 70 50
16.862775242688855 -1.3708567025565075 2.8068029280490854 61 65 45
17.1779367168256 -1.4409974574586246 2.623846699174973 56 63 40
22.928006185187275 -1.6592053670668652 1.9237964562366798 59 39 22
10.450107289481975 2.309909856650967 1.3710560410220347 31 38 15
9.189036756444454 2.617145372070421 1.4537097941051216 36 42 20
9.037259023669186 2.9670020417842458 1.5626681300482919 38 44 22
12.716662625175795 -2.6304809433185987 2.3489371855014047 56 60 38
12.716662625175795 -2.6304809433185987 2.3489371855014047 56 60 38
12.985965172179723 -2.391389995905845 2.32869851827705 57 63 40
20.70119664806528 1.816206363985396 0.8872695860429558 35 39 24
20.536318711782396 1.7549184219701666 0.8807126442623057 35 39 24
20.179176615315072 1.8952000846714583 0.8660131949856091 33 37 22
19.516418288897587 1.8582978898186413 1.087258870448492 40 45 30
20.084636691779505 1.816206363985396 0.9258833294924649 38 42 27
15.252756779157906 0.0377138440413052 1.4344343793586791 45 46 37
14.365058539333738 0.4020055006183847 1.7053148660703883 40 44 27
15.271594997326664 0.523955545502978 1.4346036365617376 33 35 24
14.574759057703174 0.2479573824917168 1.6344110602821877 42 46 29
14.076458427712323 0.4974042929451367 1.7802274062037264 39 43 24
14.179861247474712 0.33562837876496604 1.7786777135739698 43 45 26
16.23973791865731 0.8938951227693026 1.68970784533564 9 6 7
14.833318581516941 0.8683611052133811 2.1345636408818103 29 30 17
15.682566311916352 0.46536510354980926 2.434874446479559 44 48 27
14.85269377378605 0.4150838010168206 2.5030892630111485 43 47 26
15.682566311916352 0.46536510354980926 2.434874446479559 44 48 27
16.752169266055354 1.2773468006320483 2.13277193171278 23 21 20
16.645375591452222 1.2964587207206153 1.9999751444277862 7 4 5
11.641614570051479 1.6483927142780643 1.6504695686047581 27 31 12
13.860249502156005 -0.3261016899269587 1.637695242985777 45 46 36
14.308505578594033 -0.1706751323728278 1.5656625877889316 52 53 45
13.641545127269891 -0.18342304681574995 1.7870086922546136 46 47 37
13.854682357946162 -0.25609223768532274 1.783630959664046 48 49 39
14.31773828261623 0.11087099436751331 1.7057621658105246 45 47 31
12.918753611069654 -0.14066631030244 2.2313685494279074 48 50 31
13.651889937773168 0.051283234537909284 2.1902848655759994 48 51 32
13.071960338320784 -0.035540391606958294 1.9572205885598857 47 48 35
13.750795324562267 -0.10874404105639028 1.8603769486179471 46 47 36
14.255777328928033 0.051283234537909284 2.247427928990234 48 52 32
12.718570912060299 -0.327391598097833 2.1467094183380997 49 51 31
12.310719762618856 -0.26095688247185816 2.2703461855554856 49 51 31
15.419710494553724 0.3986848508476456 2.6978823818633524 47 53 30
15.841979526116194 0.34725182269421195 2.644748456575457 46 51 29
12.43358407920421 -0.7359076134973044 2.26205938719717 49 51 26
12.546485199209306 -0.36046289230946876 2.2546360993103316 49 51 30
12.183449226634897 -0.6151327483986652 1.9870792974739828 48 50 29
13.477835190812351 -0.6955100284150506 1.7896774274625096 44 46 22
14.815352672676747 -1.1510886619988745 2.1353304794666226 55 57 33
13.74680249459259 -0.9966032440422626 2.1853697207673535 47 52 23
13.03702084257676 -0.8611096002435827 1.876730561948609 47 50 21
14.645384713774252 -1.1159845218281457 2.226241770659515 49 54 25
13.545354444934116 -0.9731044117729345 1.9430410031863132 48 53 26
14.392485353490658 -1.1145576492300227 1.8471183529472854 49 52 26
17.24999816496953 -1.6430405477334595 2.334212989824691 59 61 39
15.07139408364939 -1.226361336326623 2.2046868091428897 53 55 31
16.55607604631234 -1.4748192243612104 2.3751357589750137 58 60 37
13.621933584612227 -2.181396000123841 2.285384890679613 58 64 41
16.22199885115865 -1.984696368385963 2.011951837544623 59 61 38
15.981855854209238 0.4667099777151681 2.7761569270743496 50 56 32
16.567821797242885 -1.3273344364262103 2.8624564287840237 63 67 46
17.210858742831046 -1.4013057444737345 2.7528270544091247 57 62 40
22.895157913044873 -1.4631137890645316 2.118724629485696 64 46 28
9.572067555060753 2.3806758034263753 1.6677447874442155 31 38 15
13.437507086563683 -2.6304809433185987 2.4019644091976415 55 60 36
12.716662625175795 -2.6304809433185987 2.3489371855014047 56 60 38
19.91465477006343 1.7549184219701666 0.9194472160279371 36 40 25
16.803986166210994 0.9800482751469293 1.8066441538817226 8 4 5
15.550534240642792 0.9792708746979275 2.182220948828279 12 13 5
15.077527309161786 1.0032812502975774 2.289443295360574 33 37 20
13.815829455572448 0.703597104078606 1.8589746964714222 41 45 28
14.701394021945164 1.0811199560295697 2.312047158384081 40 44 27
16.580028107300727 1.1189574552525363 2.1393233682732484 3 1 0
11.45538579581921 1.9242409892767363 1.388790426240778 26 30 15
12.506733677547343 -0.4549636926830469 1.725452671109998 44 46 27
12.304917955019425 -0.3797346692261298 1.8109329456783705 47 49 30
13.139431495668385 -0.634244655127497 1.874269731857187 45 47 24
12.486055272377367 -0.23611909582923066 2.1588496462320554 49 51 32
15.220506748730182 0.27521308923419385 2.471209877603129 44 49 28
13.480698626760331 -0.035540391606958294 2.0259850500247087 49 50 36
14.247432808334697 -1.0805463983428396 1.9998085862929358 54 58 33
13.680817081586001 -0.803194526026351 1.8619013597692398 45 50 21
13.347560624266814 -0.7471873477336614 1.948833523916211 49 51 26
16.586471458770692 -1.482498679668249 2.2899689593267816 57 59 37
16.55023238152807 -1.562717670097764 2.291887833969809 57 59 37
17.27874576727474 -1.6493360752906407 2.4160179626459537 60 62 40
17.35955678351496 -1.7354801185857403 2.410785078334989 60 63 41
16.862775242688855 -1.3708567025565075 2.8068029280490854 61 65 45
17.1779367168256 -1.4409974574586246 2.623846699174973 56 63 40
8.931896232104242 2.4624395149175258 1.4503228179330447 33 39 16
9.08433481548299 2.9670020417842458 1.6729676141661487 40 44 23
19.959960231476238 1.832315299797707 0.8566347997652287 32 36 21
12.600959893957233 -0.5669190202470289 1.8876798339318959 42 44 23
12.288117875054521 -0.19876976544858707 2.5112345557265527 46 50 28
15.100052346904935 0.2491357864280927 2.379814256755191 47 53 31
16.55023238152807 -1.562717670097764 2.291887833969809 57 59 37
10.069351814475647 2.7601243945154397 1.260617678658531 37 42 20
12.992391543746372 -0.742272403860667 2.1330840723096065 49 51 25
13.067312831786378 -0.23611909582923066 2.222564764026828 49 51 32
9.325153752176968 2.860487412671265 1.4554265583381167 37 43 21
15.092489224689109 1.1659845362824064 2.380339769701411 38 42 25
14.655656256218244 0.46484100813949747 1.5657841924478009 39 43 27
14.247432808334697 -1.0805463983428396 1.9998085862929358 54 58 33
15.753885810727006 1.0032812502975774 2.3372400032317735 36 42 19
15.945467916424043 -1.482498679668249 2.2427686853711055 58 58 38
16.580028107300727 1.1189574552525363 2.1393233682732484 3 1 0
14.218424152708112 0.7584269913707793 1.778105672081423 22 23 11
15.394287075645668 1.0811199560295697 2.359980986053248 40 44 24
