10.268587538300652 0.9140025156550586 1.7394586694672238 30 39 24
10.372425707084666 -0.09626985950392858 1.737754245288314 38 48 32
10.514442851473834 -0.19238302170219085 1.7354784122558244 40 51 35
11.409824857156197 1.4640195191120364 1.8118412356925426 19 28 11
11.489671357050776 1.2897158524493306 1.633827180998663 11 20 4
10.750040664704404 1.0492834184404476 1.8269573831281125 2 10 0
12.364312686766763 1.8012300312054168 1.6293631300454359 23 32 14
12.066464697629234 1.638858999690914 1.6308105070786008 21 30 12
11.786784944718091 1.9044975855193849 1.7175647979464064 23 34 13
10.963575073010484 0.8486594083250351 2.1200693554436896 2 7 0
10.081321609293754 0.6974298653186967 1.9491258835344798 32 41 28
10.023000035258278 0.5100201907092823 2.1785916359331776 33 42 26
9.95222525611234 0.6098158446872978 2.065351325516572 31 40 26
10.265220505075096 0.45642793057914827 2.048980562847554 32 42 26
10.041940315152889 0.2738116590199926 2.30441830848949 22 34 15
11.697061188307242 0.31541407699567786 2.5522322542836204 37 46 28
11.421085975365834 0.5762967607517745 2.440016994248995 26 38 19
9.955924942888672 -0.10668029626209341 1.954137190830295 29 38 22
10.677983037642823 -0.4093465117737749 1.9270111562434833 10 19 5
10.77345859259049 -0.23782598246209968 2.2447765206461145 19 28 11
11.93513492309858 -0.4531027054608893 2.2746256335540944 30 42 25
9.955924942888672 -0.10668029626209341 1.954137190830295 29 38 22
10.346643336090672 -0.31417034162295887 1.9389536617193939 5 14 0
11.001531869434377 -0.34966651137748567 2.2283248810425795 23 32 16
9.907277529196122 0.0018357007999990488 1.9561182551157679 34 44 26
12.249411626530174 -0.2694556133908541 2.487847236776355 34 45 27
11.980535185105069 -0.5064378109859782 2.386427203884318 35 47 28
12.53530465864894 -0.3104775598792917 2.597276771846547 39 50 30
10.432559961008673 0.9347983649192911 2.151533549976385 3 10 0
11.577718656543237 1.1930787540342738 2.301131975885887 18 27 13
10.906856397278828 1.3564250212223896 1.9192143695225001 13 21 7
11.688876213378352 1.2316598626345447 2.1836745221520504 16 25 9
12.071271880819165 1.3334913599044984 2.2650908808588355 27 36 19
11.287469388721764 1.3564250212223896 2.002581471852132 14 23 6
11.65045942445957 0.9347983649192911 2.295554596383079 14 21 8
12.049125200442319 1.4040728641902693 2.5098619551311816 39 48 30
12.046964222535177 1.3051921240127289 2.380587195499008 37 45 29
12.405835730773047 1.145190169090487 2.471561700333753 41 49 33
12.69907206139176 1.0334503455610167 2.4429307609710573 38 46 30
11.71481706866811 1.9350560045300305 1.9858362590542733 27 39 17
12.202755820435717 1.8738224206338574 2.2561530004531773 34 44 21
11.770579377284774 1.7344452116901705 1.8926848270357604 23 33 12
11.657967658149389 1.6450153250758026 1.8959079239594856 24 34 13
12.065592425541205 1.5527451610512584 2.1618838212668154 27 36 16
11.679371976515581 1.7504486620060125 2.082967810592163 29 41 17
12.816676471882536 1.5450304323359638 2.5620274886236607 37 46 28
12.547498215506275 1.5507437346116264 2.339572439023969 33 42 24
12.943873210979637 1.8244677914255183 2.5471821736988227 36 45 27
12.603707931657265 1.5482432310765393 2.4519872332466743 37 45 27
12.178710595607603 1.9089445431801886 2.3692950851045866 34 44 25
12.44826577198886 2.015379767788447 2.3473123787695287 33 42 23
12.57290898824284 1.6613957766033323 2.337619305510111 33 44 21
12.603707931657265 1.5482432310765393 2.4519872332466743 37 45 27
11.796056415572362 0.8599197550599129 2.4031917014064357 30 37 24
12.175086227552523 0.9635323034698273 2.4958574301953638 41 50 34
12.555734419249486 0.8760434110544268 2.594594630765382 42 51 35
12.106225221668108 0.7693192159037455 2.503444594542363 37 45 29
12.175086227552523 0.9635323034698273 2.4958574301953638 41 50 34
13.078998775331135 0.7653973592766753 2.682325982576807 42 51 35
12.285793613115047 0.5273107225480929 2.6318203671922094 41 50 32
12.07919774372358 0.3712406363921376 2.6633053009216003 41 50 32
12.07919774372358 0.3712406363921376 2.6633053009216003 41 50 32
12.807283177670106 0.6250700764618976 2.7272846511514977 41 53 36
12.352941360434011 1.377004631556548 2.622180274748156 41 50 34
12.259069938834294 1.0057298607526726 2.6357333146065045 44 53 37
12.488267746001316 1.22306955916793 2.603531524326536 43 52 36
12.794472944346625 0.9010308826592244 2.7295673325164955 43 52 36
12.516582255213928 0.758945724401731 2.783752220575921 42 54 37
12.508500786227193 -0.7533375472308177 2.7854839935035898 43 55 36
11.679491461624291 -0.4429114929134851 2.7342253543802593 41 53 34
11.89019824183235 -0.6197481321820255 2.694935703119689 40 53 34
12.48565881740748 -0.2309593731419134 2.790435301857614 41 53 34
11.89019824183235 -0.6197481321820255 2.694935703119689 40 53 34
12.572478447206388 -1.06986241775641 2.772045783386724 44 57 37
12.179618534994905 -0.7611881423392782 2.6476378178963804 39 52 32
12.558056326497624 -0.6554395399473902 2.5942910952561493 40 52 31
12.48565881740748 -0.2309593731419134 2.790435301857614 41 53 34
12.81745113968773 0.0032529939478486256 2.7254844288785707 39 51 32
12.603887080286917 -0.4429114929134851 2.765664760201568 43 55 36
14.414752171892435 1.9960451516464464 2.8307006224208893 40 50 36
12.875822499818938 2.1363722488341534 2.555046716518059 41 50 33
13.30254095503199 1.864402950006947 2.6494335240056497 36 48 29
12.875822499818938 2.1363722488341534 2.555046716518059 41 50 33
11.554962244429467 -2.6626545125304935 2.7599719369040256 48 61 40
11.180442325577214 -2.3351804480323257 2.6254074932182614 48 61 41
12.408956490413791 -1.7736259414912652 2.8077165957468107 49 62 42
11.76789895852734 -2.478483247721572 2.7171520523114663 48 62 41
11.291787275606808 -0.5775690813614032 1.814411752468152 5 14 0
11.095453224811445 -0.7065793160631638 1.8188123019597549 12 21 6
11.818629280856552 -0.8964411750017184 1.8033469742964368 21 30 15
12.088318609665638 -0.8964411750017184 1.8839318558131903 29 37 20
11.513944272769422 -0.6946657109119035 2.1943990984448916 33 44 28
11.536453415755181 -0.7714419208458776 2.089946495891144 35 44 30
10.797695937862349 -0.631465253882862 1.9228890111887653 18 27 11
11.560998676819102 -0.7691476131453906 2.3024278682561135 38 49 33
10.680421006171969 -0.5471016359606536 2.0289342884818264 22 31 15
11.089887969682392 -0.4972808429169248 1.913225854098191 11 20 4
11.158801082533383 -0.5471016359606536 2.1093950869835068 23 33 17
11.36490885932968 -0.8382578794278439 1.904612640104676 25 34 20
11.605790787374733 -0.9119640664566138 2.086535850926107 36 45 31
12.553298149826288 -0.6785254192719079 2.4568711116723456 39 51 31
12.317957184339107 -1.0164314553187752 1.8779014562514 28 36 20
12.359063512952904 -1.0476641046226698 2.1460311820472073 37 46 30
12.266644103612098 -1.2304831941134975 2.2519022834149025 39 50 34
12.266644103612098 -1.2304831941134975 2.2519022834149025 39 50 34
11.844787975592261 -1.0476641046226698 2.0751335100499237 35 43 26
11.442785113128688 -1.135202585522303 2.0946304230467705 38 47 31
11.55440453406246 -1.1916321983976008 2.302940398354292 40 52 35
11.905763960439094 -1.440095588861228 2.276721586661863 42 54 37
11.868695597168992 -1.0883629245620046 2.279387050704372 41 51 36
13.215072081521551 -1.3759402413235209 2.6619241877477196 44 58 37
12.33655873367211 -1.3759402413235209 2.6245075313740465 44 55 38
12.092296034952858 -0.7659506792007081 2.5049993509231414 39 51 31
12.542304456753943 -0.8727259888041566 2.5963554764131453 39 52 33
11.85185954784581 -1.0821640779207957 2.5329742563326474 41 53 36
12.15846395657607 -0.9608972310133173 2.4976740095628527 40 52 35
12.472062877921884 -1.2212659267290673 2.6057126221601092 43 57 37
12.15846395657607 -0.9608972310133173 2.4976740095628527 40 52 35
12.537540302023158 -0.8571408624870736 2.458411883209492 38 50 34
12.168450892709668 -1.2680938315124841 2.4965814575188956 42 54 37
11.930929992285137 -1.0313305602550418 2.3908546435826064 40 52 35
12.024559943122089 -1.3041229995907502 2.382545609358582 40 52 35
12.024394329982643 -1.1582664979518564 2.6721724702885514 43 57 36
11.618322574249412 -1.1433765763283164 2.42015834882851 41 53 36
11.493237350772565 -1.2623452141676272 1.9943474119455158 35 46 32
11.56799945749788 -1.453060470171882 2.0883888827767985 37 49 32
11.712398665097036 -1.3557233082288591 2.081383184121326 37 47 33
12.232241463470036 -1.3557233082288591 2.152768244063953 39 50 36
11.875347295919363 -1.6617338563531583 2.2789070753755327 41 54 35
11.7599552929801 -2.0111267504976675 2.5442807655209942 44 57 37
12.038890208461707 -2.138917050630243 2.5110246678046013 44 57 37
12.765128068644705 -1.733726121884449 2.7348593844472466 45 60 39
12.426585032774014 -2.017017861909157 2.3490278099085513 42 54 36
12.1565491245772 -1.9102652901392354 2.3711682957911377 43 55 36
12.740100692317798 -1.534522820979844 2.7394443206954175 45 59 40
11.964253326461881 -1.7948461309856705 2.3878740696992837 43 55 37
12.298895963492376 -1.9544966756034583 2.4826134078462285 43 55 37
12.10886092753173 -1.8256400119270229 2.503151169283027 43 54 38
11.574479859737837 -2.2247212994487175 2.56826448875281 47 60 40
12.653444238138189 -1.7706028358217267 2.33150475411737 41 54 35
11.246663003794788 -2.138917050630243 2.4585758642105513 43 55 36
12.038890208461707 -2.138917050630243 2.5110246678046013 44 57 37
12.307206803590752 -1.7068623371462401 2.628716804529237 44 56 38
11.418474574888595 -1.5405813755020514 2.589784880791219 43 55 38
13.091459391705781 -1.9727921005151594 2.3001228139097685 41 54 37
11.826525260732556 -1.5481480395198386 2.4003654737135234 42 55 37
11.175885034968234 -1.5449061197729632 2.466396971670907 43 54 39
12.037623899160684 -1.5526842273493375 2.163443963686267 40 53 38
12.06410867391988 -1.6526676466827335 2.1619663653265073 38 48 34
12.06410867391988 -1.6526676466827335 2.1619663653265073 38 48 34
12.172963774473882 -1.7510421993233158 2.1559757968420303 39 50 33
13.935028879678399 -1.7100073883020042 1.9166309779854733 38 46 28
13.434857437522794 -1.8793298555477145 1.9300782755290955 38 50 29
12.933167622188565 -1.8460220948065422 2.2108055443141144 41 50 34
13.432200058053807 -1.9054470283627447 2.0950506533884643 39 51 32
13.187310328574629 -1.9361794505731031 2.1965319572726836 41 52 36
14.036176084105355 -1.856889729256825 1.83930598035694 40 48 30
17.92559975805948 1.9733014882307458 1.329916743501843 39 48 32
17.569541762027765 1.9192835477116048 1.3249354379015414 37 46 29
17.043999457275337 1.863061047254321 1.3773678268588672 38 47 31
17.35327768630775 1.9192835477116048 1.3808576616699897 40 49 33
10.87150473590341 2.2756407230279465 1.8240322004431784 31 42 21
11.44466558925706 2.0192145056873216 1.811092946665429 26 38 15
10.853305377127887 2.410220473230488 1.82446617942805 33 42 20
10.953071524004448 2.7532807086180777 1.8221054756789852 34 43 22
11.050275332366214 2.6692435604170113 1.6363370250667142 34 42 22
11.993832432490802 2.7074038820480717 1.4641834816561137 33 41 19
11.002705863638631 3.04788163198424 1.7281080335646957 35 46 23
11.866042635154942 3.055769709808422 1.5475113437126502 35 47 26
11.544078940177744 2.786094329314052 1.5468618045259805 33 42 20
11.156759318015919 3.1400349295676087 1.817421056687414 36 48 25
11.199980888736079 -3.050970690179973 1.8164496543641875 38 50 27
11.551777124359305 -2.7888351408309386 1.6334878626462084 38 52 28
10.955630048046816 3.1400349295676087 1.72878966305668 35 47 25
11.65722966494783 -2.7888351408309386 1.7192079570834704 38 52 28
11.354501751878916 -2.8725497417277 1.7231953407620915 38 52 28
12.192954585783886 -2.894357272895633 1.5481357584403945 36 50 26
11.327284520751617 2.263156983522497 2.206304564150281 34 44 22
11.49419394242256 2.1726071830194846 2.307658574888663 36 45 25
10.763824872395055 2.263156983522497 2.131468546789578 31 41 21
12.188680942435576 2.1726071830194846 2.368455727790212 32 42 22
11.359244762166902 2.1439065270428093 1.9047855685729371 27 38 15
11.440875510889542 2.198672187380873 2.094726843930747 27 37 17
10.926276491483465 2.843505736146925 1.918568837068459 35 45 22
10.70543693170417 2.9167689588542913 2.1348967640733636 37 47 26
10.744729230778296 2.7733628214752244 2.2469140609688676 38 47 28
10.744729230778296 2.7733628214752244 2.2469140609688676 38 47 28
10.498791332464142 2.8540279730327804 2.397462685795801 41 52 30
10.56279666218251 3.0267991473652844 2.143463764700165 37 48 26
10.811026335570567 2.5073071103662996 2.2420039623748647 40 49 32
10.545519416680252 2.485727404799866 1.9316890836361624 37 45 25
11.05857280967067 2.609260870092373 2.3440085307367102 41 50 33
10.780832264365777 2.7142002800255054 2.024346497200826 35 45 24
11.955918145537701 2.3360987360687373 2.5205943541441456 43 52 34
12.40877452752202 2.246112810285894 2.4712628411478974 41 50 32
12.424078270084458 2.4467462671749596 2.612252463204079 43 52 34
11.377498906744645 2.9685971904595547 2.5956633605111152 39 51 30
11.928550109590919 2.745234602582984 2.688269015715186 41 53 34
11.51004726076558 2.8079605971665482 2.576993525791043 42 53 32
11.726674486705038 2.6633067572553246 2.548466032814191 43 52 34
11.07530739250179 -2.942306511819991 2.011426520643489 42 56 32
10.312520861869643 3.139437274970078 2.2810105242307515 39 51 28
11.265833406403532 -2.9204039799434436 2.210333827834919 45 59 35
11.05501063944174 -2.670446822041847 2.2245949455432985 42 56 32
11.034574241214916 -3.016513520138629 2.3461332176266287 42 54 31
10.928762374500025 -2.8154170998840278 2.1220203344782114 44 58 34
10.726420026374875 -2.7292114755562946 2.374692949065483 43 56 35
11.133405090668328 -3.0305725960324414 2.2192108155091095 45 58 34
11.168174520162285 -2.893203809971277 2.334475291737413 46 59 36
11.922897358809013 -2.751201220856445 2.6892431978643683 44 58 36
11.37453595663631 -2.9742233684303296 2.5960922887867186 40 53 31
11.797846752724693 -2.940346512288862 2.7115694234391983 42 55 34
11.217464053078068 -2.541353648858052 2.4617812842171065 41 54 33
11.33198018004329 3.138696492297137 2.6023116669653166 40 52 30
11.504188874350536 -2.8131409971922223 2.5777980461790895 42 56 33
11.52118972277617 -2.5943384720988996 1.6336545205523694 41 53 35
10.999744593881998 -2.545493388824596 1.8210162661952252 41 50 34
11.473648172088966 -2.1748562567486083 2.3092845633226364 42 54 37
11.314873522622863 -2.344314268283179 2.101173170262031 40 52 35
12.137570627200658 -2.1456141695031925 2.061867601820918 42 53 39
12.211868837415853 -2.0631904180952496 2.1538663430424116 42 53 37
11.176895148638344 -2.627278712837714 2.0071448659764144 41 53 32
10.878894451163143 -2.4334330168965965 2.360256591751191 41 53 33
11.94996970844841 -2.200676469331441 2.1683916590207106 40 52 35
11.371747355066704 -2.3423013059474287 2.3174724444055412 40 52 35
10.795426101251582 -2.510521761446431 2.243152198597218 41 53 32
10.792383260113894 -2.627278712837714 1.9230698750796682 40 52 33
11.624360527763704 -2.248855565534567 2.4195680315735486 42 54 36
11.142686581409015 -2.339467114695381 2.4701264379552117 42 55 36
12.612180955099605 1.8785181121968524 1.5488891137895329 22 31 13
11.693477630927308 1.8213160634050773 1.8058825144753952 22 33 12
10.7860459619214 0.9140025156550586 1.9232858697553832 4 11 0
10.978521888257577 0.6974298653186967 2.1192362109184244 31 40 24
10.186009405263658 0.24171380026765457 2.1675016412859893 31 42 23
9.91670537253843 0.3532983040149223 2.0672838437228975 33 42 25
10.035989290151623 0.12366274693497727 2.177691570422091 27 38 19
9.665755176638077 0.39773480692459595 2.204539553529808 30 39 22
11.042720906069203 0.6098158446872978 2.225447965901772 26 35 17
11.697061188307242 0.31541407699567786 2.5522322542836204 37 46 28
11.910287444687691 0.45408073139675165 2.5259697725536694 35 44 26
12.19093929976332 -0.5724531378846623 2.4941335834922986 39 51 30
11.901794300969724 -0.4496671161497451 2.526979372379485 39 51 30
12.249411626530174 -0.2694556133908541 2.487847236776355 34 45 27
12.3774503040533 0.0027266935379474514 2.618727608045752 36 48 29
12.629005605550452 1.6726232235728957 2.4495617855130956 37 45 26
12.733032299634255 1.793935142662784 2.439761631135847 35 44 25
11.630558067433938 1.5543833568114913 1.8967024038548232 22 31 12
12.267478062769792 1.1930787540342738 2.3618950056546044 32 39 26
11.906623196252875 1.42455374043717 2.3930453248510335 38 46 28
12.092015941842854 1.6523933740975119 2.160417982129387 29 40 17
11.565872245849553 1.6523933740975119 2.0884936051562017 29 39 17
12.584635985536352 2.069240849839389 2.4538269778677857 34 43 23
11.597100624307098 1.4534530168789286 2.0869607163243624 21 30 12
11.149941143896575 1.2633188568263696 1.911306560226768 5 12 0
12.841554607733903 1.6870126955622904 2.55907436700409 35 44 26
12.187825447446714 1.2694612839398192 2.494471516478181 39 47 31
11.241509407525452 1.0334503455610167 2.3282476313339107 20 28 12
11.878473380077656 1.971445342368763 2.172493992250608 32 43 20
11.93121677697459 1.4405786564602299 2.2749044260684705 32 41 23
11.004390065434807 1.1366335646370322 2.0144675938809957 1 10 0
12.85771209392884 0.1938084506956096 2.7184545675823815 41 53 34
12.038402083488288 1.1607368882658542 2.669883655585677 42 51 35
11.640849735536838 1.22306955916793 2.559493697941978 42 51 35
11.392334085597664 0.9635323034698273 2.443009084489363 37 45 29
12.352941360434011 1.377004631556548 2.622180274748156 41 50 34
12.701122089693978 1.0844889010356171 2.5760783962763343 44 53 37
12.98769315077962 0.9635323034698273 2.542209105360913 41 50 34
12.807283177670106 0.6250700764618976 2.7272846511514977 41 53 36
12.568787979600106 0.6595157325067438 2.5928915931796013 41 50 32
12.783930747112356 -0.8969257904990655 2.731458304639805 42 55 36
12.073615524922527 -0.3655784455764743 2.664197883663083 41 53 32
12.073615524922527 -0.3655784455764743 2.664197883663083 41 53 32
12.27756023286258 -0.5224384273626494 2.63302117805795 40 52 31
11.679491461624291 -0.4429114929134851 2.7342253543802593 41 53 34
13.475753218978443 2.0089645244436696 2.6259714161119057 38 47 30
12.055677347887793 2.1363722488341534 2.5091196235259066 38 47 29
12.297702598974563 1.5407505383250824 2.630090863456183 40 49 31
11.559754623755136 -0.773168568723487 1.7204687938958503 6 15 3
11.730669295114367 -0.8382578794278439 1.9852408836144688 32 41 27
11.883317066280854 -0.9681370051896071 1.9795967731958795 33 41 24
12.432815270052771 -0.8964411750017184 1.9605278045389167 30 39 24
12.305029015020066 -0.5471016359606536 2.249376576752221 32 44 27
10.96008503552646 -0.6946657109119035 2.1202642807859347 34 43 28
11.496761939905626 -0.8462703195244459 2.1954746276974646 35 46 32
11.513944272769422 -0.6946657109119035 2.1943990984448916 33 44 28
11.07439879557444 -0.7714419208458776 2.011465209276866 31 40 25
11.55440453406246 -1.1916321983976008 2.302940398354292 40 52 35
11.652474307600315 -0.9951443963329415 2.1858730310530685 38 47 32
12.793429434357778 -1.3381222306171179 2.729754004856976 44 59 37
12.245314615983302 -1.0026768262088344 2.6377649203603357 41 54 35
12.029527259489093 -1.4032830511286574 2.512091675978287 43 54 39
12.15846395657607 -0.9608972310133173 2.4976740095628527 40 52 35
12.15846395657607 -0.9608972310133173 2.4976740095628527 40 52 35
12.542304456753943 -0.8727259888041566 2.5963554764131453 39 52 33
11.809156440774638 -1.174197894377128 1.9823188817653083 37 45 29
12.199092051631737 -1.092097467043965 1.9684100610570794 34 41 26
12.426585032774014 -2.017017861909157 2.3490278099085513 42 54 36
11.964086878526777 -1.9208271270027952 2.6822095260262673 46 60 41
11.561064809713084 -1.8659628378531588 2.57006413431649 44 56 38
11.809052550854569 -2.0712653726416286 2.4019833518656792 42 54 37
11.7599552929801 -2.0111267504976675 2.5442807655209942 44 57 37
11.809052550854569 -2.0712653726416286 2.4019833518656792 42 54 37
11.574479859737837 -2.2247212994487175 2.56826448875281 47 60 40
12.41393041163253 -1.8659628378531588 2.6136514251403784 44 58 38
12.06410867391988 -1.6526676466827335 2.1619663653265073 38 48 34
12.933167622188565 -1.8460220948065422 2.2108055443141144 41 50 34
11.508993892047025 -1.5526842273493375 2.0913104227783013 38 49 33
12.648721944394923 -1.6526676466827335 2.227655735385772 40 52 37
12.752587807387258 -1.7510421993233158 2.221390581417003 39 51 35
13.182779276050868 -1.8220529867578512 2.106025822890595 38 50 33
13.935028879678399 -1.7100073883020042 1.9166309779854733 38 46 28
17.71368328204529 1.9733014882307458 1.384767879723933 40 49 33
18.32936048106007 2.0249461772758774 1.335324358975971 40 49 33
11.22198942791951 2.343711646237299 1.6353327437374456 29 40 19
12.475353099568231 -2.8165390293559747 1.548648799588012 36 50 26
12.006219089852504 -2.975350453353619 1.6311120150393943 36 48 25
10.814407578094475 2.542880715445596 1.7308705426430224 36 44 24
11.231543614471377 -2.756224864979616 1.908733493030885 41 55 31
10.938011083866082 2.811991522307885 2.121500577150118 37 47 25
11.046374066187255 -2.6129384216832032 2.345086827671395 42 55 33
12.130548254638168 2.1120456962860152 2.26102929542973 31 40 21
11.081392517492166 2.9390105217148483 2.0111675938580085 35 45 22
11.06719986332691 2.6670301840536283 2.2237513213221165 38 47 29
10.917017840777508 -2.8466453943353867 1.9188762933611199 42 56 31
11.389517846355318 2.3394937356906604 2.316029541261753 39 48 29
12.137710422031956 2.5822661636879443 2.654088487197134 42 52 34
10.735843050953466 2.725070099654704 2.3737825739783633 42 52 32
11.11927882558088 2.993566396450554 2.472780047953104 40 52 29
10.943653574316471 3.0384024586529903 2.0171069848516847 36 47 24
11.116247049110056 -2.9984052465632836 2.4731252147831184 41 54 31
11.914797498418535 -2.7099710470266065 1.5476066420278443 37 51 27
11.306435450880008 -2.265524085386 2.207665354957282 41 53 36
10.920208314545528 -2.4884405936441905 2.0181345861835664 40 52 35
11.95795368200054 -2.2777208029334797 2.0699175649809076 41 53 36
10.896426246050568 -2.574197867374319 2.1238458064055648 41 54 33
11.291922694364423 -2.4214039998436476 2.20861636199618 40 52 35
11.371747355066704 -2.3423013059474287 2.3174724444055412 40 52 35
12.137570627200658 -2.1456141695031925 2.061867601820918 42 53 39
10.795426101251582 -2.510521761446431 2.243152198597218 41 53 32
12.965185456836583 -2.0205327337820895 2.1160071910132436 42 54 37
11.556200686751463 1.3753683795582006 1.808728702489745 18 27 11
10.065042519562414 0.8486594083250351 1.949768840821612 33 42 26
12.41913775595515 0.1630565046235728 2.6129328477549603 36 47 28
9.984356487022907 0.002060090580777493 2.1812865857123525 24 34 15
11.313708362075566 -0.4531027054608893 2.207189936717021 26 36 20
12.53530465864894 -0.3104775598792917 2.597276771846547 39 50 30
12.416423376207314 -0.15774222323964396 2.6133072277264042 39 48 30
12.01119980079731 1.7698755382257314 2.2692621596588918 35 45 22
10.245834102267391 0.9970667488812608 1.9427518140949231 2 10 3
10.700950559208625 1.0900924661319167 2.135162035885602 2 11 0
11.770579377284774 1.7344452116901705 1.8926848270357604 23 33 12
11.143714748736773 1.2316598626345447 2.1102042125733993 3 12 1
11.679491461624291 -0.4429114929134851 2.7342253543802593 41 53 34
12.060254529902227 -2.3351804480323257 2.6663439276314276 49 62 43
12.179618534994905 -0.7611881423392782 2.6476378178963804 39 52 32
12.508500786227193 -0.7533375472308177 2.7854839935035898 43 55 36
11.554962244429467 -2.6626545125304935 2.7599719369040256 48 61 40
12.190683337477214 0.7653973592766753 2.6459548765201646 41 50 34
12.053407006516567 -1.0164314553187752 1.79873636543251 25 33 17
11.628953063274917 -0.8964411750017184 1.7195715131756473 14 23 7
12.251699438685302 -0.7691476131453906 2.3631985050134143 38 50 32
12.315058799219376 -0.9681370051896071 2.0541761568557555 34 43 28
11.418474574888595 -1.5405813755020514 2.589784880791219 43 55 38
11.883954341221646 -1.4239450934845403 2.395101154014375 41 53 36
12.307206803590752 -1.7068623371462401 2.628716804529237 44 56 38
12.046114997092877 -1.3326341758264515 2.266830890435217 40 52 36
11.848440591073361 -1.5506685135372076 2.2808531596775 41 54 36
11.116458973240713 -1.2304831941134975 2.1116725910971557 39 48 34
13.53141722764093 -1.633807250090563 1.8495847040599789 31 39 23
13.797677706973253 -1.7846173282962645 1.8440652666075645 40 48 30
11.875347295919363 -1.6617338563531583 2.2789070753755327 41 54 35
12.685189138216767 -1.0821640779207957 2.5780605555337734 41 54 36
12.835418966522948 -1.8748907411238964 2.3180957209424817 41 54 37
11.930929992285137 -1.0313305602550418 2.3908546435826064 40 52 35
12.027956220015103 1.983152763017016 1.547824848587429 23 34 13
17.264138228395105 1.863061047254321 1.3204938489486484 35 44 28
11.607058281386012 2.097081254887029 1.6331888914968815 24 36 14
11.255198831448622 2.8696567290041424 1.6351420600222129 34 44 21
11.139714668420801 2.957293172766187 1.7261574171741572 35 45 22
11.16046744771786 2.6692435604170113 1.7258661843936094 34 42 21
11.331631186019589 -2.9603056773986203 1.8135378966703195 38 51 27
11.882045421795876 -3.0586012952669748 1.6317431234878987 36 48 25
10.847536386459126 2.1726071830194846 2.2393336424740102 31 41 21
10.938011083866082 2.811991522307885 2.121500577150118 37 47 25
11.254968952695718 -2.5873069973919853 2.6138568038414305 45 58 37
10.911882085893161 2.571138204986636 2.1229716717270994 38 47 29
10.902532107459269 -2.667882860275562 2.4983512663368277 43 56 35
11.560303609943075 -2.4508875156076284 2.5701665265762834 44 57 36
10.745443139769213 2.4186179627774886 2.1325430056178543 38 46 26
10.896322635759647 3.1398762886661773 2.0191865631700017 37 49 26
10.513751316943555 3.1396816714819953 2.146474315342579 38 50 27
11.51004726076558 2.8079605971665482 2.576993525791043 42 53 32
10.865118780373555 2.341907477896125 2.0205686256869453 34 43 21
10.940573129890701 -3.0417999508224516 2.0172417200213077 41 54 30
11.164097095297901 2.2756407230279465 1.910857333464012 28 38 18
11.03762845130452 3.012272134818778 2.345862057556723 38 49 27
11.343121997987254 -2.6719694808403465 1.813287055920129 41 54 31
11.699280832590327 -2.1456141695031925 1.9864214842931824 41 53 34
11.778628432820064 -2.3458177581448374 1.8924569439406334 41 53 36
11.498575697058643 -2.41261341860439 1.9941381148040944 40 52 35
12.227489560752849 -2.2201001246571526 1.9674348782472493 41 52 38
11.36214440948566 1.3753683795582006 1.7230920305194861 13 22 6
12.039985105498598 1.5557489705693135 1.630942655744802 23 32 14
12.175298733814996 1.7210399639442338 1.630273408701962 22 31 13
11.900865165867936 1.6613957766033323 2.2770725436383916 32 44 23
12.58319780032573 1.0734039977317984 2.7698526975244375 44 53 37
12.43806830918586 -1.2825922764117637 2.8010331636013097 45 58 38
12.555734419249486 0.8760434110544268 2.594594630765382 42 51 35
10.795284454317889 -0.4972808429169248 1.8258598362230973 6 15 1
11.116458973240713 -1.2304831941134975 2.1116725910971557 39 48 34
12.793429434357778 -1.3381222306171179 2.729754004856976 44 59 37
11.853481712191137 -1.6730501743415402 2.3978843668694974 43 56 38
11.778899273462958 -0.8571408624870736 2.4047934865122653 39 50 35
12.156385309599276 -2.0856434823729844 2.651198848218732 46 59 40
12.627656353087152 -1.9361794505731031 2.132300712797086 42 51 35
11.273429840837762 2.4695177646485598 1.5462870780080016 32 41 19
10.505482065261655 2.6243864131909835 1.8330594557790565 38 46 27
11.032136361477146 -2.751201220856445 2.649614036075293 45 59 37
11.133405090668328 -3.0305725960324414 2.2192108155091095 45 58 34
11.248877361086588 -2.858579374897527 2.4583339678612828 44 58 34
11.71703930475823 2.061631877966687 2.0811613535561655 29 40 17
11.248877361086588 -2.858579374897527 2.4583339678612828 44 58 34
11.928550109590919 2.745234602582984 2.688269015715186 41 53 34
11.242959595507127 -2.7173701575979123 2.104928283714447 42 56 32
11.756823319794265 3.1380955292627912 2.7192415069854383 42 54 33
10.303261925160445 3.139121199531409 2.4183124123901845 39 51 29
10.735314006131897 -2.777120442857194 2.2476178685963584 45 58 36
11.145356339334942 -2.6719694808403465 1.7260781364938123 40 53 31
13.203002192751425 1.7061093876142235 2.6636845606079222 37 46 28
12.816676471882536 1.5450304323359638 2.5620274886236607 37 46 28
11.578478711402147 0.7719552596350037 2.301073191991917 0 5 0
10.634900874871544 -0.11960322220175228 2.2552269506178186 18 27 11
11.868911222468705 1.0844889010356171 2.530915678819195 44 52 36
12.349069468970482 -0.6066545654822291 2.3552345418121847 36 48 29
13.575879866090665 -1.8018554078530957 2.006016243734819 38 50 29
11.63018971435272 -0.9324958053436789 2.2970989873070744 38 48 34
11.972796458860213 -1.5449061197729632 2.5186265698147503 43 54 39
11.999424319683012 -1.6875685805794842 2.515544221147369 43 54 39
11.62346349847447 -1.2212659267290673 2.5617702753814924 43 55 37
11.974338389894795 -1.135202585522303 2.167007213201755 39 49 33
11.32821364266734 2.218297386525398 1.6347267585681375 26 37 14
17.569541762027765 1.9192835477116048 1.3249354379015414 37 46 29
11.504188874350536 -2.8131409971922223 2.5777980461790895 42 56 33
10.735843050953466 2.725070099654704 2.3737825739783633 42 52 32
10.940573129890701 -3.0417999508224516 2.0172417200213077 41 54 30
11.624751994379638 2.4301007812027473 2.4195297935758115 42 51 33
11.174209072732111 2.8891577608424273 2.3339583401874764 39 49 28
13.752589695219807 -1.9531649792927084 1.9214149918605143 39 51 30
12.789729834234857 -2.0631904180952496 2.219182039319679 42 54 37
10.896426246050568 -2.574197867374319 2.1238458064055648 41 54 33
10.89395745121864 -2.248855565534567 2.358863597149532 41 53 35
13.121820859180358 1.9528280432284042 2.5274080389755316 35 45 25
11.876281350840504 1.845141811053757 2.0736704527390537 28 40 17
10.634900874871544 -0.11960322220175228 2.2552269506178186 18 27 11
12.038890208461707 -2.138917050630243 2.5110246678046013 44 57 37
12.094050610905347 -1.453060470171882 2.1603054343711174 41 54 39
11.84131369307063 3.140166725839318 1.6319530294733642 35 47 25
11.168174520162285 -2.893203809971277 2.334475291737413 46 59 36
12.125112842646395 -0.6946657109119035 2.2613995070135333 37 49 32
9.91670537253843 0.3532983040149223 2.0672838437228975 33 42 25
12.855090320421738 -0.1875361421650495 2.7189076699998003 39 51 32
11.809949679350026 0.6818217162383668 2.4019000961233186 10 19 5
11.826525260732556 -1.5481480395198386 2.4003654737135234 42 55 37
11.493237350772565 -1.2623452141676272 1.9943474119455158 35 46 32
11.956870547614827 2.2851756446943 1.6313612548776735 29 40 20
11.800703417378976 2.933640986245114 2.711041925059169 41 53 33
12.022836649028402 2.537419961152035 2.5128561210179132 42 51 34
