22.855398097211182 0.773377781671716 1.59996217565799 10 16 4
23.954950021490887 0.684013966778637 1.724458571560074 3 8 0
14.433828711173364 1.1153401021578677 1.5476890069890108 29 38 9
14.956506698187702 1.0550186411827907 1.4815194320436849 32 41 14
15.237076014049489 0.9073658220232022 1.4831676010956134 34 43 13
14.587899235615838 0.9614156954002263 1.5479330983826332 32 41 14
13.611546136263525 0.9351750337029314 2.000169735008409 31 42 9
13.694019062113362 0.9801860927117241 1.8418479510029975 32 43 11
14.469112741772198 0.8839138483551396 2.2130052159984808 31 42 5
13.906393148365726 1.1503232929724116 1.9130015572848742 31 40 6
13.67072367746961 1.3916029870591857 1.842321517415047 33 42 12
13.926415681466214 1.247124641154424 1.7634568264414219 34 42 10
14.170661613038543 1.4041950651143729 1.6178476633029484 33 42 13
13.472168082016001 1.5439994766303693 1.8464270042938657 34 43 11
14.607591242876728 1.636237179744394 2.3894149109897556 50 64 21
15.226790683136832 1.1592049514066145 2.346906692736455 33 46 9
13.650326096092115 1.297878655451789 1.99886935407026 34 44 11
13.986911445092604 1.6302805286575899 2.239048653397282 41 55 14
13.707139075195672 1.625316811993634 2.078706834412548 29 42 5
13.707139075195672 1.625316811993634 2.078706834412548 29 42 5
13.891354188134875 1.376977603902735 2.0713404749528443 34 45 12
14.063218664074684 1.193144957400082 2.147359176493272 29 42 9
14.167489238616655 1.3597912645720818 2.229026325330268 35 49 10
14.167489238616655 1.3597912645720818 2.229026325330268 35 49 10
14.069079758642486 1.7204722396519756 2.2344465478326976 41 55 14
16.112206076579614 1.1190187975006007 2.4753401238923067 36 50 11
15.87162556691501 1.2132277054613947 2.4948644225179124 47 61 22
14.771124531745546 1.4215249023265473 2.4813088135272485 48 64 20
14.72401938659066 1.6435172295233962 2.4854395252202623 48 64 18
16.34751646270016 2.087046512276146 2.3654998591594247 50 65 22
15.768026748261503 1.9223320229421323 2.4036934728618506 50 64 20
15.566802948958692 1.831110527500061 2.4180235994411277 49 63 18
15.343057505111727 1.5359331008357942 2.4346891602120255 49 63 20
15.700110609757548 1.246546412753677 2.4084636216015882 43 57 18
14.802096485933296 1.7532147024280837 2.478619016592569 47 63 17
15.73977061552797 1.8586610247591386 2.5060421967858173 49 65 17
13.425446951654866 0.6399644438078024 2.0904242610420387 34 44 5
14.331981055511276 0.4877675915424494 2.3110440001883465 35 46 6
13.872175148240657 0.825337289781279 2.245594826676202 29 40 3
14.797363948242333 0.619979888228719 2.375806975484072 26 38 1
14.703240237769771 0.7582592867770714 2.3824879561691015 30 41 2
11.195334734174818 -0.7641110099320545 2.0007466436763197 30 45 6
12.324399951176607 -0.7606756730732654 2.3506828541844564 14 32 0
11.70235712494353 -0.9212702512386431 2.2851439174418102 26 41 2
12.417537213216194 -0.8252696232546817 1.7054080571048598 28 42 3
13.006439614963035 -0.9470113993557463 2.532371528269654 56 71 32
13.498911299786078 -2.3229961365124216 2.4818908502537713 56 74 30
15.78469503375053 0.8313324246931278 2.502193928537679 28 39 2
15.444036993543811 0.7582592867770714 2.4270682853965155 24 35 0
16.69469664743018 0.9792055511674033 2.529788967319975 35 49 10
15.86359486672515 0.6632155323158345 2.6090147401107635 60 75 32
15.200032085068795 0.6373066570100188 2.688528587153746 54 72 30
15.16895986066219 0.494229195653339 2.558979565005899 16 31 0
15.54594506135962 0.12978831576981953 2.6447754040036675 41 60 10
15.639513676628837 0.2605640880218179 2.633850420716869 25 43 1
15.639513676628837 0.2605640880218179 2.633850420716869 25 43 1
15.068634348949605 -0.006460865968417045 2.7067831650325296 46 67 14
14.67545756099363 -0.00766906082039818 2.768621517062695 50 72 20
14.712276317207891 -0.1922730206652917 2.762277096013718 50 71 20
15.7959605036259 0.38285696877994607 2.6163249141763423 8 25 0
15.104494726792252 -0.1625599636817271 2.7016992712931875 47 66 13
14.490576089376827 -0.44678796054539005 2.634417428522138 46 67 19
14.816649224545584 -0.3646200733573075 2.7449797706839862 50 71 24
13.788152281380023 -0.7559185524464387 2.5794690304648005 52 70 27
13.882572169558236 -0.5669300795316766 2.5687625475897247 38 56 10
16.80575004602968 1.0124063473307225 2.6315166651739097 56 72 28
17.01929870125255 1.1726806171911186 2.6095194906915316 50 65 24
14.8777111434959 0.7386783235511145 2.7352917839886777 50 68 24
14.466989724326806 1.6643089218177025 2.637359333885493 51 67 23
14.60069208998309 1.305503375400897 2.781935232282113 53 72 28
14.913198958617997 1.512573259569322 2.7297959385104433 54 72 28
14.923431799070418 1.6798862346987384 2.7282288358204876 52 70 26
14.923431799070418 1.6798862346987384 2.7282288358204876 52 70 26
14.969909475248794 1.348432645272162 2.7212068205479034 53 70 26
14.981787631012008 0.6954595906226768 2.936074850003741 55 75 33
14.206183230205975 0.5294938394829348 2.8650709247020067 51 71 29
14.857970053238283 0.9683226671070252 2.980879937415839 57 75 31
14.108922758249076 -0.3015139649560874 2.890504064094074 54 74 30
13.905646870261734 -0.4174222819008936 2.9558661944755307 56 80 38
13.866686520977852 -0.0174689972705701 2.971468053213786 56 80 37
14.378234320000296 0.723894379539963 2.82563538108042 51 69 24
13.899747309275725 0.38784906371061983 2.958138882188604 56 78 37
15.022558180735215 1.1435114588835302 2.9234384967662694 55 73 31
14.69368635326547 1.9349776661352613 2.6100715167165385 51 69 25
15.000470997394961 1.8413352213543142 2.7166722875216878 52 70 26
15.350073521258778 2.1206949476342456 2.6688473878558514 52 70 26
15.050484555541978 1.7755333995478206 2.57103697306705 49 65 21
15.598634680053364 2.4214700465820043 2.638580620658743 53 71 27
15.618260805551659 2.2337070215636174 2.636301499375178 52 70 26
14.969773218353486 2.436570780486035 2.7212271821168224 50 70 26
16.79497973960404 2.188350374045491 2.5213293816542217 55 71 27
15.618260805551659 2.2337070215636174 2.636301499375178 52 70 26
14.918561033484988 2.8079848542337205 2.7289737987857445 53 73 30
14.56908198300893 2.7430744560964246 2.787750451943904 50 70 28
14.825974596560926 -2.959470364553503 2.743480592617805 62 83 44
14.660164648964882 -0.6103970020709809 2.771296651098845 53 73 31
14.485800210047373 -0.4389385039672217 2.8036577198221733 52 74 29
14.016027778574463 -0.7157052244601071 2.917798652776866 59 79 40
14.217725598969398 -0.5475506811328337 2.862224547454495 53 75 30
14.89974655301595 -0.7488954937151893 2.7318679919842133 57 75 31
14.443443990561017 -1.0445540354922103 2.812104324398802 55 75 33
14.485800210047373 -0.4389385039672217 2.8036577198221733 52 74 29
14.03769124419202 -0.9846266368032142 2.6959200356658024 57 77 36
14.427016159851503 -1.0648082825155223 2.642403583944664 58 76 36
14.228285517194179 -1.2001837851918251 2.6686548101671965 58 76 34
13.838369724286798 -0.9470113993557463 2.573734210119881 56 74 32
14.314970757589915 -1.248970060162766 2.839446306435833 58 76 34
15.227016120152843 -1.7309219176620905 2.8694215936760226 57 77 35
14.62875276980254 -1.3096247166996842 2.7768679542093304 63 79 35
15.002747328718048 -1.3513550956741005 2.716337092507711 58 76 34
15.522372232772465 -1.69954955523139 2.807969831618732 60 78 36
14.94616140992522 -1.5133620147717832 2.724775392610503 57 77 33
16.177874775346226 -2.2880920501544537 2.889492282400089 61 81 41
16.26346637632806 -1.9590125084958718 2.8698111519757212 53 73 31
16.177874775346226 -2.2880920501544537 2.889492282400089 61 81 41
16.04426124084878 -2.068601896285298 2.924163305118838 57 75 33
15.596453225490944 -1.8875969196261113 2.7945251621464156 57 75 33
15.175759662635723 -1.9845557704321515 2.6918250660654093 52 72 30
14.712068352259672 -2.305760301535298 2.762312559171005 55 76 30
15.521573188095896 -2.728195379173818 2.8081184004508635 63 87 49
14.991673311666776 -2.4264342006893598 2.7179710683723393 55 75 33
15.684427118730492 -2.562685800134379 2.7793365279965 60 80 38
14.75358427211472 -2.562685800134379 2.755313963959997 60 78 34
15.09879340730815 -2.6480255362665663 2.7025022527022764 62 82 42
14.404835414704165 -2.316153336778811 2.6452349877639856 57 75 33
15.01755556044031 -2.197834602367199 2.7141650399600783 52 72 30
19.802325765064715 -0.883433686667679 1.757026065953521 40 51 13
17.764353630867777 2.338802450164915 2.364605504956478 52 70 26
16.880806644179145 2.209523774804788 2.41938675770685 51 69 25
18.123535759530416 2.3405757893760395 2.2701472516847154 56 72 26
17.61128146799081 2.286120387254063 2.2948740576777285 55 70 27
11.673171559172188 2.785767955147974 1.801261066591972 61 76 32
12.049104300341805 2.705910188250137 1.7939466950383731 56 71 30
11.076052713961873 2.8706528816380907 1.6310078026083317 56 73 29
12.00045684113621 2.8706528816380907 1.9701906562437486 55 73 29
12.104049288690652 3.0518111076311105 2.057991593078722 54 72 24
14.423306179980438 -3.0341608987392403 2.4031717811824747 61 79 34
13.660773630498866 -3.137344117768876 2.3569066672774213 56 76 29
12.22399236639575 2.959727734630203 2.052800345990773 54 72 26
14.702656531864154 -2.8635192067306097 2.288247613082003 56 72 28
14.703598225610087 -2.8363919601414422 2.3824622943450713 58 76 33
14.942483749012917 -2.745119380859142 2.3657587958041337 56 78 34
14.316860937626442 -2.7046710081484906 2.411377365233536 60 81 39
13.655421501706957 -2.532097133933746 2.2583603286519063 52 67 26
13.198216341358247 -2.404342447378632 2.3926508535528894 61 78 34
13.544146335311149 -2.4931538581157855 2.477596760999847 68 85 47
14.56114127499931 -2.660311229543119 2.296759552279531 57 73 27
14.630602411270868 -2.6140679384937937 2.387735475880863 61 79 36
14.529755021018522 -2.933216508561138 2.3951578849423756 58 76 32
15.706837274680597 2.6047845427892695 2.6261993670830646 53 71 27
15.842422761979325 2.7124810656079643 2.4973097038883423 55 73 29
17.569347495512538 2.336574904187721 2.4620505604082 55 71 27
17.281616814750763 2.3979280935827916 2.3934396687318973 54 69 27
15.199763695883568 -3.135428291467985 2.688564858055146 69 91 48
14.525062238706836 -3.136853115338058 2.5034408355307134 59 80 33
15.091688616468684 2.7726373336820256 2.566796607720926 53 72 28
14.610056530153098 2.7230854634682236 2.619889176865263 53 71 27
15.42843761021949 2.8441405844510053 2.428234678797157 54 73 29
14.83533432497747 -3.006390061122313 2.5940499522593092 79 99 57
14.440767695092262 2.8552193966176573 2.640659884750045 54 74 30
15.46435897759693 2.918942926095095 2.530596797699921 56 74 30
15.26822540119795 2.9413638218863727 2.440446599167052 55 73 29
14.3393790462827 2.99842741144838 2.6537303486811705 60 81 37
14.829804614867742 3.0169278496945626 2.594661806332624 61 82 36
14.927862710575868 2.890985993531739 2.5839673740833304 56 74 30
14.440767695092262 2.8552193966176573 2.640659884750045 54 74 30
14.024795375025942 -2.595729290605952 2.5532260495326784 62 82 43
14.279992261348717 -2.7633472552058618 2.5269549380871803 65 85 46
15.500931450682353 -2.7128400656307052 2.6501582045249217 67 87 50
15.278965480005203 -2.933216508561138 2.439614397054938 59 81 37
14.938847490459423 -2.880953487034095 2.582789426254066 83 105 63
14.100927599800949 -2.880953487034095 2.5451821955557157 73 93 53
15.336129108396364 -2.8439125212767857 2.6706283724161333 73 95 55
18.513192764170064 -2.2198305853103553 1.8818681193672213 71 86 48
18.93819690517291 -2.255732502551557 2.0461132476363773 72 85 50
19.095224804461044 -2.3000305726996157 1.9839372312697394 50 63 27
19.426184004427572 -2.2635059031614304 1.9210871443845523 69 82 45
14.87335993841014 1.078038122952531 2.2782762473304885 31 44 9
13.7597798158894 0.8170687200313561 1.6922084387861132 32 42 10
13.762724145177126 0.7641872024876128 1.9167226105739066 30 41 4
13.876412874175644 0.9198560738543586 1.6911829741068436 32 41 11
13.492623708782526 0.8207258292107648 2.0042090315639283 31 42 7
13.799146588756011 1.0828452746192738 1.765256361424999 31 40 11
13.877441132411514 1.3180186703861057 1.8381768560186107 34 42 12
13.757726362389738 1.4586057804153516 2.0766613055302154 32 43 8
14.036490473351947 1.4484661049724985 2.2362633828547813 39 53 13
16.34751646270016 2.087046512276146 2.3654998591594247 50 65 22
16.197253038518607 2.0497867111258237 2.4686893890597013 51 67 23
14.544653823278614 0.6949412036007501 2.297766246956708 28 38 0
13.849148879729281 0.7615865710135561 2.1574437526738315 32 42 3
13.478043286376092 0.5675420951086632 2.175859716109745 35 46 8
13.498911299786078 -2.3229961365124216 2.4818908502537713 56 74 30
16.204061907010768 0.7538514536803156 2.5743761968023837 42 56 15
15.86359486672515 0.6632155323158345 2.6090147401107635 60 75 32
15.579976312720747 0.5576811897965941 2.640761504021565 40 56 12
15.579976312720747 0.5576811897965941 2.640761504021565 40 56 12
15.48359042117751 0.897577898033467 2.4241283004743392 28 39 2
15.888864036325868 0.5054169470432345 2.746778438587542 59 77 34
16.252713216034678 0.43622558852871396 2.6961112421814293 51 69 25
15.099063591262631 0.14995117090142301 2.7024641549559694 49 68 17
16.100705161328165 0.2993566733042233 2.71631204432806 54 72 29
14.712276317207891 -0.1922730206652917 2.762277096013718 50 71 20
14.987164977158901 -0.5170833529766605 2.7186386670750347 52 73 25
15.206175744119427 -0.31111143002055147 2.687699402115263 43 64 16
14.330531347216395 -0.6471418296276265 2.6548951199521307 57 75 29
14.816649224545584 -0.3646200733573075 2.7449797706839862 50 71 24
14.969909475248794 1.348432645272162 2.7212068205479034 53 70 26
14.913198958617997 1.512573259569322 2.7297959385104433 54 72 28
14.070525277646446 -0.012250865789243193 2.90137360914442 54 76 33
14.178819966521038 0.9001590151573738 2.871954756804211 53 71 31
14.379025972438377 -0.23503325954107535 2.8254670102710167 51 72 23
14.1031082311502 0.27901936671161803 2.892116477833281 54 74 30
15.143296986649528 1.9896114000796725 2.6962861218259744 52 70 26
15.350073521258778 2.1206949476342456 2.6688473878558514 52 70 26
15.887955040763144 2.436570780486035 2.746915763180854 51 69 27
14.546446478984436 1.8039620613865963 2.627547601698782 50 68 24
15.350073521258778 2.1206949476342456 2.6688473878558514 52 70 26
14.789438898366592 -3.1343378020993 2.7493961476159012 57 79 38
14.736896892435814 2.5751375430063455 2.758107732700114 52 70 26
13.557499404692544 -1.0648082825155223 2.6070863591371816 56 73 30
14.62875276980254 -1.3096247166996842 2.7768679542093304 63 79 35
14.309139107056163 -0.859150021889681 2.6577279837200605 58 76 34
14.016027778574463 -0.7157052244601071 2.917798652776866 59 79 40
14.30222400355518 -2.3229961365124216 2.524756140281918 59 77 33
15.01755556044031 -2.197834602367199 2.7141650399600783 52 72 30
15.09879340730815 -2.6480255362665663 2.7025022527022764 62 82 42
15.417390848019235 -2.4473183810788144 2.828209371843157 60 78 36
15.645381438940321 -2.305760301535298 2.785980016062662 54 74 33
15.521573188095896 -2.728195379173818 2.8081184004508635 63 87 49
19.384162527926776 -0.8107198166859804 1.605186978545117 6 17 1
20.184419306756606 -0.8107198166859804 1.8553576760589676 1 10 0
17.59387871494881 2.3934478149312772 2.2957490982868696 52 70 26
17.142109597789158 2.2259804643668493 2.3193443707339507 53 69 24
17.83773883178563 2.2259804643668493 2.3604305190253023 53 69 24
13.732772644209062 -3.13774293768522 2.253743302918269 55 73 24
11.673171559172188 2.785767955147974 1.801261066591972 61 76 32
13.87173402566653 2.959727734630203 2.2456202700196672 53 71 22
14.941557111068402 -2.7790199395123745 2.2743795732071828 57 73 28
13.735617700895459 -2.6557551645848396 2.4599803617985363 64 84 44
13.729465687909238 -2.473348413663963 2.3519087643903793 57 72 30
13.729465687909238 -2.473348413663963 2.3519087643903793 57 72 30
14.703598225610087 -2.8363919601414422 2.3824622943450713 58 76 33
14.062333143348003 -2.5591070589322715 2.4318289035014686 66 84 44
14.529755021018522 -2.933216508561138 2.3951578849423756 58 76 32
18.263988671967294 -2.295092642736123 2.0652071803076053 26 39 16
15.229930945390034 2.99842741144838 2.6845126740381984 55 75 31
14.84492276857371 2.6047845427892695 2.5929915362181495 54 72 28
15.46435897759693 2.918942926095095 2.530596797699921 56 74 30
17.569347495512538 2.336574904187721 2.4620505604082 55 71 27
15.26822540119795 2.9413638218863727 2.440446599167052 55 73 29
17.803359043002462 2.4520670872081056 2.362379950915399 54 69 28
15.229930945390034 2.99842741144838 2.6845126740381984 55 75 31
14.798821734330868 -3.136233794111753 2.598109970406657 81 101 57
14.798821734330868 -3.136233794111753 2.598109970406657 81 101 57
14.610056530153098 2.7230854634682236 2.619889176865263 53 71 27
14.667701682847568 -2.9099445868722684 2.4904425218945905 68 90 47
14.34492611067412 -2.4931538581157855 2.5205707291140516 65 82 44
14.024795375025942 -2.595729290605952 2.5532260495326784 62 82 43
14.839928991284307 -2.803623193362269 2.475361067316084 63 84 42
19.095224804461044 -2.3000305726996157 1.9839372312697394 50 63 27
13.897330698483778 1.1168421769484338 2.071105250202347 30 43 10
14.457739349551717 0.7662757635143737 1.6863202770093333 31 42 7
14.117603730181306 1.1794446994405368 1.6891165027354575 33 42 9
13.695997522801134 1.541759958808508 2.0791596950274647 30 43 6
13.929324787923933 1.2221272750722891 1.9897488867397022 33 42 8
14.59713699452011 1.5359331008357942 2.390180646982029 50 64 21
13.534917781350186 1.467198770424362 1.8451160108035305 34 43 12
13.975992926825672 1.5391121098478402 2.2396655201326254 38 52 11
15.651353487913116 1.0326822292968456 2.411929448223437 28 42 4
15.938810887629572 1.957930279907081 2.4893022348439056 49 65 19
16.02922272027161 2.0078462345425403 2.385944318611144 50 64 21
11.6429304295862 -0.7606756730732654 2.2895783083344483 18 36 0
15.610959605126867 -0.00766906082039818 2.7919651813016095 49 70 17
15.4555507692722 0.340662861274524 2.5314109546177694 39 57 15
15.809279035923128 0.68143655817406 2.500105659571838 19 34 1
14.816649224545584 -0.3646200733573075 2.7449797706839862 50 71 24
14.963504214997405 1.527182376941624 2.5801596836573193 49 63 23
15.486075298701529 1.5008673913494266 2.814800007799781 56 74 30
14.981787631012008 0.6954595906226768 2.936074850003741 55 75 33
14.341351683391157 -0.009433045848939343 2.8335994052737825 51 73 27
17.243874703797736 1.0708614370878409 2.5877962464094217 53 67 27
15.264733551542333 2.324334216736519 2.6798985646147275 53 71 27
14.228285517194179 -1.2001837851918251 2.6686548101671965 58 76 34
15.216987429882872 -1.4850525086013893 2.871793021555645 60 80 38
14.80613594185635 -2.0551955926000343 2.7466786609589264 53 71 29
14.217725598969398 -0.5475506811328337 2.862224547454495 53 75 30
14.196163372514492 -0.9134284426393453 2.8675690040555684 58 76 34
14.395337474923638 -0.7374830157007339 2.822020994219156 58 76 36
15.442559596380292 -2.151681358126996 2.823218407330857 53 73 33
16.04426124084878 -2.068601896285298 2.924163305118838 57 75 33
14.929552657304269 -2.7950893545584057 2.727295153763198 62 86 46
14.447234233497618 -2.5209452393002856 2.6398429866301254 59 79 38
16.880806644179145 2.209523774804788 2.41938675770685 51 69 25
13.453994942064824 2.8706528816380907 2.177096438614706 54 72 26
12.910343710867197 2.8706528816380907 2.1134019408948888 56 74 30
13.766155043736275 3.0518111076311105 2.2517720615903007 55 72 25
14.245870118077642 -2.745119380859142 2.3165800569146935 55 74 30
13.947254918501832 -2.404342447378632 2.441487332728825 67 85 42
15.325429089979762 2.8552193966176573 2.672001424427763 54 72 28
15.651027674983014 2.7523711895605514 2.4119527260509273 56 73 28
14.83533432497747 -3.006390061122313 2.5940499522593092 79 99 57
15.622559930390144 2.812085092809163 2.5162844994193905 53 73 29
17.157408252294154 2.2670279876521664 2.4923411226264514 54 70 26
14.938847490459423 -2.880953487034095 2.582789426254066 83 105 63
14.938847490459423 -2.880953487034095 2.582789426254066 83 105 63
15.278965480005203 -2.933216508561138 2.439614397054938 59 81 37
15.517692697073324 1.3393202201956227 2.4216134033280747 47 61 18
14.713647862257556 1.5320453764374562 2.486355562145449 48 64 19
16.34751646270016 2.087046512276146 2.3654998591594247 50 65 22
13.559361233296855 0.6556649808164428 1.8446087416404664 34 43 5
15.178175278816314 0.5360552246628821 2.447503540360346 22 34 0
17.091750089661538 0.9156178495297548 2.602362441259225 55 68 26
14.816649224545584 -0.3646200733573075 2.7449797706839862 50 71 24
15.310108546026528 2.5306137939953413 2.6739772461166336 51 71 27
14.420711349779683 1.0356029254826398 2.8167457937618625 54 71 27
14.56908198300893 2.7430744560964246 2.787750451943904 50 70 28
14.969909475248794 1.348432645272162 2.7212068205479034 53 70 26
14.456433799578518 1.5209248311316632 2.6386841809882053 51 67 23
14.918561033484988 2.8079848542337205 2.7289737987857445 53 73 30
15.170650847559676 0.5294938394829348 2.8830679053964907 53 74 25
14.973702677508538 1.6526157157423418 2.5790777073411597 48 63 21
15.08248797448437 2.6593466702863457 2.704809718305557 53 71 27
15.684427118730492 -2.562685800134379 2.7793365279965 60 80 38
15.417390848019235 -2.4473183810788144 2.828209371843157 60 78 36
14.097851688855961 -1.3513550956741005 2.6870693353823096 57 75 31
14.956371698166606 -1.6784165901541606 2.7232362146079088 58 78 34
13.833368676842476 -1.1350048357818394 2.727914434722674 61 77 34
18.123535759530416 2.3405757893760395 2.2701472516847154 56 72 26
13.700319558064484 -3.0341608987392403 2.354020223930154 59 77 30
15.235315428964743 -2.986371081418384 2.6837945954356712 78 98 58
14.5622612546149 -3.0218571400729544 2.5000045842520273 65 85 41
14.927862710575868 2.890985993531739 2.5839673740833304 56 74 30
15.172367208551782 3.0425677454724904 2.4479636413487946 56 77 30
14.667701682847568 -2.9099445868722684 2.4904425218945905 68 90 47
14.079968467243352 1.0033667263821662 2.146585800742521 32 43 8
14.686287325296005 1.7352439453068695 2.383705430732283 50 64 19
14.367060863104097 1.274353761735511 2.2183289006257647 33 46 10
11.893116319982566 -0.7667082022136493 1.7969240741108699 29 44 5
11.589082950309644 -0.8371630774295692 2.183693691206622 21 36 0
15.216987429882872 -1.4850525086013893 2.871793021555645 60 80 38
13.909406588295521 -2.413329349549427 2.5657782505948887 60 78 38
15.512534488295728 -1.5020015549211247 2.8098045244087535 61 79 35
16.16617133300151 2.324334216736519 2.7074574618721265 52 70 26
20.570151219932214 -0.883433686667679 1.900841983763168 34 44 8
17.299333699317554 2.27771639317304 2.392336909107215 51 69 25
15.369724083318276 3.0312112802206572 2.5394437757382207 59 80 33
14.802096485933296 1.7532147024280837 2.478619016592569 47 63 17
15.398184961968212 1.4363236397032675 2.430507974764845 48 62 19
14.820441394208466 2.9735397826892376 2.7443692547902128 57 77 35
15.684427118730492 -2.562685800134379 2.7793365279965 60 80 38
14.228285517194179 -1.2001837851918251 2.6686548101671965 58 76 34
14.639254107579795 -0.8790102571359641 2.77499374578583 57 75 35
13.918387900482847 -2.6140679384937937 2.3385392533186904 58 76 30
15.907224210583651 2.2056484364165407 2.7440176724046967 53 71 27
15.033242093969626 -1.8378353126633917 2.711880032169987 58 78 36
16.100705161328165 0.2993566733042233 2.71631204432806 54 72 29
17.61128146799081 2.286120387254063 2.2948740576777285 55 70 27
13.498911299786078 -2.3229961365124216 2.4818908502537713 56 74 30
14.385747855155492 -3.137344117768876 2.4060447071111737 59 80 33
