21.306758229161463 1.2235164373185412 1.376543614920594 8 14 13
20.724796929810562 1.316232401822099 1.3710162198890181 8 14 11
20.69531147029835 1.2692065085754483 1.4685218051063713 10 14 13
20.500898481648505 1.3644371244721847 1.3688043461448187 10 14 15
21.365349973663037 1.3280654568202954 1.6592361236220508 10 13 12
9.6805225630536 0.28373148094668255 1.766988800112667 6 15 2
10.856303320957426 0.06495683838070546 1.9369734970469483 40 53 20
10.363547775326703 0.07205963001755075 2.061860822058847 9 22 0
9.538018930234628 0.6718056410628978 1.8783125435240355 47 60 24
10.964877361447382 1.08372416561657 1.6517872475603002 53 67 26
10.636867611973019 0.955850353861818 1.654290501780795 52 67 29
9.489962490466167 0.827867300090146 1.8799212117028854 48 63 26
10.21642502318804 0.8969475078122794 1.8572920114956828 50 65 27
9.925501870213266 0.7522147349796874 1.762085683079085 50 61 27
11.249580603291893 1.1270986690372389 2.121533975216083 51 66 28
10.161834252254597 0.20153192550781562 2.1887063495502432 46 59 30
10.556447339568287 0.47487051071003056 2.2815505532489353 45 59 21
10.321054373949352 0.6509512899384956 2.3013538974490597 44 58 19
14.307635879739694 0.847188948934974 2.692206170361165 43 58 19
15.459397645933462 0.15854782221734667 2.8686418363200685 63 81 39
14.014010570969566 0.7266469849888552 2.737821237501507 42 56 16
10.85639628188775 -0.03750483861692582 2.1439313811968654 37 52 11
10.933681358326584 -0.1461792993890612 2.139376027539733 37 51 8
10.85639628188775 -0.03750483861692582 2.1439313811968654 37 52 11
11.100875454731053 -0.25149643201274935 2.1297815948678895 33 47 4
14.055299475417911 -0.6174322922572695 2.5787409234226586 43 64 12
14.864555052787368 -0.6820876444957653 2.7769227853632503 54 72 24
14.6506506834859 -0.5001616090402031 2.6458704980358485 43 63 13
14.529117111460378 -0.7038259883728473 2.6615675918461306 54 75 23
15.503582528149979 -0.3152401526241419 2.8586395938483724 61 79 33
15.449175492275474 -0.08292206881412502 2.8710155125455237 61 79 33
15.621943509793823 -0.517402247898555 2.8336522627083074 59 77 29
15.392108960749983 -1.059929503398792 2.5630358987180903 56 75 22
14.411424972872044 -0.8920718132028385 2.5407111930789523 50 69 16
14.46982163956762 -0.7280079786596454 2.4224934403465284 41 62 10
15.246748495026571 -0.8920718132028385 2.5778010290789974 55 74 21
15.893428392755037 -1.112516877837595 2.5163884382801025 52 71 18
14.858643674796259 -0.8070869079983095 2.6205735089912734 56 75 24
14.06028770917819 -0.6440078160510972 2.4564274588944124 24 42 0
20.323790722397995 1.4136339666367832 1.3670194620885843 8 12 10
20.87319793727165 1.4687612100849983 1.4693964260988204 9 13 12
20.998113280853325 1.4211258822249122 1.4700016997106025 10 14 13
20.851113045120943 1.6617835198671218 1.4692886560706966 8 14 12
13.584832326953492 2.104250887647148 1.4887810568673763 47 61 16
13.539639554778246 2.104250887647148 1.5624566403876823 48 62 17
20.706845591961006 1.6136018222461208 1.5170241799476045 9 13 10
11.119178296562863 1.442697323242508 2.2387591826845576 51 65 20
11.263413194277607 1.258781547314914 2.0196024835765374 52 66 24
11.242851946824596 1.3748817319852946 1.8304987197483529 53 66 25
10.824664849497433 1.558870520429281 2.039216045765423 53 66 24
11.499797155349277 1.9203284928165332 1.7356391013392718 49 65 19
11.705533073553479 1.9203284928165332 1.820010781066315 50 66 22
11.077482214706372 1.6536254660610026 1.8344673572520687 51 67 23
11.042689049509779 1.5599893848063047 1.8353180296852196 51 66 25
13.5855563778747 2.242603069433563 2.1901994588042717 52 66 23
10.881046859071759 1.4665418826608942 1.7451063135441598 52 66 25
11.311389791967223 1.558870520429281 2.118181660854318 52 66 23
11.466769404316365 1.7635302247989169 2.1099430856339545 53 67 23
12.481996316278357 1.9532314509121693 2.1552711932542907 52 66 23
12.320355260372246 2.1180419133705173 1.978680028716831 52 63 23
13.139095025334864 2.7680653617357183 1.331601916877932 57 73 23
12.613248424679762 2.8430084191858205 1.4024872767182037 56 72 24
12.754002082779941 2.9754099531952676 2.2375024230332206 57 75 28
12.29954548685741 2.6622272572125403 1.642982395657042 58 74 26
12.393783445655393 2.621721566377929 1.9761213183328534 60 74 27
11.95492991165811 3.0862863602738737 1.477568778778506 54 73 24
12.051674529221357 3.0862863602738737 1.7280261467860412 55 76 27
12.17893359381143 2.9215685694633153 1.561524853565394 56 73 23
12.922094308258355 2.8789111507014784 2.2273069629085303 56 74 26
13.164211844827282 2.787159843837602 2.213211395435107 57 73 22
14.716141524878886 2.4302205401130235 2.2191820046996433 61 75 26
14.134892663451387 2.370787955679181 2.25072018063785 57 70 23
12.797737122006282 2.255460293914141 1.798348416250782 52 63 24
12.03264896938225 3.0029834740734707 1.6445864374838581 55 74 23
12.066453932955802 2.548835708180038 1.7278319665433641 61 76 24
12.356940226888275 2.4302205401130235 1.8907967338000955 62 77 28
13.391185821504777 2.207740120295649 1.7121868821355082 49 61 18
14.627307799899036 1.8466693234862908 2.6488297055206034 57 73 23
14.232486016052436 1.2130419711456577 2.703281474845801 52 67 25
14.118544151933687 1.3761911981595742 2.72082874725783 62 78 33
14.69477093996686 0.8653658459416084 2.8085004762820884 62 77 36
14.478271333074492 0.7063675828237371 2.854839751760391 71 86 45
14.296502074532057 0.8986291585396432 2.901695546285365 64 79 34
14.799387687841522 1.144538488372175 2.7886377215098364 67 83 38
14.689843658392284 1.3358055195713538 2.8094713095027086 61 77 31
14.799387687841522 1.144538488372175 2.7886377215098364 67 83 38
14.51571299492613 1.0465312235273723 2.846218424544355 65 81 36
15.050987911796309 0.3015839827970921 2.993878950237131 65 83 41
15.223751388802492 0.20815632051056052 2.9308959801280117 63 81 39
15.050987911796309 0.3015839827970921 2.993878950237131 65 83 41
15.223751388802492 0.20815632051056052 2.9308959801280117 63 81 39
15.127729152288738 0.6648121827488672 2.962987816351798 62 80 36
15.016570681048746 2.0989823828273972 2.6025313938021117 57 73 23
15.305784063284886 2.203769726892367 2.571729532856307 58 74 24
15.653646749715492 2.294630549691295 2.5379336605459826 58 74 24
15.771025443192103 2.282990052912591 2.6478054910296476 60 74 29
14.66421417195704 2.040258985743534 2.5160040924632026 55 69 22
15.255186147042274 2.375843991765392 2.576926812176422 61 75 30
14.960240908955926 2.1385990477188597 2.489109286262614 56 70 23
14.553496793042429 2.2260048318772196 2.415950567797752 56 70 23
15.255186147042274 2.375843991765392 2.576926812176422 61 75 30
15.668131195323943 2.453696638108752 2.5365942455684656 61 75 30
15.44050813107667 2.3799607628210055 2.6891752887377143 61 77 29
14.360431305121358 2.9343375098612614 2.5459115989268133 59 77 31
15.345546455078786 2.5191660280244537 2.456922475317708 59 75 27
13.5442909503316 2.9343375098612614 2.5044747134655148 57 77 33
14.14982148722051 2.9571067155312027 2.448721126979028 57 75 29
14.725959786616466 2.70721785782594 2.5102227995962783 60 76 24
15.005660392698921 2.6080003753071233 2.48515835522637 60 76 26
14.301517412644547 2.8509072247255927 2.436040827580394 57 76 25
14.509925549535993 2.8164553889955455 2.530877599937989 58 77 26
14.067746654537087 3.0676713447196104 2.4557789276175694 62 82 38
14.86684361652371 2.4984976066776 2.2983472429186165 60 76 24
13.165900699877858 -2.052584817389358 2.213115410178679 62 78 30
11.784658855997272 -2.1851654187149063 2.0938813080424166 62 78 30
13.212715451979342 -1.8703066789736804 2.3085347517892836 64 80 36
11.705681125945702 -1.964885431473811 2.0977764293472667 62 78 34
12.07427274192496 -2.132932518742247 1.9875038350836565 61 77 33
12.08026690584602 -1.9301226810175638 1.9872842154983075 61 77 33
12.518267389633182 -1.9301226810175638 2.0604038247936933 61 77 33
13.386416808427779 -2.260785050959607 2.2008469601811003 59 77 31
13.131300900706188 -2.10053585648869 2.314184819656594 59 77 31
12.94282219231292 -2.2464664285093594 2.327656196188302 58 77 26
21.578580438699753 -1.5160294348998622 1.2348862737643036 27 36 4
22.120617131572416 -1.4188365583970073 1.1952744616206374 23 35 0
22.31785818365386 -1.5160294348998622 1.1501791567198678 27 37 3
12.392818108658894 -1.4806843249702792 1.5616848720451257 15 26 8
12.706050211842955 -1.6423651532341568 1.800019697986097 78 91 47
12.814575402987304 -1.7223407215514155 1.798044154830378 78 90 46
12.917112862727494 -1.7354712691891387 2.044020588408444 62 78 32
12.331608025264211 -1.900787658524421 1.807110381248699 60 74 29
12.603282366535938 -1.900787658524421 1.8843263220357394 61 76 31
11.890271945189685 -3.1128223678135916 1.5612997621407734 52 72 21
12.038559165212211 -3.1128223678135916 1.7281988682272875 57 78 29
12.052323213295614 -3.107005511654119 2.1790462658180267 80 101 54
12.341603519589455 -2.7818140863292378 2.264078154927955 61 82 35
11.885412655295 -3.1031163211195087 2.2964087277989433 93 114 67
12.109134139925558 -2.8838569252598143 2.2801368665177373 70 91 44
11.741057045595745 -2.9089510888339976 2.096024149169379 64 83 36
12.006824458740088 -3.0189185351225096 1.9899916751604865 64 85 36
11.956047917379664 -2.991678990924207 2.2911802351000086 82 103 56
13.003435982716946 -2.7818140863292378 2.323262671754087 61 82 35
13.02625322442363 -2.600252173534748 2.221160272597414 55 74 23
12.907096922273581 -2.5216616804534184 2.13363484243622 54 70 20
13.352218464581025 -2.391826424889097 2.2027158770790343 56 73 21
13.467437025349009 -2.4642147015032703 2.291474403636966 54 70 21
13.654942071963617 -2.600252173534748 2.2794772372630296 55 74 23
13.02625322442363 -2.600252173534748 2.221160272597414 55 74 23
14.879807643459353 -0.9484547715270165 2.7742469743422236 49 70 20
13.728898697613744 -1.9803383549795868 2.7895869816552543 70 92 49
13.627656756624285 -1.771823349359332 2.81040462377009 70 91 45
14.703003308145046 -1.117487480611912 2.8068859267301502 57 78 29
15.572372896003817 -0.8205133450406834 2.843823432741025 54 75 26
15.298302492699634 -1.2487289380754738 2.909208326397281 65 87 40
15.403519999830138 -1.0065324944112586 2.881915481476608 61 82 35
15.572372896003817 -0.8205133450406834 2.843823432741025 54 75 26
15.2686182079496 -0.40677366818131805 2.917571079601805 62 80 34
15.21789671962374 -0.8362469747892312 2.932702465128209 67 88 42
15.111386810683781 -1.126399694354485 2.96908120319165 67 88 43
15.040488188123108 -0.16031172220200818 2.9986469527024395 64 84 37
14.69702695161646 -1.114215695428696 2.640066342843511 53 72 21
14.517996831157989 -1.2488788034898988 2.663040868524847 61 81 30
15.155416491557489 -1.1695229053288054 2.587405831020283 54 73 20
15.581295553913852 -1.114215695428696 2.6709264699289297 53 72 19
14.406313295305159 -1.3967352586802853 2.678206902127329 61 82 32
14.406313295305159 -1.3967352586802853 2.678206902127329 61 82 32
14.517996831157989 -1.2488788034898988 2.663040868524847 61 81 30
13.604285543883941 -1.8596773952291417 2.6337076056536057 64 83 32
13.502109256947847 -1.709417785014761 2.647474471592424 62 82 33
13.502109256947847 -1.709417785014761 2.647474471592424 62 82 33
13.062270345178309 -1.7349390953735166 2.714157752690378 67 89 44
13.604285543883941 -1.8596773952291417 2.6337076056536057 64 83 32
13.16118658331056 -1.6907317532177981 2.5449230275759054 61 82 33
13.950894083155633 -1.5492376872287403 2.748545222245257 65 86 37
13.307833244161959 -2.689677303245556 2.528888647448048 63 81 39
13.901521147784985 -2.1572240154328792 2.757201623901199 71 93 49
13.741195440288335 -3.0919554528874844 2.6160846282181573 62 84 42
13.565300654478092 -2.4149542255076435 2.638895196590961 60 80 37
13.115366662715973 -2.505922587159866 2.55008593346762 59 79 37
13.092531376261434 -2.8136996538253993 2.5526874337231984 68 90 49
14.021977275173255 -2.1203936898394145 2.582518792685189 61 81 34
13.184903366486997 -2.1203936898394145 2.5422800104585597 62 80 32
13.513375135641464 -2.227119252394156 2.5075725070846797 59 77 29
13.506872417173021 -2.0066229792709462 2.392055117571638 62 80 32
12.72152261463611 -2.227119252394156 2.4609898226485587 58 76 26
13.179239407667328 -2.481711877859526 2.4191630735033045 54 71 23
13.945125359296217 -2.481711877859526 2.4665959422847488 57 75 29
13.917666099688404 -2.311517511619093 2.5946151694025916 55 73 27
14.245572576711167 -2.0659473408832976 2.7013256581518084 66 87 42
13.905035761796826 -1.8703066789736804 2.3617774308585795 62 80 32
13.694003234979618 -2.05746803254321 2.489846328672957 61 79 31
13.24844086867319 -2.157867935091667 2.4132564514744925 58 77 26
17.44771733771215 -1.302747523576972 2.4018046910493487 23 38 7
17.41644964368049 -1.3235557177107844 2.322002161152885 2 13 0
16.74988203746472 -1.3235557177107844 2.2783541813328934 13 25 11
12.861175634034701 -2.8528631791779104 2.4476875064369144 66 86 40
12.717145547388212 -2.973004628783471 2.4614150346847845 73 93 50
13.370786600703495 -2.6382261795107147 2.4030556498003453 59 77 30
21.816915880651518 -1.3803133456550054 1.6574009599756339 16 31 0
21.974659906465597 -1.335557115929813 1.5201292695318644 67 82 43
22.300756057012283 -1.4720100245005938 1.2931296377299768 24 36 1
23.081464574373403 -1.432257881528727 1.7841431401392527 21 34 3
22.469504180995564 -1.476404746550506 1.5212460309221536 23 33 2
22.37012335313833 -1.5209235012327618 1.5657487230440352 22 32 5
20.549729382737873 1.316232401822099 1.4187288778261093 12 14 16
21.16958031191398 1.374164725408212 1.4708208471243334 10 14 13
20.45582320814171 1.1605328169554572 1.4673201507313056 7 13 10
9.54536810367722 0.5210694636548858 1.7698037127739732 50 61 32
10.45386051733162 0.8221233733209947 1.5599948401500447 48 62 25
10.25434193934709 0.9156987951335389 2.1823088714363177 47 62 23
9.658766781025253 0.7465828532643398 2.101307141897007 45 57 22
10.781238014868162 1.0371645155850104 1.939644823630057 51 66 28
9.838935797757177 0.3165195697992986 2.090598782089464 51 62 31
14.57857187234696 0.382997228466223 2.832362934486258 63 78 37
14.57857187234696 0.382997228466223 2.832362934486258 63 78 37
14.813817026014775 0.12792944006396859 2.7860030124039703 55 72 30
14.725851758766073 0.5734838568603995 2.8024529164653296 54 68 27
11.395760556546504 -0.1638886896814128 2.3352003374589185 35 49 6
11.08654433287161 -0.22752621176100932 1.9290217460959125 33 47 4
14.983368056893669 -0.42936870032788416 2.7566855941506456 57 75 26
14.983368056893669 -0.42936870032788416 2.7566855941506456 57 75 26
13.711587896696546 -0.5479204035529162 2.4881672732491147 24 45 0
15.171860998057348 -0.5787290973923627 2.7270943743520686 55 73 25
15.802821483495327 -0.6820876444957653 2.799492879736934 55 76 26
14.940982914238534 -0.9952119467397013 2.6110499883669744 56 75 24
14.005190789627687 -0.803605631540483 2.461255545279667 27 47 0
14.3087139451476 -0.9382267758527317 2.3336450171139616 65 84 32
15.437716558785844 -0.9144030317573111 2.689547474821812 53 72 21
14.46982163956762 -0.7280079786596454 2.4224934403465284 41 62 10
14.485489873314755 -0.8763128054039255 2.4212588102050456 39 58 6
14.878616117258758 -0.9622888785516553 2.4963228628780394 45 64 11
20.8587364391311 1.709545609934345 1.565382979208997 8 14 13
20.688253275623396 1.565220590849295 1.5169758087901999 9 13 10
13.059563870985235 2.0382676070937684 1.5621500621055087 48 62 17
11.959350405340228 1.9532314509121693 2.0854781538243716 50 63 20
11.672893015218579 1.8610579362213395 2.099411621784587 52 66 23
11.345358954162405 1.6621562827060687 2.1163577282346435 52 66 21
10.470413955956923 1.4558376956957941 1.9511454127255266 53 66 25
11.426070286092068 1.1844506309315532 2.3326598541845387 52 67 26
11.263122089517177 1.2864308942196532 1.7391357314331568 55 66 27
10.881046859071759 1.4665418826608942 1.7451063135441598 52 66 25
11.412706679972176 1.835134367273591 1.8265463420323615 52 68 24
13.30918987754628 2.422260800885106 1.4113656828499292 65 79 31
13.287200148420869 2.207740120295649 1.6376083913539337 51 61 15
12.916588394680065 2.7012285534580998 2.1331712991782386 58 74 25
11.94971706572733 3.0812171314817394 1.9921222363174567 58 78 31
13.106816281066685 2.309491459913722 2.036623605514565 52 65 23
13.170232592078639 2.3145226032227617 1.4861931284079273 50 61 22
13.065241266526492 2.4984976066776 2.126016404495582 64 79 27
12.046231366485657 2.9904344422775604 1.9885344284506428 57 75 26
13.731651896207083 2.369124396670145 2.0138759396396297 58 70 23
14.328446831745538 0.4890932797120129 2.8927447423885537 67 82 40
14.689843658392284 1.3358055195713538 2.8094713095027086 61 77 31
14.404011751037977 1.274883294901001 2.872875596542614 64 80 33
15.050987911796309 0.3015839827970921 2.993878950237131 65 83 41
15.305784063284886 2.203769726892367 2.571729532856307 58 74 24
14.789447732960145 1.9796652604163532 2.6287846454616632 57 73 23
15.490500726472334 2.172478161426695 2.682579985980635 59 73 28
13.752687166956456 3.0463128587169956 2.614645474662365 59 79 37
13.836630966248132 2.905275929527818 2.604309907099161 59 79 36
16.34574749798001 2.3799607628210055 2.7159218841456867 62 78 30
15.148638778982054 2.5745428470972365 2.3727042435004044 58 74 26
14.301517412644547 2.8509072247255927 2.436040827580394 57 76 25
15.284748032271192 2.751031543928823 2.461809297992078 58 74 22
14.804232660699135 2.6587239255427555 2.3970583183104983 58 74 24
15.345546455078786 2.5191660280244537 2.456922475317708 59 75 27
13.46645760354023 -1.964885431473811 2.2915382822963193 63 79 31
12.074460708259158 -2.052584817389358 2.0800949951573013 61 77 33
12.82853500856865 -1.964885431473811 2.2329387265544627 63 79 35
12.900640456813953 -2.1851654187149063 2.228588991110695 59 77 31
12.080079029856401 -2.01206133937906 1.8984014550688215 60 76 32
12.907448596014959 -2.3972086038944274 2.3302478060828964 54 72 23
21.92849619547145 -1.4618722129963624 1.091475257725354 26 37 3
12.392634971038307 -1.5614638809684438 1.4808706238486908 35 48 15
12.940179718024654 -1.5614638809684438 1.8758965722841028 71 84 40
13.274879323619166 -1.5614638809684438 1.9478098025595374 67 78 39
12.999345119344282 -1.8004131813878117 1.7947585737732359 72 84 39
12.705692963710007 -1.8004131813878117 1.6406710858965294 69 81 36
12.68255753227786 -1.819862547237466 1.966371570263342 60 76 30
11.792951771170621 -2.929659438348968 1.9066876974492395 61 79 30
12.121985920375275 -3.006651507797307 2.175050215116338 72 93 45
12.638087344394863 -2.991678990924207 2.350682608833104 83 104 57
11.980670614116958 -2.8155611723434544 2.0844720656266817 58 78 30
12.052323213295614 -3.107005511654119 2.1790462658180267 80 101 54
13.467268501178669 -2.5216616804534184 2.1964761543706546 55 71 21
14.550517785469689 -1.5442746843927249 2.8384560614032694 65 86 39
15.21789671962374 -0.8362469747892312 2.932702465128209 67 88 42
15.096368197454076 -0.565381156757138 2.974887516220516 64 84 38
15.040488188123108 -0.16031172220200818 2.9986469527024395 64 84 37
15.096368197454076 -0.565381156757138 2.974887516220516 64 84 38
14.390313558377793 -1.709417785014761 2.680437018620327 64 85 36
15.2017342208836 -1.042860999696604 2.722650516384743 53 72 21
13.978450432447785 -1.7349390953735166 2.7438175946835934 68 89 42
14.077169717857792 -1.9099882602298386 2.727445734532633 66 88 43
13.502109256947847 -1.709417785014761 2.647474471592424 62 82 33
14.098249287608787 -1.8220859226629396 2.5739307064580723 61 82 33
15.412540410697659 -1.2488788034898988 2.692923202043412 58 77 25
13.73245749179206 -1.7698803948516626 2.3745688000128333 64 80 36
14.517996831157989 -1.2488788034898988 2.663040868524847 61 81 30
14.469089767008526 -1.7698803948516626 2.4225512186274387 63 81 33
12.819079330492086 -2.6251057961665345 2.5854307088598083 63 83 43
14.142910626716338 -2.30067636675062 2.716995064704358 68 88 44
13.80233675665947 -2.94908145219839 2.6084953313535015 67 87 48
13.565300654478092 -2.4149542255076435 2.638895196590961 60 80 37
13.513375135641464 -2.227119252394156 2.5075725070846797 59 77 29
13.917666099688404 -2.311517511619093 2.5946151694025916 55 73 27
13.479498896973642 -2.4045045382791277 2.510998421145027 58 76 30
16.722699255049292 -1.302747523576972 2.361481414065693 57 72 35
13.080286178273012 -2.740691641635206 2.4277886357917113 61 81 35
13.446780766387867 -3.098242287797056 2.5143390474343876 67 88 41
21.7633106702793 -1.518590813375382 1.380669042918391 25 35 6
21.956831050612635 -1.4258550854149974 1.3823649749377451 23 36 0
21.59687337442094 -1.4258550854149974 1.5192421891967318 20 34 0
22.521126257481043 -1.476404746550506 1.6546864559258745 22 34 1
11.738204777977904 1.077699712144979 2.3075887806212125 51 66 25
10.45386051733162 0.8221233733209947 1.5599948401500447 48 62 25
9.80847555807202 0.5796391861807841 2.0923769651797266 46 59 23
9.713209556808735 0.42348325127873176 1.9825155045097729 54 64 33
11.335575108042681 0.08090264850909844 2.3403038962705054 34 49 12
11.32163022033969 -0.04212123661873772 2.3414977541894726 35 51 11
10.919130800054347 -0.1319038448674827 1.934767973754273 33 47 4
15.1208149493795 -0.812213739697819 2.734835176055727 50 71 20
14.795929811125328 -0.803605631540483 2.5037837801432015 35 55 3
20.795782313978876 1.4687612100849983 1.5172543662131759 10 14 13
10.681400905120395 1.3311850478427283 2.154541625594222 53 67 22
12.481450820833285 2.190103219312413 1.8874927071440493 51 62 21
12.320539472388546 2.03905758651748 2.0689755718598675 52 63 22
12.933377810982611 2.592632348388395 1.4066915935847535 60 74 27
13.164211844827282 2.787159843837602 2.213211395435107 57 73 22
12.186517420619255 2.737240013200376 1.8099784604933165 57 73 23
12.123094678379926 2.817388043389397 1.8971958281398014 57 73 24
15.785402184259278 2.4720410518130462 2.646116101621243 61 77 29
15.00091924740194 2.440355863480257 2.3829365385920194 58 72 25
15.265389527161638 2.3729427421826443 2.463379703959486 58 74 24
15.050987911796309 0.3015839827970921 2.993878950237131 65 83 41
14.074903898182527 1.5504412204739637 2.727812115141168 60 76 31
14.144752362029232 0.6648121827488672 2.95042757886842 63 81 37
14.215634381344804 2.653211363106572 2.5611099047711323 60 78 27
15.785402184259278 2.4720410518130462 2.646116101621243 61 77 29
14.960240908955926 2.1385990477188597 2.489109286262614 56 70 23
14.296502074532057 0.8986291585396432 2.901695546285365 64 79 34
13.142149623868919 -1.7510660662218045 2.2144681935727037 61 77 33
13.131300900706188 -2.10053585648869 2.314184819656594 59 77 31
22.335048830166087 -1.5132040411351448 1.0500185099246977 27 36 5
12.809456426229307 -1.6486507693652923 2.048328673559063 66 81 38
12.638087344394863 -2.991678990924207 2.350682608833104 83 104 57
12.783008235176323 -2.8838569252598143 2.339531170945289 70 91 44
12.108301061269785 -3.0291497444699527 1.7272847584664828 58 76 28
13.994921041093946 -1.3649949774039298 2.7410258788086366 61 82 33
14.36354738689085 -1.5526362011544372 2.684201581577157 63 84 34
15.388786495242636 -0.6446578800279217 2.8855439751416103 59 79 32
13.906147501358733 -2.3188180608218487 2.4701054604271087 56 72 24
15.213370900760223 -0.1093545033102548 2.9341105104180776 63 81 35
15.403519999830138 -1.0065324944112586 2.881915481476608 61 82 35
13.999678646404313 -1.6907317532177981 2.5850697804013145 62 81 31
14.015710529355676 -1.903739975942862 2.4603285550777696 62 80 32
13.24844086867319 -2.157867935091667 2.4132564514744925 58 77 26
13.728145619040623 -2.546122157476727 2.3748947048508597 57 76 26
13.728145619040623 -2.546122157476727 2.3748947048508597 57 76 26
10.648995448338034 0.16246495457919088 1.8453458532031743 27 40 12
10.047134156244354 0.17992462908973536 1.9680474017662117 1 9 0
10.930118059427379 0.981902222720084 2.1395843492045272 52 67 26
14.638411643990246 -1.020740022861492 2.409435358981443 44 63 10
13.733228621086317 -0.7280079786596454 2.374510548830372 69 90 36
11.201796417990677 1.74583211645225 1.8314726694613173 51 67 22
14.799387687841522 1.144538488372175 2.7886377215098364 67 83 38
13.836630966248132 2.905275929527818 2.604309907099161 59 79 36
14.052689252957506 0.9813286074526362 2.7314268432024673 47 62 22
14.98578992506131 2.303079962515039 2.3840022093377637 57 71 24
12.755844056245584 -1.8428228300640614 2.141133698820959 63 79 35
22.390113066545975 -1.467187633107805 1.1516222102488018 26 38 0
21.467883969440607 -1.4188365583970073 1.2820538599365139 12 26 0
13.295615637218532 -2.6870245122473886 2.3028817974306 59 77 29
13.513375135641464 -2.227119252394156 2.5075725070846797 59 77 29
14.36354738689085 -1.5526362011544372 2.684201581577157 63 84 34
13.728898697613744 -1.9803383549795868 2.7895869816552543 70 92 49
14.703003308145046 -1.117487480611912 2.8068859267301502 57 78 29
13.137989511628891 -2.3188180608218487 2.422732629282961 57 73 23
13.444556289690615 -1.9451829024441578 2.5145673241712503 61 81 32
13.844511940466475 -1.7930074048721727 2.4757276303564915 63 81 33
13.778469288440656 -1.997695238191418 2.6114382319364378 63 84 36
12.806572669866803 -2.5789287708543163 2.4528284904464552 58 78 34
13.644550821863723 -1.3193949447523738 2.8068224475978134 62 83 34
9.893516289718045 0.6088500496538428 1.5593830448802413 52 62 37
15.811614097410889 -0.9952119467397013 2.6430573398375956 55 74 21
14.39567612721664 -0.7180178523492283 2.5423091285653676 45 63 14
20.323790722397995 1.4136339666367832 1.3670194620885843 8 12 10
12.662883437179195 3.0751263765097017 2.2431774907857287 60 81 34
12.224059976900914 2.9020885275748607 1.9820865565258239 56 73 25
20.795673177406265 1.5168654280556357 1.4690171063870878 9 13 10
11.94971706572733 3.0812171314817394 1.9921222363174567 58 78 31
14.431546920134823 1.931062954567155 2.5386800043522215 54 68 21
14.51571299492613 1.0465312235273723 2.846218424544355 65 81 36
14.279567048238599 3.0583370409061743 2.554318523328165 60 80 36
15.668131195323943 2.453696638108752 2.5365942455684656 61 75 30
12.592329860560724 -2.052584817389358 2.149485467622195 61 77 29
12.787185270923606 -2.324068505671697 2.2354620094822746 57 76 25
13.092531376261434 -2.8136996538253993 2.5526874337231984 68 90 49
10.310721698934623 0.06495683838070546 1.7548554367465972 39 52 16
10.66641159183486 1.1680012613181923 1.7486509481440438 53 67 26
14.80314908039088 -0.06676505033693499 2.7879486066832913 57 75 29
14.859921618646226 -0.25657809587103997 2.7777404588821155 57 75 28
12.437339514109622 2.369124396670145 1.642181272980005 59 71 24
13.991722863182526 2.7731579085253557 2.5859844403916075 59 79 28
14.415062518912476 1.0675057388315532 2.676993679418403 50 65 23
12.446248557092696 -2.600252173534748 2.1571725700079 53 72 21
11.936489675233966 -3.110180875178101 1.992618923210179 67 88 40
12.535161766728573 -1.4806843249702792 1.721914167389275 0 13 0
13.598963154941005 -2.199556749624121 2.6344112346193 64 84 39
20.993989068514647 1.2692065085754483 1.3736118231582222 8 14 13
11.32163022033969 -0.04212123661873772 2.3414977541894726 35 51 11
12.03264896938225 3.0029834740734707 1.6445864374838581 55 74 23
10.841742000834708 -0.033800040590546025 1.9374885809041886 36 50 11
12.717145547388212 -2.973004628783471 2.4614150346847845 73 93 50
13.778469288440656 -1.997695238191418 2.6114382319364378 63 84 36
16.10884459862921 2.375843991765392 2.6101527850557478 61 75 30
