18.922566022342995 1.6467042803590388 1.4010569932713666 64 72 30
18.779523409789604 1.6467042803590388 1.4535653490579552 44 52 13
20.72404780525957 1.6393577848319134 1.6579309209297992 35 44 0
18.39436778929015 1.6558098548639464 2.008911017030232 60 67 34
19.908360303312207 1.7432947946160866 1.611167085618013 29 36 1
18.92482418032954 1.7523728998022041 1.6132664128267016 28 34 0
15.215524333219673 0.6027689271355762 2.2709155526646754 13 18 1
15.160620425006323 1.1250472609733555 2.3639972519240464 66 78 33
14.812449952887507 1.0437000785930022 2.2940692219722147 66 78 34
14.454333926245821 0.7243768132673193 2.225666017905475 5 14 1
14.606194719029853 0.6551532035911359 2.3066060815330363 10 15 0
16.018741514834506 0.9171051929468197 2.39920349282772 37 49 7
16.279227089695535 0.8565830321484984 2.475906088737829 49 61 18
15.880394352795141 0.9693765569202706 2.3189737853382626 26 37 1
12.439753767502568 -0.1453411898515958 2.24888181125956 67 73 69
13.021071696873197 -0.04202570804686082 2.3132477964129814 64 72 45
13.287797610204972 0.293723959937665 2.4005749574131583 69 75 41
13.314119756627854 0.4351991884262544 2.6606080395640554 65 76 27
13.4536724872464 0.3298411273691178 2.5031330774930174 66 74 26
13.214144844592383 0.07852906796781729 2.527975784537575 68 76 32
13.986810972073805 0.4999034840352203 2.575311520628577 68 78 32
13.681927609229717 0.44277548652459997 2.4809826369508685 68 76 34
13.072035246035899 0.10646302991757942 2.697399968373832 68 78 32
13.314119756627854 0.4351991884262544 2.6606080395640554 65 76 27
13.129041306190537 0.18389771192777682 2.4138881161272643 69 77 30
13.763612950763058 0.37561009963150344 2.601356279452321 69 77 29
13.045224640056823 0.0694137714821495 2.4211303956455534 67 75 32
13.610407846508528 0.2378938539903696 2.6204292693569604 67 75 27
14.35580727017374 0.7866278402696361 2.6722567451908543 69 80 28
12.740454053478512 -0.2969279021720602 2.7556875575642077 69 79 35
12.878697460494523 -0.3498845162642145 2.5659923420197077 67 74 35
11.9799138206324 -0.48269883688881426 2.694715224039144 71 81 39
12.878697460494523 -0.3498845162642145 2.5659923420197077 67 74 35
13.251277930041718 -0.27291195145389446 2.403592028874867 66 74 45
13.251277930041718 -0.27291195145389446 2.403592028874867 66 74 45
13.106876305562755 -0.16199000759114243 2.4157885639235213 67 74 41
12.730070227184912 -0.20991331992593673 2.5842424669407693 66 74 33
13.522408155653252 -0.06112976915698648 2.6318790125196645 68 78 34
12.40212843163824 -0.05308741680803441 2.4823705599941985 66 73 34
13.112264871812718 -0.6384379160395443 2.6909962540729087 68 78 38
10.792720426458905 2.2118124375368318 1.459705961570934 35 42 0
10.876754943015957 2.2118124375368318 1.7373777559982495 50 57 6
9.944645248700322 2.271994387075628 1.5510353931381795 43 50 2
11.042234477995345 2.271994387075628 2.020847207395473 57 64 10
20.793876644685085 1.5991763184334666 2.3630193553663474 92 97 63
21.562042082179055 1.4694814998335621 2.3275346254023006 90 98 60
15.503250998583052 1.388404689851971 2.5425199796386018 67 78 24
15.833297339917397 1.1756505973659708 2.5126394394747558 61 72 22
15.833297339917397 1.1756505973659708 2.5126394394747558 61 72 22
16.39777864115585 1.2132335914629278 2.466752478046769 52 64 16
15.430777464886734 1.3076226231521155 2.4417322645422765 55 66 18
16.39777864115585 1.2132335914629278 2.466752478046769 52 64 16
15.835527981215563 1.365030488543468 2.6294142844708164 67 78 24
15.966690421262806 1.2427421615765204 2.61498764969586 64 75 22
15.966690421262806 1.2427421615765204 2.61498764969586 64 75 22
14.426080047050217 1.0010270153662417 2.6627404130474437 75 84 30
14.608260805687692 1.618959072987153 2.511548587017325 66 76 22
14.893436093990731 1.6252870311601593 2.605427171250417 66 77 22
20.837803371511967 1.6673900011949836 2.3608846607041944 19 22 1
14.985675708577185 2.3396177412143127 2.5951574646517517 70 79 27
14.565621219977048 2.2580577173611323 2.515574362792753 65 77 18
14.553083015263454 2.4241466564029026 2.516766922358495 70 79 27
14.670720064209759 1.7338563632586923 2.505733136130867 67 76 21
13.443363308984484 2.1328425148475323 2.2847913649003755 60 68 10
14.273898087244811 2.1899991223206188 2.429308247576703 66 74 16
14.22422504351046 2.1605206721323214 2.549575183966559 68 78 21
14.190809361356207 2.342165432421078 2.436115735837196 66 77 19
11.880792855490878 -0.7592836616864689 2.712454303052982 71 81 41
13.545787616984333 -1.664629474430555 2.8090072242666775 76 87 47
11.949399256882623 -1.039818179971497 2.7000740879367116 73 84 43
12.149549789392694 -0.9875406128140503 2.90234805843292 75 87 46
12.567978087747486 -0.590443243826795 2.7910087515960376 72 82 42
12.893453294574169 -1.175391060982813 3.0233978952413225 80 92 49
15.441006941797129 2.7569040140143612 2.67688047251121 79 91 41
14.839416178576174 3.031788791406678 2.7657302475426517 89 103 58
15.304602434121428 2.8975933656230173 2.694986357803064 84 97 49
14.839416178576174 3.031788791406678 2.7657302475426517 89 103 58
14.765213864276824 2.630526339417387 2.620226000657585 75 86 34
15.232761271562154 3.0488001483130853 2.7049384636435008 95 108 61
15.040125669951838 2.519773159604621 2.589233880254476 73 82 28
14.765213864276824 2.630526339417387 2.620226000657585 75 86 34
14.288565576359789 -2.751696417025615 2.8802811976528186 80 94 53
14.08312333236198 -2.61515866997907 2.941985768906863 79 93 52
14.22522217541946 -3.024082569431958 2.8974864115981083 82 96 54
14.421139570776726 -2.5283120255773017 2.847864174799007 78 92 51
14.082321529101344 -2.1027661888704667 2.942267411533883 78 92 51
13.963330278651034 -2.230387930648422 2.731132300944548 78 92 53
14.621061069898813 -2.3578507633374897 2.8055989513510027 78 93 54
14.621061069898813 -2.3578507633374897 2.8055989513510027 78 93 54
14.420356561968054 -2.1878475020399053 2.8480437415948776 78 91 51
14.621061069898813 -2.3578507633374897 2.8055989513510027 78 93 54
14.286984984204315 -1.964691158495176 2.8806952082311486 75 88 47
13.613122551415662 -1.8816085022011921 2.7949720036067154 77 88 49
15.285592449629833 -2.926244426515957 2.6975904663220125 80 93 50
14.690065008543625 -2.6430771727981317 2.792397778594222 80 94 53
14.83288349616745 -3.0672833939991206 2.7668478803683056 86 100 57
14.559939892229965 -2.833846956244029 2.8178338201404523 81 95 54
15.22639734954701 -3.0788350143769656 2.7058348755576147 87 100 56
13.712223915638834 -2.4588420263608453 2.6076379448309863 81 92 55
15.212919301716608 -2.5804609116574992 2.7077415829657587 81 94 54
14.136966723736501 -2.54002557621491 2.5588172929026616 82 93 56
14.240903619718388 -2.357475083130879 2.688425420242706 80 92 55
14.136966723736501 -2.54002557621491 2.5588172929026616 82 93 56
14.581909317422182 -2.4588420263608453 2.642547290701445 81 92 54
14.353402857850337 -0.7115711312705502 2.23107716855143 71 77 74
15.134824290125547 -0.7732197216522392 2.365730008240248 71 77 77
15.337969674170642 -2.017157051366587 1.8213900601126403 73 77 73
15.640451910074239 -1.9303712496593999 1.7510168883938402 65 69 62
14.840492856580305 -2.014095012761264 2.124480677712657 76 80 75
14.840492856580305 -2.014095012761264 2.124480677712657 76 80 75
12.352906657555351 -1.1244578641186305 2.6353472783798706 71 83 40
12.352906657555351 -1.1244578641186305 2.6353472783798706 71 83 40
13.422881886229755 -2.134363933056017 2.6453052356607833 79 92 54
13.855681810057677 -2.060680166444325 2.5903772093705992 79 92 53
13.855681810057677 -2.060680166444325 2.5903772093705992 79 92 53
13.968652973345353 -1.8268228804265478 2.7302575724646747 79 90 51
14.105034892731233 -1.9910284509073362 2.708626667097239 80 91 52
13.676731839478876 -2.4415626153376113 2.481471668576704 87 94 57
13.676731839478876 -2.4415626153376113 2.481471668576704 87 94 57
16.63917204827054 -2.0506764784043994 2.359414620220075 39 42 33
12.295048197178083 2.4626287264592306 1.3911827543304618 39 43 0
12.615600920055359 2.530377838950449 1.1462462603343542 38 45 0
12.237662407625399 2.530377838950449 1.2207758775890993 36 42 0
12.52210501058971 2.576944376471963 1.3944740971741374 36 42 0
11.728876395158073 2.6052211312019193 1.2048936216198063 55 62 12
10.107708769701752 2.5546325042382882 1.5513542286813073 59 68 15
11.653657981361182 2.5546325042382882 2.0920848262959386 63 70 19
9.99619318635327 2.414470792459197 1.4508128181344446 48 55 4
9.95680006210369 2.414470792459197 1.6515825198871565 57 64 13
11.025690272827957 2.414470792459197 2.021572259611653 60 67 15
12.69275067307187 -2.7947300243642164 2.2329281016092195 75 83 36
11.446502920321075 2.725912162115705 1.4660750497316177 51 58 5
12.69275067307187 -2.7947300243642164 2.2329281016092195 75 83 36
15.109905923096875 3.0782722450310884 2.467343760626126 73 82 31
14.807388857017065 3.0612574341587755 2.6152883785194994 77 89 40
14.583358779085636 2.9540384170590785 2.51389411440222 73 84 32
15.021532684221556 2.8046907902104783 2.591245348808589 75 87 37
15.680107123097706 3.0612574341587755 2.6473307086325817 89 101 53
14.178838089005396 2.8046907902104783 2.5543522029861383 74 85 34
13.537703522557068 -2.7112925566057817 2.4948158235895637 82 94 49
13.360058587864177 -2.757267455947829 2.3946824402785274 79 89 44
13.14096667605831 -2.8634057364744754 2.412869946563449 81 91 45
14.800842038640962 -3.087281410642899 2.6160502471721445 83 95 48
14.969687866056319 -2.1900011764435097 2.119154203980961 20 21 8
17.645454308640648 -2.2762318889507864 1.5029362722208035 105 109 105
14.889366121000236 -2.293768268898671 2.2895175549703892 80 85 60
14.862448961936646 -2.2384884534975895 2.2047459295679697 27 31 18
20.377393462788014 -2.2409443827385376 2.017530746593361 91 94 93
19.62342577167599 -2.5302155791265473 2.1538082881251683 43 46 34
19.62342577167599 -2.5302155791265473 2.1538082881251683 43 46 34
20.586968483028723 -2.218655431790158 1.609835656407907 72 77 77
19.781306258012112 1.6933801906437644 1.5102728474362346 24 32 0
14.706564591653784 0.8843897001344369 2.627211640999238 73 84 30
16.20563676208404 1.0437000785930022 2.386718114797129 31 42 2
16.089268510992653 1.0807842706553588 2.4910886946661113 61 71 26
12.439753767502568 -0.1453411898515958 2.24888181125956 67 73 69
13.021071696873197 -0.04202570804686082 2.3132477964129814 64 72 45
13.544726819096049 0.5721172806355012 2.6289389303583635 66 74 25
14.059834274009871 0.27846948333472543 2.715635216463002 66 77 28
14.260659159687776 0.3967322188058876 2.430384012144683 67 74 35
13.129041306190537 0.18389771192777682 2.4138881161272643 69 77 30
13.296896768944967 0.20748934415937867 2.519194325226537 66 74 26
13.045224640056823 0.0694137714821495 2.4211303956455534 67 75 32
13.529573608883219 0.0903927707100011 2.6309323535189133 69 77 31
12.740454053478512 -0.2969279021720602 2.7556875575642077 69 79 35
12.47473245904448 -0.18289848635126701 2.4748953929137674 66 73 36
13.417604288528281 -0.3067918780472259 2.5067640347049562 65 72 35
12.740454053478512 -0.2969279021720602 2.7556875575642077 69 79 35
11.16552257465445 2.0844596083832014 1.7330308317228582 39 42 2
10.756244858756041 2.2118124375368318 1.645566516868044 40 47 0
16.208512818878926 1.3076226231521155 2.4814817812030547 62 74 22
15.966690421262806 1.2427421615765204 2.61498764969586 64 75 22
15.427516922560724 1.618959072987153 2.549748102901119 65 76 22
14.899184382051601 1.4938608870959698 2.6047782604781577 69 80 26
15.433066285106209 1.5027806944451412 2.549213415376852 67 78 24
15.629464153816686 1.2132335914629278 2.4267678032070155 61 71 25
16.158788926557275 1.1298112562600182 2.5948851292781825 66 77 26
15.629464153816686 1.2132335914629278 2.4267678032070155 61 71 25
20.1396885457767 1.6673900011949836 2.3259324875381044 39 44 16
20.228541712197018 1.6612317322659949 2.2561439524749844 12 16 0
14.654068820884689 2.238617870322273 2.633586657494726 71 80 27
14.565621219977048 2.2580577173611323 2.515574362792753 65 77 18
14.800634129584529 1.8445851658205779 2.4939354353022565 68 77 21
13.9253518149322 2.097183309757285 2.458802136107721 65 73 17
14.519534162073253 1.7171206702305957 2.409932674129341 62 72 21
13.040218485487651 -1.3317567308741638 2.9507610514735045 77 89 46
12.320016909465528 -0.7488222182478468 2.851001846704855 75 85 46
15.053104395479744 2.6943697210832123 2.7312564384359117 82 95 45
14.913152323740945 2.8547836416211156 2.75339341815004 85 99 51
15.232761271562154 3.0488001483130853 2.7049384636435008 95 108 61
14.641606357655181 2.4376667339967826 2.6351175951916375 72 82 28
14.886375322593684 -2.4848433502012304 2.7578158103013175 82 94 55
13.946527143310727 -2.3602021939119013 2.9982527424040444 81 95 53
14.217613128947022 -2.3585383749695366 2.8996444656095908 78 92 51
14.286984984204315 -1.964691158495176 2.8806952082311486 75 88 47
15.020877251034754 -2.7238785179383633 2.7362165455721548 80 94 52
14.719193676524915 -2.653812665884743 2.625695423246929 82 94 53
14.559939892229965 -2.833846956244029 2.8178338201404523 81 95 54
14.893642707570402 -2.8880303333334068 2.7566092083600937 81 95 53
14.886375322593684 -2.4848433502012304 2.7578158103013175 82 94 55
14.421139570776726 -2.5283120255773017 2.847864174799007 78 92 51
15.212757888288053 -0.6408015909192094 2.360522252754787 71 77 68
15.532808417108887 -2.048077172988768 2.0241781466422717 69 73 68
16.014133738256355 -1.9897742687678257 1.7467670353710034 74 78 71
16.125253652906434 -1.8889621353832298 2.075936607354998 66 71 56
13.643722915177795 -1.9313753987938285 2.6161917084167188 80 91 53
15.837444229091705 -1.9127258359635015 2.1602007486200083 67 70 62
12.583821050661987 2.6052211312019193 1.0559303400194904 38 45 0
12.385883437411405 2.576944376471963 1.4740433172194198 37 43 2
10.797858819633209 2.5546325042382882 1.9307656390628078 60 69 16
11.354230588993033 2.282471210333239 1.553488901633263 39 43 0
15.020684694266274 2.4949791818677953 2.47481107325411 69 78 26
13.937761597930262 2.842238187563138 2.457708090775263 72 81 27
14.030167848037975 2.9294517034693057 2.570469013451235 74 86 36
13.01671573489835 2.6415809714615155 2.3135549070691788 66 75 19
13.937761597930262 2.842238187563138 2.457708090775263 72 81 27
15.2263023710042 2.6899132149915332 2.569703959504053 75 88 35
13.944817332037566 -3.087281410642899 2.5800662281794935 85 97 52
14.800842038640962 -3.087281410642899 2.6160502471721445 83 95 48
14.50126456069645 -3.09372547387742 2.5217387083406484 78 88 40
13.321533559420466 -2.82816494756405 2.5166215085642323 80 92 47
13.330900730170962 -2.7947300243642164 2.2921247183511535 74 84 38
15.720033839135063 -2.2065105607166493 2.0183833571229775 21 24 17
18.395168042342686 -2.2409443827385376 1.6144900312690602 91 97 92
18.378661884835886 -2.2409443827385376 1.560104230118336 99 103 100
14.795775488013424 -2.3568659100459026 2.20806289202081 48 50 28
19.806579407433954 -2.563573767226946 2.088587027595881 54 59 37
22.309498785862264 0.39560107475517947 1.5619881850994781 62 69 61
18.583127207764957 1.6510000055048202 1.8884087393754905 84 92 52
18.91929204407185 1.6510000055048202 1.9386423007358786 19 23 2
17.745552634515192 1.6510000055048202 1.6726030468686683 17 23 0
14.508343502519478 0.6701708392953297 2.1386961687413173 10 17 5
15.753232736640458 0.8478097292961687 2.3264925962608327 29 40 6
15.888719466968544 1.1250472609733555 2.408166708065946 43 55 9
16.402311354909838 0.9946148995631309 2.466407190254307 51 62 22
14.454333926245821 0.7243768132673193 2.225666017905475 5 14 1
14.455115094559023 0.8478097292961687 2.225624519596649 20 30 1
12.39716063114307 -0.40628841827211515 2.628945821956429 69 77 37
12.888961547723131 -0.48269883688881426 2.728250332164743 69 79 37
13.1335610575876 -0.24610275743496005 2.6876561048967322 69 78 36
13.1335610575876 -0.24610275743496005 2.6876561048967322 69 78 36
12.629162759433104 -0.5471979393231289 2.5971971197055654 68 75 38
13.06461885259165 -0.0720389198030015 2.698594270419779 68 79 31
13.03779299572723 -0.04691379299666184 2.421779931900252 66 74 36
11.238151028604538 2.1328425148475323 2.0124419011790495 53 60 8
13.765982284270198 2.045172018839693 2.3633578445891614 62 69 14
13.754462207598062 2.4241466564029026 2.4742256433690644 68 77 25
11.618174654845683 -0.9210586283021693 2.7648802700441024 74 84 46
14.359066718363593 2.555210731449579 2.6718093344353533 73 85 32
13.753030540040156 -2.0723618588331285 2.76782490490063 77 88 50
14.420356561968054 -2.1878475020399053 2.8480437415948776 78 91 51
14.621061069898813 -2.3578507633374897 2.8055989513510027 78 93 54
14.136966723736501 -2.54002557621491 2.5588172929026616 82 93 56
16.370764115508116 -1.9088177472013954 1.4976433269245266 65 69 66
12.600220611356763 -0.9849012648473551 2.601003076694898 69 80 39
13.711400423264227 -2.2558236379005505 2.6077395346062833 81 92 54
13.237229709180077 -2.3572383190723754 2.5255040512690585 82 92 54
14.310162569327474 -2.134363933056017 2.6785859237081366 78 90 51
15.672443142299418 -1.940151047653732 2.246599950937986 47 51 37
10.840236312004501 2.344034368016063 1.366758558988373 39 46 0
11.486149823487082 2.4766803772819532 1.1967840194254267 41 48 1
13.823008968909138 -2.6057019499448937 2.4679573482704904 85 95 53
14.507946566258866 3.0707707855395854 2.5210936544858242 71 82 32
14.584454360200002 -2.2509010849770483 1.9800486569127214 12 13 4
15.720033839135063 -2.2065105607166493 2.0183833571229775 21 24 17
15.971752588805785 -2.1095853482572453 2.010830759214967 9 12 7
19.375302755150084 -2.2085413982157647 1.7160004164105744 80 84 82
15.971752588805785 -2.1095853482572453 2.010830759214967 9 12 7
19.806579407433954 -2.563573767226946 2.088587027595881 54 59 37
14.508343502519478 0.6701708392953297 2.1386961687413173 10 17 5
15.955484842948373 0.7861418837913889 2.4035348834028705 33 43 6
13.763612950763058 0.37561009963150344 2.601356279452321 69 77 29
13.417604288528281 -0.3067918780472259 2.5067640347049562 65 72 35
12.219840237894582 -0.6384379160395443 2.6553497383722173 69 79 39
15.409591066153213 -2.7831376474117038 2.6809637281818803 80 93 51
14.98201664586378 -2.54002557621491 2.595559152509221 83 94 55
14.497782222652578 -3.050534289881477 2.8308637466435527 85 99 57
12.20489242742317 -0.8873691631898537 2.657671914090928 71 81 39
14.67163065249006 -0.7010627720968046 2.3984603548712737 70 77 70
14.38504175105649 -1.7881946924337406 2.6682650292221837 81 92 55
11.778474948252436 2.407204910900402 1.2959644707693017 37 42 0
10.599282649612988 2.5546325042382882 1.2644498176495125 53 60 10
15.680107123097706 3.0612574341587755 2.6473307086325817 89 101 53
13.410743582737867 2.737628904118603 2.3906092308859885 68 77 23
19.62342577167599 -2.5302155791265473 2.1538082881251683 43 46 34
18.779523409789604 1.6467042803590388 1.4535653490579552 44 52 13
15.63720077538339 1.2786404393355961 2.5300868805350296 64 75 20
14.041814696066716 0.293723959937665 2.448666987805588 68 76 31
13.545787616984333 -1.664629474430555 2.8090072242666775 76 87 47
14.178838089005396 2.8046907902104783 2.5543522029861383 74 85 34
13.296896768944967 0.20748934415937867 2.519194325226537 66 74 26
15.835527981215563 1.365030488543468 2.6294142844708164 67 78 24
13.963330278651034 -2.230387930648422 2.731132300944548 78 92 53
11.694687133646557 2.687358886591099 1.1103507725802992 45 52 3
15.2574503653567 2.555210731449579 2.701483986758385 78 90 39
14.947393427964716 -1.9547158992057638 1.8280844732021366 71 75 72
