10.967532876641476 1.170083126454367 1.2917743090037468 9 25 1
8.958117420653586 1.0806682864099904 1.7935932424743068 15 27 4
8.945150237764746 0.9195562989569018 1.9103550013187176 15 25 2
9.600278547571797 1.0806682864099904 1.9981958964688649 26 36 12
9.630508433016502 1.129567843185575 1.5686541866645383 9 22 0
9.128178490364757 0.8318084755281673 1.6782941034782046 27 38 15
9.311701402021415 1.020806974764445 2.1350002859556 34 43 17
10.136636170528327 0.8528004058578307 2.4770213896806372 36 46 20
9.233104451366717 0.9464462382957769 2.275228503642031 35 45 19
9.369773349408629 0.8528004058578307 2.4111534279403593 36 46 20
10.138835984150022 -0.5084002431443697 2.658669160497391 32 43 9
10.870650430071102 -0.30435217003387205 2.733830108996137 33 44 11
9.97844110575451 1.4566787628485716 1.3668866410900737 14 28 3
9.176783350286838 1.3327827702136985 1.7881980506273019 18 30 6
9.20441591864614 1.557854565939577 1.9004223522587533 28 39 13
9.246397252925128 1.6723383233683864 1.8988694984500114 30 40 13
8.719994092219425 1.6854031224184245 2.0446852507553825 34 44 16
8.92829926144487 1.3032790418758484 2.03275579434846 26 36 11
9.758078569042738 1.5591875210131318 1.6713306513748938 23 36 9
9.771733079129888 1.4566787628485716 1.5686851457003754 16 29 5
9.935400224162407 1.3565156132097747 1.5687199235125753 14 26 2
10.387113859456624 2.3000129988786453 1.4723782853468403 28 41 12
10.03789122491875 2.0822221166133796 1.4689425909474216 27 40 11
9.668289864520055 2.3693703564075306 1.4650345943860252 30 42 14
10.34090498617316 1.7628044951055648 1.2743692500051642 17 29 5
10.885012422777049 1.9516608471435535 1.2896016757360587 25 38 9
9.889920962079824 1.7628044951055648 1.5687103750615734 25 38 9
8.753784110024442 1.9291958867544485 1.9180878141320752 33 43 15
9.748590926005205 2.2230553473966723 1.6714288260846026 30 43 14
8.476682516730323 1.810916419975144 1.9299460326883815 34 44 16
9.385430274392117 1.89095207787149 1.7832900372551288 29 42 13
9.409367677288753 2.291115528158811 1.8929800937590975 35 45 17
9.505896393016615 2.037885614013586 2.0027229234884434 35 45 17
9.409367677288753 2.291115528158811 1.8929800937590975 35 45 17
9.368651288109271 1.810916419975144 2.1311581706803153 37 47 19
9.756084649162121 1.5561758209789422 2.230504453395281 35 45 17
9.981583450067781 1.3032790418758484 2.2130982710024334 30 43 16
9.620094423323838 1.9291958867544485 2.1148410383623055 37 47 19
9.510053259065243 1.136346187340135 2.250730737454892 34 44 18
10.483690808582502 1.4064194269720502 2.4358379000852217 38 47 19
10.425083343812274 1.553996691477107 2.4424606634733967 38 48 19
9.18226887907514 1.8450503825980584 2.2799432112294977 41 50 20
9.214363843706552 2.0959970144471964 2.141699457088151 37 47 19
9.243801041333965 1.4274323497867076 2.139655551097807 32 42 15
9.678795937495607 2.200434349269276 2.1111761492028056 38 48 20
9.161645277054308 2.4495389679243664 1.788563053428497 37 46 17
9.243209357489791 2.541958612007895 2.015863187346855 38 48 19
10.427750189714983 -0.9433177399520872 2.608232044535112 33 45 12
9.603203924166234 2.278876241115275 2.242912441019316 39 48 20
10.062225108474163 2.859204064034235 2.486518155632657 41 51 19
10.474860412097962 2.374861817026271 2.4368277198304344 40 50 20
9.621840257438384 2.467026066204045 2.241372201898919 40 49 19
9.467369557197344 2.039088680044553 2.3997172075699718 41 50 22
9.621840257438384 2.467026066204045 2.241372201898919 40 49 19
9.273045382348089 2.2609840940177968 2.4228760308804773 41 50 20
9.068771793284633 -2.306773294055208 2.4490182846624844 47 61 35
10.304543092136784 -2.883175237506295 2.6288435314060044 52 65 37
9.941431924460037 3.0218828751995566 2.5025010339251175 42 52 22
9.42512923599723 -2.5116665314761595 2.2580377589467058 41 55 28
9.540294104174665 -2.420973360999948 2.3914147713669376 44 58 31
9.134194929991617 -2.5488384098838712 2.440429785914751 46 61 34
9.63372008511739 -2.703100462047173 2.5468184948134747 50 64 36
9.63372008511739 -2.703100462047173 2.5468184948134747 50 64 36
9.43682366598857 -1.321311663078694 2.0060995120690057 39 48 18
9.501001764036623 -1.5586674581148743 1.7806663540532708 39 48 20
9.541678273537727 -1.6659994145800436 1.7797583872400302 41 50 21
9.491204865380915 -2.3229898757697756 2.003436557484122 40 54 23
8.794480945756323 -1.9478168821534887 2.0403462132011514 49 59 31
9.010730252897735 -1.794592180471828 1.9077852842315262 42 52 22
9.271884891755363 -1.9058746055587275 1.8979339891626732 44 54 24
9.638053466142464 -2.1612693750162273 1.9964114447917654 45 57 27
9.630287597026177 -2.009181478791637 1.8853320327680556 47 57 29
9.430620674568372 -1.5553412378301332 2.2575599548030896 42 52 22
9.495368163063585 -1.4193686911349208 2.2519818409938637 39 49 19
8.933293470024442 -1.2468413003268726 2.304110308100902 41 48 16
9.735860048953654 -1.4374005638516627 2.1076634219113997 38 47 19
9.631327658010413 -1.2468413003268726 2.381326987632168 38 47 15
9.438550827451266 -1.7108954145577921 2.4030546434964077 42 57 30
9.462402560208016 -1.3957574424708359 2.400290108379055 40 50 22
10.634672460853745 -1.1909472478113579 2.5761444409122762 39 49 19
9.029232834752417 -1.8240612224765944 2.15492425275658 47 57 29
10.59219605990847 -1.913375977119194 2.582495807251512 49 63 38
9.758887084968528 -1.913375977119194 2.5281164210709246 49 63 36
8.882684911865377 -1.8622153103701007 2.3092550960200446 47 61 33
9.289867347795987 -1.9478168821534887 2.1364883127144054 48 62 33
9.83033169498012 -2.001022354925632 2.360270645437528 49 63 35
9.395058290161401 -2.2312089522481258 2.129395539481653 44 58 29
9.582604886654792 -2.2043565638145948 2.3866888490124207 47 61 34
9.920521946466074 -2.4094083619806974 2.2177110263754725 42 56 27
9.943609656485235 2.515127328405074 1.3661622448494857 31 42 14
9.736162152989051 2.515127328405074 1.5686774325195771 34 44 17
9.396490223115848 2.603434519182369 1.7830360990528589 39 49 23
9.46076212168314 -2.6432542665170096 1.8911672331003273 42 55 26
8.491067795479713 0.9195562989569018 1.6863948320745346 8 21 0
7.780401117895147 0.41704817741184186 2.107680224593948 23 33 9
10.870650430071102 -0.30435217003387205 2.733830108996137 33 44 11
9.956739224778419 2.1358715617793678 1.9819487755623668 36 46 18
8.8568948151153 2.037885614013586 1.7961832643762694 33 43 15
8.877662233032778 1.810916419975144 2.0355977175945443 35 45 17
9.17727886942757 1.5561758209789422 2.144296903696182 33 43 15
9.916848121075878 1.5591875210131318 1.3656021487116219 17 29 5
8.830696332230383 1.1870013135735387 1.9149370444378064 22 33 9
9.820667370608593 1.4566787628485716 1.6706877822512578 19 33 7
9.299463568843734 1.2275024650831992 1.6763066717129393 15 27 4
9.270743370838803 1.4437076016583428 1.8979757716643153 22 34 8
9.638745918548045 1.4437076016583428 1.9963788779716594 26 39 12
9.908301720280187 1.2656847290784405 2.352368464685103 36 46 19
9.18226887907514 1.8450503825980584 2.2799432112294977 41 50 20
9.772151263707563 2.291115528158811 1.9901994318591214 38 47 19
9.664021387245127 2.3693703564075306 1.6723124821514168 35 44 16
10.701837463881855 -0.6346674869882506 2.772046258446494 35 46 14
10.057548381391737 -0.8133619392574507 2.674317666577725 33 44 12
10.062225108474163 2.859204064034235 2.486518155632657 41 51 19
10.279332641691413 2.710454323816382 2.459497684981532 41 50 17
9.034437985026349 2.467026066204045 2.154543419979073 39 48 18
9.466660842027915 -2.4389464083299273 2.57343127048124 48 63 37
9.520972147651184 -2.584321697999432 2.1211511291577656 41 54 26
9.50929925481237 -2.1629913726073915 2.5664455909634665 47 63 38
9.63372008511739 -2.703100462047173 2.5468184948134747 50 64 36
9.821058242324355 -1.4516131791096305 1.8790189365354713 36 45 17
9.553735655597757 -2.486451131941751 2.0004159678921383 40 54 24
9.000506053083146 -1.9058746055587275 1.7925263772382942 45 55 27
9.639092689187137 -1.3635476511871012 2.545995074386209 40 53 22
9.735860048953654 -1.4374005638516627 2.1076634219113997 38 47 19
9.639092689187137 -1.3635476511871012 2.545995074386209 40 53 22
9.361739471638813 -2.3164721241718746 2.2636076640379073 45 59 31
10.000523330938258 -2.070264317294711 2.4945917954599706 49 63 36
9.029232834752417 -1.8240612224765944 2.15492425275658 47 57 29
9.462402560208016 -1.3957574424708359 2.400290108379055 40 50 22
9.471599445873505 -1.6918841682887547 2.254017760990847 43 55 26
9.495368163063585 -1.4193686911349208 2.2519818409938637 39 49 19
9.663717027968413 -1.2887831433260668 2.2379396485095078 39 48 18
9.758887084968528 -1.913375977119194 2.5281164210709246 49 63 36
9.510587298081575 -2.1242233944896296 2.2506853363816557 46 60 31
9.427675513210252 -2.746210273329486 2.0065508262968037 41 55 22
8.945150237764746 0.9195562989569018 1.9103550013187176 15 25 2
10.179704620335789 1.8598746384758837 1.4703663387075931 24 37 8
10.328002997816702 1.8598746384758837 1.3738804455115161 24 37 8
9.127524948199332 1.7842229324041725 1.78939029734501 30 41 13
10.393272217644524 1.2605238634502576 1.3751331465605094 12 26 1
9.955825752390458 1.6619399844462763 1.3664168948159447 18 30 6
8.978792770615454 2.291115528158811 1.6800897064873452 33 43 15
9.339120703872027 2.1358715617793678 1.7843599970613633 32 43 15
9.797687845358517 1.6619399844462763 1.6709228531102607 24 37 10
9.438678483935487 1.977245242999296 2.2568601977801754 39 49 19
9.721019095060555 1.7023040556124582 2.3716734575655924 38 48 19
9.690133032152714 1.1870013135735387 2.1104743823588716 28 41 14
9.818686160894536 1.4274323497867076 2.2255686099725187 35 45 17
10.292827018563596 1.0715620439227675 2.4578849588447187 37 47 20
10.049513080607158 -2.608874736768638 2.6759049088623783 55 69 42
9.167004577446187 -2.608874736768638 2.626901204330548 51 66 39
10.273195713799916 2.467026066204045 2.3177092428730113 39 49 19
9.734678239087415 2.374861817026271 2.3702272679065066 40 49 19
9.532023594012017 -1.7711833457175379 1.6737232110089006 41 50 20
9.197979148373392 -1.5572048822877316 2.018210033667375 41 50 22
9.834018717560012 -2.2500213639706637 1.8785993790501616 43 53 23
9.23998972777495 -1.6773987762399947 2.0160293971323053 41 51 22
9.35189902939184 -2.4094083619806974 2.13228253893572 40 54 25
9.584405640302158 -1.8622153103701007 2.3864891635116474 46 60 33
9.804974151687807 -1.1909472478113579 2.5214720548911296 35 46 14
9.30575398684155 0.9851382576840287 1.4608979508273716 12 25 2
9.243801041333965 1.4274323497867076 2.139655551097807 32 42 15
9.795701987968583 1.6854031224184245 2.227371299234604 35 45 17
9.536425468811727 1.990650114985768 1.568633053043066 29 39 11
9.226459841190504 1.89095207787149 1.6771446641316703 29 41 12
10.636408379452263 1.2656847290784405 2.4191518075196057 38 47 19
10.174112431783705 -1.113359797275043 2.6520975521726817 35 47 16
9.211758603929662 1.8901132293407725 2.4305147414234805 42 51 25
9.134929438898086 2.168661606481371 2.2843983475748564 40 49 20
9.565272853648878 -1.4516131791096305 1.7792353355026769 38 47 19
9.792794254845255 -2.4013448429480304 1.8799379480882512 41 54 23
9.951970158265414 -2.3229898757697756 2.0947879038756074 42 56 26
10.162204101536295 -1.552885359662776 2.4738165480506518 46 55 27
9.64760203859596 -2.06057315871799 2.1131171051469666 47 60 31
9.758887084968528 -1.913375977119194 2.5281164210709246 49 63 36
10.703976352944766 2.165278664923677 1.3808830193181407 26 39 12
9.818686160894536 1.4274323497867076 2.2255686099725187 35 45 17
9.368651288109271 1.810916419975144 2.1311581706803153 37 47 19
9.63372008511739 -2.703100462047173 2.5468184948134747 50 64 36
9.249637695498802 0.9851382576840287 1.5685659799861498 9 21 0
9.326009490160178 0.9195562989569018 2.0116325730004943 27 35 12
10.089192304125476 -2.5116665314761595 2.334729455717694 41 55 28
10.410556646431576 -0.6749904447495858 2.611035853665665 32 44 10
