16.13740541375062 -0.07175881875298618 1.0229090392924036 0 5 0
13.320534099168649 0.5784297806548774 1.844011954207751 61 75 45
13.648178833780097 0.6409602846444893 1.7620416722506542 57 71 40
13.648178833780097 0.6409602846444893 1.7620416722506542 57 71 40
12.914343756826295 0.9783145355137568 1.93451202507128 40 53 19
12.490718942437848 0.6025736194143082 2.1269618095421055 52 66 31
13.131026676296548 0.8612111950375684 2.0109012357136424 44 57 22
13.114174750270704 0.6883904433617803 1.8484241744590375 57 71 42
12.945566993449273 0.8026940234564013 2.105265503302091 56 70 38
12.524145339730932 0.6761660334668674 2.033845979503414 59 73 41
12.715752957746243 0.7419968809619923 1.940463693795656 54 68 38
12.467383346258549 0.7284091112441252 2.331374238987625 42 57 18
13.035159807168709 0.660434837324487 2.2907028833452032 49 63 25
12.489219278885608 0.8848535650181101 2.3297118760569435 45 58 20
12.91323150842402 0.7361217998185825 2.1995037082304014 51 65 29
12.934314774416073 0.8714417299263677 2.1983189665517218 42 56 20
12.442538124828724 0.9491625653617021 2.2272952034825493 38 53 16
11.17014943215209 0.273456163130175 1.6240229641421977 39 56 26
11.8669927976041 0.08601874991291021 1.4520602894805963 34 50 27
10.904649795178878 0.0939829482229335 1.7175230590573776 35 50 24
11.267687248688787 0.273456163130175 1.7127630568143783 39 56 25
12.015096567192499 0.35753707656760336 1.8745939343260742 43 60 26
11.853341062242665 0.18522392790321313 1.968815077819047 37 53 21
10.902384985714162 -0.09170339333394438 1.7175537600730288 35 48 27
11.325359506939401 0.001149658899779063 1.8937455058514943 35 49 22
12.472640457761198 -0.2713232681523585 2.0359086719009376 27 40 18
11.849173674999864 -0.18300167461334554 1.9689629592824844 33 47 23
12.785660288207751 0.4752762488016977 2.1126850466990414 47 62 24
11.93310629456132 0.20374241398501067 2.1562803708965808 39 54 20
11.927274500840998 0.390766078592929 2.0589903094649036 43 60 22
11.62906628362859 0.2999486272643657 2.072658771214146 40 57 21
11.76221225189079 0.0012676951268839783 2.165944766690895 34 50 19
11.928966773353034 -0.20130960326055747 2.156510470974214 35 49 22
11.803598716880597 -0.10105762654804347 2.1635727989494455 34 49 20
11.928966773353034 -0.20130960326055747 2.156510470974214 35 49 22
12.031060693710483 -0.5185801348129272 2.1508916793577195 12 25 4
12.49020220967397 0.25436570038116485 2.4467330354065653 45 60 21
12.616731070576378 0.5207089017007679 2.2167002005800196 49 64 25
12.017110847170397 0.6394477777936228 2.367662628844166 45 59 20
12.897509298911904 0.43038357422671064 2.3001006122264323 45 60 21
11.635560094975911 0.5369675683214566 2.4018187291619677 46 60 21
12.912731683486795 0.4203098861850344 2.532996452844026 47 61 21
12.68975356844762 0.3711602754629412 2.428074953603473 45 59 19
12.622244322074202 0.3319161222153028 2.319763624081202 44 59 21
12.716679800181304 0.29014757480267483 2.555485534681207 47 62 23
11.62252663364163 0.11531700094365596 2.2828759343616176 40 56 21
12.622244322074202 0.3319161222153028 2.319763624081202 44 59 21
12.10578795172241 0.4203098861850344 2.48575219143785 46 60 20
12.299254568768195 0.11531700094365596 2.3444636871701663 43 59 22
11.627067713259402 -0.5342580093239339 2.4026193625581307 47 62 26
12.245801460206113 -0.4280474274357145 2.239733869967137 30 47 19
11.766534085045146 -0.1455032147784655 2.5241922108386086 48 63 29
12.417631810422291 -0.22362002478941792 2.335193604445135 45 59 27
11.935460414979392 -0.5724356578481689 2.2604600906654486 50 61 21
11.47537648722137 -0.7153922827912254 2.4172441820176864 50 61 21
12.245801460206113 -0.4280474274357145 2.239733869967137 30 47 19
12.327033806223433 0.0015952698521125015 2.462767992383948 43 60 24
12.556454768825873 0.0018319607788016459 2.574992726048805 46 63 26
12.417631810422291 -0.22362002478941792 2.335193604445135 45 59 27
11.945423462312476 -0.3683864617687403 2.3738225722741606 48 63 27
11.957606273505194 -0.32938845559309354 2.2589335495562683 46 62 31
12.297246609245345 -0.11252802814041854 2.344623198203243 43 59 25
11.892292881742556 -0.28678017033252806 2.509450440490107 48 63 28
12.59523171570041 -0.1455032147784655 2.5701716355717426 47 63 29
12.47885119016814 -0.6006532106867495 2.1275530975908175 40 54 9
12.45549335955626 -0.7263650791143511 2.3322829815086825 50 61 21
12.38670742885919 -0.6584419252561957 2.23077279540066 49 60 20
12.45549335955626 -0.7263650791143511 2.3322829815086825 50 61 21
11.15172157519746 1.503711480931226 1.7142495122112915 34 45 8
11.640829827813134 1.3269474054030475 1.7955430256120373 37 48 11
10.633233548764945 1.4888846601946613 2.1248181797962906 36 50 9
11.152647945226741 1.398741812233214 1.9953830272324244 33 47 8
10.34625505210144 1.5967712197932018 1.8242457991878955 28 42 0
11.351709117398661 1.3036862797116149 1.9874694283978225 35 48 11
12.131494882481837 1.0866198469408925 2.1454761271194274 37 51 13
11.77681724354341 1.1774500415129039 2.1651053780339176 35 49 10
11.498420791219976 1.2756618435861742 2.1815602386334625 34 48 9
10.216492172444353 1.6959954576405643 1.7274852469487685 26 39 0
10.193999740690643 1.709718093058878 2.0383273313200703 36 50 9
10.620276259272506 1.8457333773489295 2.2407033581854137 43 56 18
9.928799933837182 1.9178915853520275 1.8351518631882007 32 43 5
11.65578258188154 1.1340895891387563 2.280415825468438 39 52 15
11.325457131135591 1.6140350175976572 2.5813794824221477 43 57 16
11.752737145461177 1.6032508384065347 2.390958981592699 43 57 18
11.175767544306291 1.3569671837835509 2.31791807329565 43 57 19
12.330685511914954 1.1340895891387563 2.34197681601934 47 60 23
12.669867753438114 1.0365977104731934 2.316274838569239 46 59 22
11.042567310759155 1.6032508384065347 2.3291493707678854 44 58 19
10.63188266598428 1.2891080147308571 2.5121380832578577 44 58 16
11.924133260436014 1.0143342113718743 2.5058135807975406 46 60 19
11.37442411290486 1.2413053653423258 2.301859930993256 45 59 21
11.095140198344424 1.607875057078193 2.456874897953574 43 57 17
11.116738717662656 1.4656753849351376 2.4544988104029093 43 57 16
11.425470104485992 1.1983145252324106 2.422194804670135 45 59 18
11.705601684850068 1.0808441805330995 2.395285955266569 46 60 21
11.06426845790124 1.4787159944056474 2.3272929519253203 44 58 19
11.135367816780018 1.0143342113718743 2.452462282115568 45 60 20
11.950352711226268 1.7485999579865905 2.5028466123009094 43 57 17
11.817236847691653 1.7267918089136407 2.3851257554903986 43 57 18
12.389311096066766 1.9303684601608455 2.596566305489558 43 57 16
10.849932190371838 1.4242447439168822 2.655724621124052 45 59 17
11.816937137816781 0.8133307270095195 2.518209812541828 46 60 19
10.96361127692553 1.236692021767321 2.6364411101959915 45 59 17
11.816937137816781 0.8133307270095195 2.518209812541828 46 60 19
15.72365161977102 0.5269681832567084 3.0132193106528824 49 66 25
17.04057643535885 0.2643551594394143 2.9122195558286594 50 67 26
11.44173569566288 -0.927406575041513 2.5653807968043503 55 66 25
10.952343508933735 -1.235159034405428 2.6383046132808716 55 66 25
11.32287829719107 -1.6359374313962363 2.7808970809573488 56 70 31
11.452818881163001 -1.1593811274301693 2.7519264543348054 55 70 32
11.646750792413537 -0.9687882121028375 2.713196060415029 56 71 33
10.816392233363198 -1.6229035382644226 2.6616294542836783 55 66 28
12.272175496313135 -0.6994213614912631 2.612520050416984 51 66 28
11.984614545394987 -0.562418323410797 2.6551236101829954 53 70 35
11.110465705992564 -0.562418323410797 2.6130330657183376 51 67 31
11.806483787532498 -0.8108648055073203 2.5194422400352163 51 62 22
17.01048355749838 0.0033014900866947627 2.9199236665876875 51 70 31
16.685234894007323 0.00709649244407865 3.037123970612138 48 68 28
11.936093793437554 1.9944085223897856 2.6628667839019546 44 58 16
13.353586700449442 2.395676860160473 2.8027425916427493 49 63 19
13.686102498371401 2.9514606230886766 2.739446655210155 49 63 16
11.787708799491108 1.8170967184843827 2.6877192573857442 44 58 16
12.475342811081793 2.083788181862191 2.7635117723822056 44 58 16
13.164102072569769 2.588578442904098 2.8462865195396923 48 64 19
12.889746249932783 2.776205166064723 2.6894098278404024 50 64 18
13.145266123676684 2.214481772601554 2.851033984714352 46 60 18
13.353586700449442 2.395676860160473 2.8027425916427493 49 63 19
13.800058274022437 2.1302567912116297 2.968679795154456 48 64 20
13.818001674669494 2.72047326959758 2.961396708610726 48 64 20
13.690029728858537 2.4648011534081364 3.0232447796544752 48 64 21
13.046819543815342 -2.8474324873309476 2.877437112634778 55 66 25
13.160349760530584 -2.594081895400937 2.8472252524657256 52 65 22
13.009388709630691 3.1378053375453865 2.8882927728995145 49 64 19
13.046819543815342 -2.8474324873309476 2.877437112634778 55 66 25
13.780873553290602 3.136129657232931 2.976841199180263 49 65 20
13.816214441821602 -2.7296105790919913 2.9621081833015426 51 64 20
13.816214441821602 -2.7296105790919913 2.9621081833015426 51 64 20
13.66404306394057 -1.743092212285926 1.8369741298350544 45 56 15
12.899575517672076 -1.6755305266279983 1.9349478541993022 47 58 16
11.212310286522467 -1.3267662977832186 2.444174550810889 53 64 24
11.410330655030078 -1.197117156146733 2.423710745717511 51 62 22
11.690825007371409 -1.0793779329780273 2.396653816860195 51 62 23
12.048034406028325 -0.9747686574170839 2.3650398999711233 50 61 21
11.690825007371409 -1.0793779329780273 2.396653816860195 51 62 23
11.410330655030078 -1.197117156146733 2.423710745717511 51 62 22
10.346382008593132 -1.465306632284549 2.394992876979015 51 62 22
11.31236697409411 -1.6142131198581329 2.583227020593686 54 65 26
11.442426925626325 -1.2880071088508402 2.565287832705554 53 65 27
11.12205393541882 -1.0124866371883117 2.453916541584048 52 63 23
11.636532028235901 -1.1416510236618391 2.5401064737369423 54 65 26
15.960040031429918 -0.1547705296051803 0.940566992685013 8 14 8
12.715752957746243 0.7419968809619923 1.940463693795656 54 68 38
12.914343756826295 0.9783145355137568 1.93451202507128 40 53 19
12.737163105493911 0.8612111950375684 1.9398124522685831 44 58 26
12.55599107117971 1.003692706004476 2.1237335579099383 39 52 15
13.4227462532186 0.6883904433617803 1.9201332705832668 65 79 50
12.850891898576899 0.6239986739366447 1.9363921801954067 57 71 40
13.046325049477801 0.6025736194143082 2.1921055723403615 56 71 34
12.442538124828724 0.9491625653617021 2.2272952034825493 38 53 16
12.33984620221392 0.8052087626741015 2.233723334551261 43 57 20
12.934314774416073 0.8714417299263677 2.1983189665517218 42 56 20
12.135713983543617 -0.2976329302428568 2.1452510021369333 30 44 20
11.805690638328382 0.10356656939296012 2.1634534472824587 37 52 20
10.75630769216156 0.001149658899779063 1.6260728728740126 34 48 25
11.719123308915918 0.273456163130175 1.8825215475905175 40 57 25
12.711246103588813 0.4366582784014789 1.9406010811726342 47 62 27
11.849173674999864 -0.18300167461334554 1.9689629592824844 33 47 23
11.042467185592146 0.18522392790321313 1.7156788057555423 37 53 24
11.870025168908189 -0.6071793051629446 2.512016324372523 47 62 25
12.421608484280524 0.2263049128028673 2.334886679815653 44 59 21
11.957606273505194 -0.32938845559309354 2.2589335495562683 46 62 31
12.253865044052949 0.43038357422671064 2.239213775675797 45 61 22
12.366530154832875 -0.1269199109456291 2.4588186388506053 44 61 27
11.62040173879285 -0.11252802814041854 2.2830337800560723 39 55 23
13.242750488659961 0.5207089017007679 2.277038178431476 50 64 24
12.622244322074202 0.3319161222153028 2.319763624081202 44 59 21
11.323135519727025 -0.41725183751301836 2.4325733918264723 47 62 26
11.878343850284454 0.610075196606816 2.5110555905742986 47 61 21
12.257527016408355 0.001412742279609589 2.3477944041635537 42 59 23
12.368526866573884 0.13005806588196966 2.4586201595899593 44 60 22
12.597192177265322 0.1490882169393789 2.5699296393238766 47 63 24
12.965902222389522 -0.8034461407176949 2.2953965497902713 49 60 20
11.633616960425226 1.213318569494351 1.9767696868988351 36 49 12
9.962396770841998 1.8165101964909436 1.9399042091564498 34 48 8
10.61065087573419 1.5996518451920565 2.126135396610401 36 50 8
11.509828848025576 0.9031956305002491 2.413867560557039 45 59 19
12.06237350193677 0.976406467778652 2.363830679902841 48 62 23
11.392376202238427 1.7773958543177337 2.572083458988973 44 58 17
11.705601684850068 1.0808441805330995 2.395285955266569 46 60 21
11.649257929875827 1.1432061711977304 2.538516607499421 45 59 17
11.325457131135591 1.6140350175976572 2.5813794824221477 43 57 16
11.26848727296275 1.8457333773489295 2.3103234386863427 44 58 19
11.65578258188154 1.1340895891387563 2.280415825468438 39 52 15
12.096742794109966 1.8825905184099678 2.4867245701872616 43 57 17
12.330685511914954 1.1340895891387563 2.34197681601934 47 60 23
11.175767544306291 1.3569671837835509 2.31791807329565 43 57 19
11.817236847691653 1.7267918089136407 2.3851257554903986 43 57 18
10.827801477668745 1.6226472820722593 2.659609224348242 44 58 16
16.068376011646325 0.2643551594394143 2.8980691106960514 50 67 25
11.921683929564939 -0.8174519066662812 2.665200990882295 54 69 31
10.838546242085297 -1.4235295720395182 2.6577176286423136 55 66 28
11.344043222275827 -1.3873418151261558 2.775982774409199 56 70 31
11.420059273692598 -0.6994213614912631 2.5683085963086167 49 64 26
13.353586700449442 2.395676860160473 2.8027425916427493 49 63 19
13.353586700449442 2.395676860160473 2.8027425916427493 49 63 19
12.51500307964476 2.700294178206081 2.755611645425167 49 64 19
13.145266123676684 2.214481772601554 2.851033984714352 46 60 18
13.333759608294635 2.9082869222819174 2.8069872352122354 48 62 17
13.927019231355771 2.4141243089045883 2.9225575444920366 48 64 20
13.818001674669494 2.72047326959758 2.961396708610726 48 64 20
11.389812519841533 -1.8768734319216804 2.765625772757648 56 70 31
11.777229506456703 -1.8182671092490192 2.68954661988609 55 66 26
12.948920785739597 -2.420252067114994 2.907010132883757 57 70 29
13.046819543815342 -2.8474324873309476 2.877437112634778 55 66 25
13.780873553290602 3.136129657232931 2.976841199180263 49 65 20
13.816214441821602 -2.7296105790919913 2.9621081833015426 51 64 20
11.496948614229208 -0.9011936529603227 2.4151260622224715 50 61 21
11.911701026302731 -1.0124866371883117 2.5072291587810964 53 64 24
10.465532206419379 -1.3267662977832186 2.3827687305665997 51 62 22
10.323171846476162 -1.6080059727348106 2.3974260364391746 53 64 24
11.333551528644351 -1.4478532654545198 2.58024189002531 53 65 27
11.690825007371409 -1.0793779329780273 2.396653816860195 51 62 23
11.101178237709542 -1.465306632284549 2.4562090167533666 53 64 24
22.205241127934798 3.0862090384309786 2.1738686504695126 48 62 16
22.480652967981705 3.1409515782603186 2.1126725136644824 37 50 7
22.18215587269061 3.1409164703391803 2.1745855213012004 39 53 11
15.866555145784798 -0.07736979660976816 0.9362622461072708 12 19 12
13.043490923652541 0.928673492669504 2.1008273605510515 41 54 18
12.351639987973202 0.7361217998185825 2.1339765831005204 61 75 41
11.956416846476348 0.8085790230244256 2.3728705851715794 45 59 20
12.740065376487713 0.5530374378100775 2.0254022851346836 48 63 28
12.465920230140533 0.8026940234564013 2.0361792220063393 50 64 31
12.822321720255273 0.5103478902056089 1.8549169262595553 52 66 34
12.141817006802711 0.2999486272643657 2.144925688653316 39 55 21
12.06343188015884 0.273456163130175 1.961503729420571 39 56 23
11.575209299345238 0.35753707656760336 1.7089668602081656 41 58 28
11.572475616733804 -0.4799195749457564 2.548219604953683 49 64 28
12.25233639005129 0.7178383947835919 2.470361056796662 45 59 20
12.366530154832875 -0.1269199109456291 2.4588186388506053 44 61 27
12.606940906238977 -0.5185801348129272 2.2172856775993086 42 54 23
11.751928341301848 0.2263049128028673 2.2734102146127224 41 56 21
11.747724978971688 -0.22362002478941792 2.2737132284644512 42 55 26
13.034963161590332 -0.6006532106867495 2.1927297129802437 43 57 12
11.44679760388216 1.4140987486078034 1.7994198525494087 36 47 10
11.163439986180638 1.7485999579865905 2.449415685493628 43 57 17
10.482036339136842 1.3275921201794465 2.381109676862643 43 57 17
12.014033930864134 1.0365977104731934 2.2550778893669103 39 52 15
11.37442411290486 1.2413053653423258 2.301859930993256 45 59 21
13.160349760530584 -2.594081895400937 2.8472252524657256 52 65 22
11.712509489584884 -1.6229035382644226 2.701063038112513 55 66 26
11.16604298430694 1.0705483533320141 2.6045711775267897 46 60 18
12.352162292681742 3.1386943463843244 2.7894703031567634 50 64 18
15.865464504885745 0.3539286698436812 2.9564311975510713 51 67 26
13.652553592190948 3.131794602850388 3.0491568310530965 49 65 22
13.632260783544256 2.5261158103099928 2.74883646828224 47 60 18
13.035309924979275 -1.7571468405627961 1.9309819926478462 47 58 17
11.496948614229208 -0.9011936529603227 2.4151260622224715 50 61 21
13.463284085442893 0.9127165081774109 1.9190366536779306 40 54 23
11.370508447330192 0.0939829482229335 1.8924169419955377 36 51 22
11.722952323100797 -0.09170339333394438 1.973496272776408 34 48 22
11.963800154151615 0.3319161222153028 2.258507951072737 41 58 21
11.355478250134736 -0.33336472738601325 2.577178676697582 51 66 30
12.241977063352858 0.4782587799722851 2.3490442257585844 45 59 20
11.57836046080465 0.001412742279609589 2.286173160868408 38 55 20
11.747724978971688 -0.22362002478941792 2.2737132284644512 42 55 26
11.73532428539365 -0.25137486316585966 2.3925510671386077 46 61 27
12.23390564392994 -0.4757407661724998 2.3496948245604945 49 62 27
10.453229717131869 1.7267918089136407 2.253425908383104 43 57 18
11.498420791219976 1.2756618435861742 2.1815602386334625 34 48 9
11.301943947662199 1.3800882143166533 2.1937828552755683 36 50 9
11.152647945226741 1.398741812233214 1.9953830272324244 33 47 8
10.281460548778995 1.7928093832169802 1.6286285956353064 27 39 0
11.773129325126966 1.4787159944056474 2.3891039096474205 43 57 18
10.51461769763387 1.44835318482019 2.5276167639520484 44 58 17
14.016327143203648 2.8405092307365423 2.895567232684742 48 64 19
16.818941915711022 0.0045064557010700305 2.977957781860462 51 70 30
11.806483787532498 -0.8108648055073203 2.5194422400352163 51 62 22
11.690825007371409 -1.0793779329780273 2.396653816860195 51 62 23
11.31236697409411 -1.6142131198581329 2.583227020593686 54 65 26
12.945566993449273 0.8026940234564013 2.105265503302091 56 70 38
12.68975356844762 0.3711602754629412 2.428074953603473 45 59 19
10.663642665461573 1.497034449441477 1.9145868868603761 29 43 1
13.632260783544256 2.5261158103099928 2.74883646828224 47 60 18
11.344043222275827 -1.3873418151261558 2.775982774409199 56 70 31
13.482442003566694 0.8026940234564013 2.169135572279564 48 62 27
12.41977695053303 -0.3885965939352371 2.1305164523564715 13 28 3
12.025893298678513 -1.0684669587178062 2.648672568237829 54 66 23
11.743490372684064 1.4242447439168822 2.695499785848651 44 58 17
12.605185314347505 0.57468676252228 2.3210225128958806 48 62 23
13.164102072569769 2.588578442904098 2.8462865195396923 48 64 19
12.006831772758986 -0.6370844833923387 2.3685389884881802 50 61 21
11.452521976545247 0.929775438750851 2.5639329284766124 46 60 18
10.323171846476162 -1.6080059727348106 2.3974260364391746 53 64 24
