11.343630115785295 0.4697587031655802 1.679379562862911 53 66 29
11.788557705238539 0.5456328846188382 1.5053734828383512 55 67 30
11.087252927290004 0.3875657827523796 1.7732459858723189 49 63 24
10.743227426857679 0.7227757502851676 1.5921424724420448 48 59 24
10.35011048149725 0.6485054874581202 1.7878873929533083 44 56 18
10.432288263521643 0.5648359303205684 1.9882189157696968 41 53 14
11.222442628704991 0.5133194575520534 1.957202198089068 34 48 8
10.243604988770343 0.7132894463926901 1.9964026756360385 40 51 14
11.008015749609484 0.2994759043902636 1.8685356855643542 43 57 16
10.76879871896293 0.2063331216066271 1.8753594631274715 41 53 12
11.776710846599915 0.22837207193320105 2.231743543661504 51 65 22
11.058163577669129 0.009469612917127066 1.5915344464404462 34 46 1
11.112711937443574 0.09959373058154741 1.5914326358812945 33 45 2
11.4359716793278 -0.1697883765499078 1.7669908879182081 51 63 18
11.931583233676989 -0.33876490125445313 1.7587418690840129 49 63 16
11.867321877010527 -0.5302769937731889 1.759771847179069 49 61 15
11.597989631703257 -0.6507998948583669 1.7642151970598479 47 61 21
11.720695814178873 -0.5302769937731889 1.6758732081899004 51 63 21
11.828952217060458 0.010411302267073746 2.1254106302728943 35 49 7
11.071951247957557 -0.18630280410133923 1.9627385506568893 31 43 10
11.28621812402348 -0.2803550193083357 1.9549042116559738 43 55 20
11.97937146787234 -0.18630280410133923 2.117650787797712 52 62 39
12.177682697096401 -0.2803550193083357 2.1077664094073567 44 57 26
10.599003310085303 -0.08880427949407488 1.8803992349278351 22 36 1
11.828952217060458 0.010411302267073746 2.1254106302728943 35 49 7
11.62165064360849 -0.09855092147570887 2.242161262689196 62 77 30
11.5875859684491 0.011560952984672225 2.2444990079137006 62 77 34
10.6187400832408 0.10942299467564089 1.8798047208019832 30 43 1
12.282891348084418 -0.11069098336608987 2.4209707095544846 62 80 36
12.285770290640052 0.12139430519899286 2.3047686373247513 67 83 37
12.587718223753717 -0.3450502965824599 2.3938115169632015 64 81 34
12.282891348084418 -0.11069098336608987 2.4209707095544846 62 80 36
11.770703242940527 -0.2624404281487449 2.4720273967120097 63 82 35
12.395968496843409 -0.2310842191250611 2.410643620717343 64 81 33
12.573886115991447 -0.3094639823933246 2.284285945045784 64 80 32
11.503218195721734 -0.4504185272161642 2.2503677314589616 64 80 32
11.879168487914917 -0.5460718079708672 2.225053900575065 65 80 34
11.640503923402456 -0.45306349838280496 1.8519040284949466 50 62 15
12.284839884040258 -0.8415253648745805 2.102581593201922 58 74 28
11.25658547184095 -0.36958767173295204 1.8617665102020184 49 63 16
11.503218195721734 -0.4504185272161642 2.2503677314589616 64 80 32
11.66733370871936 -0.7739308765114886 2.134014731641332 63 79 35
12.142100305351676 -0.6507998948583669 1.926572196371442 53 67 20
12.00410775040763 -0.5771022191854759 2.021530650441598 55 69 23
12.324985154967042 -0.6317870749445753 2.197597766945272 64 79 33
12.031899515104499 -0.4955992031214244 2.1149951367495734 58 72 27
11.82280160739916 -0.7079655899793605 2.028965781164332 57 71 23
12.224344931314201 -0.4062409086101809 2.2035731276301993 63 78 28
12.83338903704104 -0.7079655899793605 2.1691952693046614 62 78 34
12.252782746998538 -0.5044629621806676 2.4237733794668146 65 82 36
11.893808556848798 -0.6065859885803742 2.3349116892851685 63 81 34
10.936843468326934 0.9838974656049176 1.591764523584414 49 57 32
10.359652334161495 0.9291320790317392 1.7876842422464452 44 52 21
11.403783977241245 1.013097444868626 2.14867620753071 51 60 25
13.767791694819639 1.4026075207641258 2.0403128837282143 5 5 5
11.401333235322658 0.9838974656049176 1.8579666896688907 27 33 11
11.22263267895884 0.8649717128583061 2.159239413024039 48 58 22
11.326761331887143 0.9523657032016364 2.2630196325723446 71 82 44
10.617819896415746 0.7894608423117409 2.1977547759936265 63 74 35
11.425618387618393 0.8791550931865849 2.3749598955542983 61 73 28
10.924072987918501 0.7902605720627512 2.423890270481244 57 73 28
11.2953354937036 0.6819910935527984 2.5271420478448063 60 76 26
11.237277885166776 0.33451651538747057 2.534503046988169 59 78 32
12.072076558426923 0.33451651538747057 2.5817767763146753 60 78 34
12.945611982736862 1.246042361452739 2.620793932690761 64 79 39
13.329636994669071 1.91212197266192 2.057062046555589 7 7 7
13.825260958611697 1.91212197266192 2.121052722857919 4 4 3
13.035660922239424 1.9429856336357543 2.158653764749139 18 20 16
13.510757539126523 1.8094310202346204 1.9682240224838707 10 10 12
13.57381378666572 1.8300075115639236 2.1324568217647295 11 11 13
14.569702714350935 1.7441633343614584 2.2568116672266134 11 11 13
14.409581902188497 1.6640175481236152 2.360147308331267 71 74 67
13.19494981674008 1.806292744052814 2.457898021574362 66 79 37
14.409581902188497 1.6640175481236152 2.360147308331267 71 74 67
13.37894317668348 1.9193002101657084 2.4411900232565467 67 78 40
12.890992550984958 1.9796434202469613 2.2631837854114933 65 75 36
14.409581902188497 1.6640175481236152 2.360147308331267 71 74 67
13.58884803692497 1.552989659063143 2.9110459629682524 63 85 38
13.883644900507534 1.7970106356661846 2.8333560437372056 66 87 40
12.548576437004169 2.144479106795976 2.5238307943589993 71 85 44
12.548576437004169 2.144479106795976 2.5238307943589993 71 85 44
13.805983022088228 1.879192351577404 2.6590066116380893 70 85 45
13.116248278405008 2.020239319014895 2.5985440026531483 70 85 44
13.610486905135875 1.9637176412413748 2.541083998545302 69 81 43
13.42966618856324 1.8379739122681704 2.5610351178171524 67 81 41
12.234709149054453 -0.4460113632573545 2.5609116930765627 66 85 38
11.938410595150764 0.18044981215879377 2.599905651717727 60 81 34
11.920858935084434 -0.1467919174378669 2.6023575286606766 62 82 33
11.920858935084434 -0.1467919174378669 2.6023575286606766 62 82 33
12.650539355484241 -0.5201253409090728 2.663023111639541 70 88 43
12.298997072900098 -0.9165364608524922 2.1991289262499367 61 77 25
11.705558718138208 -0.5716437015131571 2.479089833688372 64 82 35
11.79587711666637 -0.7720119741119338 2.3428984400543267 64 82 35
12.07521097164222 -0.6798630266396777 2.4407803909520998 63 84 38
12.509145577050573 -0.5716437015131571 2.528281064892529 65 84 37
12.90375123966153 -0.878974503784262 2.626477535605156 68 88 45
13.315307400167434 -0.9682480058118057 2.5742617939964996 67 87 43
13.782794136862414 -0.878974503784262 2.6622279053369544 72 92 50
12.90375123966153 -0.878974503784262 2.626477535605156 68 88 45
13.460118837262982 -0.7652788040284468 2.710617429363477 73 93 49
12.474508688597883 -1.001277107486951 2.2912025728887393 65 81 33
12.985738642941275 -1.0391555711106883 2.4779182994350015 68 86 42
12.804741506356269 -1.0963019388753297 2.3757128417168105 69 85 37
12.804741506356269 -1.0963019388753297 2.3757128417168105 69 85 37
13.015066278027284 -0.8501706488470567 2.3590527940102435 64 81 36
12.42117690769837 -1.17329668428366 2.699937664941361 71 91 51
12.625221420383204 -1.0128255544230662 2.666903028560564 71 91 51
13.193339947559837 -0.9056702930707285 2.756944438853428 78 98 54
12.726573409086315 -1.393667240109502 2.6516319216603454 70 90 50
13.045567485532779 -1.0926492649303967 2.607588296624719 70 90 48
12.50632831090129 -1.2811103480767143 2.5286011834176216 70 90 49
13.27815661405234 -1.2015682005460393 2.4502430421936903 69 87 42
13.27815661405234 -1.2015682005460393 2.4502430421936903 69 87 42
13.084298335254296 -1.31613049822456 2.468344304629524 71 89 45
12.318289035490109 -1.31613049822456 2.4177045278367 69 87 41
13.526915617592845 -1.1536977477114518 2.550165051508415 71 90 48
8.72963069414356 -2.5084284761186795 2.546567828397605 72 92 50
8.72963069414356 -2.5084284761186795 2.546567828397605 72 92 50
9.126512198125543 3.115058921428991 2.6944647792427587 65 85 41
9.126512198125543 3.115058921428991 2.6944647792427587 65 85 41
9.110272617327134 -2.3624957162593527 2.48739064873756 68 88 47
9.580588826784487 -2.2490726685294162 2.425808318984899 67 86 44
9.214025309780267 -2.1123454043006844 2.472844374771534 66 86 46
12.837058037913042 2.1025772400758815 1.9903582368093757 1 2 2
12.8910025004762 2.279268279753821 2.1661513193720943 77 88 51
12.633625395907686 2.0683224859764047 2.180015881722108 55 66 31
12.3809743400367 2.203646957895443 2.19432653929054 76 85 53
13.48968596718886 2.1296725674925825 1.8125348659388298 11 11 14
12.507688737883704 2.288262629320131 1.83194030929631 3 7 0
9.74134588407157 2.8826240401607097 2.1374548771373045 53 72 29
9.739918026535415 2.9104961795056217 1.90874662907111 57 75 31
9.593342287439258 2.80131918126961 2.424280966877878 67 85 41
12.345013660087409 2.4119539621910016 2.0997163447073124 78 85 54
12.391035423990882 2.2675358985886676 2.297131320897456 65 76 38
12.653337788268477 2.178817886240796 2.388236684688745 63 74 37
9.084419277496153 -2.6883672349842316 2.326379850714644 86 104 60
9.402343407982494 -2.992110329021339 2.4478898366727817 74 95 50
9.044724804366199 -3.0293738087719806 2.057369503065886 67 86 42
9.162831183860021 -2.746595620803555 2.1781651924246535 73 93 50
9.360205470808035 3.123983446930279 2.4533211694078805 68 88 44
9.000912824865598 3.1284157863820883 2.0599461442884985 63 83 40
8.961320037186631 -2.775565158996633 2.5093829145844735 81 101 58
9.067845200208415 3.003430975361408 2.056021200010748 57 76 32
9.084419277496153 -2.6883672349842316 2.326379850714644 86 104 60
9.424586534689864 2.9578605870406016 2.4450565488637186 65 85 41
8.89757608554321 -2.875166948394105 2.1990377688373592 74 94 50
9.394340479481857 2.9838446687324316 2.295737871208421 61 81 37
9.162831183860021 -2.746595620803555 2.1781651924246535 73 93 50
9.601179342204308 3.1204231999865515 2.600437884225401 67 87 43
9.308559805740929 -2.4527019375437593 2.167325204813752 66 84 40
9.01606744904575 -2.6304172907906707 2.0590516483509362 69 87 45
9.450782439313208 -2.561531316301379 2.2904597198558285 71 89 47
12.778630677284154 -1.1430543096984118 2.270498540582892 66 82 34
20.176957541429395 -2.6046993578540736 2.1024735615982775 53 70 32
19.991968735821658 -2.573771835321474 2.1672246046496615 52 69 31
19.9251301344783 -2.524446008317939 2.1099236762843483 52 67 27
19.67057118240229 -2.7551266161936145 1.9471362642765193 54 71 36
20.043697319040998 -2.681818240734768 2.049308997812162 56 72 34
14.197435929719639 1.4961170975177591 1.6574915841561229 6 6 6
10.923283883175326 0.5931707069033015 1.5917905562140169 63 74 37
10.631367843624357 0.5133194575520534 1.7820559162837364 45 58 20
11.508801772068368 0.2737811585466596 1.5037808279012108 36 47 6
10.631367843624357 0.5133194575520534 1.7820559162837364 45 58 20
11.8178637292396 0.3555120238693676 1.5055359498780552 41 52 10
11.508801772068368 0.2737811585466596 1.5037808279012108 36 47 6
12.304985568984922 0.432575609831262 1.4263947263337355 44 55 14
10.444226715423268 0.4712701546913421 2.095190835472658 46 60 20
11.751325332564642 0.2994759043902636 2.031967671257825 30 44 3
10.157788954093816 0.626341971994263 2.1115797814084036 49 61 21
11.295992485130999 0.7888870219372419 2.0520997287131233 41 50 16
10.695328949126491 0.7132894463926901 2.0816635385300053 48 59 22
11.655231177536796 0.3875657827523796 1.9421400388368777 35 49 9
11.4359716793278 -0.1697883765499078 1.7669908879182081 51 63 18
12.294441572029575 -0.41685219492853126 1.7531315554316889 53 65 20
12.254196239427428 -0.6010907670089713 1.6712827501263794 53 67 24
11.984488007962032 -0.36958767173295204 2.022323092591294 47 61 14
11.879961929552314 0.10942299467564089 2.122752950071992 28 42 0
11.660874359827597 -0.4062409086101809 2.1343645471936243 59 74 27
12.230506695745747 -0.7739308765114886 2.2032037005580585 64 80 35
11.518336115997071 -0.5044629621806676 2.3666382505908685 64 82 36
11.28621812402348 -0.2803550193083357 1.9549042116559738 43 55 20
11.943366103986765 -0.3094639823933246 2.220937929753646 63 78 31
12.458629856109619 -0.1262241026975801 2.53406549935702 63 81 38
12.26871557442539 -0.09855092147570887 2.306023350548865 64 81 33
12.236452375597306 0.011560952984672225 2.30841044684663 63 81 37
11.639653494426337 0.12139430519899286 2.2409330558517437 59 74 29
12.177682697096401 -0.2803550193083357 2.1077664094073567 44 57 26
12.297855748543428 -0.7079655899793605 2.101959040643936 62 76 31
11.956586040957111 -0.45306349838280496 1.9323438468747456 48 60 15
11.862323788338722 -0.08880427949407488 2.1236688450432557 49 61 36
12.432588344902575 -0.7753686236162872 2.0049172876497274 45 59 12
10.88979663885059 1.013097444868626 2.071682042155867 1 8 0
11.388513993356868 0.9291320790317392 2.0478614403885844 23 30 1
10.727820718832925 0.8791550931865849 2.310249800642564 56 68 24
11.785278679869323 0.9844404671176072 2.4704664887112133 63 77 30
12.945611982736862 1.246042361452739 2.620793932690761 64 79 39
14.487418122834308 1.674187114098537 2.4576818332574812 67 79 39
13.294618732967702 1.8836054967831584 2.338123491287219 68 80 37
12.90065588330684 2.023763009463474 2.3680126992435273 69 80 43
13.116248278405008 2.020239319014895 2.5985440026531483 70 85 44
13.064308458140793 2.077642961539309 2.4702651242255373 66 77 39
12.92851689259545 1.879192351577404 2.62310371935752 69 83 44
11.938410595150764 0.18044981215879377 2.599905651717727 60 81 34
12.234709149054453 -0.4460113632573545 2.5609116930765627 66 85 38
12.96488653188198 -1.4379234414963542 2.4799777051203167 72 90 46
12.843261779557976 -0.8619579679130246 2.4922357581354717 64 84 40
13.315307400167434 -0.9682480058118057 2.5742617939964996 67 87 43
12.524009937046497 -1.2015682005460393 2.3993126127592994 70 86 39
12.580992412368724 -0.9381671615918086 2.3943881100461075 65 83 39
12.191376649932208 -1.4379234414963542 2.429560740115364 70 88 42
12.381343532859734 -1.4189300447487028 2.5431027251052347 72 92 52
13.460118837262982 -0.7652788040284468 2.710617429363477 73 93 49
12.326123967305394 -0.8501706488470567 2.301819242247687 65 81 35
12.42117690769837 -1.17329668428366 2.699937664941361 71 91 51
12.84820029724889 -1.2353411573936675 2.6341675126391957 71 91 50
12.474508688597883 -1.001277107486951 2.2912025728887393 65 81 33
13.15568261953619 -1.001277107486951 2.348360166574696 65 83 37
12.416068541707054 -0.7693218691682048 2.539013655869355 64 84 40
12.07521097164222 -0.6798630266396777 2.4407803909520998 63 84 38
9.207369350773297 -2.364653574120073 2.6764870149361775 73 93 51
9.169724096635706 -2.918409537384705 2.684735833321119 71 93 50
8.9434353162346 -2.5697075700465515 2.7392617374143 70 92 49
8.723969698674116 -2.218103097674183 2.5475272051955766 68 88 48
12.564144376521359 2.118612551214974 2.284957303460865 71 80 46
9.739918026535415 2.9104961795056217 1.90874662907111 57 75 31
12.900665825345346 2.3448078419083447 2.2625620703601363 64 74 36
9.563629956169583 2.847327110192251 2.2801639201728996 63 81 37
12.391035423990882 2.2675358985886676 2.297131320897456 65 76 38
12.496004521357818 2.3462266910500826 2.0025657436282143 35 41 17
14.082592410431293 1.9586047145457155 1.9512388871155997 11 11 11
12.207025676601527 2.2224149662477872 1.9245965599694124 1 5 0
9.218927009763197 3.1298887897900793 1.8150360840228814 60 78 34
9.28428780819801 3.0187125665141297 1.8132820082861656 61 76 35
9.261707743026045 -3.0418314022805806 1.813885100137276 63 78 37
8.73935038158691 -3.0133804775905886 2.21225349022862 72 92 48
9.663955176597394 2.9217931117749383 2.589724727158864 65 85 41
9.899954498297902 -2.268724883392682 2.2513533231222023 67 84 40
9.3297507014024 3.1265186593681795 2.3018873831619384 70 90 46
13.177307767868465 -1.2399487931308852 2.346745872858447 68 84 36
19.637290571641838 -2.63271619470629 1.947806082000692 55 72 35
13.92279557840064 1.41522741360699 1.879442086941668 7 7 5
11.280209808981889 0.1881274870675155 1.5024206684476409 35 47 4
11.5875859684491 0.011560952984672225 2.2444990079137006 62 77 34
12.095120780572435 -0.5302769937731889 1.8410674324075385 48 62 16
12.458629856109619 -0.1262241026975801 2.53406549935702 63 81 38
11.741097852755201 -0.20632540507102579 2.2341043945300147 66 81 36
12.297855748543428 -0.7079655899793605 2.101959040643936 62 76 31
12.339096283474609 -0.6960667429214354 2.3008768587906 64 81 33
12.15658862602688 -0.4504185272161642 2.3143967046471636 64 80 33
11.9724713380011 -0.3894173604720422 2.451013959763242 63 82 36
12.324985154967042 -0.6317870749445753 2.197597766945272 64 79 33
11.240037258193228 1.0639389333551648 1.9565654013930105 0 5 0
10.494092897971594 0.6819910935527984 2.4721777844316577 61 77 26
11.299708344380823 0.8994646592235371 2.526593780772073 61 77 31
14.173517816821732 1.885826395947959 2.0258420522113494 11 11 12
14.487418122834308 1.674187114098537 2.4576818332574812 67 79 39
13.32165583092441 1.7029907133993578 2.5735143622887313 67 81 40
13.252070638071245 -0.7693218691682048 2.581795049985937 66 86 44
12.90375123966153 -0.878974503784262 2.626477535605156 68 88 45
8.45078913180575 -2.6936922473008362 2.5972340885815766 73 93 51
12.037337448791138 -0.30334058436868633 2.586398877079298 62 83 33
10.128094459166292 -2.16050035975824 2.3656879176614636 68 86 42
12.474508688597883 -1.001277107486951 2.2912025728887393 65 81 33
12.51404551356418 -0.7720119741119338 2.4001810902676803 63 82 37
11.88765168754095 0.017287696544631352 2.6070441279981273 62 80 34
12.916143429466198 -0.6565181727519194 2.6247852311342834 68 88 46
12.653337788268477 2.178817886240796 2.388236684688745 63 74 37
11.870675112822928 2.470343211857754 1.8463096070418663 40 46 25
12.35796614751882 2.279268279753821 2.0991038693540354 26 33 11
9.197698728084344 -2.9074076001464952 2.0485916616878295 69 87 43
8.759225228129955 3.1204231999865515 2.5415943807518664 71 91 47
9.224742376607045 -2.6118760571409685 2.4713755464110347 85 104 60
9.360205470808035 3.123983446930279 2.4533211694078805 68 88 44
9.585743947167428 -2.4743519702696 2.4251901306789856 69 88 46
9.339083678952752 -2.3612150057952057 2.3009914451052715 67 85 42
20.292304420317073 -2.655561294472869 2.157210348016111 56 71 33
20.292304420317073 -2.655561294472869 2.157210348016111 56 71 33
19.67057118240229 -2.7551266161936145 1.9471362642765193 54 71 36
12.381922183249065 -0.20632540507102579 2.297785338802867 65 81 33
10.561640784523588 0.010411302267073746 1.88153107181033 20 34 0
12.512923804144789 -0.5460718079708672 2.2885109128036163 64 81 33
12.236452375597306 0.011560952984672225 2.30841044684663 63 81 37
11.830975516040878 -0.6507998948583669 1.8472583619125735 46 60 14
14.232652098275738 1.730092635646666 2.1035859735247984 10 10 12
10.924072987918501 0.7902605720627512 2.423890270481244 57 73 28
12.709005781783826 -1.1536977477114518 2.5062807607316833 70 88 46
13.522382707118053 -1.0128255544230662 2.700709902363442 74 94 53
12.509145577050573 -0.5716437015131571 2.528281064892529 65 84 37
9.569026359428982 -2.218103097674183 2.6060550252031103 71 91 50
12.120130869339247 2.2515961593081784 2.436398819348291 73 84 46
12.531531923061024 2.1492272422802112 2.091039079071832 16 24 7
13.232914422160533 1.9897191095438544 1.9770540283107507 7 7 9
9.051500363720319 -2.7921190005363004 1.9356050216195486 65 85 41
8.763276492292645 2.9838446687324316 2.210216042646895 66 86 42
8.782883565694235 -2.9074076001464952 1.947311621129971 67 87 43
12.841075779069667 -0.4062409086101809 2.2664120531084437 65 80 30
10.257855123365141 0.7888870219372419 1.7898715265175893 43 54 19
10.6187400832408 0.10942299467564089 1.8798047208019832 30 43 1
10.74782491008931 0.8545097899087182 1.5921333400411624 47 56 24
13.022645783757136 -0.5044629621806676 2.4743025583387137 66 82 32
13.27815661405234 -1.2015682005460393 2.4502430421936903 69 87 42
11.744472825036434 0.7914523151910381 2.628008508856049 61 77 27
11.682239249960514 -0.8501706488470567 2.238047502443483 64 79 36
9.067845200208415 3.003430975361408 2.056021200010748 57 76 32
9.64226425001192 -2.962469573843256 2.5933894463599296 74 96 52
12.39961954499805 -0.5302769937731889 1.9188658986552667 50 62 15
12.885180290468186 -0.7753686236162872 2.0753851734990842 60 75 23
13.39387107269872 1.9347864349938144 2.721503591111975 69 86 42
8.81680545909098 -2.8329581564855393 2.3553745664395276 80 100 56
19.704399701177913 -2.705558039963374 1.892452237953985 56 73 36
12.101573263531105 1.0309246114955168 1.339794399764614 48 54 31
9.224742376607045 -2.6118760571409685 2.4713755464110347 85 104 60
12.014278186463187 0.2063331216066271 2.1158829505006134 24 38 0
13.372280117400937 2.0258859918705308 2.1419690903742894 5 7 4
