21.843342775217273 0.8564286037410017 2.047665531489257 37 46 18
21.76593604011631 0.8966978141340753 2.102004763200172 21 30 3
22.201635052697732 0.821316613890962 2.143225984003128 33 42 14
21.110221730410224 0.7047000479396442 2.1203546031215743 37 44 14
20.92903112279505 0.6367060345807586 2.3716556492632055 40 45 11
20.60755214170718 0.6498265395416435 2.2550603094088726 41 47 14
24.693148387662664 1.5406335727665128 1.8593188347557952 42 53 25
24.742259683523724 1.4984883108609524 1.8587297544896528 45 55 26
24.477075584888194 1.4984883108609524 1.8195470442281314 43 52 22
24.996074938952336 1.5406335727665128 1.8976808776105343 46 56 28
24.987515390729122 1.5828862280940295 1.8977970216692823 45 57 31
24.45322861432542 1.4953094048622952 1.9488546415325687 46 56 27
24.403535660077356 1.539303432540006 1.9496635151684982 46 57 29
19.32434961393462 1.1372064553968115 1.8879246238591683 33 41 17
19.637700995048053 1.0630649563866916 1.9918346976828984 33 39 12
13.983023019799772 1.7031297414236992 2.3703125454775096 39 47 17
13.94204456583908 1.4970387492946107 2.3733406515871818 38 45 16
13.983023019799772 1.7031297414236992 2.3703125454775096 39 47 17
13.926692705881274 1.6003975398068986 2.3744821244217404 39 46 14
13.35982967436306 1.3754465226389325 2.419562600863909 39 44 12
14.024320307344412 1.6038126692647405 2.4754517328265577 41 48 13
14.652781352886233 1.5039350855204239 2.324364229266921 37 43 16
14.028404842080375 1.6908426552284237 2.269747907734729 39 46 16
14.024320307344412 1.6038126692647405 2.4754517328265577 41 48 13
13.94204456583908 1.4970387492946107 2.3733406515871818 38 45 16
14.848666195716673 1.8247234448456513 2.0636933453758144 37 46 13
15.101491675990909 1.8971965227668284 2.0547225865568643 37 48 14
15.003166559738066 2.0316114288114435 1.9124038016069302 37 48 16
14.644399258183014 2.0929632564898535 1.6409210179828408 34 44 15
15.674660088890395 2.2935996028057835 1.4445312473611807 30 40 8
14.942535294582076 2.2432703750245784 1.639519648653423 31 41 10
15.005489214436112 2.2873426440966633 1.9123487681642166 32 42 8
15.523147982113555 2.1885599541724217 1.9694743895917344 34 44 13
15.76444877026476 2.387485211070147 2.032743733647184 36 46 12
14.206543780223262 1.828841975109007 2.459297866857566 42 50 16
14.35062606682062 1.8697715162201032 2.2510220885994037 39 48 12
14.533123482265099 1.845458707963696 2.1558714925763187 38 47 11
14.110177030089098 1.8031361572881794 2.361086570771578 39 48 17
15.489614820755753 2.0651833822813788 2.115494064588854 38 48 14
16.98038547323687 2.1702864277175364 2.277516386009525 40 49 15
16.24196058826427 2.2314683048917074 2.160033243876392 35 44 11
15.620431077300402 2.3363733472198214 2.110428150222724 34 45 10
13.429749267329802 1.6081181719603317 2.53399168355521 40 47 11
13.40221007693271 1.2768444617022625 2.6844596153396396 40 46 9
14.262200056160308 1.6081181719603317 2.574031230092525 42 49 13
13.766437182295492 1.4640361388900374 2.633307977736522 41 47 11
12.688376052097418 1.1238070884177167 2.623957152914147 37 43 7
13.853526206471281 1.418831418407268 2.794226820503411 41 48 11
16.127819425769413 1.1650088236684975 3.0292166427693332 41 53 10
16.055627198293365 0.7474543848756414 3.080928239003471 43 57 14
17.041347154417547 1.9788717485963043 3.0992774721191605 42 56 13
16.045552967440237 -0.4425237831001286 3.0923367983835037 46 58 15
12.317718836543195 -1.8072070627043217 2.6795432479447667 44 55 18
11.931077804535924 -1.7709848353565039 2.568695752127441 44 55 18
11.70363353064545 -1.7442903694404315 2.4515539699302 42 51 14
11.644718032713682 -1.7238282313242408 2.3312462244760708 43 51 14
13.298724039622389 -3.1116264176630644 2.1274267774890787 52 65 31
14.429794891971392 2.174736008273324 2.440472116709494 45 52 17
14.44142224776862 1.8607643355048875 2.554852427261613 44 51 17
14.250943959790026 -2.7251179417840894 2.723958806963412 51 66 37
14.250943959790026 -2.7251179417840894 2.723958806963412 51 66 37
13.91104743349228 -2.642166816718498 2.782980257602418 51 66 30
13.864762559823076 3.0830301904924826 2.1881560083179874 56 69 37
13.254783804088447 -2.918064575811704 2.221220731379816 51 65 34
13.864762559823076 3.0830301904924826 2.1881560083179874 56 69 37
14.985230213150905 -2.959938143954279 2.624503999231802 53 67 38
14.929183475353843 -3.095194620467628 2.6311441076895825 54 68 38
12.139530649888126 -1.9091563915245655 2.1880256498482087 46 53 17
12.896267441972665 -2.8277717854270827 2.146965971988369 49 64 34
13.190539004727464 -2.74246580645979 2.1325385729949713 51 64 31
12.987453181535477 -2.055773098716894 2.7544132537686656 50 61 25
14.246494036617944 -2.5375119979261744 2.5757628220082074 51 66 30
12.397238683039843 -2.099420144368248 2.386302713754416 44 56 19
12.08798427845006 -1.9918180448832996 2.413882624060191 44 56 19
13.22255092864712 -2.2791167634679383 2.3221501100432005 46 57 21
14.448737282040542 -2.578313602882159 2.6941083008938906 51 65 31
14.84379237572501 -2.653404884242265 2.641513854733936 51 66 32
14.711988796412971 -2.4543548303112743 2.6581644430167444 50 63 28
12.34163470558168 -2.0455995046811384 2.2788105305019255 45 54 18
12.030951091157112 -1.946201651453259 2.301132854178293 46 55 18
14.007110037569237 -2.619855028380774 2.271026391410796 51 66 31
14.25339172356366 -2.5092744828870104 2.455262414589236 49 64 28
13.920617653937335 -2.4256474967662234 2.3749348984209804 49 62 28
15.054132204195895 -2.704541296210621 2.3926800288095595 49 64 30
14.796968984256724 -2.796483941435587 2.4115693464109276 47 62 28
19.106070472166003 2.314240455988946 2.8037581434474426 44 54 16
15.37122098026229 2.618503511855395 1.6376001367896724 41 48 16
14.898021335882428 2.6768222993099147 1.6397253131424545 40 47 13
14.583546553680085 2.7387589418045666 1.7101772092876801 42 49 15
14.225204229947165 2.804142323702517 1.7137121047777495 43 50 16
14.10975640266879 2.872664985835304 1.7869435438552075 45 55 18
14.10975640266879 2.872664985835304 1.7869435438552075 45 55 18
13.55010243013772 2.9438728132126184 1.5727219613468781 43 54 21
13.389618410080871 3.0171682079063933 1.572745041464135 45 55 24
13.455959890885397 3.0918299702924426 1.7219433012115064 48 58 28
12.998010396010818 -3.033092082848719 1.8857230835522143 49 62 31
12.998010396010818 -3.033092082848719 1.8857230835522143 49 62 31
13.529245634091362 -2.9673803493617137 1.6467117775636853 47 60 31
13.490304013215804 -2.9673803493617137 1.5727304971101155 46 59 32
12.772819958009624 -2.876283795934969 1.651217048981721 48 62 35
21.780273639447955 0.9397346715917072 2.1557433980980645 2 7 0
20.67112849797944 0.6896839454793355 2.316563300568332 40 46 13
21.65817464140313 0.6367060345807586 2.4038010132699377 39 44 12
22.68817008846039 0.6798738762618081 2.489004876444889 37 42 13
24.693148387662664 1.5406335727665128 1.8593188347557952 42 53 25
24.996074938952336 1.5406335727665128 1.8976808776105343 46 56 28
13.926692705881274 1.6003975398068986 2.3744821244217404 39 46 14
14.985827599089502 1.9662853832464497 1.9846268363819355 37 48 16
14.659833721554122 1.7494228761333543 2.0706248531516023 37 47 16
14.861485563610678 2.1885599541724217 1.8451323108637339 32 41 10
14.980436405963433 2.387485211070147 1.9129433321391707 33 44 10
15.788257556859971 2.2873426440966633 2.0319930730426727 34 44 10
14.918538794072921 2.0929632564898535 1.775054776006037 36 47 16
14.401321093136001 1.9334021412494733 2.442817419288013 44 51 16
14.306266419602903 1.8986372947255643 2.347340240407199 40 48 14
14.306266419602903 1.8986372947255643 2.347340240407199 40 48 14
17.432890003321805 2.2314683048917074 2.2555573573782475 38 47 14
14.155151198821855 1.7820180806558934 2.262245606707259 39 47 16
14.661862510465973 2.0303006706671125 2.421925811431615 44 51 16
15.111452751048544 1.9963793438843154 2.130725830455673 38 48 14
14.34013650920247 1.764374900854545 2.1648131779574973 38 45 15
16.348740188807206 2.1702864277175364 2.2309825067728175 37 46 13
13.445668534332597 1.4778844131175035 2.532291075507853 41 47 11
13.535650678372946 1.3507199875136833 2.522829380498842 39 45 11
12.995785647173873 1.3189781471814344 2.583819747882578 41 46 12
14.317210394840986 1.7371044646432194 2.568032667861158 42 49 15
13.94087605945849 1.218476423325519 2.7773145607786995 41 48 11
12.84919363595912 -1.8589913088887855 2.7817192685443475 46 57 20
13.361611668596826 -3.0235638824865894 2.124500689024405 51 64 32
13.750086307051557 -3.012211335433848 2.28688486062911 50 64 31
15.107406456486276 -2.831048748590123 2.610456627510955 49 66 33
15.107406456486276 -2.831048748590123 2.610456627510955 49 66 33
11.907814297820133 -1.8108814866571052 2.201905311317656 47 53 17
12.4618762786482 -1.975409155448728 2.65683071199804 48 60 23
12.308328224186138 -2.0490933285438615 2.5227975109168126 44 58 21
14.113604996499818 -2.4798689675394194 2.7464607670313126 51 64 29
14.448737282040542 -2.578313602882159 2.6941083008938906 51 65 31
14.711988796412971 -2.4543548303112743 2.6581644430167444 50 63 28
12.34163470558168 -2.0455995046811384 2.2788105305019255 45 54 18
11.797102233583077 -1.8383872814688869 2.3190287880653004 47 54 18
14.059841877310106 -2.5692706966693457 2.36470846801779 50 65 29
13.384578683917516 -2.619855028380774 2.2138628008140557 51 65 32
14.715119958178878 -2.6045451752702684 2.5274380674574792 50 65 29
13.657325005440137 -2.704541296210621 2.2928104224977757 49 63 30
13.657325005440137 -2.704541296210621 2.2928104224977757 49 63 30
15.294127472393958 -2.7119609738371917 2.5900277107760097 50 65 32
13.55010243013772 2.9438728132126184 1.5727219613468781 43 54 21
14.113818767715754 2.804142323702517 1.501737624204134 40 48 16
13.302574430084166 3.0918299702924426 1.5727577926874723 47 57 28
13.2908708786405 3.0877871599147455 1.958605581090088 51 62 30
13.784876802892922 3.0071580229176247 2.02322644441188 47 58 25
13.443937737339795 -3.11613521800991 1.7220795035916934 50 60 32
21.094895116421597 0.6978294427110695 2.2363563826112784 36 43 13
24.68448379738436 1.5828862280940295 1.8594230187678928 42 55 28
19.744830334884405 1.0889255076433002 1.8809431904799054 33 41 11
13.926692705881274 1.6003975398068986 2.3744821244217404 39 46 14
13.40221007693271 1.2768444617022625 2.6844596153396396 40 46 9
13.006040389916587 -2.9372984346883415 2.052545859772735 49 63 33
14.79999702774036 2.400930472599367 2.411340764614845 45 52 18
14.429794891971392 2.174736008273324 2.440472116709494 45 52 17
14.525321390348891 -2.931825198795583 2.6832457243109937 54 68 39
11.58947882093839 -1.9091563915245655 2.1176031885257802 45 52 16
14.980998402357754 -2.7586053500892724 2.5026997384520215 49 64 30
13.795056138222915 -2.4886023108984974 2.284051720541095 51 65 31
15.032414344239772 2.527518324145892 1.5725320787374286 34 44 14
13.2786992590783 -3.114064170404575 1.9589800486475868 51 63 33
13.506149236026584 -3.04120160469007 1.7213773412563946 47 60 31
22.17298783141602 0.7833402408345669 2.198732337721818 35 42 12
13.926692705881274 1.6003975398068986 2.3744821244217404 39 46 14
15.101491675990909 1.8971965227668284 2.0547225865568643 37 48 14
15.17041821452756 -2.7251179417840894 2.7506981582992243 52 66 35
14.651333276984708 -2.7854714350333825 2.666110608154051 52 67 39
12.07985019054845 -1.916951320097802 2.54987683197688 45 57 20
12.397238683039843 -2.099420144368248 2.386302713754416 44 56 19
13.726179953245202 -2.352623679722643 2.288401405153322 48 60 24
15.235055576918583 -2.659271219365862 2.4805780980961103 49 64 30
13.727288018518363 3.0171682079063933 1.7930655424472133 47 58 25
21.094895116421597 0.6978294427110695 2.2363563826112784 36 43 13
24.83157770256896 1.4565986568137514 1.8576646358305 43 53 21
14.08026005197335 1.7181985669525301 2.470413204098738 41 49 14
14.994301677155127 2.4335840786474314 1.7063351048730002 32 43 10
15.441766261829835 2.1292427439991317 2.0431750045888126 36 46 14
13.31132592923937 1.4453621507879815 2.698542161777469 42 47 14
14.250943959790026 -2.7251179417840894 2.723958806963412 51 66 37
12.86750537192676 -2.9535206482269696 1.808193098070119 47 61 32
13.883869454982836 2.9438728132126184 1.7905174216323538 45 56 21
14.110177030089098 1.8031361572881794 2.361086570771578 39 48 17
14.850189540150225 2.3382653541539433 1.6399476843165242 31 42 8
14.79134345483766 1.9230063008636777 2.144350539538565 37 47 13
11.85526047237479 -1.8727947782615824 2.4362008462863063 45 54 18
14.651333276984708 -2.7854714350333825 2.666110608154051 52 67 39
14.633073483945541 1.9759634097268033 2.5354352163176666 43 50 15
22.694801505412173 0.6678335521144879 2.5650380557492483 40 46 11
13.268655243701053 1.4885597459840896 2.427400076405296 40 47 12
14.889560189433192 2.0808404989813347 2.5110135824570023 44 51 16
13.566394948475923 1.1238070884177167 2.660439695174991 38 44 7
