19.1704437904487 1.4174594884070593 0.8041794790039675 59 75 28
18.186461157401563 1.2783159780984663 0.9004422629386055 58 74 28
20.137831752239585 1.624275678520163 0.9751274151394344 59 78 27
11.988577610781508 1.2256006938299393 2.2684171134468025 63 81 32
11.547992003446067 1.037078901192407 2.087152801780122 62 78 28
10.92545277506226 0.9556641603711827 1.8206466710034903 45 60 10
11.768946342282316 1.3315392711842895 2.284164675387209 68 86 41
10.019109929246055 1.3555430741381855 1.7414403793478987 9 22 4
10.15862327607822 1.258996294487529 1.6398976722671341 7 15 6
10.444302725135861 0.8217625517413886 1.5422042150356974 46 61 10
12.453442116221083 0.8966646312399182 2.237522611349855 68 85 25
11.861087155519053 0.8966646312399182 2.171219543369812 68 85 27
10.702824638811677 1.037078901192407 1.9239253415053736 22 35 4
11.628060329286575 1.258996294487529 2.083247826731407 74 90 49
11.628060329286575 1.258996294487529 2.083247826731407 74 90 49
10.486407676917619 0.3807098316424872 1.9315427783162897 61 80 28
9.969043587923752 0.1787434750717232 1.9511953355929366 60 80 26
10.026170888749034 0.6081943039039299 1.7413190238162484 47 62 9
10.551292184035972 0.6081943039039299 1.9292238828237633 61 78 22
9.350239605143924 0.5202651260756987 1.5388575994037852 49 63 9
11.278696451606622 0.7517337161327345 2.100761276891984 65 82 27
11.303772072220507 0.200232622641985 2.320352308776408 59 82 27
11.40769173914682 0.6081943039039299 2.094149167056465 62 79 23
10.871407182164766 0.1787434750717232 2.1228552486680043 59 80 25
10.25968113308152 0.31538266667033205 2.1600140648933976 60 80 25
10.461411990255044 0.5202651260756987 2.0368960576678345 62 79 23
10.25968113308152 0.31538266667033205 2.1600140648933976 60 80 25
10.133949827231158 0.06379030735446169 1.5413283299081375 48 67 17
10.119559335590747 -0.03503095571355532 1.541286412864193 51 70 18
10.133949827231158 0.06379030735446169 1.5413283299081375 48 67 17
10.751956948008605 -0.03887304812598362 2.1297126667451196 59 80 27
11.326909031036537 0.07077113537216319 2.203883890944802 58 80 30
8.74945220260343 -0.4318098006375865 2.4432737017916737 70 96 50
8.546552566335397 -0.6846212705346494 2.4720530874462296 72 97 58
9.857214041102361 1.4563311493112758 1.744271273637251 12 26 0
9.055337866134481 2.425447046082091 2.8610873275424606 68 94 48
8.851139199513847 -2.152745073458519 2.957399261332464 68 97 58
8.911578309214134 -2.956398630943083 2.9239859363029184 70 98 54
8.25148221606828 2.921845168639095 2.774395642594386 70 96 48
8.3364938771735 2.2846935257551477 2.0308559453367767 70 91 40
8.68249711126919 2.2052571419805367 1.887181861310095 69 89 36
7.974016870837017 2.473836976528782 1.916413387801958 67 89 40
7.000144937628095 2.7194793223539104 1.9669888213074698 61 82 31
7.806265012172561 2.388733164475871 2.389651225095073 63 86 34
7.392314623037422 2.544448803307228 2.451618755679977 61 83 34
8.313715013013894 2.1742390583520024 2.1718371840900033 69 91 40
7.921975104917102 2.7414578352536294 2.5790981431089017 61 86 36
7.690056073232821 2.8170150453848275 2.405952165076351 61 85 35
8.36176221183392 2.869176801627762 2.321076639886159 60 84 38
7.429752224468578 3.048160062180399 1.9429197721981342 59 84 36
8.511064465215822 -2.6885951081644386 2.0207175568966176 69 94 56
8.16882343335661 -2.8123832791341745 2.041052817292045 69 94 54
7.938585153517763 -2.947539691872029 2.0558506136600303 68 93 49
8.205860794496854 -3.081527855313773 2.338935382626326 68 94 46
8.223600752283462 3.0324166825565615 2.336853480486063 63 89 43
8.529550719121577 -2.761400930053469 2.30289358199962 73 99 60
9.30069901148161 -0.6455290664742439 1.8654965491887414 63 84 38
9.30069901148161 -0.6455290664742439 1.8654965491887414 63 84 38
10.238526176635201 -0.44591056407618057 1.7377486512629807 60 78 30
9.920442893839613 -0.4927852693170553 1.9531551125332485 64 85 35
7.6975417353068645 -0.9162425035296817 2.072428076386525 67 87 49
7.6975417353068645 -0.9162425035296817 2.072428076386525 67 87 49
7.4309616170195865 -1.1955757411547727 2.2558045203165142 69 89 54
8.416645276300985 -1.0447276730715518 2.315015576540105 69 91 55
8.76771782850317 -0.8088401397743831 2.1367474727096383 65 87 49
8.853373876481227 -0.6192447344446911 2.1306131643392865 70 92 46
8.416645276300985 -1.0447276730715518 2.315015576540105 69 91 55
8.267361778922437 -0.8143770658270667 2.3317735366531447 68 93 53
8.57520890081555 -0.9507363520688411 2.467842236796965 74 98 60
7.899628311677519 -1.3665692837322962 2.377097928224415 70 90 55
8.649101658201678 -1.3665692837322962 2.457211842653177 68 91 56
9.235670328535939 -1.5536524424985487 2.3827044097353323 70 89 57
8.916347317116667 -1.321417439325608 2.6134432726773755 72 97 61
8.916347317116667 -1.321417439325608 2.6134432726773755 72 97 61
8.952472305277627 -2.5780661076545512 1.9970381639916737 69 94 58
9.791775202034495 -2.4038920319255666 2.192309236639087 70 95 60
9.224790335253644 -2.31101257503549 2.237060862582213 69 95 63
17.979333109207257 0.40870361877737194 2.762289806323111 65 90 40
18.153453583440612 0.5380522616535093 2.738910366369815 66 91 39
15.512949274690868 2.1835913534368565 1.4869885762212858 62 83 33
15.451194455166696 2.2749005669148943 1.421477916819148 63 84 34
15.631269240216037 2.2749005669148943 1.3581731729412803 60 81 30
16.144416873045326 2.234567552438995 1.6763796582212926 61 85 42
17.64475751722602 -2.9945117715803615 1.1443474102958486 53 73 29
17.64475751722602 -2.9945117715803615 1.1443474102958486 53 73 29
17.41978306175647 -2.9335670432681673 1.2008380969595902 55 73 34
17.490579857463196 -3.119302603920673 1.140338877257013 48 69 18
15.879145166522864 -2.2459140182999824 1.4889256846492724 37 41 23
15.23272389110211 -2.287430576351494 1.419319953161357 68 77 56
15.879145166522864 -2.2459140182999824 1.4889256846492724 37 41 23
17.1456247204738 -2.8571149629073607 1.1310808671633579 54 74 36
15.061259615485453 -2.287430576351494 1.550970392343579 2 5 1
18.112235627998253 1.2566298270032272 0.8243684157590154 55 71 25
18.631334956900282 1.3467870224724214 0.8498416071148478 58 74 28
11.768946342282316 1.3315392711842895 2.284164675387209 68 86 41
12.659903532456624 0.9817264746267849 2.328590459605367 64 81 29
11.583228496520977 0.9556641603711827 1.9887392692019406 56 72 20
12.073067188701648 1.037078901192407 2.1592452983041115 69 86 36
10.185518699931501 1.037078901192407 1.7386257330546973 29 42 11
10.783874791003019 0.8217625517413886 1.8239983187932494 48 63 11
10.609422900309688 0.9556641603711827 1.6369571346128717 43 57 9
10.026170888749034 0.6081943039039299 1.7413190238162484 47 62 9
9.728076724993077 0.5202651260756987 1.8521878512852012 62 79 23
9.969043587923752 0.1787434750717232 1.9511953355929366 60 80 26
10.249278405188502 0.4716300056647073 1.639285507340151 54 67 12
9.879153077186517 0.7517337161327345 1.7438821325081795 52 67 17
10.223243304447823 0.6711773288902246 2.048650972246545 65 80 28
11.42761244318662 0.1787434750717232 2.197432183387504 59 80 26
10.586600967424351 0.28267602229675765 2.030955992920155 62 81 25
10.561842401153571 0.42251571221787004 2.1410108441123175 61 79 31
10.203627942660653 -0.13317462735436175 1.5415296174263136 50 71 20
9.85344468212143 0.07077113537216319 1.9558910309711495 59 80 27
9.854890979810015 -0.3528302071646141 1.7443125816706724 60 79 28
11.201955414409385 0.07946398009317149 2.328845902459916 60 82 33
8.638704208046512 1.9811267695442432 2.14626375465799 70 89 37
8.64117322304583 2.4004734842336415 2.670882781594348 62 87 39
9.391248024889991 -1.2515009166976798 2.7559189986955213 74 102 63
7.149363833569646 2.869176801627762 2.114987914780735 61 83 33
7.135419697225815 2.5010501353723296 2.116170914823181 63 85 34
7.6698369841422345 2.2680207726515866 2.2306163969318846 66 88 38
8.16882343335661 -2.8123832791341745 2.041052817292045 69 94 54
8.225264785892367 -0.9162425035296817 2.179229280108955 66 90 52
8.100742100873743 -1.1955757411547727 2.35154862461115 71 92 57
9.095006575130384 -1.1197550323155194 2.5806877669897896 73 98 60
8.853373876481227 -0.6192447344446911 2.1306131643392865 70 92 46
9.86499190030769 -0.5835761917354195 1.7441331136794536 60 81 32
9.121254962324075 -0.5495641708432689 1.9886515872532293 68 89 41
9.135232366569356 -2.4810412251701144 1.8709991765163565 70 95 59
9.382067677079707 -2.12024892306999 2.2239486533457415 70 93 58
17.979333109207257 0.40870361877737194 2.762289806323111 65 90 40
15.451194455166696 2.2749005669148943 1.421477916819148 63 84 34
15.334348441411654 2.2749005669148943 1.4860101260457115 64 86 37
14.694369774359142 -2.3333182058254325 1.3443875107276289 71 83 60
15.11418900152446 -2.287430576351494 1.4847720622654486 75 80 63
17.594590504586126 -2.8571149629073607 1.0796291332475878 62 82 44
18.61269331103556 1.3297277097956546 0.7749013754153425 56 72 26
12.290454114022655 1.07766478046944 2.3574325119648405 60 78 32
11.490293734821993 1.168090644492796 1.9923341370851464 54 67 33
10.019109929246055 1.3555430741381855 1.7414403793478987 9 22 4
12.285922360650947 1.127137912401609 2.248298505273209 66 85 32
11.993221719233121 1.1845914833984146 2.3825973774306424 63 82 30
10.411691965525288 0.7517337161327345 1.9342514006324263 58 74 25
9.368607632292719 -0.3678404313995413 2.3678574219656054 68 94 48
9.732216818006615 -0.3528302071646141 1.6429304233873117 57 78 29
10.831118144380751 -0.14759366429744042 2.12514801782775 59 80 28
8.911578309214134 -2.956398630943083 2.9239859363029184 70 98 54
8.529550719121577 -2.761400930053469 2.30289358199962 73 99 60
7.763185083419964 2.4004734842336415 2.6124303004859133 61 83 33
8.309313655432918 -2.9156324533152524 2.326976458144184 73 99 55
8.754091790897968 -2.763168026191673 3.031835475910805 61 90 46
8.274662765877673 -0.8088401397743831 2.0345620744963258 67 87 46
9.385668385494114 -0.7196584190147544 2.0954512295671095 68 90 49
8.986217380791407 -0.8143770658270667 2.4124469177179604 73 97 59
8.807222371769598 -0.7058181829601406 2.2749078271235934 66 91 49
8.916347317116667 -1.321417439325608 2.6134432726773755 72 97 61
18.43814699344506 1.2125526468616223 0.9112187935553392 58 74 28
10.046846625889852 1.037078901192407 1.5410727761133263 34 49 2
10.85724294875633 0.8966646312399182 2.0186381153018558 61 77 22
9.838643918209995 -0.03887304812598362 1.9565008679983804 59 80 26
8.389184508424384 2.6240910736611425 2.7338473675582016 66 92 46
8.92791610150725 2.8125411808518805 2.9158588496936737 69 95 49
8.458120029930706 2.8170150453848275 2.4853750366465137 63 88 43
7.429752224468578 3.048160062180399 1.9429197721981342 59 84 36
7.2818670911045595 2.645737737812708 2.2726486531784698 62 83 33
7.7741292551532535 -1.0447276730715518 2.220250083191776 68 88 50
16.069827756992936 2.234567552438995 1.6144582088247879 64 85 36
18.83058986200731 3.1033822054328923 1.1144213626455022 49 70 19
17.539353631077763 -3.0565758412446384 1.1416153856737532 48 70 19
7.692991162424625 2.473836976528782 1.7938046348434817 70 92 41
10.243384924996649 0.6081943039039299 1.837676123200056 60 75 23
15.74885640654875 -2.335374309679567 1.6153486480845944 41 45 29
8.92791610150725 2.8125411808518805 2.9158588496936737 69 95 49
11.067020921400674 0.28267602229675765 2.112004297251689 61 80 26
8.851139199513847 -2.152745073458519 2.957399261332464 68 97 58
8.926810125191063 -0.7196584190147544 1.998343910001283 68 90 46
18.153453583440612 0.5380522616535093 2.738910366369815 66 91 39
7.410112020927835 -3.090227581985217 1.943954477143479 66 90 43
8.578406866761199 -1.5504513482842956 2.467375435188731 70 89 57
