14.009994916622967 1.3423235443817212 1.9530279098878731 13 17 14
13.701612598775357 1.1697871177176598 1.9620924259142587 13 17 17
13.373328426293979 1.2446465478858564 1.9722415041593586 14 18 16
13.02495702622932 1.3904212783591585 2.158860654308804 12 17 4
14.719165541522473 1.0621744958649886 2.163779104562415 4 8 9
13.46944894024676 1.2164569758159363 2.137015061185751 0 5 4
13.361159913898286 1.4055966928430463 2.0555028446147645 12 17 8
14.631844674616582 0.9934732461263837 2.0872828756221447 10 14 13
13.783650112018641 1.3013562201045201 2.21026116002001 12 19 10
13.02495702622932 1.3904212783591585 2.158860654308804 12 17 4
13.287398768919095 1.1832009301461637 2.238333683230408 2 6 1
14.46443188903262 0.9475847855816641 2.1756950293839354 0 2 0
13.971599906588828 0.8826194169085497 2.032630316820457 1 3 1
13.298988649415326 1.13656501692345 2.0579662764307844 12 16 15
13.791096276389531 0.15063553226178936 2.2098596707139757 19 25 29
12.974556060544835 -0.133831388058842 2.2574858007064407 5 10 15
17.015229010837565 1.693568274113912 1.4070120046471983 13 16 13
16.817907376290034 1.701321420272018 1.2203176695606182 13 17 12
16.280923170255456 1.710113043667129 1.1416514068220969 12 16 11
16.83219948061999 1.693568274113912 1.6436745462283968 15 18 15
16.9344078615527 1.693568274113912 1.7026032687006836 14 18 11
16.94058542317688 1.752192563569958 1.5841147451059727 18 23 13
15.14295532439827 1.7908633986832323 1.1795673384772267 21 25 16
12.403289261075086 1.5755867824985548 1.9184417596044514 14 19 5
11.904257409725512 1.7453031078205945 1.6739351221612515 25 30 13
12.057024492036739 1.8270881014052351 1.5895097582742723 24 30 10
12.71836869343319 1.849947112992035 2.0823102198294823 30 36 12
12.345919408869173 1.5760361118408892 2.099326949344176 17 22 4
11.65086762002859 1.7612946954221864 1.9419456460410967 27 33 12
14.8125999088013 0.5911597710959416 2.5416224108295964 33 41 24
14.362701860894644 0.48041726351926345 2.363076387210241 40 47 50
13.698159249202446 0.4851937822291267 2.531330961327057 32 40 24
13.456470977186909 0.4318508443512312 2.4339604885508246 33 40 35
14.132276855171826 0.6191463418797817 2.3797489198137445 27 34 30
14.542269852164754 0.8344520772464451 2.3506353882858257 40 47 41
14.151467022574824 1.0953611529615987 2.4869202603952894 31 37 16
13.98071623892799 0.9693255826252838 2.2914572819606445 6 12 3
14.462098516481616 0.9976962078549819 2.4594272147152143 34 41 28
14.342881479470607 0.8422195419811732 2.4697259139076393 32 38 28
14.77434278710149 0.9322841824670519 2.545418150963225 32 39 16
14.23041304994285 1.154627039712781 2.604341622054709 34 40 13
13.969076834231554 1.1434756384813258 2.392075573412286 42 47 32
12.853963575509827 -0.03786598285311893 2.371326436352954 22 28 34
14.357118099834702 -0.03786598285311893 2.4684800508624427 26 33 35
13.768111144920352 0.08303472741255437 2.524102906131027 41 45 38
14.4154264993071 -0.14858594601418532 2.463423077231264 3 10 8
14.27887262537348 0.06638965348206712 2.3690467167085307 17 23 28
12.853963575509827 -0.03786598285311893 2.371326436352954 22 28 34
13.122169657779954 0.2891902613072482 2.3504815716164895 2 9 14
13.84350269236781 0.2891902613072482 2.401873767109703 18 25 28
13.817244535272884 -0.16696294318279956 2.5191129308154117 32 39 34
13.756400892791842 -0.04262706476192094 2.525302662474275 41 48 42
13.852191287827202 0.20613492171659423 2.5156061292690493 34 41 34
14.25331130749937 -0.3248744250878125 2.601650827568479 39 46 40
13.060617965823123 -0.2557671869297542 2.355151597470682 9 13 16
13.598281015277044 -0.05694252857459526 2.6884048075327676 37 45 26
14.848140752140965 1.6796537329267107 2.4280201073721486 30 36 14
13.515788865394592 1.7804655675851275 2.3220842994300006 32 38 12
14.098773593770286 1.5760361118408892 2.2841268076093892 28 33 15
14.982805801823115 1.5772460314531234 2.5252124450970657 32 38 14
14.217769333468363 1.692105520776815 2.4808688797183898 33 39 14
14.573455372720447 1.832968484629019 2.5660482595381726 33 39 14
14.838441178884784 1.429996515434832 2.671017325277006 34 40 15
14.42782557142512 1.5780878739002264 2.5817970456056356 33 39 14
14.808479395597193 1.5791824622478048 2.675010452675779 33 39 14
13.21127473578979 1.3013562201045201 2.149486599584211 10 15 8
14.184590370282415 1.0621744958649886 2.105282482835511 12 16 16
14.093348162034337 1.099388620005881 1.9506514514238353 14 16 17
13.115516992957039 -0.23099952373838775 2.248706514570509 2 3 7
13.130909612929923 0.060338873313370484 2.153490227525247 43 50 55
14.011834828567839 1.0192308106547159 2.1982034700227113 0 2 1
13.918225530115702 1.268809349532256 1.8792682139949177 12 16 15
13.783650112018641 1.3013562201045201 2.21026116002001 12 19 10
14.680869283713031 0.9304080001842923 2.0087234506805607 4 8 6
16.65547850330658 1.7634987276407124 1.2800623039045784 13 18 11
15.419061872455885 1.5746065591992138 1.2559801139689664 14 18 15
17.191462710793108 1.8095840420434313 1.6421489362818973 26 31 18
12.381841569802514 1.4824681591369138 2.09763364655124 11 16 1
12.813316876177359 1.4900082735373261 1.990869085273485 10 15 3
12.145043417726821 1.661095351577438 1.8396132908148006 23 28 12
15.375981963677146 1.8593975446575268 1.1858107576052697 28 33 20
14.9732217831073 1.7201650855996873 1.1748868705480602 12 17 10
14.43428907715312 0.8949855191729569 2.2641833999110514 3 10 5
13.254579485394123 1.1434756384813258 2.3406529176039466 31 36 24
13.958150827553911 0.9322841824670519 2.505181261936894 34 39 24
13.92861070998492 1.1832009301461637 2.2947474411648834 25 31 20
14.132276855171826 0.6191463418797817 2.3797489198137445 27 34 30
13.360900250478512 0.38852885522391006 2.3329674474997013 22 29 32
13.762228385532245 0.530613974065644 2.408368294100624 37 44 38
14.27887262537348 0.06638965348206712 2.3690467167085307 17 23 28
14.326254412800594 -0.133831388058842 2.36565913298684 24 30 35
13.303944109366922 0.23480501057759837 2.5750860636426642 35 43 29
14.448926537426678 0.183633719348319 2.460550335932193 24 30 31
15.088397949860347 0.16552078104903875 2.40981814467934 19 25 28
14.123710638644692 -0.19046449995622639 2.6171622485590627 36 43 35
13.756400892791842 -0.04262706476192094 2.525302662474275 41 48 42
14.075647059922925 0.09492503025660363 2.6230957400520776 39 45 27
13.568811820123766 -0.03406122164993979 2.318440672004077 38 44 50
14.509680954555542 0.26148372566195277 2.3528590118531456 12 19 24
14.064192873387405 -0.048756520459868495 2.624524919157072 39 46 35
13.78517217575521 -0.2557671869297542 2.406522392721781 7 12 12
14.84061430717015 1.473380602594863 2.4286060939324994 33 38 19
14.32678226994172 1.803849050295869 2.471140120765234 32 38 13
15.284416278860716 1.5780878739002264 2.616546157802858 33 39 14
14.209909008804647 1.4622168595660638 2.4815808779350905 33 39 16
14.466301397042422 1.707753755056088 2.577567115931817 33 39 14
14.810656920095958 1.57657845603286 2.4309483561920495 32 37 18
14.217164939605869 1.7804655675851275 2.373510343521161 31 37 13
13.70358617459413 1.8771429326398574 2.3093597340900733 31 37 10
12.960510193965385 1.2164569758159363 2.0718530448421975 9 14 11
13.617754611303205 1.097789770286487 2.219352140119335 0 3 0
13.795445964640345 1.13656501692345 2.122064719797036 4 9 9
16.9567745816803 1.752192563569958 1.5251122675998643 14 18 11
11.853899645880366 1.9343221224314315 1.8463858484506628 25 31 8
11.550030797534685 1.849947112992035 1.8538335328349191 25 31 9
12.813316876177359 1.4900082735373261 1.990869085273485 10 15 3
13.905960746443437 1.2039025285317906 2.510277572297927 29 35 12
13.360900250478512 0.38852885522391006 2.3329674474997013 22 29 32
13.372089912387997 1.0953611529615987 2.441369413578081 37 43 26
14.075647059922925 0.09492503025660363 2.6230957400520776 39 45 27
14.138144936270717 1.66951267200456 2.281719558444435 28 34 13
14.631844674616582 0.9934732461263837 2.0872828756221447 10 14 13
12.909741435981456 -0.03406122164993979 2.2616085939100627 19 24 30
16.725139255828864 1.6381136471164603 1.2182892297122898 13 17 15
14.470415687926204 1.0361987006025524 2.5771178017733085 32 39 12
14.368338773437834 0.07378678764971065 2.4675012232567686 34 38 40
13.465409308329052 0.3659611129604077 2.556503984827798 34 42 24
13.949692741127043 -0.28632131331309285 2.5060022100611477 32 39 36
17.115930083831593 1.6340843956222484 1.3484499642841483 14 17 17
13.621587182247387 1.7612946954221864 2.219138906633363 30 36 14
14.56171583594808 0.6977797453160226 2.34931559628598 28 35 32
13.219466410721644 0.3232354855636173 2.455184014319287 31 38 33
14.845968725564175 1.7279987816467537 2.6700215369917304 34 40 15
14.458576186086429 1.4481777136561027 2.5784123274859723 33 39 14
14.982805801823115 1.5772460314531234 2.5252124450970657 32 38 14
11.919824712421807 1.66951267200456 2.0246106724450703 25 30 12
13.113261935465392 1.3234907354045824 1.9806754800668185 13 17 12
14.357118099834702 -0.03786598285311893 2.4684800508624427 26 33 35
14.092172928394787 0.9109369615426014 2.382736756887013 35 42 33
14.130240318472696 1.4824681591369138 2.282201387313865 29 34 17
13.488530412478983 1.418435062554593 1.8894356700574577 13 17 13
13.585733397355764 1.0520939282934676 2.3172864170205814 12 17 6
