9.055037680327226 0.3095254873142037 1.8566680558972355 64 68 64
9.396077866637523 0.41505521461392453 1.8460163165794867 39 41 40
9.546916174148247 0.1756730990254566 1.7342421716595868 94 96 95
8.818912606339964 0.4650018340817092 2.408509665467304 46 52 29
9.138285636259615 0.5264132561165096 2.223975395693333 32 34 30
8.738740957950789 0.22255418815053502 2.118896380159873 28 31 27
8.572085374895204 0.3025293052805269 2.4410808740687164 55 59 46
8.833921821402715 0.3676159407062795 2.5964480839833772 48 54 32
9.073629187399314 0.5543145798192998 2.5543354562098646 48 54 30
9.168739904808708 0.60484832476311 2.3670798488798477 48 53 29
9.004105432341934 0.8390361105360262 2.56603936006709 48 53 28
8.833921821402715 0.3676159407062795 2.5964480839833772 48 54 32
9.173458230168606 -0.2124848589777463 2.3665543233073087 74 79 71
8.404198279345852 0.10263674078709481 2.292675898666814 56 61 54
8.437302637141956 0.12191791030847468 2.460245905001337 46 54 39
9.311813087299965 -0.2512208338074709 2.516946700319084 45 53 33
9.219676504985443 -0.0669583396390555 2.530944653513314 46 54 33
8.891611684620724 -0.6065878148519736 2.108433568124295 101 105 99
9.056367276984957 -0.5663358454106215 2.3798447113050014 34 39 28
8.735580126094293 -0.41971181261313484 2.4191665882102984 40 47 35
9.025533844791738 -0.49085104363458426 2.2335704660997124 18 22 16
9.623417388202004 -0.539296087843067 2.063676408252553 113 117 113
9.449986081720738 -0.3129179048113282 2.1989713790797993 10 11 10
9.747290139364171 -0.43197245087369235 2.1769913197874784 44 48 42
9.472339540571499 -0.690035194437714 2.334848426234516 41 46 31
9.508800717705743 -0.41971181261313484 2.488759031757871 44 52 34
9.508800717705743 -0.41971181261313484 2.488759031757871 44 52 34
9.456501165004907 -0.6232037676556971 2.701017101268129 47 56 35
9.709930146197605 -0.7945551061110417 2.462131474119512 42 47 31
9.304585715001325 -0.6652484714908617 2.5180249155646663 45 52 32
10.108263659270945 2.1012704645911384 2.579582125054613 50 56 33
9.760932432932181 1.7256493349662354 2.6389155386370544 50 56 30
8.690483919740295 1.0130310278492978 2.6243078721246778 47 53 28
9.385203132134512 1.2344875833745583 2.7174156603136597 48 54 29
9.27739528400671 2.1012704645911384 2.5221110354751395 50 56 33
9.86361326486065 -1.0893316722049295 2.620294949425294 50 58 38
10.370185974641943 2.012747114656036 2.7420613416840722 49 56 31
12.561451755963343 -0.9104740181902506 3.1059319103716874 59 72 44
12.561451755963343 -0.9104740181902506 3.1059319103716874 59 72 44
11.07693516577714 -1.48906900868745 2.8329355432036927 59 69 44
10.575840094805603 -1.285971920713953 2.6982648858829217 55 65 42
11.79398132524499 -1.4546119608406787 2.939291920250489 60 73 46
10.377397047050493 -0.9748080381594239 2.740418833724769 49 59 37
11.75975168228766 -2.476296532815956 2.9540120515602504 59 71 47
11.875812714731245 -3.012525022905966 2.9080680867066437 55 68 41
11.888124306178076 2.9087506154406837 2.9037533740976436 52 62 33
12.647058727473357 -2.0626595137847867 3.0198589895576284 61 73 49
12.850753230258526 -3.012525022905966 2.926076397707698 53 66 37
12.590998301314292 2.41373736914435 3.0643604381260956 53 63 35
12.676405739106999 -2.9393785069191503 3.002207786845659 57 69 45
12.676405739106999 -2.9393785069191503 3.002207786845659 57 69 45
10.846694344409189 -2.130093472181715 2.6482864922991065 58 68 45
10.63955741929631 -1.94809333803532 2.685815990854841 58 68 45
11.097255912583316 -1.783783300683115 2.82724329274987 59 70 45
9.756042898054696 2.766717555446879 2.307343340201704 48 55 26
9.84056440737908 2.708631996202297 2.445860409830329 50 56 29
10.016736915987316 2.366912552113809 2.5942632236376726 50 56 31
10.073378028866639 2.644777254966997 2.2791347202533143 48 53 28
10.189043629573906 2.700600687390126 2.1472365606970945 48 53 28
9.349711613304619 2.8115718875216795 2.0794670264754345 45 51 23
9.320103247880494 2.3646253218762063 2.3506195596059176 48 54 29
9.619986277121518 2.861600442615887 2.473790561175245 48 57 25
9.655644272539314 2.9316301676184278 2.183586570006709 46 54 20
8.527897310286766 3.058128622722975 2.0005943227970153 44 53 19
8.510726211729912 -3.0958381480199786 2.0015193318844595 45 56 21
8.510726211729912 -3.0958381480199786 2.0015193318844595 45 56 21
9.21512387019515 -2.5670729293489205 2.0876297098701406 53 62 36
9.32600373169185 -2.6117012941616697 2.3499940768399727 55 63 38
10.298831154752206 -3.0798901790311017 2.550850939278636 52 62 32
9.48090251106497 -2.2785670281794133 2.4926168507697635 56 66 41
9.971205630517579 -2.6790084585648692 2.2879458958390426 57 64 38
9.0690032372298 -2.9681225645146134 2.09681134154508 51 62 30
10.051377182457149 -2.679458892591343 2.588634262443773 57 66 40
9.680780630188618 -2.8049364143471847 2.314415729051999 54 64 35
9.520014728487707 -2.524362316158287 2.4872201543502404 56 65 39
9.412503878413231 3.0457890993372323 2.3409576220771084 50 61 28
9.536188674415559 3.058128622722975 2.1924212969432393 47 56 22
9.874153499881785 -2.6787646046157993 1.728779123544667 52 60 31
8.86956565308056 -3.101075930660204 1.746849987745309 45 54 18
9.690119203220622 -2.774635471875465 1.8374577025467722 52 59 31
9.710711251294747 -2.8781069128585397 1.94543099954534 50 61 29
9.05412172201917 -2.8781069128585397 1.6319630265506417 47 56 22
10.677772701502729 3.005664577271996 2.6785684864083903 53 63 33
8.981161145235422 -0.7063616592934309 1.9775801951763152 118 122 117
10.499244543676111 -1.0075937136381985 1.9160651353564824 124 126 121
10.03417819806125 -1.0978224889889576 1.9327865456240807 91 94 87
10.299325790999482 -0.8644070500348804 1.9230556020316614 61 64 62
10.234052247256974 -1.2340355997472547 1.8229672252562907 103 106 101
10.850239730295712 -1.0573324356866398 1.7144634154003096 63 64 62
9.610862793366515 -0.791654774552677 1.9495193500137475 120 123 120
9.43006949630169 -0.8779241958290883 2.074721599507561 118 120 116
10.079219648706443 -0.9785679102111304 2.278638340284683 40 43 32
9.820426043853827 -1.0218406940090563 2.448319859870626 46 51 36
9.34482282006871 -0.7928320711329911 2.2071696600773403 30 34 21
10.380206788192396 -1.1518472294717546 2.2540794245714566 36 39 28
10.13082616676991 -0.9485642582358348 2.036964184147201 98 101 92
11.210346316880567 -1.179247561179626 1.5309534283861876 123 125 125
10.129106175846315 -1.2270023246112687 2.4124094591032406 46 52 36
10.170982788182291 -1.3370517114087688 2.569865054678169 50 58 38
10.658654470254016 -1.5275883754381614 2.502253393236252 53 61 42
10.285902306301248 -1.3049436177846279 2.141126966418093 27 30 20
10.480977031933191 -1.4353530547519147 2.020224404655614 27 31 21
10.034987717971735 -1.537924362879506 2.1572494570632665 47 53 34
9.932264858062625 -1.3991605790408495 2.2913699534893746 45 50 36
10.406799491988217 -1.541436545026867 2.0236653583937017 21 26 13
10.545492510208737 -1.5334581508610658 2.36924487312369 50 57 39
10.239715451820116 -1.9759909370290458 2.4003996579944857 54 63 43
10.793892132189212 -1.8359445121440103 2.485588273326415 53 62 42
10.116821789602241 -1.7054521927529152 2.578240282250285 56 65 43
10.237220288980101 -1.8825497177372137 2.559886047891423 57 65 44
10.961737901312757 -1.8861474487563428 2.2116115509224015 48 53 34
10.545267559977626 -1.7531968105723743 2.017285777363623 29 34 23
10.057413913247217 -1.6574025655031306 2.155768625645786 46 51 35
10.178515154231182 -1.774463406798639 2.147909151915476 48 53 37
10.756816522305355 -1.774463406798639 2.225896118953779 48 55 37
10.754220754385303 -1.854307782138208 2.008004546056263 30 35 24
10.888489364942869 -1.9257052844286304 2.337425113998677 54 61 41
10.888489364942869 -1.9257052844286304 2.337425113998677 54 61 41
11.020498024613667 -1.4482973390953584 1.899103902638572 44 48 38
11.280680883734558 -1.8281775318666 1.8912577440213298 87 92 83
11.659891342640663 -1.6345916488116168 1.791581341136482 101 104 95
11.46278932241293 -1.5466061496176657 1.7067371011574355 120 123 115
9.739746931134842 -2.5355729270314127 1.8360660760057277 52 61 34
9.692193029106255 -2.2939261266537727 2.313333278744892 54 62 39
10.017795990113074 -2.453308507472039 1.6260726995690749 51 59 34
9.381501549678394 -2.384597558497619 1.7371506901642684 52 58 35
11.563060032845518 -1.9161775567328119 1.8831632277093653 31 36 23
9.85877465546054 -2.101094917831747 2.29793441066645 54 62 41
9.855942372328544 -2.1419327224288334 2.0510476002689417 52 59 39
9.979726476239136 -2.1787210680965154 2.4293238031199564 56 64 42
10.700624420564628 -1.990273103922844 2.1164596222721928 50 55 39
10.700624420564628 -1.990273103922844 2.1164596222721928 50 55 39
10.002631411552956 -0.4843461660009137 1.9339811052788962 99 102 99
9.60964135850842 -0.3850646262891064 1.949569929826728 103 106 102
9.15467456865638 0.19638969233993214 1.9694289913544119 92 95 91
8.647620641133598 0.6796603602069731 2.6330874737593084 47 53 28
8.572085374895204 0.3025293052805269 2.4410808740687164 55 59 46
8.572085374895204 0.3025293052805269 2.4410808740687164 55 59 46
9.533534166435212 0.6796603602069731 2.6841791235287977 47 53 30
8.482856859124992 0.60484832476311 2.28454130556383 36 39 24
8.818912606339964 0.4650018340817092 2.408509665467304 46 52 29
8.675226542913535 0.9568562016846426 2.4270957410909677 48 53 30
9.23552958635022 0.12191791030847468 2.528496337927956 46 54 32
9.583972757291887 0.15005213003398446 2.673600861444988 49 57 35
8.404198279345852 0.10263674078709481 2.292675898666814 56 61 54
8.99265740543786 -0.5033150866978551 2.5680043898405374 46 54 35
9.442864464753873 -0.6065878148519736 2.199519266457777 37 41 35
8.60656851749854 0.08860756991704778 2.1282989601453997 24 27 23
8.419946787655663 -0.0669583396390555 2.462791895114654 46 52 39
9.373353936392164 -0.35886858802032545 2.345016972424829 58 64 56
8.810124029901429 -0.690035194437714 2.252800860595541 41 46 37
8.686370414569927 -0.08255782128212936 2.6251408020018605 46 54 32
9.885666294327484 1.9263442067810508 2.6164235000337515 50 56 33
9.326480047504402 1.767147633196029 2.731580931109936 49 56 29
12.579374640256553 -2.6878487523752406 3.0773997893958254 54 67 39
12.579374640256553 -2.6878487523752406 3.0773997893958254 54 67 39
12.850753230258526 -3.012525022905966 2.926076397707698 53 66 37
11.14665405152125 -1.2075736031914581 2.8138868179379384 58 68 43
12.86213164560096 2.9087506154406837 2.922071990892278 52 62 34
10.502332590116964 -1.5077838587583583 2.713241270333709 57 67 43
12.687940508460564 2.7831781590501103 2.995870833423875 53 63 35
10.523762918080587 -1.7358732774343868 2.7088032216139104 57 68 44
11.916341206314035 -2.203335455027519 2.894174938156774 62 70 48
12.850753230258526 -3.012525022905966 2.926076397707698 53 66 37
8.661270369787905 2.9316301676184278 1.9935472033223538 45 52 18
8.855152648521505 2.2466215512019443 2.4039762469632686 49 55 30
9.533509382431728 2.901523466766378 2.3287183331243364 47 56 22
9.62697686800018 2.484377629223757 2.4728703906796676 50 56 31
9.864832521319745 2.459856993113581 2.2973881430393135 48 54 29
9.680375981114212 2.700600687390126 2.0605188643523524 45 51 25
9.271151375806292 -2.845851355224063 2.0841983025345607 52 62 32
9.748099245117897 -2.5670729293489205 2.1769337785513145 55 64 37
9.08707008722465 -2.4914468556897034 2.2282954715083285 53 62 37
9.76595353444443 -2.751547508187537 2.4550605915629102 56 66 38
9.487364517799703 -2.9429600453000457 2.3333320519346032 54 64 34
10.313025503598075 3.0291859905924317 2.548801743604017 52 62 32
9.396949365478909 -3.089046513819655 2.342564458510006 52 63 30
9.57425821255607 -2.9094124269779997 2.4798698807216883 54 64 34
9.358291367752024 -2.774635471875465 1.5230628118459493 50 58 26
9.517903387290295 -2.9876716594909682 1.9534088975862485 47 57 24
8.965301054093873 -2.9876716594909682 1.744950662473476 47 56 22
10.094527576862404 -1.5195307492762147 2.581746603992012 56 64 42
10.197557136896434 -0.8969979192838562 2.404927699672939 45 50 36
9.34482282006871 -0.7928320711329911 2.2071696600773403 30 34 21
10.111893115401706 -1.4193733203187884 2.152204601711191 45 50 33
9.70621756371406 -0.6344391328196256 1.945613048045696 102 105 101
9.952355904211982 -1.3728016848371234 2.4325146714759684 48 55 38
10.868415738594694 -1.2644689041652186 1.5296992379467207 110 112 111
10.428426141512503 -1.6481826599278266 2.0226564895500085 28 33 19
9.952355904211982 -1.3728016848371234 2.4325146714759684 48 55 38
10.480977031933191 -1.4353530547519147 2.020224404655614 27 31 21
10.406799491988217 -1.541436545026867 2.0236653583937017 21 26 13
10.13082616676991 -0.9485642582358348 2.036964184147201 98 101 92
10.109366403893503 -1.2708048145242499 2.2760891194495763 42 46 34
9.932264858062625 -1.3991605790408495 2.2913699534893746 45 50 36
10.566835307006714 -1.6691085279561648 2.3671738638459052 51 59 40
10.682162914313693 -1.801244234569259 2.356199208637877 51 60 40
10.531042959905795 -2.0396998687146057 2.2424735501597985 52 59 39
10.62294818602122 -2.0855772314062286 2.0137879518759414 52 57 38
12.049810103904724 -1.887840998325226 1.7000764718103778 102 105 96
9.606366164495466 -2.389721375273076 2.187197777144839 53 60 36
9.174930426236914 0.41505521461392453 1.740932260860318 71 73 72
9.660706463315993 0.27793788292397725 1.6281180855933373 54 55 55
8.386773922956916 -0.05631185414152883 2.29450649088653 64 68 61
8.99265740543786 -0.5033150866978551 2.5680043898405374 46 54 35
8.539503533714912 0.2565855728373508 2.2788104895876597 26 29 23
9.753606635494869 -0.7973178101764233 2.6402833888911017 47 55 35
9.056367276984957 -0.5663358454106215 2.3798447113050014 34 39 28
9.977166293663277 -2.130093472181715 2.600806235754552 57 67 44
9.385203132134512 1.2344875833745583 2.7174156603136597 48 54 29
10.141019205001035 -0.9259124356286886 2.5744738246682344 45 51 34
8.784102634609074 -0.30668874540327457 2.605873549561725 47 55 34
8.520735415630698 -0.2512208338074709 2.4482589405617743 44 49 36
9.302291865662063 1.495600910381783 2.7376051567410027 49 55 28
8.787246012608223 0.3991052335829494 2.254916714220678 5 9 3
11.813068679338265 -1.8697137295123138 2.931559807527932 62 72 48
10.575840094805603 -1.285971920713953 2.6982648858829217 55 65 42
11.14665405152125 -1.2075736031914581 2.8138868179379384 58 68 43
9.05412172201917 -2.8781069128585397 1.6319630265506417 47 56 22
9.55312373603252 -2.628393906406221 1.951925609162814 54 62 35
9.435165541203716 2.5745011975978405 2.338630516232397 48 53 28
8.97437416206023 -3.0958381480199786 2.102944107594733 47 58 25
8.97437416206023 -3.0958381480199786 2.102944107594733 47 58 25
10.123884762425368 2.631085156001829 2.5771367149532733 50 56 29
10.001013653058235 -1.0075937136381985 1.726758638098348 111 113 113
10.343998006330304 -1.1690248075394656 2.544371191254363 48 55 37
10.961737901312757 -1.8861474487563428 2.2116115509224015 48 53 34
9.43006949630169 -0.8779241958290883 2.074721599507561 118 120 116
9.697487553454513 -1.0949050406300753 2.3128323298051865 47 51 38
10.452333489113373 -2.041656201072555 2.5292969217380703 57 66 45
10.713865721051544 -1.3545330230489618 1.7163050491093554 107 110 104
10.452333489113373 -2.041656201072555 2.5292969217380703 57 66 45
10.239715451820116 -1.9759909370290458 2.4003996579944857 54 63 43
11.050061545375517 -1.9498099153764543 1.9955276900243624 50 55 39
12.219036561439369 -1.887840998325226 1.7813223834031273 90 95 86
9.663143084418289 -2.2323258864890905 1.8382203691375039 51 57 37
9.301559283778346 -2.4692612036149177 1.9627871695127832 53 60 36
11.050061545375517 -1.9498099153764543 1.9955276900243624 50 55 39
9.68931205261581 -2.304215905947066 2.0600273344558486 52 58 36
8.572085374895204 0.3025293052805269 2.4410808740687164 55 59 46
9.975715027229748 0.3745813973520173 1.5260192080505357 82 84 86
8.632287504744426 0.7062284286456455 2.4328496525114747 48 53 28
9.660706463315993 0.27793788292397725 1.6281180855933373 54 55 55
9.73368942757847 -0.27712761626881016 2.0576016020801227 112 116 112
9.57401044230396 -2.7320218788218362 2.0664501628834033 55 62 36
9.114203075842875 3.067657312773454 1.8547605745894917 44 52 18
10.423582249957738 2.861600442615887 2.533235248005557 50 59 25
9.916557293075718 -2.3970994618229318 2.4367328533765784 54 64 40
10.170982788182291 -1.3370517114087688 2.569865054678169 50 58 38
11.76450858492278 -1.7216015302548877 1.7895858940981137 89 93 84
10.158305266798823 -1.044241543511042 2.1492049584382595 38 41 32
10.061921247088476 -1.1972006927859171 2.040412827768256 30 33 24
10.642297946026805 -1.6574025655031306 2.2341898985711164 49 55 36
11.020498024613667 -1.4482973390953584 1.899103902638572 44 48 38
10.679771122959567 -1.684457723439451 2.4995988001161202 53 61 41
9.671561553340728 -2.210257374277061 2.1824299233429447 54 61 40
10.246583506525612 -2.591243849634518 1.5272036519511896 50 59 31
8.980989111113338 0.34888509654747984 2.102510477954069 79 83 77
9.056367276984957 -0.5663358454106215 2.3798447113050014 34 39 28
9.913980797727794 -2.408637300712173 2.6115153908924778 57 66 41
9.76595353444443 -2.751547508187537 2.4550605915629102 56 66 38
9.87542597570307 2.8115718875216795 2.1680237413656798 47 54 24
11.46278932241293 -1.5466061496176657 1.7067371011574355 120 123 115
10.111893115401706 -1.4193733203187884 2.152204601711191 45 50 33
10.59647249215749 -1.1421316391220706 1.8141647625502944 141 143 140
10.261254917004464 -1.3322400782823438 1.9244197647957442 49 52 44
9.977284268394925 -0.5742618240400948 1.7271326177654334 108 111 108
9.689397417877334 2.212642610079651 2.6525126748472325 50 56 31
9.412503878413231 3.0457890993372323 2.3409576220771084 50 61 28
10.394843282486223 -1.8861474487563428 2.134418921228539 48 53 37
9.990553366093092 -0.7179222583134992 1.8292521738898633 117 120 116
