13.278936594777177 0.7720768563718903 2.418277841664177 43 60 3
13.064637832610924 0.8474575073095727 2.3259070356138434 48 64 8
12.91773211611444 0.010685461748343816 1.8818886842950144 45 62 5
13.905935170756678 0.2514520728898788 2.4779092291585796 36 51 11
13.78811898843027 0.13552748434394485 2.48891334140138 14 26 8
13.366424398558356 0.6128860133295816 2.4108955965895484 44 60 7
12.287455705415631 0.12110041639793673 2.2748792696794196 49 65 16
12.629615321968577 0.3248849209475067 2.2520889556962995 45 64 11
13.7951693209326 0.5151807653038766 2.488245075997492 42 58 6
14.739957369700365 0.4614748036988748 2.6442271067639105 49 65 13
14.12872775127896 0.580646833118121 2.5793932758076865 44 61 5
14.351031042542688 0.40536967351035486 2.5552656603120534 45 62 3
14.166484540980791 0.2841880182861889 2.575176983219831 45 62 3
14.447862395255285 0.17777730734021407 2.6828506045362714 49 65 6
13.742249361183024 0.015836237604634505 2.4932922977547105 7 16 6
12.905242022964535 1.2303823771195843 1.6447951612731744 35 52 0
12.237786406289757 1.4642902599539576 1.6488390985628694 41 57 7
12.825288515311083 1.4642902599539576 1.8842071288047126 39 55 5
12.722402404728832 1.3054336290413877 1.7250020817187517 36 52 0
12.62225513086603 1.282841456672371 1.974132966315933 35 51 0
12.119893396486667 1.045150119021814 2.084339919185227 23 41 3
11.693770374773804 1.169667525865531 1.915733379723377 24 39 2
12.151843864372632 1.628682345515817 1.5670192418400142 41 58 5
12.909911565267791 1.8090142044737485 2.050147869308833 23 41 0
12.738122643132105 1.7226118753206172 2.0571706973234947 29 48 0
12.77513267963238 1.7900273608210053 1.8041467426409838 31 49 2
12.872690859165811 1.71026636680583 1.883013922652197 35 54 0
13.189004023875125 1.4548042968739257 2.1261750068993774 34 50 0
14.10344695806131 0.9319400283736399 2.460200771981295 16 31 1
13.701925882768514 1.3243623308868837 2.3839741707502853 36 52 0
14.319812295328523 1.4297053893836613 2.441777496737563 42 58 5
13.341627073706146 0.9319400283736399 2.4129719802226144 1 14 0
13.714859733371606 1.3478468662966354 2.282171340472772 31 49 0
12.501238788858402 1.3478468662966354 2.160690394835164 33 51 0
14.03503188938826 1.1855901467725651 2.466234098750882 35 51 1
12.83587417103273 1.0846548057147678 2.342816452278276 25 41 0
14.515592291197278 1.4126265824200104 2.538411495605243 51 67 15
14.844117183419486 1.390894363754767 2.631451890000272 52 70 20
14.844117183419486 1.390894363754767 2.631451890000272 52 70 20
15.279424551162675 0.8582825009488029 2.582644643762181 61 77 24
15.594265421711698 1.0774303224759025 2.6788300513973655 51 68 12
15.296836612382101 1.3623391975192845 2.7194700991207 51 69 25
15.838243902924637 1.259195868749766 2.648849267199953 50 69 13
15.724376556165579 1.390894363754767 2.662510584481708 51 69 21
13.128437656223776 1.544123546088333 2.129040295147798 33 51 0
14.733881529700277 1.9560576258357265 2.4090305862457377 50 69 18
14.220538846532452 1.6400758627274086 2.3461666827908108 44 61 9
14.458071150359544 1.8315200189822998 2.330188308572072 49 65 13
14.01904655871501 1.9212119781353936 2.263616556134141 49 65 13
15.673610504017569 1.5291769712033334 2.668783917381593 51 70 19
15.244646880051821 1.5223989247169358 2.72715860877222 53 72 19
15.25795879693722 1.6849573451423983 2.725179808744592 53 72 19
15.902207729945252 1.9330964473419288 2.641409230720649 51 70 19
15.138803511279304 1.7551798904133113 2.481007258066076 50 69 18
15.310869308840246 1.6570397612274006 2.5793697529337116 51 70 19
15.389241928826333 1.7772500930597799 2.5713378764527355 50 69 18
14.924230644226416 1.9981300545263778 2.499736879691652 50 69 18
15.059127584344399 1.6476344523301147 2.487846388655676 49 68 17
15.902207729945252 1.9330964473419288 2.641409230720649 51 70 19
15.763063234497611 1.8052123019011963 2.657807082626739 50 68 20
15.22886424880782 0.9997048450363418 2.7295207888550532 49 68 14
14.580948358459294 0.8736699104613891 2.664702174595949 46 65 11
15.863120933055304 1.3232286171825545 2.801416954065238 51 72 18
15.250593251973653 0.5339002402927069 2.7262731636069266 53 69 17
15.250593251973653 0.5339002402927069 2.7262731636069266 53 69 17
15.683422772182132 1.0633739106069051 2.835430490226063 51 69 17
15.48687839015082 0.662398433675514 2.69292859381206 48 65 5
15.077061610372498 0.382557503684183 2.753199157853388 53 69 19
15.250593251973653 0.5339002402927069 2.7262731636069266 53 69 17
12.315368206876489 -0.6829202422296005 2.898779258506793 49 68 13
13.156827606391158 0.05714504839532384 2.965819149697116 59 76 20
13.395269940488701 -0.25759910139598796 2.8842328846279206 53 72 14
12.361696262581777 -1.1461732112792862 2.8840845988084483 51 68 14
12.63125990367359 -1.2473150101452697 2.812668068998477 51 69 15
15.8128003177267 1.5129866063794133 2.810525409299262 54 72 24
15.901470063846864 1.8912407269412237 2.7946673681783873 54 72 24
11.74132309766803 -1.985485486058377 2.7733264484498887 54 73 19
11.927477362602412 -2.1806555206958054 2.7347938509762435 55 74 20
12.19306214151938 -2.3343305206917444 2.6868818233181138 57 76 23
11.913587709885268 -2.482493095993965 2.7375084972461305 57 78 27
12.107677743880394 -1.907290975464937 2.701526727446965 54 73 18
12.410869387073932 -2.106554757936504 2.8694461852883233 56 75 23
12.568006003567644 -1.4941807770396929 2.8277470415347032 52 71 17
12.297055852515612 -1.4676372517293288 2.904866039003594 51 70 16
13.438963992320682 2.0102425687356527 1.641851274314825 35 54 1
12.659034267183088 2.044264328672724 1.7257802238151927 37 54 0
13.157047851259478 1.9406314758140033 1.71986912501989 28 46 0
12.851433838397787 2.044264328672724 1.8027358305075123 37 54 0
13.062203234659133 2.0834938530084366 2.0440971739265614 47 63 10
13.1194130345111 2.1552890224928207 1.9580167546811817 46 62 9
12.363502361221256 2.2040193741430643 1.9830811384721783 51 68 16
15.094987941430512 2.6300436146919597 1.8358364365437512 48 67 21
14.942189232183226 2.594316150430892 1.9806507916934677 44 62 16
15.094987941430512 2.6300436146919597 1.8358364365437512 48 67 21
14.26091672249758 2.2453577710181047 2.4466968686509967 51 70 19
13.170468203299817 2.39470878579863 2.2192248212225074 52 73 22
14.6209156356164 2.5538453027955916 2.066472954385059 40 58 10
14.303325136408079 2.046402187308758 2.340509363579579 51 69 19
14.677076323799506 2.6213632391094963 2.1435406529652052 45 63 15
14.574665668944712 2.5278434592011423 2.3226212387907044 48 66 18
14.728307246080773 2.4693116549691956 2.409451425595751 51 70 19
13.788072310219256 2.3200125267317486 2.48891777001791 52 70 22
14.26091672249758 2.2453577710181047 2.4466968686509967 51 70 19
13.959641499428677 2.3252396173752574 2.3646535023423905 51 70 19
14.061591317314951 2.182433030400922 2.3573069402281135 51 70 19
13.20295392238977 2.2602022600326497 2.2173617548316154 52 71 20
13.797443089903705 2.39470878579863 2.2770237782128104 53 69 19
12.381568153393909 -2.6765374784439104 2.0724593169074477 53 72 19
11.607434082428876 2.9450238251572283 1.9184071576739723 55 73 27
12.431771081705593 2.9450238251572283 2.070245810451163 55 73 27
12.248400579650356 3.129316004996655 2.0784321662435854 58 77 31
12.137820662378019 -2.879729676466892 1.9912275105157895 56 75 22
11.562062750271982 -2.968748897264086 1.9198293376709747 57 75 26
12.579145183876795 -2.879729676466892 2.0638649036574317 55 74 22
12.278457110948551 -3.0606158414269307 2.07707101049985 59 77 30
12.389418924680323 -2.968748897264086 2.0721118063954833 54 73 23
14.151955749994805 2.9014161137837995 2.4559850181123473 54 72 24
12.597479215787383 3.0255136202118083 2.2541590450685036 55 76 29
14.183020539621998 2.608846708660251 2.3487627578774886 50 68 20
14.014186343366607 2.64930105596929 2.468093230425562 51 72 23
14.014186343366607 2.64930105596929 2.468093230425562 51 72 23
13.58795261100756 2.796208460974453 2.392883527710948 53 71 23
12.931438360079955 2.8294202155347348 2.233306551272816 53 71 23
13.270525260540175 3.012316436309181 2.418995995497631 58 79 32
14.265945422195989 2.995757511015754 2.5643062370464857 58 80 31
13.29304714826342 2.9457488676690087 2.6889048363948373 56 77 30
13.832942032376867 2.312662810937066 2.614307560382861 53 71 25
14.496169186350805 2.639457747565588 2.6761487128239834 55 73 25
14.561689951974222 2.7554815384619884 2.5338308880346636 52 72 21
14.634287873833118 2.4882226475034104 2.5267352427872862 51 69 22
13.874203605558147 2.5146625341289472 2.6092222382959545 53 71 23
14.561689951974222 2.7554815384619884 2.5338308880346636 52 72 21
13.60994922673507 2.639457747565588 2.643165419336487 54 72 24
14.740493936659334 2.8337263627046014 2.64416006030128 56 74 25
14.379847235741096 2.8716494149522456 2.552255641749286 56 74 26
12.68495405548111 -2.9513429993560694 2.2485568446294755 55 76 27
12.428940049062671 -2.6761723449869246 2.3752092166856364 55 74 21
13.521115799428177 -2.903610042163285 2.5152004366245895 68 89 42
13.69517304481291 -2.785104525381141 2.4978437035957337 57 78 26
13.353591932064814 -2.930097010560798 2.411968547917503 63 84 37
12.941516939295546 -2.5455511778577846 2.5800431773048116 57 77 24
12.066583112334065 -2.7634004791374376 2.70881603969198 61 81 37
12.408722568006516 -2.723312153401393 2.2666083381645223 55 74 20
12.90928199406807 -2.785104525381141 2.4513333940527016 57 76 24
12.678551511282734 -2.675551421034661 2.613931019797132 57 77 28
13.231744792310757 -3.0523125428929045 2.314086019366961 62 83 36
13.274790128506645 -2.434962126611002 2.541318476230565 54 74 20
12.157523798478788 -2.631550315913626 2.179738179676293 54 73 20
13.734121781441202 -2.5134143462162437 2.4940739021089007 54 74 21
14.247511478174792 -3.029306545809759 2.566295830517104 68 90 43
13.245463176188975 3.1185556439246245 2.696348089346386 61 83 40
14.247511478174792 -3.029306545809759 2.566295830517104 68 90 43
13.70577771975521 3.121991494996439 2.6304667746616417 62 84 40
14.221617033758804 3.124535570316766 2.569109762394565 68 89 44
12.446967681484526 -1.690022419205897 2.646788787407136 54 71 15
12.192169994663622 -1.7416832751681384 2.1777579172056103 50 69 15
11.14260884216191 -2.0652510066387877 2.3657705224480474 52 71 17
11.041861007866412 -2.0024229556754443 2.516524476127904 54 72 18
11.041861007866412 -2.0024229556754443 2.516524476127904 54 72 18
12.034118997166019 -1.7605154592798946 2.2928970016973387 50 69 15
12.215812219803981 -1.8666381565678019 2.2798708121230447 51 70 16
11.604304666065284 -1.9457159113974023 2.452178767126861 52 71 17
11.867219457060726 -2.0024229556754443 2.5658527907695294 55 73 19
12.446967681484526 -1.690022419205897 2.646788787407136 54 71 15
11.51038122408152 -1.9016871416201242 2.333719328165288 52 71 17
21.22038160368373 -1.7464131669829528 1.5214889024903664 45 58 27
12.631187082902443 -2.4224712151110803 2.3587172152975517 52 71 19
12.631187082902443 -2.4224712151110803 2.3587172152975517 52 71 19
12.558145578801394 -2.1979622146882383 2.256711994409644 51 70 17
12.464986011388275 -2.3439952213572774 2.262844592583963 51 70 16
11.956999126559522 -2.2637442403105745 2.298592216972196 52 71 17
21.392027643085147 -1.792456918771863 1.5686507390328692 48 62 29
20.630226944745306 -1.8032247774872507 1.7144831179999296 43 57 23
22.52644846246888 -2.494379713073118 2.078620721560763 57 81 41
22.40961078396754 -2.418148495473104 1.9336478522576552 70 92 54
23.06898507949776 -2.4550752714771717 2.065579762299544 62 83 44
22.53573853625948 -2.4851408393549788 1.9315238199785485 61 85 48
22.783741102240302 -2.418148495473104 1.9746925184569863 65 89 49
13.077304990385148 0.6988160097664462 2.3249957566783856 43 62 7
12.414957236392913 0.911859931754803 2.1653498944656904 49 65 12
13.769276118310964 0.8474575073095727 2.3788172640811167 25 41 2
13.33152795378173 0.3608863213816547 2.41382122517044 41 60 3
13.33152795378173 0.3608863213816547 2.41382122517044 41 60 3
12.887367543126867 0.4619989927089031 2.3389336372602916 46 63 7
13.637285377923876 0.6837603318088314 2.5035220421417668 41 58 0
13.241867312649525 0.5538874588183275 2.3133836249836333 47 63 10
14.351031042542688 0.40536967351035486 2.5552656603120534 45 62 3
14.739957369700365 0.4614748036988748 2.6442271067639105 49 65 13
14.05085323087789 0.1538261638379652 2.5882527930185684 47 63 10
12.762996264691555 1.5463212844856866 1.8857893303098003 39 55 5
12.601506530199117 1.71026636680583 1.8074228313123872 34 53 2
12.905242022964535 1.2303823771195843 1.6447951612731744 35 52 0
12.73434967517365 1.8919449054204949 1.970379641567633 27 45 0
14.319812295328523 1.4297053893836613 2.441777496737563 42 58 5
15.28363241852809 1.8585923102777084 2.468906143069119 52 71 20
13.235103762210361 1.7226118753206172 2.1240150579728247 32 51 0
13.20713903994054 1.2243035264200828 2.3157997873730176 31 48 0
15.28363241852809 1.8585923102777084 2.468906143069119 52 71 20
15.763063234497611 1.8052123019011963 2.657807082626739 50 68 20
15.736609019959378 1.9981300545263778 2.53779002255726 50 69 18
14.56782301428079 1.0285092312948099 2.533225910771938 61 77 28
15.68655839829789 1.6690602699173323 2.6671727568220946 51 69 20
14.844117183419486 1.390894363754767 2.631451890000272 52 70 20
15.29760343455229 1.5342904548870426 2.580747636112075 50 68 17
14.304886341292569 1.7373330426638094 2.3404036022086054 47 63 10
13.583203806820322 1.4434734132323583 2.290555964280602 36 52 0
15.479580193020556 1.9860143832169332 2.6939089529454296 53 72 21
15.336601800939938 1.8417214244170081 2.7137335813610655 53 72 20
12.547725469503426 0.9934220592912061 2.2573918911124524 19 35 1
15.244646880051821 1.5223989247169358 2.72715860877222 53 72 19
14.515592291197278 1.4126265824200104 2.538411495605243 51 67 15
14.962181083192146 0.9595240159835042 2.617522568024146 52 69 13
15.044080379344468 1.1499141306485738 2.7585925567242455 49 67 21
14.93273728050904 0.6297591885328521 2.7775463072386786 53 69 18
15.077061610372498 0.382557503684183 2.753199157853388 53 69 19
14.592299309783925 0.662398433675514 2.6631987960762378 49 65 12
14.92164530386783 0.8972589868824827 2.7795022221219776 49 68 15
15.17397279630093 0.7657561008029238 2.737876900494604 51 67 14
14.93273728050904 0.6297591885328521 2.7775463072386786 53 69 18
12.63125990367359 -1.2473150101452697 2.812668068998477 51 69 15
13.184813420375745 -0.36152742646214814 2.954244987143799 56 75 19
13.36772473208273 0.03983479357913774 2.8921820503260895 58 75 19
13.184813420375745 -0.36152742646214814 2.954244987143799 56 75 19
13.395269940488701 -0.25759910139598796 2.8842328846279206 53 72 14
15.825634332937742 1.7069528936779204 2.8081740613786277 54 72 24
15.8128003177267 1.5129866063794133 2.810525409299262 54 72 24
11.641628922516347 -2.3264861939137096 2.796199274324185 57 77 25
11.638411400714126 -1.7505604867755715 2.796968423960993 52 71 17
11.01619322227025 -2.1806555206958054 2.6988688703734063 57 76 22
11.713085838296646 -2.674261018073453 2.7796254617115275 61 82 36
13.028775598814951 2.112811642192088 1.6440922690625475 39 55 2
13.438963992320682 2.0102425687356527 1.641851274314825 35 54 1
12.247425486742413 2.3291473920599484 1.9872299699803258 55 74 21
12.502103507814185 2.1552890224928207 1.8093405896052748 44 60 7
15.592352891276823 2.5721974583267455 1.8271885423883973 45 66 19
13.385617350700093 2.1290724373798824 2.2071011337109456 52 70 22
15.368058503772438 2.594316150430892 2.04036712916131 41 59 12
14.234222599259672 2.2251133223329775 2.5677371150500155 52 70 22
14.557428495035646 2.578042283786876 2.233294071513126 48 66 18
13.712458256708727 2.005398169330798 2.1896034209704935 48 64 11
13.959641499428677 2.3252396173752574 2.3646535023423905 51 70 19
12.389418924680323 -2.968748897264086 2.0721118063954833 54 73 23
12.299842458086824 3.036274973684713 2.076107214579406 56 77 30
11.160713020177308 3.036274973684713 1.838676208052988 57 76 30
11.443081000124183 -3.0606158414269307 1.9236160234065687 57 75 26
14.340858642381887 2.5539447363773466 2.4400362710097294 51 69 21
14.387344461780378 2.4208081246016455 2.6914422984629955 54 72 24
14.204095656628718 2.4089052297794784 2.571026637267497 53 71 25
14.340858642381887 2.5539447363773466 2.4400362710097294 51 69 21
12.608755121606327 -2.6181501597995274 2.48072425495224 56 75 21
12.095765369914293 -2.57794902900797 2.288416850760582 54 73 20
14.917941186064073 2.704558117003871 2.622676466387459 54 72 23
12.066583112334065 -2.7634004791374376 2.70881603969198 61 81 37
14.058334400129581 2.704558117003871 2.5873919013072095 53 72 23
14.561689951974222 2.7554815384619884 2.5338308880346636 52 72 21
14.247511478174792 -3.029306545809759 2.566295830517104 68 90 43
14.314313600031365 2.5892383011319944 2.559138593312415 52 70 22
12.931438360079955 2.8294202155347348 2.233306551272816 53 71 23
13.374135241254713 2.925362978871035 2.304343671871476 54 72 24
13.852626606285297 2.698381772787748 2.372542287411753 51 72 23
14.265945422195989 2.995757511015754 2.5643062370464857 58 80 31
12.412572262349153 -1.6353903215428234 2.0710898786066894 55 74 16
11.51038122408152 -1.9016871416201242 2.333719328165288 52 71 17
10.851344785687374 -1.9457159113974023 2.393527062171547 53 72 18
12.114288819602418 -1.6727945180672363 2.535153484576383 51 70 15
12.192169994663622 -1.7416832751681384 2.1777579172056103 50 69 15
11.867219457060726 -2.0024229556754443 2.5658527907695294 55 73 19
12.213191301060684 -1.813838568496129 2.5235750711212446 52 71 16
11.328227693183118 -2.133691296038251 2.4822969785716325 54 73 19
11.68010485785468 -1.853231540839835 2.591023838739698 53 71 16
20.425479569403873 -1.7550579671712105 1.7159335986329316 18 33 3
11.513634524379562 -2.1711894060096024 2.333449226417608 52 71 17
12.464986011388275 -2.3439952213572774 2.262844592583963 51 70 16
11.943143807150674 -2.4224712151110803 2.2996262974174293 50 71 17
13.358708404942504 -2.4224712151110803 2.4115403468326857 53 72 20
12.59136915416278 -2.5483124250144904 2.1559063840995836 53 72 19
12.531748966119682 -2.4905467010931917 2.258437269112929 53 73 20
22.71967083570461 2.726192877862015 1.480624528001955 30 42 22
22.611277484323843 -2.4550752714771717 2.0266481309158273 61 83 45
14.40409386452531 0.020864745199610832 2.6890419561244308 49 66 6
12.419515910321438 0.22536332473008047 2.2658827561616026 45 61 9
12.695423357431219 1.3836701948888979 1.805639304084587 38 54 4
12.205192336849825 1.2561833068231252 2.08040248878735 34 50 0
12.831039547333413 1.3673015951911147 2.0533456470225566 34 51 0
12.090933258525316 1.2023970056319733 1.7331254024184877 27 43 0
12.383754195493795 1.3836701948888979 1.647917366334589 40 56 6
12.17248800687561 1.5463212844856866 1.649258612094117 40 56 6
15.68655839829789 1.6690602699173323 2.6671727568220946 51 69 20
14.458071150359544 1.8315200189822998 2.330188308572072 49 65 13
14.638865099887544 1.2954874727658698 2.5262926061972935 48 64 12
14.206254852499947 1.5414923017775348 2.3471526657406807 41 58 6
15.045639748777788 1.5382853033036883 2.4890173964887454 49 67 16
15.53173574638413 1.8917227515659891 2.5571882327202684 49 68 17
14.964683986089698 1.259195868749766 2.617233263097649 50 69 18
15.413862663017122 1.2123546428785457 2.7028713449156285 50 69 16
13.414875036574601 0.3305720232083627 2.8787375500791 58 75 19
11.405862763343105 -2.077619873944698 2.6315383252876163 55 74 20
12.540424471260293 -0.5156201247063843 2.8345956677349613 49 68 12
12.506217906976037 -0.8956093712131279 2.843344240826899 47 66 10
12.71461783445163 1.9705480004810272 1.887029391145957 35 52 0
15.444475607302065 2.5343569286805407 1.9665639505828365 41 61 15
12.103783954893917 2.2602022600326497 2.0850907568736385 55 74 20
14.942189232183226 2.594316150430892 1.9806507916934677 44 62 16
15.368058503772438 2.594316150430892 2.04036712916131 41 59 12
14.000529676049952 2.4693116549691956 2.36168766622039 52 70 20
13.265119210454586 2.3252396173752574 2.311775956233679 51 72 20
13.291824437823559 2.2040193741430643 2.1213819340906883 53 71 23
15.122148562582373 2.5538453027955916 2.1246752605540253 43 61 13
11.562062750271982 -2.968748897264086 1.9198293376709747 57 75 26
13.412267102978296 -2.6181501597995274 2.5265045172440304 56 76 22
14.16530679702701 2.6551355623903907 2.255075861291902 50 68 20
14.313494099804227 2.7839339218278796 2.7022400029069185 56 74 26
12.95059450305111 -2.5134143462162437 2.4474793164303263 55 74 20
13.521115799428177 -2.903610042163285 2.5152004366245895 68 89 42
14.221617033758804 3.124535570316766 2.569109762394565 68 89 44
13.521115799428177 -2.903610042163285 2.5152004366245895 68 89 42
12.870324458050408 -2.854141203112187 2.237016348646634 54 73 21
13.751769000296452 2.9743786814188113 2.624534905954994 57 78 30
12.812002444150966 -2.8231976249342763 2.3446320920222288 55 74 23
12.371542237341961 -1.8381410591106693 2.167724664758053 51 70 16
12.134123198385655 -2.133691296038251 2.5328008971675726 54 73 20
12.543247291490369 -1.853231540839835 2.6327454018713663 54 72 16
19.856470724283085 -1.764586699227635 1.8229556480943796 43 60 23
20.06702463684817 -1.8150703048811665 1.8202532548076318 53 69 31
22.275581543317852 -2.564728091328913 2.034050409139279 56 79 37
22.36136226247915 -2.5238107514446892 1.9827795232434862 56 80 40
13.064637832610924 0.8474575073095727 2.3259070356138434 48 64 8
14.005844093859372 0.01800604346194266 2.593477347743394 55 72 12
14.560341188530163 0.32637587309598615 2.6674487673832177 49 65 13
12.833622248171846 1.867056091550867 1.7236551365060515 25 43 0
12.77889360641565 1.628682345515817 1.885383999834729 35 54 0
11.979353836441838 1.282841456672371 1.8199660492558924 35 51 0
15.150436252859825 1.1377461498161239 2.59640807556146 52 69 9
14.790330054013328 1.5291769712033334 2.6379894282569984 50 69 18
14.441350750178207 0.8582825009488029 2.545915818561787 23 39 0
11.641628922516347 -2.3264861939137096 2.796199274324185 57 77 25
12.361696262581777 -1.1461732112792862 2.8840845988084483 51 68 14
15.250593251973653 0.5339002402927069 2.7262731636069266 53 69 17
12.313554758535355 -1.8111352979977005 2.899374532342882 55 74 21
12.583879992374522 2.2715485048536865 1.8904308183830656 45 61 8
14.430194224217049 2.095165462557265 2.4327408052126778 51 70 19
12.431771081705593 2.9450238251572283 2.070245810451163 55 73 27
13.752621973006711 2.7554815384619884 2.4922973047191905 52 71 21
12.548874084805952 -2.7622074296818115 2.158151510956785 54 73 20
13.334776432871557 -2.9513429993560694 2.3070072187964983 57 78 30
13.203858450582501 3.1280509130212253 2.316028965039854 59 80 33
14.0174686854397 -3.0421181190989377 2.467799837207494 69 90 43
12.62577579252485 -2.930097010560798 2.3591480672270237 57 78 29
13.991148490437043 3.126495156217552 2.470159405990276 65 85 40
13.58795261100756 2.796208460974453 2.392883527710948 53 71 23
12.509116608282127 -1.7262246863158284 2.0668754605487805 47 66 10
11.785369068266323 -2.0106550686147595 2.311643438409206 52 71 17
19.528406069325968 -1.775140211220329 1.934889277786255 56 71 33
11.948184519456962 0.10943828769950414 2.0924642296470943 44 60 10
12.629615321968577 0.3248849209475067 2.2520889556962995 45 64 11
15.111406129741145 2.055622925574918 2.7476818892186317 55 73 25
11.305941926833494 2.9450238251572283 1.8351521494343248 57 75 29
11.808048708460568 1.0890539833458437 1.8236593351526202 42 58 8
12.007906237062997 -1.7142048111134423 2.7195173898532046 52 71 16
14.906307620618078 0.7695224329372943 2.6240446150133323 52 70 21
11.103995109174859 3.129316004996655 1.840078474655491 57 75 28
14.132688099853699 2.5541710739333148 2.730302108424202 54 72 24
12.255858485588078 1.1309676685059131 2.1741538872449473 26 44 4
12.215812219803981 -1.8666381565678019 2.2798708121230447 51 70 16
11.405862763343105 -2.077619873944698 2.6315383252876163 55 74 20
12.151843864372632 1.628682345515817 1.5670192418400142 41 58 5
13.15871257288531 -2.7372213225204405 2.5543290251466475 57 78 28
13.143893009489794 1.6338693747080084 2.128306132988561 30 50 0
13.959641499428677 2.3252396173752574 2.3646535023423905 51 70 19
14.379847235741096 2.8716494149522456 2.552255641749286 56 74 26
14.230846291889852 2.4007031117050173 2.4492355802488017 51 69 21
15.568423105843483 1.2666082642736816 2.859735482971267 53 71 27
