13.74779079380151 0.610417778536663 1.676465051516325 45 59 19
13.20336787160286 0.5479388952048783 1.6808394761873002 32 47 8
12.990985379425986 0.7651216804118512 1.7605256177107667 52 66 26
12.297157487223533 0.638947318757588 1.9410726305529893 25 40 0
12.569522333685507 0.7054096055353596 1.8488391843417846 36 51 10
12.693309315989891 0.638947318757588 2.0145812366589517 47 59 10
13.56941271406064 0.5479388952048783 1.8278674295272972 26 40 0
10.84763927313052 1.5521369168929153 1.6122927968605767 31 46 12
10.168285910711072 1.6517234870411095 1.814136953583545 44 55 20
12.474601051129385 0.6948265645094915 2.1141988340404145 49 61 12
11.239052591284548 1.1670544180176292 1.8828000403429375 55 72 37
12.004846579665056 1.1670544180176292 2.0420280509268434 38 53 15
11.984188391704013 1.0843171625898693 1.9512302445840386 53 68 30
12.113958110470342 1.0387079677724256 2.1322820921416694 36 51 9
12.093486309116471 0.9588004733196969 2.0382970660403044 58 73 33
12.54038560499247 0.8226016687389308 1.8495024394643806 52 67 29
11.89451981701433 0.9012831727699094 2.143929640178829 48 62 15
13.264015217088724 0.8757453831447495 1.8339251538714374 53 70 34
12.46513621278021 0.9012831727699094 2.211385264067505 46 62 16
12.445242095263634 0.8275438774464466 2.115624466339105 44 58 11
12.450912438059651 1.008225150326439 1.936283458560232 66 83 45
11.957593055623862 0.8275438774464466 2.0440425721621516 43 59 15
12.266651607681366 1.0785762021517031 2.330712001851869 51 65 18
13.175657530408447 1.019650726754978 2.486727433309981 51 67 17
13.328133410756863 1.2231269270419418 2.3589141217623526 50 65 19
12.92840168858822 1.1268930818392753 2.283128305849769 49 65 19
12.638794289374102 1.2231269270419418 2.3030901660413763 42 56 11
13.448655352245904 1.182869158185163 2.460730107362843 52 67 20
12.39749701483291 1.019650726754978 2.4375806091871115 50 66 18
12.51426431604046 0.8339991187166585 2.31207311436541 50 66 16
11.91974213512969 1.370302244737374 1.9533934003334483 32 45 10
11.966932032161088 1.3505435117048932 2.1400292191963555 34 48 7
10.49299555668132 1.4491776887392906 1.9058201544980649 32 47 12
10.536451871943653 1.7715077378748982 2.114434215414546 46 60 22
11.823832421426978 1.4491776887392906 2.147792902667357 39 53 14
10.825621303814447 1.6517234870411095 1.9944158711371147 42 55 18
10.307473435248037 1.7963071506570611 2.2469024389620476 48 63 24
11.801323546049353 1.8279447968113522 2.499356697267694 54 68 23
12.680262343258446 1.2591610476621946 2.53943641921627 55 69 22
13.246202536995918 1.2968378389612385 2.4798231263413033 54 68 21
12.302378433789668 1.6722504326010081 2.4467351166853204 53 67 24
12.99346920380322 1.4355731582949889 2.385160240648322 49 65 21
9.925112715107089 1.976714556698352 1.820224166441307 49 62 25
10.578228863623334 2.1514639675707166 1.613350275398926 53 67 43
9.509499709130136 2.12016809882836 1.831373323850894 51 65 33
10.23645943896515 1.847908612479131 1.6147719455656524 45 58 23
10.06495777554825 2.0682146336834393 1.6155217631559937 48 61 29
9.628490232427122 1.976714556698352 1.6175506511865414 48 60 25
11.155263432735781 2.4809958151151994 1.52147310779 57 71 48
10.471121699118166 2.421793051578984 1.709719763856084 57 72 46
10.007664326902047 2.2741703543753937 2.0315911323990883 50 67 35
9.946835695845722 1.913713432445517 2.1506647852082805 48 63 25
16.864842765166774 -0.19283013519956438 1.7768188264046052 57 67 50
16.706159045425643 -0.13275098483482528 1.7788043131147286 58 71 48
12.955760184817878 0.5196315625938016 2.0049723820139564 48 60 13
12.789624018262376 0.4838938313251482 2.192602464659896 49 64 14
12.662831119459613 0.5652158751292038 2.1052436608330765 50 62 11
12.234151519525001 0.4838938313251482 2.126114250630642 49 61 12
13.003034743284784 0.4426769158086506 2.089827093770609 47 60 16
12.665152347201051 0.35967954171911953 2.1051351815788557 50 62 15
11.874410926249645 0.3949905546070814 2.145022984727568 51 64 13
12.789624018262376 0.4838938313251482 2.192602464659896 49 64 14
12.174926094806326 0.29899129700515426 2.2292748031004477 53 67 15
12.765596186199547 0.17809425381139682 2.1939519999168913 55 67 17
12.627589476323463 0.19697436425516332 2.303888210784074 55 67 18
12.660474613214683 0.08180057834764486 2.199932211963241 54 67 19
11.896953861596689 -0.12577862606639484 2.2474808136833784 56 68 23
12.660474613214683 0.08180057834764486 2.199932211963241 54 67 19
11.869421565496703 0.09064354890158602 2.24934529491646 57 69 21
12.035974519236133 -0.2309214223262546 2.2382377758939183 55 66 25
12.255278620677808 -0.3311272755262661 2.2242120805279173 58 69 30
12.521309333504071 0.09064354890158602 2.3115581741318847 56 68 21
12.49441310618619 -0.017774886030561068 2.3135285315872958 56 68 22
13.326684535757158 -0.661469592901567 2.07600729622169 53 66 34
13.348159738280996 -0.590163875447293 2.162926838238387 55 68 31
12.523692025652714 0.6184454794879054 2.2079043000798166 50 64 12
12.385363295628334 0.4374987569332017 2.321642576052769 54 66 15
11.997248968595454 0.7550211609219355 2.3522736956275416 51 66 16
12.743169305615568 0.5539509590579409 2.5322910845155184 53 69 25
12.110557517702524 0.5913528266613396 2.3430328288380293 51 66 16
12.828313315295938 0.5913528266613396 2.3989033684693144 51 67 15
13.079036375392556 0.6622938695433966 2.496408860851587 52 68 18
12.02277575452617 0.24965903637436168 2.4751228309725097 54 70 26
13.004613970691294 0.37517157505578347 2.5040514077851643 55 69 26
12.112984578849204 0.33293754116015767 2.3428376849785 53 68 18
12.02277575452617 0.24965903637436168 2.4751228309725097 54 70 26
13.150769025531659 0.28786543472921783 2.627363724561814 55 70 31
13.327248572760313 0.4289262657313257 2.6043885402024056 54 69 28
11.875399095421255 0.9467725645467412 2.4910636393326784 51 67 20
12.685626622337184 0.9467725645467412 2.5388214484221194 52 66 21
13.051037197622465 0.8427868814481407 2.499264758377777 51 67 21
14.00186889296307 0.8554476559535115 2.6663193589344036 53 71 25
13.521284773540119 0.9467725645467412 2.5807622645178423 50 68 20
11.83700031176853 -0.46972234295044535 2.2515556042957607 57 71 33
12.88785693412907 -0.7807795348672588 2.6647182950994392 59 78 47
12.88785693412907 -0.7807795348672588 2.6647182950994392 59 78 47
13.400693384171893 -0.4716732972162196 2.595257022288752 56 73 37
11.833557418561968 -0.14092188697212352 2.366093662377443 57 70 26
12.295649395510909 -0.41387934839141105 2.447391940117022 57 72 34
12.845455830507202 -0.5912070378148695 2.5209725566249035 56 73 38
11.805877277564797 0.10162279963906269 2.368488080467154 56 69 24
13.247690571830024 -0.6749525968209086 2.6145579077797425 56 74 40
11.973314187022075 -0.2579057727560024 2.3542590486375436 59 71 27
12.077078397302333 -0.2918284974155716 2.4694267054690213 59 72 33
12.029620750639811 1.3676508681429376 2.623347638138113 52 70 24
11.97110380340295 1.5361614142020439 2.6319854095546287 55 71 27
12.029620750639811 1.3676508681429376 2.623347638138113 52 70 24
12.431191288062767 1.5290077563882445 2.741618301998643 55 70 29
11.995952531561354 1.706643753961021 2.6282909808347767 55 71 27
12.778722327937157 -1.0636819079302655 1.6060191460510231 20 26 25
11.285593450665775 -1.64213734190116 1.699635713510818 48 60 56
11.316366522674889 -1.7304647303325298 1.6105730740979218 48 60 58
11.936785416089583 -1.2107791388232365 1.6085046553802558 17 25 26
13.319850914828194 -1.166650782328142 1.4541651365720991 18 25 28
12.398516232772323 -0.783037218699542 1.9379011698084032 51 62 54
12.653805510342703 -0.8478816705915794 2.105665904313171 56 70 48
12.67946841418403 -0.6444303386838244 2.198842413852995 53 68 34
12.656858677539764 -0.717906679929964 2.1055229893093097 53 67 43
12.773032415649855 -0.8407011327282461 1.8442943153178208 38 47 44
12.80786930773207 -0.9757879270881867 2.0985540163611613 56 68 53
13.339472828030464 -0.9757879270881867 2.163364942058291 57 71 50
13.641886741479341 -1.1969826218459736 2.443428797593287 58 76 49
12.244889457116058 -0.622006942740244 2.332402258615193 56 71 34
12.427102953240334 -0.69426853319903 2.434779699032485 55 72 38
14.256464121005024 -1.091639801722015 2.632708588536686 58 78 50
12.69595256647168 -0.8572013987921243 2.2990498609504026 55 69 37
13.696087057600044 -0.9426994047690166 2.4387260702379976 53 70 36
14.144906174407875 -1.040281268203119 2.5140611684932335 54 72 39
14.716451361528861 -1.1504281637707638 2.5792204409036 57 77 48
12.698995600429708 -0.7078453841535285 2.2988361865719504 54 69 33
12.874783852677904 -0.7822735222967099 2.3949800505567627 54 71 36
13.910626261952594 -1.0954166454105143 2.420712310607136 52 70 40
13.28587155638801 -0.9210890005443556 2.260119059136092 52 69 37
12.955205013538379 -0.622006942740244 2.388295289828822 56 73 37
12.869662274452077 -1.234610641761499 2.287076632412409 66 80 63
13.283817542700348 -1.1787415956803005 2.166188483877722 65 77 63
12.254150328059264 -1.0977142499936632 1.9424353514554926 31 42 33
12.11538089846322 -1.2914511212526876 1.8595552818114445 17 25 25
11.9459592444793 -1.7645227658824882 2.2441902553772834 49 69 45
12.694727484082021 -1.6817047073193334 2.537780550440023 58 78 54
12.264766011628229 -1.8545998457430235 2.590656765086182 59 80 57
13.944098069389533 -1.3781621975800669 2.6744341216832854 62 82 57
13.218143890861617 -1.4403455111120114 2.367316196278903 58 75 57
13.442344465716332 -1.3073064079749637 2.4613098538026197 59 75 49
13.315110799486392 -1.4245805707423504 2.473207317662367 57 76 51
12.490412744539457 -1.6576366796760271 2.3138226192926443 56 76 52
14.41405711142751 -1.4045214057449196 2.6134426408085627 58 77 51
13.684643671577692 -1.2725468031319846 2.5620349989178464 58 76 48
13.559683745783898 -1.4045214057449196 2.5762697699992314 58 78 50
12.513323228144895 -1.668210667999689 2.4267491493675504 57 77 51
12.585776977820766 -1.7240845930159308 2.7134967475997867 61 84 58
13.531840212107584 -1.3420441972751707 2.739011948828442 62 83 57
12.626858787753859 -1.649129216388221 2.2018711439943055 57 75 57
12.170993985196262 -1.7458693985073395 2.129337087927521 54 73 55
12.077813344141179 -1.4635181567242137 1.9481320852195207 39 51 44
18.599791255733173 0.36297595998033766 3.014598945494524 56 78 44
14.130942898797965 -1.2896947168420707 2.829889425626116 63 83 56
14.130942898797965 -1.2896947168420707 2.829889425626116 63 83 56
16.548763440766567 -3.0508491367385586 3.032291307898985 60 84 55
16.490568489536265 2.332554855999363 3.0714423647053324 57 80 51
14.457203002373237 -1.3420441972751707 2.7661155318911317 61 81 55
11.457188543685701 2.555857362938993 1.9696945211014105 48 61 49
10.333034371960652 2.499070370965297 1.9112147707889535 52 66 43
15.506412759253177 2.8297129780019166 2.5029309181201356 62 77 60
12.578606360360222 -3.1264438658927265 2.1092116639158003 58 76 59
12.48083227771881 -2.9602187376647953 1.8508681141608663 64 80 64
12.631251300312085 -3.0342452855218913 2.1067241561959076 61 76 63
13.319434660717741 -2.8292720220635257 2.2580439686282445 70 83 68
15.093002063460359 3.0564313545529567 2.432004640000276 58 76 57
11.123134442218214 -1.92839600151134 1.7928799132763937 51 68 50
12.591359562024971 -2.0498015180584592 1.527102436846511 52 65 49
12.217083067546374 -2.695529897548563 1.7727050565962534 72 86 75
12.223579327323396 -2.510268938523611 1.6897002836885133 67 81 67
12.072210697050073 -2.160927029914816 2.3461314303040455 49 68 45
12.183890532360294 -1.9431341859815587 2.4584853343343656 55 75 51
12.072210697050073 -2.160927029914816 2.3461314303040455 49 68 45
12.134744276510876 -2.333280012158659 1.946273376454155 50 63 49
12.529695323115078 -2.5304744679160343 2.1115448302453492 64 78 64
12.259217577500582 -2.20494740470771 2.5913938569210018 59 82 59
11.935728132935147 -2.6565664576520365 1.9528544718578678 70 84 69
11.400628127241236 -1.9009656245437823 2.2829606788807184 49 70 45
12.398584010491211 -2.3985576335315164 2.1179065765456193 53 67 51
12.260143506380626 -2.232231143361233 2.450878299287334 53 73 49
12.712811925582802 -2.1230159236517894 2.535721221966732 55 77 54
11.69155920405822 -2.0531213804395896 2.055729320568916 43 62 38
11.400041054613887 -2.1883349197513877 2.0692515439620474 46 65 40
12.048461454928315 -2.1021259019604437 2.237421259492877 47 67 41
16.42347715113871 2.6277889536348416 2.6463188795367154 54 72 50
16.035431109463524 2.5570332463020717 2.6931654376665413 58 74 46
16.626470434958343 2.467081289321284 2.763151444749683 59 79 44
16.744021065291026 2.686602476451887 2.7458693661661995 62 81 53
16.01556465262469 2.6911914430340347 2.875049398189124 55 75 40
16.01556465262469 2.6911914430340347 2.875049398189124 55 75 40
16.603897520692264 2.834845471013123 2.7665854789159896 59 80 49
16.523213498602253 2.9983164749218942 2.7791927801302236 66 86 63
15.931901411480755 2.924815394416592 2.895013260848211 55 78 47
16.90341686497024 2.924815394416592 2.9094539348872583 61 85 56
15.931901411480755 2.924815394416592 2.895013260848211 55 78 47
16.900063171125026 3.0191656513978824 2.724321690473497 62 82 59
16.883502988233854 -3.0985451733945584 2.914497110652674 65 88 61
15.910771635212528 -3.0985451733945584 2.9003459359914316 67 90 64
16.880145337963103 -3.1175327010108798 2.726991469105922 68 88 67
16.919411280345976 -2.9720640792584647 2.721749549647247 68 90 71
16.013311134046635 2.6843749220461497 2.567944698127357 54 72 53
16.56167809305707 -2.870939061638377 2.6310852754280076 71 85 66
17.326502418423665 3.0347380139389806 2.6718794020254055 63 81 59
17.34537485732503 -2.993465419674488 2.6697404328088 66 88 71
17.307075359470247 -3.1206172188416983 2.674095590802742 66 84 64
11.567870725989398 0.6948265645094915 1.9656650382878105 30 44 1
10.90467120170455 1.2560688997916043 1.8927063573476037 43 58 24
11.89451981701433 0.9012831727699094 2.143929640178829 48 62 15
12.46513621278021 0.9012831727699094 2.211385264067505 46 62 16
12.414154879744371 0.7593466685361933 2.214450156609687 50 64 16
12.585248540107555 0.7625940539938827 2.0186672538108144 37 52 10
12.185584175182631 0.7625940539938827 1.9446293461822324 32 47 6
12.585248540107555 0.7625940539938827 2.0186672538108144 37 52 10
12.298111688209405 1.1268930818392753 2.2215482585092374 37 53 9
11.861989388205743 0.8339991187166585 2.2498505659911836 51 65 18
12.23751776772336 0.8869385406343382 1.9429651328593496 56 71 32
12.575866977453503 0.9588004733196969 2.1093417730887785 45 60 19
12.638794289374102 1.2231269270419418 2.3030901660413763 42 56 11
12.77115426910059 0.9203188662689851 2.4037916476319507 50 66 16
12.644176161245428 0.9847444036641939 2.3027075568988433 49 64 14
12.687249964341147 1.182869158185163 2.411095867335026 51 67 19
10.577788443498381 1.7515684738255097 1.9030307084142426 44 57 20
10.425857596387866 1.5502404538174155 1.9080629516633243 38 51 15
11.663792130777189 1.7963071506570611 2.3810543168850007 53 67 24
12.939311914387385 1.5479149558516492 2.3896059880671228 49 64 22
13.11706646010234 1.4185680772830533 2.4925664705253876 52 68 22
10.05117583099464 2.207770081916593 1.8170305722918791 54 68 40
10.515946942487616 1.847908612479131 1.8059376310491566 46 59 24
10.383720344922603 2.285339857106842 1.6141478938383507 57 71 46
11.994448228499865 1.9592479239446245 2.478131319212912 54 69 24
12.866861067153623 0.48031000459769174 1.7623785156444214 22 34 2
12.714405003601849 0.48031000459769174 1.6850896250366572 14 28 1
12.947326926681482 0.2711709617021416 2.1839005750447344 53 65 14
12.987814420286835 0.40756303897432067 1.9205108161219062 44 57 13
13.392391570330878 0.48031000459769174 1.909515095133385 38 50 7
12.765596186199547 0.17809425381139682 2.1939519999168913 55 67 17
12.39892154264045 0.2711709617021416 2.1178899942950835 52 64 15
11.869421565496703 0.09064354890158602 2.24934529491646 57 69 21
12.035974519236133 -0.2309214223262546 2.2382377758939183 55 66 25
12.816916527497863 -0.590163875447293 2.0981426013010624 55 67 35
11.89278826941025 0.6810278097424362 2.247762173274229 50 65 15
11.997248968595454 0.7550211609219355 2.3522736956275416 51 66 16
11.918538788382564 0.2202597929242647 2.3588476109223873 54 68 23
12.390345986653262 1.0689801830332226 2.574375329493707 53 67 22
13.244647703687424 1.0689801830332226 2.6149528298442872 51 69 23
12.721399370363413 0.7550211609219355 2.408104242116257 51 67 18
13.237766090721575 0.6810278097424362 2.3658017355461465 51 67 17
12.730673686885405 0.5327719636830998 2.296620293597055 50 65 15
13.4743000746712 0.7489740521746878 2.5863386275894897 53 69 19
12.485703582823843 0.4894413233168185 2.4293014505999047 53 67 19
12.110557517702524 0.5913528266613396 2.3430328288380293 51 66 16
11.52334174352506 -0.36811703092413167 2.2738033596791487 57 70 31
13.512676505712012 -0.9151812338679927 2.7423554559707024 60 79 49
12.393598604164012 -0.6749525968209086 2.573963495715015 55 74 40
11.938536391528302 -0.1601751832443843 2.484145937957706 57 71 30
11.777347313196715 -0.019941423893242976 2.3709739993233545 56 69 26
12.295649395510909 -0.41387934839141105 2.447391940117022 57 72 34
11.882822885539635 -0.02270931679544815 2.490243165216556 58 72 29
11.91110021309381 0.11561486581064682 2.487135341112211 55 70 26
12.590082029123911 -0.524158778564113 2.4197532448034202 57 72 34
11.938536391528302 -0.1601751832443843 2.484145937957706 57 71 30
11.995952531561354 1.706643753961021 2.6282909808347767 55 71 27
11.97110380340295 1.5361614142020439 2.6319854095546287 55 71 27
11.97110380340295 1.5361614142020439 2.6319854095546287 55 71 27
11.97110380340295 1.5361614142020439 2.6319854095546287 55 71 27
12.156011317180255 -1.0228815596453513 1.7737335667927234 19 27 23
13.068185457688042 -0.8917890768065886 1.605238640844308 25 33 35
14.144906174407875 -1.040281268203119 2.5140611684932335 54 72 39
13.880703208066468 -1.1504281637707638 2.540798339793508 57 75 46
14.065643252305534 -1.2276365678745533 2.6575828809694046 59 79 52
13.944098069389533 -1.3781621975800669 2.6744341216832854 62 82 57
12.84951103662955 -1.0034382604131773 2.2884426189505906 51 68 37
12.67946841418403 -0.6444303386838244 2.198842413852995 53 68 34
11.79395242814087 -1.9058347098211712 2.6595463712437053 61 84 59
12.019531024276255 -1.5526836472130185 1.9500545944005698 46 58 51
12.475813684272644 -0.9046743243546239 1.9355197546169678 48 59 51
13.641886741479341 -1.1969826218459736 2.443428797593287 58 76 49
13.164910891728322 -1.5487316292480542 2.3714594942055047 56 76 51
12.490412744539457 -1.6576366796760271 2.3138226192926443 56 76 52
11.686278574367524 -1.5526836472130185 1.8704808824064987 46 58 51
12.244889457116058 -0.622006942740244 2.332402258615193 56 71 34
14.144906174407875 -1.040281268203119 2.5140611684932335 54 72 39
17.587512474932716 0.9911530728423035 3.0164653478323364 56 77 43
16.470155450111193 -2.939343825850176 3.092127014343638 60 84 56
18.50804651022017 0.6078491608849751 3.0623789097321863 55 78 46
18.50804651022017 0.6078491608849751 3.0623789097321863 55 78 46
16.56907963574655 2.7061297855774016 3.0216351170757556 59 83 52
13.045986059861596 -2.4727151615734573 2.2753706032909093 59 74 57
12.159227108594976 -1.9767003503124017 1.6078144985409208 56 71 53
11.835945363124594 3.070815145019612 1.6088260776391288 54 69 56
11.954715452695243 -2.089201316905908 1.7771996023625942 43 61 37
11.317994776212517 -1.9636904360852285 2.073201521853072 44 62 38
11.679952898760284 -3.1264438658927265 1.9616690997628727 54 72 55
11.850476904149339 -2.2512064131773144 2.2506348930479754 47 64 42
12.27921625542195 -2.2758430593762093 1.7716693885723496 45 59 40
16.885270139438184 2.352183915478196 2.726302395773063 57 74 40
16.42347715113871 2.6277889536348416 2.6463188795367154 54 72 50
16.219055865762233 2.7462992731068168 2.6701806248143947 64 83 58
16.42457581087819 2.6076735888113913 2.795378525643783 59 78 46
16.786982438800447 2.56074283076127 2.9408889792589203 55 78 45
15.931901411480755 2.924815394416592 2.895013260848211 55 78 47
16.199414602162854 2.9689934932464603 2.836232563038787 56 76 50
16.900063171125026 3.0191656513978824 2.724321690473497 62 82 59
15.952423811779344 -2.844287369782706 2.8899529895613116 68 92 68
16.687034556387687 -3.0831892226843607 2.9728449405398933 62 86 57
17.442585097655414 -3.113384880845714 2.8026137611469912 72 92 69
16.013311134046635 2.6843749220461497 2.567944698127357 54 72 53
15.803585191927908 2.792724294012329 2.5888224643035658 64 82 61
15.65504635449107 2.910302276347755 2.6043996886388365 63 83 58
16.56167809305707 -2.870939061638377 2.6310852754280076 71 85 66
17.307075359470247 -3.1206172188416983 2.674095590802742 66 84 64
12.693309315989891 0.638947318757588 2.0145812366589517 47 59 10
13.062332540475042 0.5903692405359127 1.9184310309447445 33 46 2
12.756351840245518 0.5903692405359127 1.8446611603768237 28 43 4
10.103938346198081 1.7515684738255097 1.714802886876057 44 57 21
11.239052591284548 1.1670544180176292 1.8828000403429375 55 72 37
11.247157190676873 1.5502404538174155 2.076665278495621 41 55 16
11.966932032161088 1.3505435117048932 2.1400292191963555 34 48 7
11.984188391704013 1.0843171625898693 1.9512302445840386 53 68 30
12.89160588236522 1.1327409830014656 2.5159820866985725 52 67 19
10.49299555668132 1.4491776887392906 1.9058201544980649 32 47 12
12.54038560499247 0.8226016687389308 1.8495024394643806 52 67 29
12.423150645337119 1.3265504882035712 2.318807883892574 43 57 13
9.779318590881338 2.022073948422729 2.043216725349035 49 64 30
9.925112715107089 1.976714556698352 1.820224166441307 49 62 25
10.239574064469407 2.353360530698484 1.9144496123374684 55 71 43
12.234151519525001 0.4838938313251482 2.126114250630642 49 61 12
11.84104470653748 -0.017774886030561068 2.2512790019235003 55 67 21
12.537100677957932 0.4426769158086506 2.020513138540348 46 58 12
16.94094947684087 -0.13275098483482528 1.8365926340505614 56 68 47
12.035974519236133 -0.2309214223262546 2.2382377758939183 55 66 25
12.183893993060545 0.5652158751292038 2.034554653367289 51 63 14
12.6471967635519 0.2202597929242647 2.414638174516698 54 68 19
13.004613970691294 0.37517157505578347 2.5040514077851643 55 69 26
12.215562426711315 0.37517157505578347 2.4553056153891926 53 67 20
11.869390683140795 -1.2914511212526876 1.7787050347972988 15 23 23
12.764343218664923 -0.7816706529769979 2.529918155551714 55 74 40
12.427102953240334 -0.69426853319903 2.434779699032485 55 72 38
13.853504891931227 -1.0156884966638207 2.6875702934415813 58 78 49
12.65164888022478 -1.0977142499936632 2.0161472996470424 46 57 46
13.382347727357738 -0.8572013987921243 2.354849140785391 52 69 35
14.531672014736271 -1.2725468031319846 2.5997308400664356 59 79 51
12.21793862762005 -1.3760285183584713 1.9435907583401777 27 39 32
12.158492277102713 -1.699514358695733 2.6050524573330054 61 82 57
12.791529380810442 -0.783037218699542 2.0109339238729045 57 69 54
12.466549629361328 -1.5487316292480542 2.3155825048667267 58 75 57
12.22463691990684 -0.5618536438800231 2.226132531112957 57 70 33
13.262267018508707 -1.546029854721455 2.4782696311272616 57 77 51
11.7763848054576 -1.668210667999689 2.371058187336635 55 75 50
12.889490302422574 -2.6995695530958486 2.285738300389756 70 85 71
11.939702128382716 -2.2651576492140784 2.0448100090121066 48 63 44
11.71079503049838 -2.0582720547129703 2.376845288094889 52 73 48
11.797876573177422 2.6830590739577262 1.957553746614231 45 60 46
11.56478506705718 2.859800433181737 2.0615140579773232 48 66 49
12.450704244644784 -1.9969054227830976 2.566810438468869 57 79 56
12.712811925582802 -2.1230159236517894 2.535721221966732 55 77 54
11.987195866626797 -2.0673438237468598 2.629588375654646 59 83 60
12.529334125116051 -2.6229054603974977 1.4467696721141807 73 87 74
12.370503373889099 -2.329998863180586 2.2171001435459763 51 67 47
15.952423811779344 -2.844287369782706 2.8899529895613116 68 92 68
17.34537485732503 -2.993465419674488 2.6697404328088 66 88 71
16.07435674045644 2.8777416682995 2.6881581876758753 62 82 55
16.707182612377697 2.851093103476207 2.965907612676323 60 84 55
16.199414602162854 2.9689934932464603 2.836232563038787 56 76 50
13.09569859547692 0.6549901053420321 1.7589902984109929 42 56 15
12.19064852231982 1.2560688997916043 2.1283298713591003 30 45 5
13.328133410756863 1.2231269270419418 2.3589141217623526 50 65 19
13.12382151214188 1.3265504882035712 2.374692865597993 49 63 18
11.998965441686597 0.9847444036641939 2.2406708860147844 46 62 16
10.281651121857404 1.877429197859976 2.0184047366203446 48 61 24
11.973314187022075 -0.2579057727560024 2.3542590486375436 59 71 27
13.258688211280862 0.4894413233168185 2.4786151217747507 53 67 22
12.730673686885405 0.5327719636830998 2.296620293597055 50 65 15
13.120682656398216 0.8554476559535115 2.6314374638643216 52 70 18
12.823695098115842 0.24965903637436168 2.5233503351705906 54 69 28
13.527754288478228 -0.9978358006939845 1.3811611269782433 23 29 31
13.346301999126862 -1.3349455313417162 2.357546317053771 59 77 58
12.673372238162264 -0.9210890005443556 2.1991917412110715 55 70 42
12.955205013538379 -0.622006942740244 2.388295289828822 56 73 37
12.159771384666644 -0.7822735222967099 2.3390982484887646 55 70 34
11.886075464754432 -1.7875553658497645 2.3615971517618553 53 73 48
13.657054904275194 -1.1676631838757998 2.717998396809536 60 80 53
17.684033594977397 0.6950670416751286 2.978725064180436 54 75 40
14.250894580392629 -1.084277376368087 2.8047444682473897 62 82 54
11.5176589543487 -2.2651576492140784 1.9674826024561698 46 62 39
11.867123759761263 -1.8394176705112968 2.0479501664100526 51 70 51
16.303615532255705 2.446352272239367 2.6601051872857666 52 69 37
12.657952359132961 -1.3349455313417162 2.3017302558692156 67 83 63
13.817839024849302 -1.140831355435346 2.323890186444934 59 74 49
12.597287072090413 -0.78270853079957 2.203587661602244 55 69 40
12.445949299722177 0.3949905546070814 2.2125349718124037 52 64 13
12.170300922187554 1.2099889277897 2.6034232363307486 55 69 25
11.686311332634805 -2.006226018841708 2.262043818369949 48 68 42
12.684899276883192 -2.3256213556301533 2.411302757986742 52 70 48
12.604387364380786 -2.556697755241237 2.305547089839812 67 82 67
11.549955584874217 -1.867121633733054 2.163305850164229 46 67 43
16.178634209830822 -3.107509696662303 2.8403339926464146 70 92 69
16.942109372571306 2.5570332463020717 2.7187582437578133 61 80 52
11.690837718953857 1.6869659164868527 2.51209969630352 55 69 24
10.06495777554825 2.0682146336834393 1.6155217631559937 48 61 29
13.506928049086724 -1.0544607959016221 2.2467038647747173 58 74 49
12.796548626982672 -1.816678572592158 2.526339204829678 56 76 52
12.26497259711196 0.8427868814481407 2.4504020755936065 50 66 18
12.685626622337184 0.9467725645467412 2.5388214484221194 52 66 21
16.281703289583252 2.7760328848868725 2.820586724237394 58 79 46
12.660474613214683 0.08180057834764486 2.199932211963241 54 67 19
12.035974519236133 -0.2309214223262546 2.2382377758939183 55 66 25
12.550658369710476 -0.4248930165383309 2.2063151447417875 57 68 30
17.097454214578732 -0.19283013519956438 1.8341014976644077 53 62 46
12.478603102684366 0.4289262657313257 2.5633679653583923 54 69 28
11.606910003509167 -2.4582230834691106 1.7834780768099077 57 70 57
11.896953861596689 -0.12577862606639484 2.2474808136833784 56 68 23
12.17768666280241 -0.717906679929964 2.034809605092953 54 66 45
17.480587699836978 -2.9435287181543877 2.796500914646443 72 94 75
12.590082029123911 -0.524158778564113 2.4197532448034202 57 72 34
16.523213498602253 2.9983164749218942 2.7791927801302236 66 86 63
