21.663613409960032 0.060239163858277746 0.9554814294881315 38 44 17
21.075411701804796 0.003681332726279589 0.9933611370997771 39 46 14
21.432458822324033 -0.050069694379065006 1.058563508021835 42 47 16
20.966667844499327 0.05701779851372325 1.1003115286742133 38 44 17
20.939702676957232 0.0034840310484026307 1.0996564992690332 38 44 17
11.93493059035257 0.17531013216259722 1.4443949520464605 29 36 6
11.717653375181564 0.09109936905182232 1.5277216864520382 28 35 5
11.717653375181564 0.09109936905182232 1.5277216864520382 28 35 5
9.85606790195497 1.3898690825169655 1.9333325503191947 36 42 17
11.628479170861608 1.1373363406216828 1.876109134852773 37 43 18
11.187628136384008 0.48299479951543345 1.7957405164473004 36 42 15
11.133174091585525 0.8112627501475956 1.5254588037165628 45 51 24
11.676878493908093 0.36436596824562695 1.7861636586205443 33 39 12
10.946663516922632 0.006099069264060176 1.8007802947464984 30 36 9
11.417872039411213 0.36436596824562695 1.614200031847166 33 39 12
11.502268945457704 0.5607263343439072 1.701176477410469 36 43 13
12.355004534990167 0.5173465636232336 1.4487145011624487 35 41 14
12.672398404340727 0.6957439901655978 1.4517868793453474 39 44 17
10.803174770592687 -0.0875009738527418 1.7096665899976222 29 36 6
11.22182047649472 0.8112627501475956 1.704454153337609 44 50 23
11.139545177300066 0.19137626389301599 1.7967282970174703 35 42 12
11.274560871721722 0.6844130125292253 1.703825202387617 37 42 15
11.193549509403573 -0.6753323522280783 1.704793758382058 38 43 8
12.209702459924436 -0.5080837320378078 1.5294585979355113 29 32 0
11.333111013580897 -0.26871315160435166 1.7928041849195486 35 40 9
11.459430536348393 -0.35367372125888213 1.7016666696299494 22 27 2
11.382454141128935 -0.17959301062549227 1.8829286665526845 48 53 24
11.346858531803987 -0.5510134938014707 1.6144718431651093 33 37 6
10.844209670079845 -0.17959301062549227 1.524249838016603 28 33 4
11.395338741022687 -0.4723787130395198 1.8825638365597963 43 46 15
10.906913391373362 -0.7358782940913867 1.8970300548452548 51 55 22
11.154000206077347 -0.9303827392727527 1.6152275081071095 49 53 19
10.65473708509462 -0.8726653832248037 1.8071999343101137 52 56 23
11.755162647286165 -0.7418389130473959 1.5278592169718976 31 37 1
9.616931563800106 -1.4972592618350649 1.942781393769404 47 51 20
9.736624314847992 -1.3872947226177914 1.9379897401649462 52 57 27
10.380773061720873 -1.0902166252473355 1.813562781093351 55 58 26
10.186736701828867 -1.0902166252473355 1.7181297034946952 56 59 26
9.668062620483376 -1.1821885415755704 1.518582455187815 55 61 26
9.101061414406653 -1.3872947226177914 1.6252589156748456 53 58 29
8.972894656861143 -1.4972592618350649 1.6260376334131317 37 42 15
9.842830202116886 -1.03995311632625 1.9338427248441683 54 57 26
14.968835342198766 -1.5199518606841744 1.0456417058699154 16 20 1
16.530950795186623 -1.4055006314483764 1.3571743070371216 36 39 8
14.155006227503337 -1.44329379434658 1.1713823597711461 17 21 1
10.461806706309572 1.285551042583059 2.014955149709453 34 43 17
11.593051392847658 1.012783348452078 1.9690059697115267 38 44 17
11.139226196263934 1.0961139099391999 1.9862082395318783 35 41 16
10.223098946982141 0.5843336010511392 2.0260964296710577 34 40 13
10.82907328883755 0.9590113152274885 1.99887686008166 37 43 18
10.535202567760892 0.8200816331892331 2.2351426484404464 36 43 13
10.753686083477584 0.6698181378164539 2.002078029634509 36 42 15
10.591362574628347 0.6503218940017017 2.2309970672472392 36 43 13
10.670113662380833 0.730132257417469 2.349656774575762 37 44 13
10.535202567760892 0.8200816331892331 2.2351426484404464 36 43 13
11.347765272694513 0.745127608385204 1.9781168040857522 36 42 15
10.589129365504292 0.8955174733011892 2.1164398651952805 36 42 15
10.265114928930789 0.4879841833450978 2.1357176045768496 32 38 11
10.833440322940827 0.4879841833450978 2.2137619525553496 36 42 14
11.567676154087732 0.006099069264060176 1.9699289763675223 42 48 21
11.636611607275244 0.23412792740055374 2.2706740148178732 39 46 16
11.687872048217018 0.10982547338034691 2.1600495880882287 40 48 17
12.199012837178232 0.008488188983951126 2.4628716248465823 48 54 26
11.145593822452469 0.3806988619431657 2.3083791624376726 36 42 15
12.17668107995538 0.1223901294287151 2.3429498088939593 40 49 17
10.499210300233448 0.3806988619431657 2.237829994193726 33 39 13
10.7032262681698 0.34023272420814366 2.109980482196544 33 39 14
11.639430429076011 0.00673053976017726 2.1628342780721224 40 48 19
11.527164998095342 0.3072938315521783 2.0677349431890986 36 42 15
11.966669065050068 0.2800158657721279 1.9559072745462185 34 43 15
11.151478990902774 -0.09650715853606803 2.0860982924848503 42 48 19
13.317323717883328 -0.13951428973074528 2.612356822665297 53 59 32
13.317323717883328 -0.13951428973074528 2.612356822665297 53 59 32
13.327082786989884 0.15860953177671983 2.611106176572907 48 55 25
14.158812380833798 0.009762952978013464 2.6519885323822647 52 58 31
11.430472529655384 0.9158416804870516 2.4086754261156473 41 48 17
11.173015417351547 1.3402575195229172 2.4346509052331458 42 50 20
11.364539315874168 1.2109262975973145 2.415143676923031 41 50 20
10.81402758808683 1.0470202569771 2.1038612035678312 37 43 16
10.982602471945855 1.1449574681839085 2.203625369122072 39 45 18
10.487354116527317 1.3680130846732337 2.2387205216509702 39 45 18
11.388463721711798 1.3039078767991716 2.556707555108286 45 52 21
11.430472529655384 0.9158416804870516 2.4086754261156473 41 48 17
10.667896938960062 0.9878832943569755 2.2254387388932315 37 44 14
13.24422951764462 1.1834720240547039 2.803718960081996 47 55 25
12.214372642770682 0.9452879086885343 2.604633711380626 45 52 20
13.24422951764462 1.1834720240547039 2.803718960081996 47 55 25
13.499005425310665 1.4415622165708644 2.753559484591406 47 55 25
13.553373860052737 1.01720146728458 3.049084825384922 54 60 33
13.668355983531924 1.2622191275579 2.9823514193556506 51 60 34
13.752833731207081 0.8942169460525076 2.9478110751812223 49 58 32
13.511622059847912 0.09843829956291054 3.092619497384391 57 62 35
13.553373860052737 1.01720146728458 3.049084825384922 54 60 33
13.854745309631102 1.3592497452111785 2.9133476312983184 49 58 30
13.938093411238835 1.0748710205130922 2.888889856428386 48 57 29
13.137582865943465 0.8563514515679662 2.8276400117415315 44 53 21
15.921528229988377 0.017767917657406655 2.9097172154721718 55 61 34
15.721914032096807 0.02444970847239914 2.9716465694157637 56 61 34
15.749557724915654 -0.3382188834448211 2.961705941541304 60 62 36
11.702241203292836 -0.7358782940913867 2.0596388163794397 51 54 23
11.822041625185237 -0.3268263608125029 2.257538180156106 42 48 21
12.095661216581275 -0.47464619458830115 2.349493842842749 47 52 23
11.493278865500555 -0.2950171484161668 2.069334624850108 41 46 16
11.602448601951776 -0.8057550148671495 2.1649793999699565 54 57 26
11.380639442935673 -0.5180508276190372 2.074730814423914 43 48 17
12.456926104144484 -0.5724306139590735 2.3212680587006584 53 57 26
11.614244723175265 -0.21987275137588644 2.2722968131160037 43 49 24
11.337638522759823 -0.7172295873437927 2.4178180297856384 55 58 27
12.095661216581275 -0.47464619458830115 2.349493842842749 47 52 23
11.650651080076482 -0.7280298402713682 2.2696597105638956 52 57 26
11.664617705214312 -0.6592984606753911 2.161382840045545 50 55 26
11.419198619051539 -0.6009099318320601 1.9754194191309955 44 50 20
13.144375453281882 -0.47850445415707754 2.6353047888918626 55 60 30
13.135704561378413 -0.2474883402720766 2.496426018524021 49 55 28
13.424645198466354 -0.2828259186626313 2.5988443703921065 53 58 30
13.319786860968366 -0.36598081737249266 2.4782806064225174 51 56 27
10.82898751576677 -1.2466327214670752 2.640071521338576 58 61 30
11.223845045088002 -0.9793167207359615 2.3020621405013 57 57 25
11.091262384674065 -1.3360911624377032 2.4433238467300114 56 59 28
11.319759640312176 -1.2983436382533926 2.565937893299495 57 60 29
10.82898751576677 -1.2466327214670752 2.640071521338576 58 61 30
11.671178674566493 -0.8142390044691901 2.5210769372568507 58 61 30
11.362022470709212 -0.9053449902879731 2.415393012036715 56 59 28
11.508841760147494 -1.149696248957705 2.5410950754907007 58 61 30
9.143644225994873 -1.4880317372070042 2.084773573312227 51 54 22
9.499431057853839 -1.24754457045898 2.063750840902589 53 57 28
9.826274511155919 -1.1388109253362193 2.0459667580186944 53 56 27
8.412705071697806 1.8533863201959728 1.6297201998557502 36 42 15
8.530208165685787 1.8533863201959728 1.747015958711475 41 47 22
8.3072639075588 2.121841639872681 1.6304689831334669 45 51 24
9.39922975924718 2.68815011535874 1.7305758299406744 38 44 17
8.149028338363909 2.3827818529043108 2.014112375648329 46 52 25
9.39922975924718 2.68815011535874 1.7305758299406744 38 44 17
8.755161057305267 2.635926353439003 1.8598267613031245 42 51 23
8.25278698747633 2.467660052617744 1.7530049791387148 42 48 21
9.415315081732773 3.028077874781414 1.6234394151975267 50 55 26
9.401496342812692 -3.041837319199678 1.6235168640740985 46 53 23
9.844660378404445 2.8245619105828967 1.5195199193858553 44 49 22
10.354265822059798 3.135306944383028 1.522045641184279 46 51 22
21.054249561981223 2.923492188996534 1.1024259735880888 34 36 8
20.807149695530136 2.934440195865303 1.2528540601062668 42 45 17
20.97180539256087 2.9844337184745866 1.20484126477829 45 46 17
20.97180539256087 2.9844337184745866 1.20484126477829 45 46 17
9.065715796560985 -1.6090272769994787 1.7365072829670367 46 51 20
10.159697402979937 -1.9286970785180748 1.9220209003170738 55 58 27
9.876028132087901 -1.8271197178313492 1.9325660641307365 55 58 28
9.357042385960783 -1.8271197178313492 1.7313024516486508 54 57 27
9.600463132429622 -1.6090272769994787 1.9434507339062177 57 60 30
10.045958467031301 -2.0231227441407054 1.7202097405529506 53 56 25
10.722435859310682 -2.742922799145553 1.902856600384748 52 55 24
10.397145909297594 -2.8371780089996537 1.913665418608507 50 54 23
10.1602487844253 -2.9373472124826465 1.9220010154967748 49 55 25
10.104939303759386 -2.8371780089996537 1.8203286066246733 49 54 21
10.742440252814362 -2.2450579440697336 1.902214537544285 55 58 27
10.184129954540085 -2.163301611781266 1.9211419780489962 56 59 28
10.704935586083927 -2.109631281162974 1.8060704000488246 54 57 26
11.058404985800129 -2.1880469974640513 1.7064413937559588 54 57 26
15.01442875405222 -1.6741576562912848 1.0474003206337077 19 20 2
15.64181095035089 -2.7873088127390204 1.141923957226417 54 54 26
15.253101144786246 -2.7873088127390204 1.2015823131309427 53 52 24
16.816417259067432 -2.905297275488157 1.5407867610341204 27 21 1
16.610897077920058 -2.9638863719653434 1.5404153507475329 28 22 3
17.59534785430914 -2.9739370703606567 1.598956488863257 37 32 9
16.670440641638066 -2.9638863719653434 1.6606221029544856 27 19 0
8.512802455819015 1.9392715618592817 2.272536896986337 47 52 25
8.708846090837007 2.1920945032503028 2.1131932281787558 47 53 26
13.1444533863033 1.654672705677579 2.826034165218162 49 58 30
13.738431568171737 2.7147634989090443 2.9532277321010203 56 61 34
13.718272289220833 2.1470032989008354 2.961099301156788 52 61 35
13.903992480701229 1.9834312016322415 2.8985694209105533 51 60 32
13.603712077922411 2.4706815065002794 3.015331893001734 56 62 35
13.603712077922411 2.4706815065002794 3.015331893001734 56 62 35
13.532089197175072 -1.9212307986642505 3.0679605190184107 58 63 36
13.499905567910256 2.9536279911623415 3.115820190099602 57 62 35
12.97833490402759 2.833072850513788 2.867942512568716 55 60 33
9.340727206002402 2.491097298595082 2.339754919890669 49 58 32
9.87590564005475 2.975209760211281 2.4325115265448236 55 60 31
9.818528398343263 3.1313425217299384 2.4393502978182835 56 61 32
9.400284820932713 2.867408011056997 2.195185353380227 53 57 28
10.033121374400757 2.826799757735811 2.414436475367155 53 58 29
9.476180931052177 3.1337999531789458 2.065069319945094 52 57 28
9.80286564412857 3.132738584005905 2.295087135141122 54 59 30
9.476180931052177 3.1337999531789458 2.065069319945094 52 57 28
8.950931372475232 2.6206741424964495 2.3828039972317714 50 57 30
10.032887792774684 -3.029972611879009 2.1504579162214883 51 56 27
10.642571697359784 -2.995212744340521 2.4951788863060944 55 60 31
8.933747666154694 2.691389780234349 2.233348042988898 49 55 28
9.138080886613315 2.7461123980480395 2.085117334993046 49 54 27
9.596091433262698 -1.7619117011545748 2.3143148939652685 56 59 26
9.507967771359562 -1.6200369714114635 2.3228715356358824 54 57 26
9.786137667632893 -1.8964474377859593 2.296600394121633 57 60 27
10.446795190799646 -2.1301614190332065 2.241787008855892 59 62 31
11.202856672433676 -1.628316661009184 2.5822222612639756 57 60 29
10.377558680233912 -2.166025543259873 2.5298248127921563 59 62 31
10.624509033606234 -1.9466113631457131 2.4974353522807413 58 61 30
10.744433667287982 -2.019834361582693 2.3428523583059544 58 61 30
10.299311410094377 -1.7619117011545748 2.3858458472897177 57 60 29
10.449721170962164 -1.793134710421446 2.5200493428174804 57 60 29
11.398922678008102 -2.4209091495617874 2.7407642847985656 60 63 32
11.93981757135002 -1.9995879811685686 2.8679037782282104 60 64 35
11.890028410127387 -2.4510201632841055 2.8832394159106145 59 63 36
9.744953246002934 -1.7383057975071483 2.1699272247499 55 58 29
9.932151500108562 -1.8577682622250942 2.1571125663620934 56 59 28
10.100684531416547 -2.0714612138363346 2.0320388822747075 56 59 28
10.26050465763105 -2.70082204901554 2.0243122896189587 51 55 24
9.979242501387835 -2.6495815443591857 2.153981368865071 55 58 27
10.684004096174634 -2.6073717432228785 2.005081398656398 54 57 26
9.735078271127952 -2.4803025337118823 2.1706200633576307 57 60 29
9.750849912557596 -2.3957550136738206 2.299816398927559 57 60 29
10.009991560734658 -2.5066920775320254 2.4170370969587007 58 61 30
11.181141767497818 -2.5232035860224236 1.9845553296103706 53 56 25
9.780127397750654 -2.389315398055298 2.0483958662377013 56 59 28
10.007171193933324 -2.8454458197064483 2.417355553757373 55 60 31
10.174911555400135 -2.913659075315008 2.1413467213044832 51 56 27
10.009991560734658 -2.5066920775320254 2.4170370969587007 58 61 30
10.562960078882615 -2.6495815443591857 2.233086478897298 53 58 27
9.840597540785582 -2.227139286190375 2.0452180633011965 56 59 28
9.840597540785582 -2.227139286190375 2.0452180633011965 56 59 28
10.293156061919607 -2.3036361305809403 2.2536930982578394 59 62 31
10.232601718539618 -2.7612870903175306 2.258516483396236 54 59 28
10.247607672159235 -2.7081418188312893 2.391215057934416 55 59 28
10.278216608088949 -2.389315398055298 2.1349098704026526 57 60 29
11.181141767497818 -2.5232035860224236 1.9845553296103706 53 56 25
11.181141767497818 -2.5232035860224236 1.9845553296103706 53 56 25
20.939702676957232 0.0034840310484026307 1.0996564992690332 38 44 17
21.41215317227129 0.0034840310484026307 1.0580301915400743 40 47 15
11.521008267063973 0.9372897337742333 1.789124274570796 42 48 21
12.063913468391451 1.0586579116054373 1.8647535860008497 39 45 20
11.19056005447175 0.2800158657721279 1.7048297704415902 32 41 13
10.622494419810218 0.5293115324567341 1.9061027319928936 35 41 16
10.861701306633728 0.6110543985088293 1.8026120684041385 37 44 14
11.930646926636287 0.36436596824562695 1.8681368226774615 34 40 13
11.255677437502166 -0.0875009738527418 1.88656527089549 45 52 22
11.04644086311883 0.39837984975516544 1.8927597835381689 35 41 14
11.811306849116992 0.4436276113586463 1.528063440073692 33 39 12
11.843312277366731 0.7499394157041354 1.52817899170721 40 45 19
11.333111013580897 -0.26871315160435166 1.7928041849195486 35 40 9
10.843787534584756 -0.17959301062549227 1.6164994424909633 31 36 7
11.60744967656108 -0.5510134938014707 1.7874723382800581 40 43 12
10.353636401447499 -0.9513494541709318 1.9151659233156475 52 57 24
9.97215969653893 -1.1821885415755704 1.823723334000253 54 57 26
9.083153816251807 -1.4972592618350649 1.7361862120306768 17 22 0
9.842830202116886 -1.03995311632625 1.9338427248441683 54 57 26
14.306665636909692 -1.3681106033624146 1.1758527028626915 39 42 9
15.375083454135652 -1.3946535443724084 1.407168667902408 35 35 5
10.759455372176525 1.1872279544080093 2.0018312958167948 36 42 17
11.139226196263934 1.0961139099391999 1.9862082395318783 35 41 16
10.986908482029715 0.6229832482298091 2.4547175768990677 37 44 13
10.550645893160645 0.7388059122624521 2.118655853279085 35 42 12
10.700588619620412 0.5843336010511392 2.110127972271752 36 42 15
12.130191664633795 0.0075078686164402305 2.3466889628238863 43 51 21
11.567676154087732 0.006099069264060176 1.9699289763675223 42 48 21
10.708167794942506 0.9158416804870516 2.3461552355450244 38 45 15
10.487354116527317 1.3680130846732337 2.2387205216509702 39 45 18
11.366620180594685 0.9452879086885343 2.5596160997861372 43 51 19
11.846099215864035 1.0280479447745958 2.500704975459091 44 51 19
11.57642372610903 1.1577218024396705 2.5326232467234315 45 52 20
11.726744419299703 0.8272081636577373 2.514477363953223 41 48 16
11.173015417351547 1.3402575195229172 2.4346509052331458 42 50 20
10.93278052231061 0.8272081636577373 2.460777071361314 38 45 13
11.304639305472596 0.9878832943569755 2.2956681505759975 41 48 18
11.354912478855377 1.0470202569771 2.179782666546862 38 44 17
13.752833731207081 0.8942169460525076 2.9478110751812223 49 58 32
15.948825940367044 -0.25022883723122197 2.9025764292937657 60 62 36
11.664617705214312 -0.6592984606753911 2.161382840045545 50 55 26
11.109509001032086 -0.8092656297224351 2.3113345779732084 53 58 27
12.817794856872649 -0.47464619458830115 2.405056858970905 51 56 27
12.109114578920305 -0.4265729441741812 2.2382525674084213 43 48 19
12.54694693122845 -0.36598081737249266 2.4291867999572956 45 52 23
12.771070498433213 -0.4151821471443655 2.5353808469967514 53 58 29
11.309285181123576 -0.9328957636589251 2.5673666113390485 58 61 30
11.216972763128476 -1.4603394321462804 2.5802153936372503 57 60 29
11.671178674566493 -0.8142390044691901 2.5210769372568507 58 61 30
11.319759640312176 -1.2983436382533926 2.565937893299495 57 60 29
11.223845045088002 -0.9793167207359615 2.3020621405013 57 57 25
11.026488605277155 -1.0767079675163238 2.6083170672088274 58 61 30
10.847037256802988 -1.08538803080952 2.3336831262263122 59 59 27
9.143644225994873 -1.4880317372070042 2.084773573312227 51 54 22
9.084964480773209 1.608479483047177 1.6253555094279477 34 40 15
9.230728708584616 2.789475859579968 1.844541045984591 47 52 25
9.580092399893475 2.9240400084229807 1.6225331397214662 50 53 24
8.56152136919549 2.0126129567973923 1.991355727657775 47 52 25
8.219184005029035 2.2928742240703945 1.7537583209561431 46 52 25
9.090857487933533 2.635926353439003 1.9654609792025728 46 52 25
10.200360300906947 2.7311618296696976 1.521309482402749 39 46 16
10.504760268064437 3.0389732631196034 1.4270738711085864 47 52 23
9.043893670039708 2.5376842493355984 1.7369108432723868 40 45 19
21.516407437094948 2.934440195865303 1.1644453209894552 39 41 13
10.516881723003427 -2.109631281162974 1.713472460952707 54 57 26
9.357042385960783 -1.8271197178313492 1.7313024516486508 54 57 27
10.532883785367327 -2.956626420752522 1.6178494635494378 51 52 21
10.98118803357672 -2.109631281162974 1.8947425922424825 54 57 26
9.687745455546715 -1.7198516320204686 1.9399311303397269 54 57 27
15.819503551812316 -2.9525690581978896 1.4118051997703844 14 9 0
15.27914644025386 -2.873809311632561 1.3393659619068112 35 31 7
17.65183024053607 -2.9739370703606567 1.6556156878015722 36 28 7
9.239585825185495 1.6131466332165525 2.0789206248207304 38 44 19
13.851877643681734 2.4189141101813947 2.9142405655794854 53 60 34
13.562115247881504 3.0931820815948408 3.0423795198187666 57 62 35
12.934727077867114 3.1221424367165325 2.880222381328781 57 62 35
14.596294975971627 2.4706815065002794 3.023959227543018 55 61 34
13.603712077922411 2.4706815065002794 3.015331893001734 56 62 35
8.6751564833374 2.491097298595082 2.2568215813048442 47 56 29
8.772172760391468 2.571577281425546 2.1088480428621748 44 53 25
8.933747666154694 2.691389780234349 2.233348042988898 49 55 28
9.80286564412857 3.132738584005905 2.295087135141122 54 59 30
9.232298869321003 2.9975360711306474 2.2083591060171908 54 59 30
11.27774433463613 -1.793134710421446 2.57170413699805 57 60 29
10.320235274363466 -2.405300574784868 2.5377874664139903 60 63 32
9.786137667632893 -1.8964474377859593 2.296600394121633 57 60 27
9.856200334406363 -2.1301614190332065 2.1622398553982443 58 61 30
11.602795122376605 -1.6399382664595241 2.701142488004142 58 61 30
11.93981757135002 -1.9995879811685686 2.8679037782282104 60 64 35
12.093087417671482 -2.2442405286792177 2.825888418867883 59 63 34
9.932151500108562 -1.8577682622250942 2.1571125663620934 56 59 28
9.126321788425773 -1.6138396794016319 2.0858455355945655 54 57 27
10.455658184673679 -2.6391769948613586 2.519256992735516 57 60 29
9.89406923230994 -2.5862435957865184 2.286961193586357 56 59 28
10.411475056783408 -2.803276476214906 2.12683244119562 52 57 26
10.41733553333293 -2.311542031305554 2.0169876078982245 56 59 28
10.923610039594104 -2.4617576912681445 2.0979523466695027 55 58 27
9.6932046810366 -2.3036361305809403 2.1735773370047795 58 61 30
9.750849912557596 -2.3957550136738206 2.299816398927559 57 60 29
20.960466022900775 -0.050069694379065006 1.1001610445225922 44 50 20
21.41215317227129 0.0034840310484026307 1.0580301915400743 40 47 15
11.977082856134368 0.6315558294979846 1.5286552630889931 37 42 14
11.22182047649472 0.8112627501475956 1.704454153337609 44 50 23
10.990037850599473 0.745127608385204 1.8944722191312975 36 42 15
10.714013591135984 0.745127608385204 1.805867295259949 37 43 16
11.267222336560131 0.09959267609728478 1.8862305375335982 33 40 10
11.026987980138856 0.8806562555423347 1.8933482972610065 39 45 20
11.810919278809777 0.4436276113586463 1.612754767752204 35 40 13
10.681108789730663 -1.0062740044722631 1.7112640892054662 54 58 25
10.906913391373362 -0.7358782940913867 1.8970300548452548 51 55 22
11.156882465092954 -0.26871315160435166 1.435527732423608 23 28 0
9.955819071988177 -1.2816265111008092 1.929534912346577 53 57 28
11.128749164735561 -0.8031446181597147 1.7055787421974453 50 55 20
9.616931563800106 -1.4972592618350649 1.942781393769404 47 51 20
11.900854654688391 -0.6227304107182714 1.5283851767091536 34 37 4
14.255059564174175 -1.4523550264740681 1.3941821309889475 13 17 0
11.639430429076011 0.00673053976017726 2.1628342780721224 40 48 19
16.18059150723456 0.013954182119054243 2.8495399314678984 56 61 34
12.165999240447087 -0.1075720402645883 2.3438052177020614 44 50 23
11.249439864908942 0.34023272420814366 2.1863364854490968 36 42 15
11.490025795967414 -0.1075720402645883 2.281466222380448 44 50 23
11.085336628481423 0.3072938315521783 1.9883534984081854 35 41 15
11.145593822452469 0.3806988619431657 2.3083791624376726 36 42 15
10.698378210668062 0.8150301402284965 2.0044583130984224 35 41 14
11.326602378369222 1.2524079450730436 2.2939519725803788 39 45 18
13.15648642952877 1.4102613117785647 2.8232445466173566 48 57 28
10.81840069564852 0.5481208066563481 2.3362166487689198 37 44 14
11.493278865500555 -0.2950171484161668 2.069334624850108 41 46 16
11.279426908418435 -0.19772863447676572 2.0796856245642914 45 50 22
10.015919516556297 -0.8864370216224084 2.036249402552677 51 56 23
11.267280259826773 -0.7358782940913867 1.9812008108000996 51 54 23
11.356698554219317 -0.3868895046638993 1.9777774470849112 41 46 17
12.817794856872649 -0.47464619458830115 2.405056858970905 51 56 27
10.989953333805685 -1.0184161907992615 2.4543798107107984 58 61 30
11.86838353013762 -0.6378361891781009 2.3685694262695285 55 58 27
9.524596132481758 -1.476164073565402 2.321239587745041 52 55 24
9.669531283326897 3.134634103694978 1.831821014267208 48 54 25
8.548203110722707 1.735654502183423 1.8670337705998494 38 44 17
21.350076737494003 2.9844337184745866 1.1610905841560066 39 41 11
21.350076737494003 2.9844337184745866 1.1610905841560066 39 41 11
21.35595106821116 2.885474793420915 1.2117254526250811 39 44 17
15.955893861924963 -1.682748590122863 0.852170505063922 56 59 30
10.184129954540085 -2.163301611781266 1.9211419780489962 56 59 28
9.656550414526443 -2.9373472124826465 1.7262830088770864 48 55 23
9.876028132087901 -1.8271197178313492 1.9325660641307365 55 58 28
15.316379582602146 -2.9397331297484657 1.2722805125362322 35 31 8
16.816145044498857 -2.905297275488157 1.6002617041180998 28 22 0
16.670440641638066 -2.9638863719653434 1.6606221029544856 27 19 0
15.857825402292624 -2.873809311632561 1.2162973005082367 48 46 20
13.738431568171737 2.7147634989090443 2.9532277321010203 56 61 34
13.541693492495186 1.8813149079544742 3.058901833739451 54 60 33
13.594151598927676 -2.5329896758110477 3.0209988412683466 58 63 36
9.847139814923121 -3.0149217068874434 2.2911164126589156 54 59 30
8.625398981265768 2.3827818529043108 2.1190343391194224 48 53 28
13.903992480701229 1.9834312016322415 2.8985694209105533 51 60 32
13.541693492495186 1.8813149079544742 3.058901833739451 54 60 33
11.696385164529053 -2.2748498407088404 2.684460267348356 59 62 31
10.320235274363466 -2.405300574784868 2.5377874664139903 60 63 32
10.07233885967847 -2.019834361582693 2.2716590149267564 58 61 30
10.335773057022767 -2.227139286190375 2.131390516395158 58 61 30
10.220117434595641 -2.794056353042285 2.5521400107743935 55 60 31
10.009991560734658 -2.5066920775320254 2.4170370969587007 58 61 30
10.7363308702662 -2.70082204901554 2.108136623615193 52 56 25
9.969272746266968 -2.292332996949316 2.421663545813494 59 62 31
10.414185930705925 -2.549781920624085 2.126670684510284 55 58 27
10.299311410094377 -1.7619117011545748 2.3858458472897177 57 60 29
11.755107128059246 0.005575925390973477 1.4424507244522744 31 38 8
12.323296790711021 0.9863626907299928 1.7747027184875013 40 49 23
11.128749164735561 -0.8031446181597147 1.7055787421974453 50 55 20
11.639125147867604 1.093012565637201 2.388975103738302 42 50 20
13.938093411238835 1.0748710205130922 2.888889856428386 48 57 29
11.5169358407025 -0.4265729441741812 2.1700044834811436 42 47 18
11.616425224548243 -1.4381968142998314 2.698659589074848 58 61 30
15.955893861924963 -1.682748590122863 0.852170505063922 56 59 30
9.15809601163588 -1.7198516320204686 1.7348204779658178 54 57 26
9.655970270614564 -1.9286970785180748 1.7262924267551738 54 57 27
10.531047952338024 -2.0231227441407054 1.9091302304420328 55 58 27
15.566704970562336 -2.810183953310728 1.343716877669046 38 34 9
8.695227037141 1.8908590277644832 2.1141374747691546 42 48 22
10.335773057022767 -2.227139286190375 2.131390516395158 58 61 30
9.818528398343263 3.1313425217299384 2.4393502978182835 56 61 32
9.920079038569227 -2.803276476214906 2.0411078036762773 50 55 24
10.12782637750784 -2.0836113661540367 2.4039886601980354 59 62 31
9.991804153027221 -2.88389296094195 2.2784794971219524 54 59 30
10.476608954066476 -1.8964474377859593 2.3680550840749754 58 61 30
10.500304128322629 -2.2023861479401194 2.3657470169140606 60 63 32
12.567423175426914 3.0931820815948408 3.0344979139582597 57 62 35
13.843319228027312 1.6818414293922015 2.9169284500636614 51 60 32
13.656773958255243 1.7348102718366711 2.987721897261591 52 61 35
10.100010124122281 -2.013854036105233 2.5701656917199163 58 61 30
11.14175875944363 -2.6073717432228785 2.0865924451560476 53 56 25
10.998156866262503 0.09959267609728478 1.7996842555590153 30 36 9
9.42521879935475 1.4983102293240824 1.8387515168784332 36 42 17
9.668062620483376 -1.1821885415755704 1.518582455187815 55 61 26
10.708167794942506 0.9158416804870516 2.3461552355450244 38 45 15
10.568737868036544 0.43894771523528 2.0101459205158942 33 39 12
10.550645893160645 0.7388059122624521 2.118655853279085 35 42 12
11.362022470709212 -0.9053449902879731 2.415393012036715 56 59 28
9.520451817790326 3.028077874781414 1.7285242349714731 49 54 25
15.48414370992539 -1.5972115178968613 0.9893366739328496 18 20 1
9.920079038569227 -2.803276476214906 2.0411078036762773 50 55 24
9.89406923230994 -2.5862435957865184 2.286961193586357 56 59 28
10.411475056783408 -2.803276476214906 2.12683244119562 52 57 26
9.712893922455443 -1.9693947499470625 2.0519818205669846 56 59 28
10.375496116110158 0.6698181378164539 1.914410377452038 36 42 15
12.038770229330094 0.09959267609728478 2.044827940064173 39 46 16
11.821013717853676 0.21063626353474485 2.1525392497506672 38 45 15
9.574786044468414 -1.08538803080952 2.1821143477377976 54 57 26
10.018017152291561 -3.041837319199678 1.9272079194537044 50 55 26
11.606489829084735 -2.575607602533816 1.8767062980952887 53 56 25
21.43852410440139 0.05701779851372325 1.058722582315903 38 44 17
10.789643536661606 -0.6009099318320601 1.8041888667415862 43 48 17
11.750368343598177 0.19137626389301599 1.9633803656696351 38 45 15
9.26945036543396 -1.3647830427872605 2.0771272895553423 52 56 25
11.797633798247587 -0.5724306139590735 2.2592355771375425 48 53 22
9.27724015620263 2.8989208027492794 1.9571074321778945 52 55 26
13.718272289220833 2.1470032989008354 2.961099301156788 52 61 35
11.755751408933392 -0.4336296490189243 1.6129517884841795 19 22 0
9.335191439626508 -1.2816265111008092 1.623891672355199 51 55 24
8.858636284698148 1.9636144553707995 1.40012594310402 40 46 21
9.106984825597685 3.014607992709794 1.964723490377512 52 57 28
