21.657104659640392 0.7420318116991588 1.1960400744026014 42 51 25
21.87465375997321 0.7042077986672998 1.099731596388963 44 54 30
22.115735553347566 0.5565289012674893 0.8298703105142399 34 43 14
22.04999764288457 0.5453459096153236 0.9992546808803666 41 49 26
20.798779909731934 1.301901286954413 1.0732040415200244 7 7 3
22.173035565535542 0.7761484889376298 0.9483461834054153 39 49 23
21.61952451218797 0.7349556231931352 0.9298497490166046 38 48 23
21.923377225139863 0.6424161490210492 0.8218140690560559 36 45 19
21.50336724558211 0.59066436574301 0.803497987286466 32 41 13
12.155429268820049 0.40235858628052584 1.3275670724221678 15 21 0
12.796972404216634 0.6581576888877539 1.339988210809444 21 28 1
11.2488656381831 0.6419254966352406 1.7560965929941257 26 34 7
11.872569024883553 0.5914727239644046 1.5769037005439313 19 26 1
12.259044246155355 0.47770364920794445 1.4950663318369632 15 22 0
11.53292106344775 0.5182378031156213 1.7514816702910547 27 35 10
12.97492321306069 0.9975660758755867 1.3432099613912893 23 32 4
11.708367993475317 1.2225476549507452 1.8363255554556919 29 38 12
12.127354815100576 1.0669004028444447 1.576775388079051 23 32 5
12.14370501245674 1.3298294280116159 1.7423012214527165 26 34 9
12.627605678444066 1.1749877596476823 1.4972807111677695 21 30 2
12.11979757688085 1.3298294280116159 1.4110816676235125 22 30 7
12.568410481277711 0.8860199130035061 1.416828817200804 19 29 1
11.450899869286934 1.0240129816120558 1.7527903215783986 27 36 8
11.43413387439144 0.8989189418508943 1.8428538147325768 26 38 11
11.0656847232788 0.8989189418508943 1.66787085093164 24 34 6
11.20235263794312 0.480850318304194 2.040708009002199 39 48 22
10.786458412916687 0.480850318304194 1.9579536212981816 44 50 23
11.47422839195047 1.0034607954935324 2.2349363410503287 38 47 24
11.436336409121507 0.8381532107157441 2.0303445493135834 35 45 19
11.913639661910553 0.8381532107157441 2.105644838471485 39 48 23
12.116226174923126 1.0034607954935324 2.299973304183524 42 50 27
10.879376422979181 0.592986203803707 2.278491452580065 44 53 25
11.47422839195047 1.0034607954935324 2.2349363410503287 38 47 24
12.149925532481424 1.2509053844046463 2.2974979796107973 36 45 18
11.797738218863053 1.1502067363693125 2.213647769505672 36 45 18
11.589585857690423 0.9740964649356252 2.0238111692838716 33 43 17
11.867609846455627 0.7679127756999548 2.209245294300094 42 50 25
11.135135138132792 1.189614008580257 1.9452188271444641 35 44 17
11.34021593314179 0.6866729326175418 2.2442204382633997 43 52 25
10.951108071279966 0.5316260411921261 2.1585715486120858 42 51 23
11.462156184044796 1.212251106286736 2.35219768873497 38 46 22
12.27661748899108 1.2822481189207644 2.1847406623397227 34 44 16
11.909962646581121 1.1033669307427798 2.010757966900787 34 44 15
12.161524883925908 0.9694952748876375 2.546733674589335 44 52 29
11.724701451991304 0.8582363561473174 2.4556061289780664 43 51 28
11.724701451991304 0.8582363561473174 2.4556061289780664 43 51 28
12.161524883925908 0.9694952748876375 2.546733674589335 44 52 29
12.654736408149981 1.043408683759514 2.491367986185225 41 49 27
12.235533915433958 0.9379557614252023 2.406082671734797 42 50 27
12.459414114873715 1.1023766958518164 2.386437251444816 40 48 25
11.279581467453452 0.760533914709392 2.5053439312404455 46 55 29
16.059938300195096 -0.1490037646266104 1.5130123824209951 50 60 32
16.059938300195096 -0.1490037646266104 1.5130123824209951 50 60 32
10.925926716057386 0.05703670847551097 1.669116562033722 23 29 5
10.939559208311435 0.3519954394753212 1.8554887834958023 32 38 13
11.493253359118098 0.3218616739672204 1.664248757177885 16 22 0
10.925926716057386 0.05703670847551097 1.669116562033722 23 29 5
10.449623129918908 0.16290219819043833 1.8692375346571193 48 55 29
10.650553488657003 0.2598164925824916 1.8634390289962883 40 46 21
11.443332261436327 0.3218616739672204 1.5771327897403997 16 22 0
10.838200411064117 -0.41822047349842034 1.6699149891989498 47 58 24
10.594147409192761 -0.23696941945224487 1.8650435827332505 46 55 21
10.807682683547606 -0.5459542381381154 1.8590615046754082 46 57 24
10.982331614080882 -0.41822047349842034 1.7606478548863982 47 58 23
10.862609873796353 -0.33040139271020774 1.8575624503698236 46 55 21
11.78928564568588 -0.5745260084242042 1.6618955424084203 46 57 24
11.338709756001656 -0.6243370308704748 1.8452023749129205 48 59 26
11.109514813870007 -0.6243370308704748 1.7584483774561543 45 56 23
10.975914411791008 -0.7542109705838768 1.7607602082252183 48 57 25
12.235249323068421 -0.8736298683766148 1.5767226621031099 46 55 25
11.536291067162962 -0.817704015091667 1.6638991073741416 48 57 25
11.476692566107205 -1.012743511432464 1.8418194506702914 49 59 32
12.128572531029414 -1.32495473108087 1.8269154926962752 52 60 37
12.402146096852318 -1.2441435224147204 1.821143338855066 54 63 36
11.801712117015834 -0.9396654671463188 1.7473226453630235 46 56 27
12.402146096852318 -1.2441435224147204 1.821143338855066 54 63 36
9.88072299588235 0.18091864820659526 1.995627736113574 45 54 24
9.766730305683199 0.06988033381731432 2.0009140490906625 46 55 27
9.754453075726131 -0.04290380222325707 2.001491538327801 47 56 26
10.21246171781285 -0.04290380222325707 2.090586510823459 48 57 25
9.88072299588235 0.18091864820659526 1.995627736113574 45 54 24
10.686004425271049 -0.45934074093690136 1.9617895582400837 47 58 25
10.75270407462064 -0.1391357515601815 1.9592338990337494 47 56 24
10.750598874740424 -0.36463471954932136 2.06216728609652 47 58 25
10.588348468504078 0.07874141593012314 2.3022499274752932 46 56 26
10.597524267350703 -0.05539773998531728 2.4367838440793834 48 57 27
10.577024970806537 -0.048357412315348194 2.3032112247499077 48 57 25
10.890016317953245 0.3219041082584031 2.277655871999096 45 54 24
11.172829608594933 0.4318018405727239 2.2562311952548764 44 53 25
11.192237704173264 0.4858119233741967 2.376415525361587 45 54 27
10.909927532724954 0.3650259186297427 2.403752683280407 46 54 26
9.936218480982342 -0.048357412315348194 2.2283077227468358 46 55 23
10.909927532724954 0.3650259186297427 2.403752683280407 46 54 26
11.388248600454098 0.09016909777882513 2.492537749108277 46 56 28
12.94116410500331 0.5968410043790251 2.7731146585331077 49 59 33
12.67890887341664 -0.09828664636490862 2.83106545452659 56 69 42
11.740927422761835 0.15940287164662592 2.8025377829069313 53 63 36
11.941758734147246 0.42070277191325994 2.5745060119902936 46 55 28
11.188192317131984 -0.07813709760966445 2.6912094509437536 52 62 36
12.421088523578877 0.2137519855269376 2.9041238603444754 56 66 40
12.922942322969867 0.9028958715798753 2.7767839672769985 49 59 36
13.180037725668079 0.753885488691295 2.728713305315783 49 57 33
12.776308634939063 0.39774533193616535 2.808127340078398 52 62 36
12.510919477320224 0.5160071589341562 2.876078967601594 51 61 35
12.776308634939063 0.39774533193616535 2.808127340078398 52 62 36
11.762905066656552 0.2698860730601118 2.5988481455259276 46 55 25
11.667316295951128 0.10546249455732026 2.612588168064095 47 56 27
11.486160030364907 0.23202748084950542 2.4813843098626314 46 55 24
10.21024512864406 -0.2942018099148205 2.2077468755833074 48 57 25
10.488538483963918 -0.4063463564956217 2.188256584490742 48 58 28
10.173145072639954 -0.6422493768180562 2.339513476302912 51 61 35
10.024408792762165 -0.1739197804345159 2.2215325780637487 47 56 24
10.680255359291717 -0.19866756925616466 2.4277246323464223 48 58 27
10.621635996754403 -0.6654025826661589 2.1793865148299747 48 59 27
10.848376743807941 -0.8366142846785372 2.410015086327769 53 66 37
10.78819205814982 -0.6005153552932405 2.060303397168451 47 58 25
10.779788348395645 -0.568553364595981 2.28642216461857 49 59 30
10.21024512864406 -0.2942018099148205 2.2077468755833074 48 57 25
11.057226227508139 -0.38608479703374166 2.533090267347366 51 62 36
11.302464022755405 -0.719802188865321 2.670732087802552 55 68 41
11.183557732861695 -0.7339786757643402 2.5170599729572096 53 66 37
11.43224891306675 -0.4557788464193564 2.648897183339385 54 67 40
11.963710903157846 -0.5530769354559022 2.753170976902824 56 69 42
12.482151577182822 -0.45023105561112586 2.884690731986088 56 68 43
11.770955980872458 -1.0828590067857629 2.5977152529575234 56 66 40
11.805509079736696 -0.34376226165952684 2.787352697472907 55 66 40
10.885858620416741 -0.2314802036236426 2.5560668192112463 50 60 34
11.805509079736696 -0.34376226165952684 2.787352697472907 55 66 40
10.787075942859708 -0.8490216830130957 2.570024410240186 54 67 39
10.83104933151254 -0.6081409889442951 2.563742787106041 53 66 37
11.681466053236138 -0.6081409889442951 2.610519742219684 54 67 39
10.885858620416741 -0.2314802036236426 2.5560668192112463 50 60 34
11.348791599154719 -0.9930790212743918 2.6627750054098644 54 67 38
11.798216534558383 -1.2151615012065542 1.9232270179160391 53 62 36
12.089734566162175 -1.2752925914775242 2.1956779188913957 52 63 39
11.339426748517072 -1.1808223783591323 2.0345784225989245 52 62 36
11.331431857345486 -1.2423925122594859 2.244839075078515 53 63 37
10.933124951706171 -1.0456607830724467 2.053254207987077 52 62 35
11.004506251786038 -0.9609228980516835 1.9498877520826117 50 60 32
11.304248472424948 -1.2016230299527921 2.366152395884895 55 64 39
10.719976996163643 -0.9888812719599778 2.1730082611171344 53 63 36
11.412457113910571 -0.9609228980516835 2.031380309242339 50 60 33
12.419633294574009 -1.32495473108087 1.9048856897383193 52 62 37
10.650561753207727 -0.7495021460237182 2.0672005730012297 49 59 29
11.304248472424948 -1.2016230299527921 2.366152395884895 55 64 39
11.316489134423612 -0.9888812719599778 2.245894359424501 54 64 38
11.180945780843555 -0.8282539040566158 2.2556377835588255 53 63 37
11.37750464373385 -0.9202753342230036 2.359605996800254 54 65 38
11.452978613224571 -1.1499772034183249 2.4851247060343216 55 65 39
10.699712306144294 -0.9000882935405984 2.064714136767123 49 59 32
12.88259223446926 2.0953238880911957 1.2609964900425394 25 30 14
11.45024858552484 1.9428801703696346 1.6646007764086734 24 32 11
11.333472967637855 2.061881505771148 1.8453324517336265 27 35 12
11.700540139833759 1.4973066769528989 1.6625884456944418 23 31 9
11.725217577060356 1.668976914758223 1.6623947130381853 23 31 8
11.972247594684431 1.7532997516821027 1.409096062390793 21 29 7
12.049592467231454 1.4973066769528989 1.8286323305396963 28 36 13
11.601363446151494 2.139211427208804 1.7504040671344199 29 37 17
12.160619953048123 2.209600461127956 1.7420603031507116 34 42 21
12.209005288092767 1.7532997516821027 1.8251906832390339 23 31 8
11.769796707900847 1.9428801703696346 1.3194284916622785 21 29 9
12.014573537701475 2.327849599289201 1.4096707040522418 26 33 19
13.202257545122507 2.273335682165196 1.2687376992969952 26 33 16
12.250513252475853 2.327849599289201 1.8243097404391566 36 44 26
11.33796625739158 2.714255720313316 1.7546236949077798 40 48 33
12.2441425883423 2.6357011208867855 1.2442594576508035 39 44 31
11.780880481150705 2.6357011208867855 1.747638081540457 39 45 31
12.217137330877561 2.7486162804553524 1.4123649898338309 39 47 31
12.293268594009117 2.4468932238335297 1.823408751795431 35 43 27
13.610780297515015 2.4973701056614375 1.200353249351287 28 35 23
12.36591225195922 1.668976914758223 1.9063939882505314 24 32 9
12.760177683979382 1.5844041674596774 2.1582750280149856 30 39 12
11.914445341629687 1.3978241022479543 2.0105808652842043 32 40 17
12.679580494702224 1.5832332064467873 1.982371478925836 25 34 8
12.083227251184747 1.3802557302605938 2.196066425437536 34 43 17
13.28490937766939 1.4718749383427598 2.431331821441335 40 48 24
14.254994829687423 1.4197312273057785 2.731409167168672 46 54 31
14.092395634831286 1.7901369226348922 2.367059863239112 35 44 18
13.929017447870033 1.5858185256773047 2.379121532727179 35 44 18
14.195103670014328 1.81463514961317 2.465499170981284 37 45 21
14.878069226244788 1.7028019270769237 2.5173908251941173 36 44 20
14.276842578481858 1.58976059936673 2.578486008596585 42 50 26
14.878069226244788 1.7028019270769237 2.5173908251941173 36 44 20
14.321915997642375 1.7198848189482379 2.5735201951257074 42 50 27
13.93436958096379 1.8840819360576018 2.6187107850999776 45 53 30
14.69770836958493 1.741996745471271 2.6668820444526604 45 53 30
13.815846401365242 1.741996745471271 2.633792179026863 46 54 31
14.65379089125387 1.5926245151475542 2.6727473610079264 46 54 31
14.23003588987699 1.5965070675262594 2.7354615533104765 47 55 32
14.275257099609775 1.7717063590116393 2.728157207130552 48 56 33
11.800601994444671 1.8586703887924607 1.9231526720814558 23 31 8
12.082277254419251 2.324012453650118 2.0973958389376257 40 48 26
11.599498071828915 2.164648281875033 2.2265105489953854 41 49 25
11.638238901908911 1.977595466373796 2.0217772215211163 22 30 9
12.119474942100423 2.139211427208804 1.9134951626128789 31 39 17
12.030696096680275 2.061881505771148 2.006039166101616 30 38 15
12.638775407467527 1.977595466373796 2.1646851806360856 27 35 13
11.063789812342058 2.567593030669153 2.2643168021269324 43 51 29
12.51574996850961 2.018976300750227 2.271804035144322 35 43 20
12.279577418452574 2.108877148303617 2.184570782567609 35 43 20
11.913481885979618 2.262881025289376 1.9196709364683766 34 42 21
12.076315636448674 2.2494186810861927 2.196479647997144 42 51 23
10.925111772257504 2.400764839337238 2.2749154494579886 44 52 30
14.855582073207419 1.8136477166489695 2.8154575657694605 51 61 37
12.699230980080205 2.3894654532317143 2.0693768299372075 40 48 28
12.580519554283157 2.4468932238335297 1.9004501876770883 37 45 28
12.001241860669806 2.5149977021128493 1.9170122431328673 41 47 32
11.568248943012394 -1.583495098982453 1.7509238256477924 55 65 41
11.932783224093752 -1.4091735954370816 1.8312146110043312 54 62 40
11.630023720603559 -1.7570558677662869 1.663146592427549 56 68 44
16.640341212373595 -1.5796190797443084 1.3939486497125724 29 32 15
16.515354412264276 -1.5186172767225627 1.453820756894216 32 32 16
10.462308113098697 -1.9868427238793367 1.7702082861513182 55 65 40
11.272808021716735 -1.8649441344824187 1.8468484722604848 54 68 43
9.770667459234803 -2.4126499638017402 1.3722207109313007 50 62 39
9.647914398460435 -2.265085246550452 1.4745138798682027 50 63 36
9.506486550363816 -2.1795557779169465 1.8999068317788077 52 62 39
10.705368306819752 -1.9868427238793367 1.8618966722916745 56 66 42
11.215398628771657 -1.950675948104723 1.488003845844749 56 66 42
9.781945429208092 2.9662742590413744 1.8903049308342486 42 51 35
9.6738189263147 -2.886959187271103 1.7867090505364098 51 62 42
9.666788004430293 3.0739142782801423 1.8942487567680661 45 55 40
9.058369761107395 -2.7482025517658997 1.8016360015849724 50 62 39
11.754309764310468 2.827534165731001 1.4918078179603949 41 48 35
8.818391217588662 -2.7482025517658997 1.5790189811239235 50 62 42
9.494615001429732 -2.886959187271103 1.4729543704013217 50 59 42
11.60852462698195 -1.3229138780555065 2.8365220715987998 55 69 43
10.785350279486725 -1.0687742957425441 2.77598474476643 55 68 41
11.724708959393165 -1.0687742957425441 2.8064820917127866 55 67 42
11.60852462698195 -1.3229138780555065 2.8365220715987998 55 69 43
12.291995437216029 -0.6395429276018906 2.952334218294808 56 68 44
12.444014053798398 -0.9086449305445907 2.8966281916521512 57 71 44
12.340117985677088 -1.41311053859433 2.6843596385446866 56 66 41
11.569116151911048 -1.2386956476162219 2.6272936915709164 55 65 41
12.051105099743623 -1.1701044715331805 2.7358162842387594 54 68 39
11.577861972230385 -1.6135261531710188 2.8450478137232955 55 69 42
11.773910799456676 -2.1361570273999 2.7946818945247447 56 70 43
12.588921765268084 -1.8972786730659648 2.8541741056846273 56 70 43
12.53761968554113 -1.6135261531710188 2.8683571881758283 56 70 43
12.363518899001823 -1.7804015938156108 2.6805275790165513 56 66 40
12.363518899001823 -1.7804015938156108 2.6805275790165513 56 66 40
11.908283746645058 -1.6037789749978615 2.764708205398357 53 68 41
12.098979686575017 -2.0260879319320666 2.7267025427726477 55 69 42
10.684932332695245 2.6726324140628845 2.294166081507016 43 53 29
10.78675735593861 -3.0884318149097174 2.4164008856351793 52 65 44
10.072178551934698 3.055052934406388 2.3492548443573327 48 60 40
10.797860913778402 3.055052934406388 2.415241409044478 51 63 41
10.38884559981852 2.790126269216614 2.3196221766818175 46 58 35
9.51543101011252 2.918638097758795 2.262921735099552 49 59 38
10.38884559981852 2.790126269216614 2.3196221766818175 46 58 35
10.477790253452612 2.7385631101292316 2.4503275295571334 46 57 33
10.151701749860893 -2.5602829117283843 2.4901136213092157 53 67 41
9.126153735889257 -2.422420759674947 2.0333624436222433 50 62 38
9.606647554730705 -2.333808489718895 2.255076486995664 50 63 36
9.39148963103952 -2.699684976868729 2.1413732826237784 50 62 38
10.868048039942042 -2.9507648921269802 2.408001207214851 52 66 43
10.42044904542546 -2.7720265607207164 2.4570046570770248 52 66 42
9.673921804448309 -2.820010951447708 2.249416541137467 50 63 40
10.147386297329872 -2.9507648921269802 2.341971558365067 50 63 42
9.795938517187373 -2.591610625272391 2.115094299503876 48 62 37
9.126153735889257 -2.422420759674947 2.0333624436222433 50 62 38
10.177264911241402 -2.422420759674947 2.2101464345832476 50 63 37
10.526983535691555 -2.4362727415444048 2.4446991952671437 53 65 38
10.893730217845448 -2.328558870239045 2.554978004005623 56 67 41
11.044022994224795 -2.9206423379851065 2.534808366447596 52 66 42
11.40429934927423 -2.4574268648430118 2.6534818624190417 56 70 45
11.844393935540532 -2.0997150757009213 2.587547376300315 54 67 40
12.925132064222192 -2.3200942739450605 2.776340610922792 57 71 44
11.424943490349392 -2.193434974489743 2.650089568511528 55 69 42
11.312046759626265 -2.4362727415444048 2.5014690678254907 54 68 41
15.12860449728993 2.6452484960355713 3.0554514602709846 60 72 49
15.085941475514515 1.7998663909996682 3.0993912721130137 61 73 50
15.29918175320054 1.6259050235479493 2.969240191437885 52 64 40
15.202445201112507 2.1859166468122044 3.0107552581516646 60 72 49
15.159989982188533 1.659780967788397 3.0341121910200184 62 74 51
15.29918175320054 1.6259050235479493 2.969240191437885 52 64 40
15.341251779116213 1.9826764043577367 2.9541413730069443 54 66 43
15.543283829604476 1.877031052630368 2.894845490310524 52 62 38
15.501762105479234 1.6107001563164927 2.905714303836133 51 61 35
11.831804031202275 -1.8213243410865598 2.3216622606111708 55 65 41
11.20906474957599 -1.6806131858471747 1.9426283688118624 56 68 44
11.782843939460719 -1.3528986343207223 2.32554700943067 54 64 40
11.183248405299908 -1.4885674871390921 1.9435287716591503 53 64 40
12.40503079710206 -1.4798471977227563 2.279361310691975 53 64 40
12.428309488526374 -1.6922112613145397 2.277757151015037 56 67 41
12.5599331437459 -1.795556505816149 2.268838685141313 55 66 42
12.21565452423484 -1.7745280096431304 2.0910598753334524 54 66 41
12.08028027914448 -1.6806131858471747 2.097491945184626 54 67 41
12.168238990271801 -1.3939122535928192 2.0932937513380763 53 63 39
12.056329622117294 -1.4885674871390921 2.098647493771821 54 64 40
12.351458152723518 -1.58804032584662 2.3957693109112457 56 64 40
11.696075604915006 -1.5903762967019133 2.4586014028038843 55 64 41
11.726429154824407 -1.4553955308702737 2.455426168156282 55 64 41
11.890175449564737 -1.8535877968235566 2.4387777161238735 55 64 41
11.953820573848912 -1.4375073471469875 2.5729235991969106 54 66 41
11.924045879840682 -1.593444198943517 2.5768427755976795 55 67 40
11.924045879840682 -1.593444198943517 2.5768427755976795 55 67 40
11.953820573848912 -1.4375073471469875 2.5729235991969106 54 66 41
12.535414080277699 -1.8213243410865598 2.380018007539036 55 64 40
11.97797620540789 -1.7482958804777047 2.5697758233697856 56 66 41
11.890175449564737 -1.8535877968235566 2.4387777161238735 55 64 41
9.638619800166193 -2.249385303434894 2.1250034958677095 50 61 36
10.252486184763193 -2.973727818691674 2.204702204922377 50 62 41
10.017591716397698 -3.100043386873196 1.9894555191811203 50 60 41
10.166274589355126 -3.094948880898301 2.2109504777824633 49 61 42
10.46408922590446 -3.100043386873196 2.0768782891445956 49 58 42
9.885787140137221 -2.8572688972426707 2.109602148535979 50 62 41
10.166274589355126 -3.094948880898301 2.2109504777824633 49 61 42
10.475534801865603 3.0739142782801423 2.0762728429909463 45 57 40
10.347518638237029 2.862574057242313 1.9753119929111622 42 50 32
10.49152692406547 2.8303772740024558 2.188054337046947 43 51 31
10.14058558029343 2.9662742590413744 1.984065030596613 44 53 37
19.65556202483837 -1.6297841637216472 1.7277576121877032 25 28 9
17.413826912307687 -1.5791114704746518 1.6324248812037037 31 35 18
17.670380951228513 -1.5216145084790085 1.7455637317092203 20 19 4
19.10159217531816 -1.6329854279109473 1.839575137014722 23 23 6
18.534954897533623 -1.6935648207108576 1.9045847881368658 6 7 0
19.067820530920777 -1.5786590920426897 1.8400630174867576 12 11 1
17.887578655545685 -1.6365535660327903 1.8004830659454205 21 21 10
21.694342613230578 0.7387604092997266 1.0429172033688974 42 52 28
21.694342613230578 0.7387604092997266 1.0429172033688974 42 52 28
22.11247916367768 0.5257679156176129 0.8894394396660981 35 44 16
22.115735553347566 0.5565289012674893 0.8298703105142399 34 43 14
11.711547061009224 0.8317588814389737 1.6625019334823226 21 31 4
11.475277673204534 0.6419254966352406 1.8418537107498523 32 40 13
12.289650445213846 1.250425051114232 1.658176827872883 26 35 9
12.569571463128515 0.47770364920794445 1.3357346703490014 18 24 0
12.507447067076148 0.7719145251111534 1.4160723220762972 17 27 0
12.205698813050954 0.9516374000999797 1.8252611244510408 27 37 8
10.937256633500887 0.43834302162065747 1.6690143830328772 16 22 0
11.908521139057292 0.5914727239644046 1.4928327840166267 20 26 0
12.587908084369893 1.250425051114232 1.3360835157485615 21 29 6
11.861241269463052 0.9516374000999797 1.6613413736808431 23 32 4
11.367088790333527 0.7701721790532803 1.8444996337511586 27 36 9
11.447032837128797 0.7648660890725789 2.3535091821295024 43 51 28
12.110531118242061 1.3081271598541415 2.00297608940334 32 40 16
12.01171401620017 1.189614008580257 2.1008144520544203 34 44 16
11.975522822780453 1.0240129816120558 1.9177871020186115 32 42 12
12.161524883925908 0.9694952748876375 2.546733674589335 44 52 29
12.187126155032873 1.212251106286736 2.4104829151783957 40 48 25
13.237904076560362 1.0171805794189517 2.7188455728779726 47 55 32
11.243900475746912 1.2822481189207644 2.0388323043950827 35 44 16
11.462156184044796 1.212251106286736 2.35219768873497 38 46 22
11.456922823010483 0.7002423532417218 2.0294555066512756 36 45 17
11.969721251211851 0.846591077871013 2.3109628035992182 43 51 28
12.235533915433958 0.9379557614252023 2.406082671734797 42 50 27
12.161524883925908 0.9694952748876375 2.546733674589335 44 52 29
10.341902992192907 0.06280950771646616 1.8724433524258812 50 59 31
11.137394759147726 -0.12646164839856697 1.757973061945752 37 46 14
10.701819291172017 0.3519954394753212 1.7656873007489933 22 28 3
11.75489448347446 -0.38351851178132307 1.662162813389015 38 49 14
10.449623129918908 0.16290219819043833 1.8692375346571193 48 55 29
9.964202783116674 -0.36463471954932136 1.8842593994480192 47 58 25
11.058084286100323 -0.035006442248106 1.7593316013834044 33 40 8
10.33030935851008 -0.03855506324173086 1.8727925636615272 48 57 27
11.304950064625833 -0.21584390505914228 1.7551667218367424 37 46 14
11.169626681018224 0.1481250948724553 1.7574265612902629 16 22 1
11.254558831050463 -0.8851398841147297 1.8473078466383628 47 57 28
10.576170515059749 -0.6821318087736833 1.865558723659168 47 58 26
15.397372922570144 -1.3088461623432115 1.312870700185535 45 49 30
10.750598874740424 -0.36463471954932136 2.06216728609652 47 58 25
10.316508936375719 -0.36463471954932136 1.9765992240652461 47 56 24
10.298286667226998 -0.15461073936264266 2.0858236292092585 47 56 24
9.936218480982342 -0.048357412315348194 2.2283077227468358 46 55 23
10.268760191670557 0.3219041082584031 2.2035376888213776 44 53 25
10.06020724521271 0.20335401266095132 2.2188260997244327 46 55 25
10.268760191670557 0.3219041082584031 2.2035376888213776 44 53 25
11.835921713325435 0.39774533193616535 2.7804690678017714 48 58 29
12.106210510055936 0.12696970177071978 2.7253485739808934 52 61 33
11.753055413583386 0.6406246941309678 2.6002391681688817 47 56 30
12.370920136699779 0.49479433640692366 2.679324715400254 47 56 30
12.510919477320224 0.5160071589341562 2.876078967601594 51 61 35
11.667316295951128 0.10546249455732026 2.612588168064095 47 56 27
12.198360503411779 0.3219989750080976 2.708577641161602 47 56 26
10.834856949597894 -0.2942018099148205 2.2820120547316725 47 58 24
10.659915157995274 -0.1739197804345159 2.2962403588864895 47 58 25
10.325926299414231 -0.5086547894148973 2.084309312871513 48 58 28
10.529841701451936 -0.5235353869284328 2.4443749599699323 50 63 34
10.413621026982602 -0.4580807918041364 2.3174132591944416 49 60 30
10.848376743807941 -0.8366142846785372 2.410015086327769 53 66 37
11.67987253385541 -0.6948626630048212 2.817685750065544 56 69 42
12.202078204835859 -0.719802188865321 2.7079190273684013 54 67 39
11.681466053236138 -0.6081409889442951 2.610519742219684 54 67 39
11.266586939607022 -0.2769448528738997 2.6770265910458013 53 63 37
11.183557732861695 -0.7339786757643402 2.5170599729572096 53 66 37
12.748139635374079 -0.34376226165952684 2.8145661137500717 56 69 42
12.179611361926819 -1.2151615012065542 2.0003614806542243 53 62 38
11.900923357468901 -1.3023466289966195 2.011115540494972 53 63 38
10.865071563051648 -0.8222388887805392 1.9550052574873376 48 57 26
11.597283720490317 -1.0893813280678752 2.3407040751254287 54 64 38
11.452978613224571 -1.1499772034183249 2.4851247060343216 55 65 39
10.988023286786271 -1.0272275821745414 2.395968235104419 55 65 39
11.452978613224571 -1.1499772034183249 2.4851247060343216 55 65 39
10.924832729259508 -1.0893813280678752 2.274937143938713 54 64 38
12.68693214843207 -1.2441435224147204 1.8975818816683208 53 61 37
11.320271004749065 -1.093142527170449 1.938800269647273 52 62 35
11.004506251786038 -0.9609228980516835 1.9498877520826117 50 60 32
11.53328497649332 -1.2752925914775242 2.1252988101149786 53 63 38
12.160747980174383 2.5634251567871527 1.6591054531414122 38 44 31
11.821025900527841 2.139211427208804 1.8337346925651044 32 40 18
11.859174353863615 2.327849599289201 1.5769105987712941 33 41 23
12.191134332013538 1.8350829532851762 1.4120241994433722 23 31 10
11.907352177817977 2.327849599289201 1.660989784606825 33 39 25
11.806702830715 1.9428801703696346 1.8340612456116745 22 30 9
11.956679217464005 2.0219071896948773 1.4088836599750196 25 32 13
12.419951797854107 1.7700523061808489 2.0816611459153007 26 34 11
14.878069226244788 1.7028019270769237 2.5173908251941173 36 44 20
14.436284898695252 1.845139368403678 2.561225773876513 43 51 28
13.794909355286565 1.4422790370400602 2.6365263144698226 44 52 30
14.078775670124237 1.7028019270769237 2.475866064228721 37 45 22
14.195103670014328 1.81463514961317 2.465499170981284 37 45 21
14.254994829687423 1.4197312273057785 2.731409167168672 46 54 31
13.468265316911843 1.4589945695530342 2.535918498073274 42 49 27
11.738271863696223 2.1900847945780946 2.0176544399330623 35 43 19
12.279577418452574 2.108877148303617 2.184570782567609 35 43 20
12.082277254419251 2.324012453650118 2.0973958389376257 40 48 26
12.082277254419251 2.324012453650118 2.0973958389376257 40 48 26
11.519217847574755 2.2494186810861927 2.1260552902326886 39 48 22
11.517252757020293 2.4750801604377406 2.2320155622854942 42 50 28
10.445975357950633 2.4969008783708184 2.314551121337179 45 53 30
11.80273614194539 1.8867268257560108 2.1112209767014187 22 30 8
10.925111772257504 2.400764839337238 2.2749154494579886 44 52 30
14.855582073207419 1.8136477166489695 2.8154575657694605 51 61 37
14.855582073207419 1.8136477166489695 2.8154575657694605 51 61 37
9.00781145729125 -2.4961437636020944 1.6901438638496578 49 61 37
16.661689945244063 -1.5186172767225627 1.3941776333234914 31 31 15
9.891591449930619 -2.1213683473976017 1.679436318879772 52 62 38
11.932783224093752 -1.4091735954370816 1.8312146110043312 54 62 40
9.603503098935835 -2.265085246550452 1.5783467439532697 51 62 36
9.384141129263764 -3.100043386873196 1.7934846564588665 47 56 40
9.781945429208092 2.9662742590413744 1.8903049308342486 42 51 35
10.193924169472806 -3.104135082149033 1.4796857134784227 47 55 39
10.219872557564965 3.0805682477240053 1.675933470021744 45 54 40
11.754309764310468 2.827534165731001 1.4918078179603949 41 48 35
9.310070845341734 -2.991794975789643 1.6862515404759586 48 57 40
11.724708959393165 -1.0687742957425441 2.8064820917127866 55 67 42
12.588921765268084 -1.8972786730659648 2.8541741056846273 56 70 43
12.311277583305609 -1.5976518447573855 2.689144233202309 56 66 40
11.724708959393165 -1.0687742957425441 2.8064820917127866 55 67 42
11.4202686571706 -1.5976518447573855 2.650854788928135 56 66 40
11.47643090162974 -0.9086449305445907 2.8754944520795873 56 69 42
11.908283746645058 -1.6037789749978615 2.764708205398357 53 68 41
10.797860913778402 3.055052934406388 2.415241409044478 51 63 41
10.771432339886568 2.609214914734514 2.4180076157957675 45 55 30
9.735660910570921 2.790126269216614 2.2443133146080547 45 56 34
10.477790253452612 2.7385631101292316 2.4503275295571334 46 57 33
10.060274087948384 -3.0884318149097174 2.3504225204072124 51 63 43
11.076526624767755 2.8838346567122115 2.5305936911401012 50 62 39
10.964037119344939 -3.0798005412304246 2.5453991422734337 52 66 43
10.331010725472625 -2.820010951447708 2.324837823466167 49 62 41
9.863909695224118 -2.7082602931951074 2.5293973920135446 53 66 43
10.34221478515328 -2.522289684465978 2.3238208709777073 50 64 37
9.959973530067774 -2.6386644913757484 2.3604269347383116 51 65 38
10.868048039942042 -2.9507648921269802 2.408001207214851 52 66 43
9.967201062543726 -2.699684976868729 2.225909825558584 49 63 37
11.044022994224795 -2.9206423379851065 2.534808366447596 52 66 42
10.963670368511574 -2.5602829117283843 2.545448441557143 55 69 44
15.202445201112507 2.1859166468122044 3.0107552581516646 60 72 49
15.341251779116213 1.9826764043577367 2.9541413730069443 54 66 43
15.341251779116213 1.9826764043577367 2.9541413730069443 54 66 43
12.330855673588175 -2.028714733196919 2.5267324226962975 55 66 39
11.924045879840682 -1.593444198943517 2.5768427755976795 55 67 40
11.924045879840682 -1.593444198943517 2.5768427755976795 55 67 40
12.114493708368075 -1.8950556248400965 2.5524959496252135 55 65 40
12.539228362220298 -1.7246514930052241 2.503578095337575 55 63 40
12.228505019194426 -1.4091735954370816 1.9103159213982663 53 63 38
12.06668067361532 -1.2877829829116145 2.5584520641296273 54 67 40
11.296722457369643 -1.8950556248400965 2.503292788244715 55 65 40
11.151416444892327 -1.5847183166336865 1.9446451621262653 54 66 42
12.351458152723518 -1.58804032584662 2.3957693109112457 56 64 40
11.750625341836454 -1.7745280096431304 2.0171507306972893 54 67 43
12.403530236640387 -1.706531611702245 2.3912360877998213 56 65 41
10.178055073714987 3.0656347871943592 2.2100887123391875 46 59 40
17.601372094172586 -1.4644408051827698 1.6888171770297364 18 17 1
19.739051708353173 -1.681003462973054 1.7270882467248236 26 27 11
17.887578655545685 -1.6365535660327903 1.8004830659454205 21 21 10
18.826490917538347 -1.5786590920426897 1.7888379674935677 25 24 4
21.439344594692255 0.7042077986672998 1.1413066703798715 43 53 27
21.916806801008608 0.5746589492332798 0.9399310661397016 40 48 24
21.87442444166838 0.6068889710340972 0.8805825784022947 36 45 19
10.450007921639637 0.480850318304194 1.8692262071123822 36 44 18
11.68274818443007 0.7105385135691504 1.5770029341803313 19 27 0
12.11979757688085 1.3298294280116159 1.4110816676235125 22 30 7
11.859671905521468 1.1419639925947704 1.7464509312899033 27 36 10
12.593706551350275 1.1749877596476823 1.5765539777258537 22 31 3
12.009617004796084 1.2225476549507452 1.916760681116773 32 41 15
11.608297192818588 1.0578058638908452 2.121301749950786 36 45 18
11.931842831594382 0.9155899710108489 2.205256031139281 41 49 26
15.942436584897587 -0.08682783492288158 1.5125860132396587 50 59 31
11.218520701031478 0.23680917264103263 1.6665442675689113 15 20 0
10.982331614080882 -0.41822047349842034 1.7606478548863982 47 58 23
10.415163243325248 -0.1391357515601815 1.870255524134225 48 57 25
11.254558831050463 -0.8851398841147297 1.8473078466383628 47 57 28
11.835921713325435 0.39774533193616535 2.7804690678017714 48 58 29
11.38860167846517 0.553691570405831 2.4924968879789815 47 54 28
11.753055413583386 0.6406246941309678 2.6002391681688817 47 56 30
11.388248600454098 0.09016909777882513 2.492537749108277 46 56 28
12.198360503411779 0.3219989750080976 2.708577641161602 47 56 26
12.67890887341664 -0.09828664636490862 2.83106545452659 56 69 42
11.230375832518474 -0.9490098918426412 2.511299069610046 54 66 39
10.479267256014502 -0.26257349308464906 2.0760757340185254 47 56 22
10.355678073032053 -0.6005153552932405 1.9749746884455988 45 58 25
12.922942322969867 0.9028958715798753 2.7767839672769985 49 59 36
10.892102652850301 -0.6422493768180562 2.4055545250676875 50 63 35
10.397500614867669 0.38804177713380467 1.973254845187913 47 53 26
10.536288364980141 0.28763887273909783 2.073084475623907 48 54 29
12.688356720939511 0.15940287164662592 2.8287534722511305 56 66 40
10.621635996754403 -0.6654025826661589 2.1793865148299747 48 59 27
11.001578832988125 -0.8693439026463328 2.7276728147045985 55 68 41
12.41143722754038 -0.13235765498585647 2.907358282474122 56 68 43
10.5767920005507 -0.8282539040566158 2.182343988175606 50 60 34
12.71373356357638 2.385721956480017 1.4186025244518514 24 30 18
12.161563830099686 1.4124511502788182 1.826205169586454 27 35 12
11.803540005802876 1.4124511502788182 1.4921379460436925 23 31 8
11.676288267174424 1.668976914758223 1.577006368035723 21 29 6
12.038014593931143 1.8350829532851762 1.576819762264666 22 30 8
14.131180462182538 1.7700523061808489 2.2679272620928015 33 41 16
12.730310497171901 1.668976914758223 1.9806326744918517 25 33 9
14.389996841303729 1.9353397169801898 2.710343348119026 48 56 33
11.238486784556716 1.977595466373796 1.9416076354966931 26 34 12
13.28490937766939 1.4718749383427598 2.431331821441335 40 48 24
14.712293853342171 1.6892149149809579 2.4228019076844736 36 45 20
14.69770836958493 1.741996745471271 2.6668820444526604 45 53 30
14.275257099609775 1.7717063590116393 2.728157207130552 48 56 33
13.929017447870033 1.5858185256773047 2.379121532727179 35 44 18
12.291300589393071 2.262881025289376 1.996202790210766 35 43 20
13.93436958096379 1.8840819360576018 2.6187107850999776 45 53 30
13.769116455072375 1.5926245151475542 2.639924802843121 44 52 29
12.107585402100451 1.977595466373796 2.0961810707563737 29 37 14
14.855582073207419 1.8136477166489695 2.8154575657694605 51 61 37
12.376381770515293 2.5149977021128493 1.9930903389900523 41 49 29
9.375606456247395 -2.3373822659428827 1.9046783921777513 50 63 35
9.294048529988812 -2.648160167088618 1.470835946096507 48 61 38
9.097086175868503 -2.3373822659428827 1.800635854755437 50 62 38
10.68036266888605 2.8888635365277113 1.7660838817269502 42 50 33
11.59893701055124 -1.4957647293075547 1.75044204954806 55 64 42
10.526983535691555 -2.4362727415444048 2.4446991952671437 53 65 38
11.424943490349392 -2.193434974489743 2.650089568511528 55 69 42
9.735660910570921 2.790126269216614 2.2443133146080547 45 56 34
12.718883404010453 -2.1361570273999 2.8214165316069675 57 71 44
10.893730217845448 -2.328558870239045 2.554978004005623 56 67 41
11.569116151911048 -1.2386956476162219 2.6272936915709164 55 65 41
12.490382744424616 -2.3041616633242636 2.8821940926621217 57 71 45
11.577861972230385 -1.6135261531710188 2.8450478137232955 55 69 42
10.331010725472625 -2.820010951447708 2.324837823466167 49 62 41
15.322399240480985 1.2551729381481034 2.960743033932194 56 68 44
15.12860449728993 2.6452484960355713 3.0554514602709846 60 72 49
11.667238539365613 -1.469065076853101 2.3349074338801272 54 64 40
11.841456704744726 -1.3244871835456806 2.4436485387232807 55 64 41
12.376341661000744 -1.5862022873564023 2.2813496706409415 54 65 39
11.893305920265759 -1.3755087278386822 2.2076428255812344 53 64 40
11.696075604915006 -1.5903762967019133 2.4586014028038843 55 64 41
9.730747741552703 2.9452682826634202 2.1191543972100844 47 56 38
10.780359989346955 2.862574057242313 2.0606904904879797 42 51 33
10.780359989346955 2.862574057242313 2.0606904904879797 42 51 33
11.065976123113602 2.764671429748054 2.0469768049347077 40 49 31
19.10159217531816 -1.6329854279109473 1.839575137014722 23 23 6
19.10159217531816 -1.6329854279109473 1.839575137014722 23 23 6
11.820544656168927 0.8317588814389737 1.407002190268119 19 29 1
11.519643688574208 1.1033669307427798 1.9321356734812898 33 42 15
11.535674558520764 0.5316260411921261 2.2307736447856774 44 53 24
11.751254424726934 1.1023766958518164 2.3280782866433873 38 46 22
10.990673078428696 0.6679828930865036 2.3957071935838092 45 54 28
11.729037362023861 1.2822481189207644 2.1149953714904015 34 43 17
12.27661748899108 1.2822481189207644 2.1847406623397227 34 44 16
11.447032837128797 0.7648660890725789 2.3535091821295024 43 51 28
12.116226174923126 1.0034607954935324 2.299973304183524 42 50 27
10.879376422979181 0.592986203803707 2.278491452580065 44 53 25
11.801712117015834 -0.9396654671463188 1.7473226453630235 46 56 27
11.208428211194718 -0.9000882935405984 2.1433505293582114 52 62 36
9.948271395535139 0.07874141593012314 2.22737258546436 46 56 27
12.679226010502305 0.7423869590009938 2.8309875218131384 50 60 35
10.388789343951517 -0.7339786757643402 2.4607466367657604 54 64 36
11.657040940665823 -0.06483401451842882 2.614097989372813 50 60 34
11.43224891306675 -0.4557788464193564 2.648897183339385 54 67 40
11.923915311243297 -0.8693439026463328 2.7614098481087552 56 69 42
11.670119253745142 1.5832332064467873 1.6628284002081635 23 31 8
11.951335225067988 2.4468932238335297 1.660656958582084 33 40 28
12.148816912556354 2.5634251567871527 1.4943778920465771 35 42 31
14.69770836958493 1.741996745471271 2.6668820444526604 45 53 30
12.70758504550967 1.4973066769528989 1.9814097251104457 26 34 10
14.321915997642375 1.7198848189482379 2.5735201951257074 42 50 27
12.252569034866886 2.3894654532317143 1.997635463087602 36 44 25
13.794909355286565 1.4422790370400602 2.6365263144698226 44 52 30
9.7451248431091 -2.991794975789643 1.8915552378698193 51 61 42
11.843075908374876 -1.6710309152661629 1.833233572107302 57 68 44
12.588921765268084 -1.8972786730659648 2.8541741056846273 56 70 43
11.618976885573758 -1.9500931980081722 2.619748958425513 56 67 41
11.245432981782047 -1.2877829829116145 2.509466088836526 53 66 41
15.341251779116213 1.9826764043577367 2.9541413730069443 54 66 43
15.322399240480985 1.2551729381481034 2.960743033932194 56 68 44
12.358018339096612 -2.0190132617415952 2.9262203513044898 56 72 45
11.58490675085013 -1.4885674871390921 2.024007787110107 55 64 41
12.056329622117294 -1.4885674871390921 2.098647493771821 54 64 40
11.139304942132464 -1.1701044715331805 2.700372882276044 54 68 39
18.845363260902715 -1.5242863497350299 1.7886160917109595 13 12 0
17.851510477423513 -1.5791114704746518 1.8009555006626026 22 22 11
11.367667035351635 0.9155899710108489 2.13434725190279 38 47 24
12.062369030577125 0.7701721790532803 2.004818579299611 34 43 15
11.137394759147726 -0.12646164839856697 1.757973061945752 37 46 14
11.55691264595679 -0.3018631969429111 1.7511024535863975 39 48 14
10.854869344320631 -0.3341710506026724 2.409349090408305 49 59 29
11.304248472424948 -1.2016230299527921 2.366152395884895 55 64 39
11.266586939607022 -0.2769448528738997 2.6770265910458013 53 63 37
10.588348468504078 0.07874141593012314 2.3022499274752932 46 56 26
11.33796625739158 2.714255720313316 1.7546236949077798 40 48 33
11.699777205872053 2.5149977021128493 1.8365252460422852 39 45 33
11.414972393624089 2.139211427208804 1.5771485325437453 30 37 18
11.800517656943514 2.0219071896948773 1.5769409912940024 24 32 11
12.263281419045368 1.4904151349456507 2.0888362727065335 31 39 16
11.61190785880627 2.324012453650118 2.022875629168195 37 45 23
12.427376956496078 -1.5824694611214798 1.657206001623986 57 67 43
12.291995437216029 -0.6395429276018906 2.952334218294808 56 68 44
11.962285133843904 -1.8263783258020898 2.753462345237685 56 69 42
10.974961321653089 3.041057034016998 2.543933837634675 52 65 42
12.376341661000744 -1.5862022873564023 2.2813496706409415 54 65 39
10.974961321653089 3.041057034016998 2.543933837634675 52 65 42
10.051007880955336 2.6726324140628845 2.219519231112613 42 52 29
12.114493708368075 -1.8950556248400965 2.5524959496252135 55 65 40
11.941813138887944 -1.795556505816149 2.2046417052528464 55 66 42
17.413826912307687 -1.5791114704746518 1.6324248812037037 31 35 18
18.94768713942939 -1.6869470304215135 1.7874209862209183 8 9 1
11.409050532198586 0.6209889565768913 2.13205682077475 39 48 20
11.20235263794312 0.480850318304194 2.040708009002199 39 48 22
11.589585857690423 0.9740964649356252 2.0238111692838716 33 43 17
11.25110444138658 0.565484725281928 1.9411716525906975 37 46 19
11.279491216051492 -0.4996947758544731 1.6660251341456622 47 58 25
11.38860167846517 0.553691570405831 2.4924968879789815 47 54 28
10.693586365101295 0.20335401266095132 2.2934516801253917 46 55 25
12.41143722754038 -0.13235765498585647 2.907358282474122 56 68 43
11.043879960124617 -1.1395983684910578 2.152984479051208 54 64 37
10.854869344320631 -0.3341710506026724 2.409349090408305 49 59 29
10.568211860643483 0.4318018405727239 2.182913413802199 43 52 25
9.699963866700081 -2.648160167088618 1.2642117501380175 50 62 40
8.925826144957965 -2.591610625272391 1.9222116012598611 48 62 37
10.072178551934698 3.055052934406388 2.3492548443573327 48 60 40
11.938097752901792 -1.3779171336648197 2.758448034188445 53 68 40
12.013688395383664 0.5968410043790251 2.7431280314546016 48 57 31
12.136745837228037 2.209600461127956 1.4113066117694242 30 37 18
10.890016317953245 0.3219041082584031 2.277655871999096 45 54 24
14.68149300831654 1.6781540787642377 2.326867653236671 33 41 18
15.543283829604476 1.877031052630368 2.894845490310524 52 62 38
12.149925532481424 1.2509053844046463 2.2974979796107973 36 45 18
12.235249323068421 -0.8736298683766148 1.5767226621031099 46 55 25
10.182752419629036 2.918638097758795 2.3386013495467224 49 61 38
12.026808711786972 -1.5847183166336865 2.1000792027707855 54 67 41
10.64204936145153 -0.743119516059474 2.297730006246227 49 62 33
9.713089199191204 -2.7482025517658997 2.0034490743890077 50 62 41
11.331431857345486 -1.2423925122594859 2.244839075078515 53 63 37
9.781225016810065 -2.4362727415444048 2.3790325656990357 51 64 37
