16.136869790887282 2.7240846181345852 1.0748695756905793 31 38 4
21.22395023836955 0.3870337661688613 1.8242227375512563 43 50 18
15.775298241596387 0.30647270486030187 1.5277613272604837 45 50 17
11.101335614523926 0.4428353349514335 1.599744596929693 36 41 8
15.143654035235919 0.11626599541026265 1.5259651512504728 52 56 23
15.291833873990264 0.18132883910899397 1.5263998581590623 49 54 21
11.369802342773333 0.24484100351768767 1.599060878567246 38 41 6
11.058048290477185 0.1732805021443996 1.9722805969295776 35 40 5
10.955136012656842 0.3583420995465574 1.7843081395912335 38 41 5
10.915480682277263 0.26815568985157184 1.8799747007066963 39 41 5
15.265160589951442 -0.016305770730968817 1.394406338662139 41 44 8
11.270665755031933 -0.022219310292824795 1.7782421682832286 35 38 2
11.917882917802178 -0.12354467577940659 2.129876033004737 36 37 0
11.293264906679932 0.06836257324258596 1.7778210043066645 38 39 4
10.287355700928153 0.48484895367888997 1.6995932549990207 35 42 7
10.324971668093452 0.39422493612062187 1.8982978175207603 34 40 5
10.145424973816505 0.622053052489195 1.8016458241199158 36 41 6
13.117866241515033 0.4287892644535747 2.612065109486954 51 57 22
11.885104365880856 0.3306415612314272 2.3463996162492546 30 35 1
12.425313648243952 0.21526367737963858 2.419142484302096 30 35 2
12.944824797558317 0.28337983244890036 2.635370803803812 47 53 15
12.261960135712432 0.4907992520644101 2.4343892949054635 12 18 1
12.29993734436549 0.08344609876150028 2.3138414279360258 34 37 2
13.326711594647698 -0.03486014166168157 2.585872739955136 45 51 14
12.698376113193406 -0.345120874926289 2.2853837208304006 37 47 10
13.718282575382352 -0.040638892595435794 2.686380541446758 46 55 15
13.096607680105361 0.09378516643325419 2.478498006665546 35 41 5
12.847511951684721 0.12462867011847216 2.6492060822839854 47 53 16
13.3284882203423 0.14908792717762828 2.750347350139266 47 54 17
12.885600954828758 -0.2037340830062761 2.6437239655193596 47 56 16
13.035000822933426 -0.1370694319238348 2.3675624362939103 35 42 4
12.97771829501142 -0.027140348652869482 2.3720883555255337 34 40 2
13.168193526944997 -0.24377518990265057 2.3572690983616678 39 45 8
12.900729657440474 -0.4326574792533819 2.4981866170377547 48 55 18
12.686163777326982 -0.30926657875541064 2.5210941486688467 47 54 17
13.375028787717698 -0.345120874926289 2.341889453781151 39 46 10
14.438367407946373 -0.6882156996673516 2.023962158123906 37 46 1
15.046394842493518 -0.8485548622356468 2.0043759425651846 37 47 5
12.316096213991157 -0.4864922087772099 2.3126367629656537 49 57 17
12.98995112467025 -0.43960360911957524 2.266071393432117 41 48 11
14.788479551939272 -0.7401942131147913 2.1684317475414074 40 50 12
12.735925768972447 -0.8032211453404509 2.3918904054293026 47 58 20
11.883755996080296 -0.6136850765551104 2.4724840052272157 45 56 18
12.276552076359852 -0.7161945518498295 2.4329997212032226 47 58 20
11.883755996080296 -0.6136850765551104 2.4724840052272157 45 56 18
12.239840336601455 -0.7013300936936808 2.57410872848265 48 59 21
10.291448101744182 1.6815578241950104 2.1142115756384032 32 40 6
11.012432540736821 2.294892981702965 2.182199061670004 29 36 0
16.809596586753692 1.240801272475597 2.309734421631309 52 64 31
18.41359927877746 1.2699789642671402 2.5536173542641265 48 61 25
12.439317222954541 1.8982287209704076 2.303595754192859 36 41 10
12.04882081423157 2.0443202623536285 2.333161008847414 30 37 1
13.06003713133472 1.8200130237971848 2.48209132003541 36 45 13
14.840931121610074 1.3039937365129717 2.876193728748211 48 53 20
14.51130057950636 1.5662260190286894 2.7337944471612308 46 56 17
15.0900814437212 1.5652648711102932 2.821020095177205 45 53 12
14.80542577190335 1.5637918089228044 2.8851646799190944 47 53 17
15.225497250211832 1.1679565221923216 2.795231500877602 50 57 21
11.273935753002469 2.2835024354467004 2.401049856129482 36 45 7
14.562814713085954 2.4147904950506605 2.9592247024654785 50 59 20
14.011699563916125 2.725708631170348 2.8263730511133174 52 58 20
14.327425463090453 2.802382270981884 2.7646046220737217 52 58 17
14.837386158562609 1.8245175805657279 2.877074151836445 48 54 18
14.64488429352422 1.9011819554328069 2.713171343596703 43 50 11
15.329390568812627 2.384488738659317 2.776916560141915 48 55 17
14.453722911792616 2.129674780319089 2.7431160738845732 49 54 15
14.88398111358104 2.394358526328292 2.865752948693454 51 57 20
14.616364196595072 1.9105272128687032 2.9403257160331253 51 57 20
14.88398111358104 2.394358526328292 2.865752948693454 51 57 20
14.71684402507792 2.192454603682665 2.9092270672010323 51 57 20
15.21858565833467 1.9642361476748353 2.7964920616963873 47 53 12
13.345512510498033 -2.896308843584204 2.7472664350704776 54 65 25
13.713859824295378 3.0158779829765976 2.687039826130199 49 59 21
13.749549079836214 -2.9361143574091235 2.6817567982585913 54 65 25
13.205590079851437 -2.643969068762764 2.6008228852019233 52 66 27
12.784373806569693 -2.563504376651569 2.6584927224716712 55 69 30
13.87588462794448 -2.7821029763804286 2.663700733917967 55 66 28
14.221647900957707 -3.09236586131861 2.7838598955476503 49 60 20
13.92184610526378 2.9538403616020212 2.846807027535824 48 59 18
14.239564414321588 2.9909515250234078 2.7805090308816376 48 59 19
14.27393930658302 -2.896308843584204 2.774184904900697 51 62 24
8.81424506079485 2.9249527153790242 1.957149284131315 56 63 27
9.100748840678094 3.0471924227573566 2.0655685580445047 48 58 21
11.97307326205485 -2.7550941426516053 2.3392201379178195 52 63 25
12.470246516788992 -2.867142274235991 2.4150639172762656 54 65 27
13.299051927127476 -3.1064697689496916 2.589230960765614 51 62 25
12.458817881335163 -3.1064697689496916 2.547103818005414 49 59 21
14.216012381462589 -2.0591144563800032 2.0315931210676497 51 62 22
14.650518305102151 -1.9566195189568916 2.016922525343417 54 65 26
12.717752781638094 -0.9981416396034365 2.5176269907643745 49 60 23
13.087347570724578 -1.257047501403457 2.6160630413803636 49 63 24
13.81361998387959 -1.5665846658632696 2.672478025378462 51 65 26
12.257698050843905 -0.9161006568162932 2.5718272726013915 51 62 24
14.005484872623418 -1.567606281097857 2.512138536667832 52 62 25
13.856444048395971 -1.5679513340583173 2.4111438879549727 51 61 24
13.364736282291405 -1.3298120095636397 2.4532187695306105 52 59 22
13.894374614762722 -1.460237856449797 2.4081013302024217 51 61 24
13.592966591077591 -1.2980830858179024 2.5550887770512816 51 61 24
13.894374614762722 -1.460237856449797 2.4081013302024217 51 61 24
14.33034457496655 -1.430076704456329 2.605686403421128 53 63 26
13.894374614762722 -1.460237856449797 2.4081013302024217 51 61 24
13.283960668574755 -1.3550308919421266 2.348573321870311 49 59 22
13.888883363482016 -1.4709538748400321 2.3065354500306694 50 60 23
13.847869611965697 -1.7254664887752669 2.6676215934860665 52 66 27
13.07930614982355 -1.8769053667895808 2.6171241794832882 51 65 27
13.276038338604733 -1.7811261572850803 2.3491612040276824 50 60 23
13.276038338604733 -1.7811261572850803 2.3491612040276824 50 60 23
13.766107634367042 -1.9602754736356078 2.536422446348639 51 61 24
14.326673273974109 -1.704390984663654 2.60611805655072 53 63 26
13.540795934878545 -1.9169406518273477 2.437561077072938 51 61 24
14.03926644266889 -1.6883468985544257 2.5088420097636543 52 62 25
11.795553565822793 -2.329647608934258 2.4819970559153024 52 64 27
11.857166834702092 -2.5237737884932256 2.47532477461899 53 64 26
12.272944155067107 -2.243353013088506 2.433342782182815 49 60 22
13.063610187112616 -2.019900163759712 2.365324625043146 49 60 23
13.716704612625932 -1.976742098046515 2.3179586110991695 49 59 22
12.810746759755922 -2.1724024212799002 2.385638282077237 45 59 20
13.716704612625932 -1.976742098046515 2.3179586110991695 49 59 22
13.395997238012654 -2.0643687452397415 2.2410433028549086 48 58 21
12.726455425280113 -2.113591364932246 2.2834711961827203 47 57 20
13.990828005422115 -1.761113889639767 2.2999584368497525 50 60 23
15.883488300538291 -1.7634374636951853 1.7814561416025083 36 42 16
12.39111782999922 -2.5947852323368807 2.4222790731576027 50 61 21
12.39111782999922 -2.5947852323368807 2.4222790731576027 50 61 21
15.868476037632881 2.6935577606742322 0.99212354149385 28 35 1
11.243003103401298 0.15783759035380837 1.688592281202153 38 41 6
15.221288328481295 0.11626599541026265 1.4602864901156347 54 57 24
15.503228983683208 0.24487764941585072 1.5270056185242673 47 53 17
15.815982831668304 0.30647270486030187 1.6544371263210538 47 52 19
15.281853733359892 0.05020054431646449 1.3946010385052932 40 46 10
15.281853733359892 0.05020054431646449 1.3946010385052932 40 46 10
12.063416081344535 -0.22028126678495535 2.122345634101765 31 34 0
11.065604378927073 0.6862553087450683 2.178834573410501 23 28 0
10.834223210569645 0.29623430848024995 2.0842154234909906 33 38 5
10.281293718635467 0.534829258760797 2.0045820853299 35 41 6
12.527797143190117 0.5572287467851093 2.5390080098500274 24 30 7
12.786257460224945 0.37367134023932524 2.5102228744483437 25 30 2
13.3284882203423 0.14908792717762828 2.750347350139266 47 54 17
12.689594574344964 0.5013904438488487 2.67293068616519 49 55 19
12.689594574344964 0.5013904438488487 2.67293068616519 49 55 19
13.345829596458827 0.10703744580958441 2.583570242148102 45 51 15
13.266173361380355 -0.27273978725445197 2.462300866012676 45 51 14
12.721587589732758 -0.3842081113144367 2.393101747672027 45 52 16
13.718282575382352 -0.040638892595435794 2.686380541446758 46 55 15
13.326711594647698 -0.03486014166168157 2.585872739955136 45 51 14
13.077125335324876 -0.030519791703571067 2.4804077166089002 40 46 9
14.850810166693625 -0.7973690741272237 2.0863208357309597 39 49 5
12.621559561904267 -0.8066906119362337 2.52829267782174 49 60 22
12.294356466433769 -0.8931066128444723 2.4313117301232707 48 59 21
12.316096213991157 -0.4864922087772099 2.3126367629656537 49 57 17
12.420799525127558 -0.5434754692852454 2.419554910666581 44 55 17
11.582166381216075 1.7925272498863378 2.2550824995641197 39 46 10
17.386353435090413 1.2965023186978992 2.443693644976499 48 61 26
11.416299567748023 1.6957007294776 2.387507460556597 28 38 4
14.167420581541561 0.8924394933137019 2.7942435614987007 48 53 19
14.167420581541561 0.8924394933137019 2.7942435614987007 48 53 19
15.124918586464307 1.3582192367073127 2.814153923438489 49 56 20
15.434392883069222 1.5662260190286894 2.759492426301905 45 55 17
14.198581913445434 2.5804211965979484 2.621524319029823 52 59 23
14.71684402507792 2.192454603682665 2.9092270672010323 51 57 20
14.011699563916125 2.725708631170348 2.8263730511133174 52 58 20
13.761552562791811 2.6084385410055257 2.887970503773779 49 59 19
14.812833344828997 2.0477293931952385 2.6889839728993383 42 50 6
13.92184610526378 2.9538403616020212 2.846807027535824 48 59 18
14.646263769570695 2.892965436491361 2.9305539115161334 49 59 21
17.354065434392105 2.367281206176619 2.2077501831149497 44 54 17
12.87215467308717 -2.70606765274662 2.501152950766848 52 63 25
12.65710439313348 -2.8301406669307343 2.5243139689370437 54 65 28
13.538839579147373 -2.0227556491085696 2.14214164784316 50 58 24
14.043012881369794 -1.4469581531601483 2.50847830617138 54 61 24
14.293570980277764 -1.567165977024866 2.6100344264800928 53 63 26
14.005484872623418 -1.567606281097857 2.512138536667832 52 62 25
13.12853390543559 -1.5679513340583173 2.360301080925404 51 61 24
13.278978526452443 -1.1195500037057982 2.591688437196622 50 61 24
13.81361998387959 -1.5665846658632696 2.672478025378462 51 65 26
13.46107684024826 -1.8819983920119072 2.3356960109478044 49 59 22
13.164566010208514 -1.6757306132564678 2.357545281005607 51 61 24
13.401690447544215 -2.113591364932246 2.339957958809524 47 58 23
13.46107684024826 -1.8819983920119072 2.3356960109478044 49 59 22
13.58522446152485 -1.8367629760267317 2.5559469535107264 53 63 26
13.267088794900618 -2.0151986525321073 2.5931522103294973 50 63 26
13.716704612625932 -1.976742098046515 2.3179586110991695 49 59 22
13.885095338035613 -1.6655526371592515 2.3067824564301667 50 60 23
10.884868081808188 0.43758385733942157 2.190438374136564 33 40 6
11.753967211369936 0.19203184880643157 2.2432159516356394 33 39 3
11.855203875650554 -0.02443457049656864 2.1331874079214277 36 39 3
13.439534713244925 0.2447626311176655 2.5724981242224034 41 46 15
13.422314402911384 0.33592260390107603 2.7337353190981912 49 55 12
13.020322049637821 -0.35661200539525795 2.6250087161151248 48 57 17
13.077125335324876 -0.030519791703571067 2.4804077166089002 40 46 9
12.29993734436549 0.08344609876150028 2.3138414279360258 34 37 2
13.382500373103616 -0.17537623885092285 2.5791955989999016 48 55 16
11.535644400007273 -0.7161945518498295 2.376556257130505 45 56 16
12.420799525127558 -0.5434754692852454 2.419554910666581 44 55 17
12.759965602368064 2.0443202623536285 2.389869050822716 31 39 0
12.439317222954541 1.8982287209704076 2.303595754192859 36 41 10
12.715502691764055 1.9968717324689371 2.284215822250622 34 40 2
17.588004151663 1.2125808157843934 2.43013265976065 48 63 27
12.567821581996789 -2.71759013908987 2.692446054503277 55 69 30
14.943421322622509 1.0759471950641784 2.852032381404345 49 53 20
13.90352017612264 -3.0800058693320764 2.8511795634426957 49 60 20
14.464637279416529 1.00400473830145 2.741327573410131 45 54 20
15.0900814437212 1.5652648711102932 2.821020095177205 45 53 12
13.90352017612264 -3.0800058693320764 2.8511795634426957 49 60 20
17.354065434392105 2.367281206176619 2.2077501831149497 44 54 17
8.539061035162641 2.8089267262036874 1.7261588594985806 61 68 34
13.354956251131416 -2.9649207673231968 2.582476370242206 53 64 27
14.487756446947069 -1.8622660545142706 1.8736800471821973 48 59 23
12.250815468986554 -2.4210537337133387 2.43545434628153 51 62 24
12.968373292554077 -1.1751191672795536 2.4912624248355657 49 60 24
13.888883363482016 -1.4709538748400321 2.3065354500306694 50 60 23
13.850937759421667 -1.5682290274933566 2.3090183929840404 50 60 23
14.166533238879197 -1.8532911660239066 2.288931710005301 49 59 22
13.057769574849958 -1.976742098046515 2.2617463532094875 49 59 22
12.218332487502133 -2.435071790608403 2.5768763117643645 54 67 30
13.422314402911384 0.33592260390107603 2.7337353190981912 49 55 12
12.384515389199919 -0.4939549064839527 2.556037142639037 48 57 18
13.13397431644347 -0.15389313801867818 2.474863992308886 43 50 11
15.031850442179403 -0.7448800974963541 2.004823936926715 38 48 4
14.249789061525428 -0.7401942131147913 2.110386478491174 38 50 8
14.932649886987145 -0.9062390470401068 2.0832180684335904 42 52 10
12.239840336601455 -0.7013300936936808 2.57410872848265 48 59 21
18.766815176495747 1.2379868040038733 2.62537113165881 48 59 25
15.774766922129029 1.5637918089228044 2.901243388303332 49 54 20
14.706970176824683 2.4949221459298117 2.704019597465686 50 56 19
14.616364196595072 1.9105272128687032 2.9403257160331253 51 57 20
13.749549079836214 -2.9361143574091235 2.6817567982585913 54 65 25
14.310494451942898 -1.987229844055004 2.107847976139933 49 60 22
13.905121656706953 -1.9566195189568916 1.8868012503939438 51 62 26
14.003794136033182 -1.3550308919421266 2.399472592381871 49 59 22
13.894374614762722 -1.460237856449797 2.4081013302024217 51 61 24
13.063610187112616 -2.019900163759712 2.365324625043146 49 60 23
13.851667817561616 -1.4079134174747812 2.6670873282857777 51 65 26
11.134132830780764 2.205473421995687 2.2883669853688122 31 38 0
13.248092904369557 1.9369610068937515 2.463992763044899 35 44 9
15.121440199567774 1.7727790588072216 2.814831825244254 47 53 12
14.936379204789583 2.054732223386437 2.8536190861719515 49 55 19
13.655292559424076 2.469305813762318 2.548255225956095 51 58 22
14.399568606421695 2.384488738659317 2.752146152723422 48 55 17
13.695255586867441 -3.100596294779552 2.6898275892672086 49 60 20
11.386176250831259 -2.435071790608403 2.5298567103177327 56 67 29
12.473518788373562 -1.063562670492804 2.414768769079692 48 59 24
15.868476037632881 2.6935577606742322 0.99212354149385 28 35 1
14.90332488295831 -0.6882156996673516 2.084325318239639 34 44 3
14.543907323678427 1.7384017826561642 2.7286357125735785 43 53 13
8.819458594090435 2.701479615114176 1.6072374193968784 61 67 31
15.10108669865305 2.2406020629109267 2.8188323684344705 49 55 18
14.14384664718952 -1.8057550920719156 2.4988274746001657 52 62 25
14.532716313093898 -1.930017616106147 1.8013749451501175 48 59 25
12.65839818089617 -2.5237737884932256 2.524169990009413 52 65 28
14.293570980277764 -1.567165977024866 2.6100344264800928 53 63 26
13.798555639334433 -2.1444615871151447 2.218124550912057 48 58 21
13.890588086805165 -1.6757306132564678 2.4084038545623274 51 61 24
11.88372638949768 0.59494241931282 2.346513327930694 17 21 3
11.375989867430555 0.0751564070342184 2.057559658221398 37 38 2
