15.356381648981696 0.41339073845929464 1.0947608385049272 55 70 28
16.337850540303958 0.320635514107036 1.0564826004348506 55 70 31
7.688834219695811 0.6839429162210013 1.9663702767871332 40 54 9
7.6208710033045275 0.5645899946326612 2.117639005059387 49 64 20
6.949308215866978 0.22434465013875282 1.8571385174202808 40 54 7
7.578502005921491 -0.0688245789146369 1.69818403491848 38 53 4
7.76912419763562 -0.0688245789146369 1.8262051284074392 32 49 4
7.229037254891212 0.36493586861510907 1.8457641523934118 27 41 0
7.159077305781713 0.0741866236756788 1.997477800011055 56 74 27
8.125920641847538 0.08761315982092745 2.3946946939785847 57 75 31
7.42555675889585 -0.09372793368139087 2.3027717025145726 59 77 33
8.128006602120541 -0.09372793368139087 2.394417533734212 56 76 32
7.423273410906582 0.08761315982092745 2.3030481035072237 61 79 35
7.761816546898826 -0.2292975449650705 2.1066211881180785 66 83 40
6.938694757807853 0.26341300901213804 2.1786609824498075 66 80 33
8.150282258382818 -0.32381170970092027 1.8140130343769505 3 14 2
8.154527267609296 -0.6073561882379048 1.8138838678539349 55 73 27
8.579313600758718 -0.7038281440140688 1.6832565519549882 47 64 16
8.750173085434218 -0.8698864091500195 1.7970368621940498 55 74 29
8.33878934817817 -0.4385176489746539 1.6865147074326847 1 15 0
8.200037092545221 -0.5689779452267333 2.220834332934135 63 80 33
7.823471305795547 -0.4292273146360263 2.257960428021191 64 81 31
8.385320876432509 -0.4960062331543838 2.0630210271960325 75 91 43
8.017462263972536 -0.3694802038547797 2.0877923574864155 69 85 37
8.739726555654283 -0.7870007499589239 2.04139918341488 57 77 35
8.676088598304464 -0.687635642587924 2.179749119945802 60 80 37
15.841560016914567 -0.6507566174395525 1.4418407069571004 53 71 31
16.090982404724194 -0.562843769482978 1.4438505105021133 49 67 22
15.261753461610988 -0.5981295876841325 1.4369126437681596 48 68 28
15.427103440972441 -0.5981295876841325 1.3726274788818795 47 67 21
13.470358940010989 1.6108853937878524 1.1875351345427045 62 79 41
14.154280873453283 1.6816429721419188 1.2815517524232045 53 77 39
7.624143976087703 1.0758479057537098 1.8311736489849797 39 53 6
7.631859405167491 1.373055328204572 1.5659218823015186 47 62 12
7.367250170793165 1.0758479057537098 1.5657468056083097 43 56 13
7.220039843516504 1.2028409284667758 1.8461157322499648 45 60 17
7.499872394110868 1.6376082440134074 1.5658360983633037 46 62 11
7.959231932835559 0.9641020036325152 1.4401104531804378 33 45 0
8.241982474618691 0.6587671224083916 2.3796069721679265 63 79 35
8.48228003146677 1.5041711962464073 2.056901279239871 49 65 21
8.991989393702202 0.6587671224083916 2.4564575290721464 61 79 35
7.616605064179718 1.0027589196253819 2.117980002521742 49 63 16
8.822367928611547 1.4939321166604593 2.3129447038463766 49 67 25
8.301034498748391 1.3435274077052548 2.211616482209543 51 66 23
7.624788468218262 2.0659124347397633 1.8311511291875495 50 64 21
8.010874620120338 2.3578018188223533 1.8183333742090133 54 70 26
7.367917134171074 2.0659124347397633 1.5657472627082292 50 64 21
8.502294445837222 2.2744042291009623 1.5664209141731806 52 68 22
8.326265651837517 2.008368253239184 1.4459021232859612 48 64 16
8.429970421268205 2.177636797084549 1.9299266771924788 52 68 23
8.186958185760535 1.7687176983386286 1.9410935630783028 50 64 21
8.365918686799239 2.0659124347397633 2.0642651084630548 52 68 24
8.935154381178672 1.7982708025403842 2.3014296956065845 52 68 24
8.12768192751549 2.457774749626069 2.0800985857455827 54 72 28
8.567305394320075 2.4409107828389627 1.4494336110351684 53 69 25
8.972649140325125 2.6028780398924907 1.3417532998133548 56 74 30
7.63173153656246 2.649720303325367 1.8309087747437731 63 79 34
7.9478880459335395 2.649720303325367 1.9527975157048227 65 83 35
8.334742694673883 2.706858969717714 1.4460298134255154 62 78 32
8.304070591943841 0.10695097061419831 2.5652846305856185 54 73 27
8.653888045437387 0.5042811650535984 2.50577467412919 59 77 29
8.421619995551648 0.31840260758076544 2.5441496183412347 57 75 29
6.969300174369228 -1.3446698005217776 1.8562940175953506 64 84 44
7.250499358431222 -1.2045882555480578 1.8449291692204746 61 81 39
9.005176765729333 -0.6634618545717549 2.454667468232172 64 85 40
8.138859651445536 -1.4805397094357224 2.392979120039939 66 90 50
7.968308171581431 -1.0780250616691744 1.9517682149899178 60 80 36
7.773180893915017 -1.3446698005217776 2.1057533254978544 67 89 47
7.643634551522479 -1.6474763781964203 2.1158270239808354 64 88 48
8.729347941513806 -0.7873562376043901 2.322760994068591 64 84 41
7.17631876470778 -1.6474763781964203 1.9963858465158606 64 85 46
7.6292678158238445 -1.2503121030843687 2.4679733191525735 70 92 51
8.314609402969461 -1.4607045818119508 2.563337252058509 69 93 55
7.830238204147693 -1.1454325761204 2.2572514886261628 65 86 45
8.147651455570498 -0.8866510635472318 2.078730389228552 61 81 39
7.6536373568206075 -2.0637347980403304 1.8301471150011368 64 84 43
7.314434700409075 -1.797127448188519 1.9878428974060423 63 84 45
7.830686445194385 -1.9963712069336734 2.2572045861037187 65 89 49
8.43418860778267 -1.8915605011684173 2.541962917577165 67 91 53
8.14842684241091 -2.255094404235282 2.078677420434669 68 89 49
7.711761268451674 -2.255094404235282 1.9651291167557932 66 88 47
7.566680121270586 -2.4782821744808157 2.286137986201184 71 94 54
8.43418860778267 -1.8915605011684173 2.541962917577165 67 91 53
7.773451815704504 -1.797127448188519 2.105732672386261 65 87 48
8.39222027110719 -2.0637347980403304 2.062580219220547 64 86 44
8.73007166343289 -2.3543924119778348 2.3226834628622135 69 91 51
7.507526554039713 -2.3543924119778348 2.1268558544563714 69 90 51
8.260983257072425 -1.8363866694808382 2.377199640369818 65 89 50
8.45607278280542 -2.1751954933473994 1.9287681053970138 67 88 44
7.59488378911394 -1.6373077803156353 1.6979077749151033 60 81 42
7.725247686802212 -1.373924316844514 1.6957514313382909 61 81 42
7.725520289533716 -1.7678479585826816 1.6957469990811935 61 81 42
8.081209596996572 -3.072780916559022 1.9461785547088029 63 86 44
7.91182432881432 -2.8178374068229393 1.5660943689070308 69 88 43
8.018600427399521 -2.7721851827168082 2.0877116548719643 70 95 54
8.340052002299544 -2.7031469630033502 1.6864971094804788 71 94 52
8.192791698761138 3.0674219934922164 2.2215068538447094 60 84 42
8.311914988303128 2.917294846794314 2.210640542329914 61 83 39
8.206086375191326 -2.9420428266190406 1.9401888249886903 67 90 48
7.647264973292118 -2.645676823289249 1.8303682152083307 73 95 54
8.141169158451667 2.8219057040308493 1.814290795464461 63 83 36
8.079111554130089 3.077281161467752 1.9462808912614495 55 77 32
8.192791698761138 3.0674219934922164 2.2215068538447094 60 84 42
10.382918706717563 -0.5455151800817734 2.8561511399335457 62 85 43
9.740533802206267 -0.4090497826290198 2.7392720121240925 61 82 40
9.639154930401599 -0.788917612268818 2.76475359701886 66 88 46
9.054628962795926 -0.6235444604641176 2.6454335116030236 66 88 44
9.639154930401599 -0.788917612268818 2.76475359701886 66 88 46
15.241489011980505 2.1144295300755167 2.9500674515385494 61 83 38
15.110820373124476 2.362111308737284 3.0015087479132996 64 89 48
15.839597823324006 0.41339073845929464 1.0386176338033475 55 71 27
7.4363617745213695 0.4919622723306749 1.700632594622616 20 34 0
7.765788574115338 0.7839184681461198 1.5660059478579487 33 45 0
8.185552699331854 0.5645899946326612 2.222180315178819 57 71 27
7.823471305795547 -0.4292273146360263 2.257960428021191 64 81 31
8.334099958788435 -0.7870007499589239 1.934248690926028 57 73 30
8.512403064812013 -0.4385176489746539 1.8034711369769478 2 13 3
8.125920641847538 0.08761315982092745 2.3946946939785847 57 75 31
8.483087656306605 0.42411791046247793 2.3502688530683327 58 76 29
7.961658624696464 -0.4960062331543838 1.952102766968148 68 85 40
7.514931101661119 0.06432349895616023 1.5658460379408037 37 53 4
6.795541920151872 0.08761315982092745 2.1933933752798715 67 83 34
7.159077305781713 0.0741866236756788 1.997477800011055 56 74 27
8.657338080439652 2.2581157472885924 2.1812602984334544 55 71 27
8.240010560628052 0.9080205035147372 2.379857791232468 58 74 30
8.18649599681722 2.577118041701996 2.2220924708835423 63 79 35
7.49977879367751 1.5041711962464073 1.5658360364570327 48 63 11
7.63213534351938 1.7687176983386286 1.565922058537496 47 63 17
8.599528038207835 1.7687176983386286 2.049710610860088 50 65 22
8.482362790288521 1.6376082440134074 2.0568961239177623 49 64 22
8.304070591943841 0.10695097061419831 2.5652846305856185 54 73 27
8.30611181254489 -0.11439464157483833 2.564906609168742 57 76 34
6.824511181628011 -1.6474763781964203 1.8625270039375876 64 85 46
6.824408318258393 -1.4943304487866813 1.8625315302995784 66 86 46
7.250499358431222 -1.2045882555480578 1.8449291692204746 61 81 39
8.204341921192869 -1.0055508743082369 2.22043548171273 62 83 40
7.643542711555739 -1.4943304487866813 2.1158343087774907 67 89 48
8.25850588531986 -0.9116716519327844 2.3775125441317577 64 86 44
7.582568106594415 -1.2045882555480578 1.9722297454163646 63 83 41
7.497235180602802 -1.6811951325506729 2.490353172208912 68 92 54
7.570603298783095 -1.3054429502639033 2.2856878207389286 67 91 51
8.159630430575353 -2.1751954933473994 1.8137287729167 67 87 43
8.159630430575353 -2.1751954933473994 1.8137287729167 67 87 43
8.204940839323735 -2.136223232644451 2.2203800334521864 66 88 48
8.668156750169114 -2.0764190889372607 2.5035477284062657 67 91 52
8.260983257072425 -1.8363866694808382 2.377199640369818 65 89 50
8.02670275424044 -1.9371921957646048 2.0871379193700768 65 86 47
7.8244582550469035 -2.7124619285597413 2.257856927436541 74 97 56
7.5947913596289345 -1.5044708248861782 1.6979093302619939 62 82 43
7.59488378911394 -1.6373077803156353 1.6979077749151033 60 81 42
8.079111554130089 3.077281161467752 1.9462808912614495 55 77 32
8.194860637362943 -3.0622370805739956 2.2213146575505798 66 90 49
8.31803137240488 -2.9123429134948426 2.21009335654711 68 92 51
7.7159410235850086 2.946389245906644 1.4359650429957833 59 78 30
8.151574111733309 -2.8178374068229393 1.8139737113723498 69 92 50
9.381908691754255 -0.7879143895257278 2.5843939126973865 66 88 45
9.48603719579738 -0.5100390991068914 2.5670172443800396 64 84 40
15.110820373124476 2.362111308737284 3.0015087479132996 64 89 48
15.045623861952183 2.8301843522486956 3.036616779569298 68 93 53
7.152068001947165 0.5645899946326612 1.997923381152272 34 46 2
7.895566683305268 0.6038299277612384 1.5660846871029637 29 40 0
7.56126961733908 -0.2691514048798794 2.2867598710558315 60 77 34
9.254108650036194 -0.7867545063247676 1.675025115454629 52 68 20
7.644624543834863 0.19523903095442616 1.5659300218054417 39 53 6
7.218835078841944 0.42411791046247793 2.151907088238248 59 73 28
8.145484345396378 -0.687635642587924 2.078878492213857 59 75 31
13.544444394163436 1.6904413359856547 1.1897395767366468 60 81 45
8.132576661730623 2.177636797084549 1.8145532767064445 52 68 22
7.561328194998385 1.6376082440134074 1.6984749473869278 45 61 8
8.061228670962123 2.3581596482286815 2.2339917114307974 55 73 29
8.538898620127572 1.9389402513680023 2.1909976098995023 52 68 24
7.283953422445016 1.3435274077052548 1.9896976353221132 48 62 19
7.955113013346796 2.5378636771062832 1.6921227260285434 56 74 30
8.27003832705453 2.706858969717714 1.5662980340758832 65 83 35
7.773451815704504 -1.797127448188519 2.105732672386261 65 87 48
7.637437651919104 -2.5727305654836385 2.1163190306986546 73 95 54
7.437529311219438 -1.6613053545011902 2.3013263116296354 65 89 49
7.570603298783095 -1.3054429502639033 2.2856878207389286 67 91 51
7.70965373988557 -2.4540822099195023 1.9652428733870209 70 92 51
8.25910087568995 -2.230115216902709 2.3774373675853897 67 91 51
7.8244582550469035 -2.7124619285597413 2.257856927436541 74 97 56
7.582568106594415 -1.2045882555480578 1.9722297454163646 63 83 41
8.00802270112515 2.776728789435547 2.0884627063949015 64 85 38
8.348968266318787 -2.7031469630033502 1.4462435067072565 70 89 42
7.9628047644201185 -2.645676823289249 1.9520450593350018 72 96 55
9.945446385076643 -0.6235444604641176 2.693318070657566 64 86 44
15.839597823324006 0.41339073845929464 1.0386176338033475 55 71 27
8.246010018857161 0.26341300901213804 2.379095262868415 56 74 28
8.841165447136975 -0.5689779452267333 2.310996697713195 61 82 37
7.898936374272078 -0.19958620135241453 1.8219163769799507 21 38 2
8.060444895964439 0.7835890013452178 2.2340676790471683 56 72 27
8.18649599681722 2.577118041701996 2.2220924708835423 63 79 35
8.822447497245024 1.6478758171952042 2.3129364332286326 50 67 23
8.935154381178672 1.7982708025403842 2.3014296956065845 52 68 24
7.960025673660345 2.177636797084549 1.4401235593212718 50 64 21
8.158856108481677 -0.9665430392789641 1.8137522931848096 57 77 33
7.849934365737096 -2.3547195370132803 1.6937565250004385 66 88 47
8.66775181787327 -1.0654115009642477 2.5036107338035074 68 90 49
9.056578530232343 -0.9529630059516255 2.645035994341662 70 92 51
9.48603719579738 -0.5100390991068914 2.5670172443800396 64 84 40
8.185552699331854 0.5645899946326612 2.222180315178819 57 71 27
15.86981280361686 0.320635514107036 1.111370950921338 56 71 32
7.62967175317531 -0.07937264345204698 2.116936945584566 61 79 32
7.686720405043069 0.8836299071444069 1.966485113792051 42 55 8
7.893829255376368 2.946389245906644 1.8220823527489376 59 81 36
7.974269149816831 -2.5343376847255774 1.6918298371410379 70 91 50
7.583030987698771 -1.9371921957646048 1.972203834340335 64 84 45
7.220525964998865 1.9389402513680023 1.8460967134443256 50 64 21
8.934918684237827 1.3435274077052548 2.301453333264763 51 66 25
7.553447788030117 1.2028409284667758 1.973866800232795 47 61 16
7.9688042285484 2.8219057040308493 1.4402683340100104 60 78 30
8.433938910740153 -1.2503121030843687 2.542006228641468 69 93 54
8.125509491379558 2.2581157472885924 2.0802478972915903 54 70 26
8.28437500699536 -2.7031469630033502 1.5663058187327576 72 93 52
