15.216758798019569 1.2349785255662167 0.9444672164604032 42 62 17
11.549666136167103 1.206039460282401 1.4038106956332395 42 60 12
10.554998184185054 0.9589139918057152 1.5784062798702911 40 54 9
12.047295727453797 1.479748269379712 1.3260076610474472 39 57 9
12.176319698415432 1.3954041482300015 1.3286537263463911 40 58 10
11.676180726330562 1.565408496750263 1.4919493679399733 38 57 7
10.80610975091231 0.824624726872411 1.2972083697087213 41 56 12
10.360747562304851 0.4731688279308293 1.3844357645541032 49 63 22
9.882296277014447 0.6103793202827353 1.477598306216418 47 61 19
11.48466085707607 0.7584676406224278 1.3137509514129728 44 58 17
11.435617021460995 1.667723194172306 2.131403358323608 25 41 5
10.90659230980058 1.2631651709254264 1.9542388639576325 36 54 6
10.891550272761394 1.3793029826743701 1.6701487219348572 36 54 6
11.076836294718925 1.564902120410448 1.8525981256794042 31 48 5
10.881646507558463 1.658662522556196 1.7631576127250495 16 33 1
10.665734564623024 1.1719322813090616 1.767101958639285 39 57 9
10.476855120149683 1.0407493541631796 1.8692181073477032 39 55 9
14.725060727357453 1.4609967011690592 2.422616710076472 65 81 37
15.712072756575878 1.4484080822319445 2.5544037544652367 61 76 34
15.811219350866875 1.336436171660293 2.545046821940889 59 75 32
9.825861359933036 0.38189921059233456 1.6809658779188683 51 66 27
10.599253498018752 0.5221768351787867 2.0706640386804827 49 63 21
10.171352071250473 0.754539216497739 1.8784706043883603 46 58 13
9.898538718881369 0.6103793202827353 1.680153735447804 46 60 17
10.391711513259303 0.4731688279308293 1.7723487132770597 51 65 26
10.157929424051575 0.5221768351787867 1.984156094150525 48 62 19
13.402375554042944 0.3576801574339809 2.544090015224021 56 74 34
9.320395885319602 0.0704730062890565 1.795893477094337 60 77 39
9.441888139456717 0.1789956710074264 1.7929481267224465 53 70 32
10.409212893049723 0.0704730062890565 2.0806621895473194 59 77 37
9.320395885319602 0.0704730062890565 1.795893477094337 60 77 39
9.133983947265385 -0.03973140280008499 1.68934886962483 59 79 40
10.654261894473969 -0.254777136380806 2.067846507029067 49 69 29
12.38326036408161 -0.1902681467413292 2.5218502961641773 52 73 28
12.979621115345692 -0.16713654782638274 2.4600897892109876 52 72 28
13.241759638079717 0.22812648740430697 2.562155803335756 54 74 31
13.144780483325517 -0.05096510478922846 2.573529613835303 53 73 33
12.37054758641455 -0.2847813114565009 2.39502991410268 51 73 30
13.15540672627594 0.09033285187109125 2.5722652788482354 53 73 32
13.801073341083665 0.20063645943526748 2.502872565472032 53 73 31
15.454469005293888 1.1895207193584543 2.579943554089777 60 76 28
16.054606898340836 1.4325798242364298 2.640434883190525 60 76 30
16.15165099033366 1.3070863488806452 2.629574392071711 58 74 29
15.603555059066581 1.4120888231497475 2.6960550490984176 62 78 34
15.603555059066581 1.4120888231497475 2.6960550490984176 62 78 34
11.52803339055039 -0.9960343647476915 1.3147397963593563 41 61 22
9.665950635134612 -0.35506494696322416 1.5791062378529732 44 65 27
10.238644462985732 -0.44843085205427075 1.3821867122211438 45 66 30
11.801763317335404 -1.3074584691501714 1.4927900937893939 54 71 35
11.128663943253814 -1.1970808061049125 1.5780139913261124 55 72 34
10.327485639124633 -0.9433688005918313 1.578573929033665 44 64 24
10.276878291009055 -0.9682754121457421 2.0878773605362273 54 75 34
10.491576612018768 -0.35506494696322416 1.9702489516584891 46 68 27
9.991159323683632 -0.7331139796366738 1.8842068259586195 41 61 20
9.902904590684715 -0.5867239727830833 1.7824448561732746 38 62 21
10.020896436896571 -0.8817651055280372 1.8832452290639483 45 66 25
10.68549349219245 -0.8093452006846859 2.176117087394911 54 76 34
10.348408650432726 -1.0023598123588378 2.324294701003891 55 77 35
11.346599267408768 -0.6492061150822925 2.2446524893217146 52 75 33
11.435931637305202 -0.7239810617415796 2.3554401093543573 54 78 37
10.513309579125487 -0.922238275093809 2.447415319827652 55 79 38
10.642792951808564 -0.3948756548385071 2.178896080401329 45 67 25
11.245661555652157 -0.4440806365145969 2.3724797998815466 50 72 27
10.151568554582788 -0.8985046147383275 2.2129905355186086 53 75 34
11.423664968048989 -0.5061009330994918 2.489588720488152 58 81 38
10.499965104496463 -0.6910473501291813 2.615539227567949 57 81 40
10.90984817099175 -0.5530892859761355 2.2770452146366145 48 70 25
11.273651674147366 -0.710989333437883 2.5072246297771486 57 81 38
11.002727143397172 -0.623491671410762 2.3955677773201614 56 80 37
10.658731957158805 -1.1612950890424625 1.8639734021999406 55 74 37
10.247607826550661 -1.0262923062183553 1.876106897680272 54 74 34
11.122943847834696 -1.2975558685402766 2.3839461383104985 55 78 37
11.688869503367183 -1.5622759789091512 2.460420181599753 60 83 43
12.48159904811869 -1.5622759789091512 2.51089221688181 61 83 44
10.16878809166749 -1.0516916198971766 2.489177709763461 55 79 38
11.2765241343361 -1.2571863113658768 2.5068785299574783 55 79 39
11.137080833816885 -1.4052392992074478 2.524083792245686 57 82 42
12.810347554023858 -1.7171092178032417 2.6158489498263697 61 84 48
9.998206566332671 -1.1220264938418425 2.357683987745489 54 77 36
11.721754549193614 -1.374267695448763 2.0190692137322808 59 76 38
11.597960893431535 -1.477521224209873 1.751142005819749 58 75 39
11.818347660177256 -1.477521224209873 1.8344803431232448 57 74 39
12.107152094587764 -1.6531155724368392 1.914543609947783 59 76 43
11.784517974854927 -1.4577458434773327 2.2153173287875347 58 77 42
12.365681597778414 -1.564096452851695 2.2829260361205757 61 79 48
11.627104263597472 -1.5632950862783734 2.3391546029349874 61 81 46
11.664652866814055 -1.6824421888141212 2.3360481292865765 63 82 48
12.05963296247021 -1.4685779214878454 2.099237781015815 58 78 42
12.049227904015748 -1.6610200728483355 2.0997420150846855 64 82 50
12.87728982915259 -1.7825351620441547 2.7879303316831314 61 86 50
13.819740875835796 -1.7825351620441547 2.812993902091302 65 90 56
12.166934242325155 -3.0281312083236505 1.4123559998675679 59 79 41
12.166934242325155 -3.0281312083236505 1.4123559998675679 59 79 41
20.299596169599813 -3.0175962688483917 1.222946071167717 40 55 14
20.600663954682666 3.059532646966269 1.3296544593805297 48 64 21
20.942557917387358 3.107823670965692 1.130827157677441 50 66 22
20.670497494207492 -3.0237566857140594 1.330485219307113 47 65 24
20.207747940524253 -3.069885881688636 1.2212975149704344 38 53 12
20.299596169599813 -3.0175962688483917 1.222946071167717 40 55 14
21.381080782152782 -3.1225708967559767 1.0883513145918888 36 52 8
10.872037228249457 1.8665650404393468 1.9555213719752416 10 25 1
11.09047934390678 1.8401548115662285 1.6683609172397367 0 12 0
10.755039154132586 2.0899681299982937 1.9599300237414856 65 80 40
11.661567487667556 2.0899681299982937 2.119285210311019 63 79 35
11.500407321877285 2.247334193297372 1.8419515440048042 58 73 31
10.6672703811227 2.5916471534705114 2.4302520436758566 61 79 37
11.565228098661231 2.2101867729572255 2.344338506589918 67 83 39
11.329439577819002 2.387253694246752 2.5005627313039236 65 83 37
10.78460870213983 2.3004006356877382 2.169771413849893 65 81 37
11.53073724099374 2.6506083005339205 2.6346092375398777 58 78 36
10.82538485277033 2.381890638691669 2.2837198728362784 69 85 41
11.774365092283425 2.289879080428558 2.4515112826214533 69 87 41
11.165654021878735 2.723235829675446 2.520489406335285 57 77 35
11.774365092283425 2.289879080428558 2.4515112826214533 69 87 41
10.972345125695142 2.8721334444492777 2.545551376434716 57 77 38
10.796990189767415 2.444973908708438 1.8601100447228933 59 74 32
11.022056365059786 2.7904970138994916 1.8540372795508377 58 75 31
10.769396287172173 2.308042912238777 1.86087282540137 62 76 34
10.55728040312717 2.523829797175002 1.967623142721279 62 78 33
10.86514014074503 2.6627476267729144 1.9557784132602358 60 77 32
11.061957280105275 2.881949453618274 1.9485794093427509 57 75 33
10.95900025400175 2.820525543869896 2.2732255259226988 59 77 35
10.944590352240931 2.552106722898455 2.2743405073589162 64 82 39
11.404539892397946 2.4589991066730312 2.2406020054979376 66 84 38
11.254564866341322 2.6584100360509453 2.3716628651131524 60 78 36
11.151737012377007 3.083167922454832 1.7584425208977863 55 75 35
11.151737012377007 3.083167922454832 1.7584425208977863 55 75 35
11.280428680648322 2.9780578233021178 2.0379716212303016 57 75 35
12.077335437580956 3.0611676636030527 2.4216569849285654 61 81 42
11.419952502355498 3.070133960155776 2.2395336410340203 59 79 40
11.064187909106257 -2.8833957372507757 2.1526216063129464 68 89 50
11.519322347038754 2.9601393457328475 2.2327352893347623 58 76 36
12.13684831057829 -2.9718650217974636 2.4160831717565276 70 91 52
12.312154908809841 -2.9479690420706706 2.5299908124584074 72 93 56
12.13684831057829 -2.9718650217974636 2.4160831717565276 70 91 52
12.065759781005005 -3.09623498397745 2.4227516602611954 66 87 48
12.462330693718547 -2.8136491654854114 2.513012735134341 69 92 57
11.519322347038754 2.9601393457328475 2.2327352893347623 58 76 36
10.815507313384552 -3.1013042540731353 2.1678225074527413 59 79 40
13.665884619569734 -2.7632153016210115 2.6550968492719256 70 95 59
13.664803161081048 -3.050346178431961 2.848058426674308 64 89 52
13.612249194255963 -2.464689299020698 2.8611135376899752 68 93 58
13.055296773591454 -3.068753745113981 2.752673965269648 67 92 55
13.432004883107185 -2.2580875503460227 2.9122566794646 68 93 57
13.055296773591454 -3.068753745113981 2.752673965269648 67 92 55
13.727613530842124 -2.808947911720336 2.833281808505691 66 91 55
13.529075157390597 -2.916374161912088 2.6745763666323277 72 97 61
12.704732481676412 -1.804108139375077 1.5771186008639404 62 78 47
12.511420961835505 -1.7262665152553613 1.5772162864167092 54 71 37
20.001501524926237 -2.49138593667894 1.2175367760239204 56 69 41
19.105426743035974 -2.565172102748854 1.4701483456849516 61 75 49
19.657121662361995 -2.8008404823906856 1.3178324832856467 56 73 40
20.440013025189113 -2.965978848674878 1.2254358650687456 47 63 24
21.38208061037255 -2.9152891609331255 1.140481796738912 49 66 30
19.958973299379206 -2.8512062930889006 1.2167509856348895 52 69 38
20.272205487778592 -2.7522102181529413 1.2744690274245785 52 70 37
12.868438010733863 -2.4072251628379724 2.470812389533432 62 89 56
13.012159149242363 -2.6265790613216504 2.5897043756445384 67 92 58
12.576031970614547 -2.3218127846168186 2.377534018901855 62 88 54
13.3689462297896 -2.1251015772809954 2.5477746587037684 63 86 55
13.109315403494522 -2.0034348006760823 2.577782543044538 60 84 51
13.262080094036653 -2.315142028253102 2.559818430812322 63 89 56
12.438507282457103 -2.2495896801704434 2.2778828537322253 64 88 55
12.82240358271872 -1.9505037646220866 2.475349690730894 60 83 50
12.82240358271872 -1.9505037646220866 2.475349690730894 60 83 50
12.19325983747278 -2.136060762346358 2.0005534742171136 64 82 54
12.225289558459862 -1.7397033199911478 1.9110866557994317 64 81 50
13.041526890219114 -1.9807786522961848 1.8890111573324346 62 79 51
12.550758556298064 -2.0155166429833744 1.9875368377926628 63 81 52
12.631801862367091 -2.104250081745135 2.2648793599634742 63 84 55
12.167927762343863 -1.7556534848910923 2.094049558255037 65 83 52
12.955635448508263 -2.010937020041275 2.3474242714426956 63 82 53
12.977225171987387 -1.9689668706551506 2.242926285615831 66 81 55
12.516358386969005 -1.77488398586034 2.272580049750965 65 82 52
12.732725614726796 -2.056180011281114 2.1604494924468223 66 82 55
11.823841717788474 -2.762241565442972 1.6622920588042005 68 91 53
12.275895247633017 -2.452658555296549 1.9096274538791658 65 88 55
12.00546215001436 -2.6469169074927223 1.9175772814723786 65 89 53
12.088743559238889 -2.5230873470383326 2.0045196721445495 65 89 54
11.982121604524309 -2.7281099301242104 2.008644796400897 67 91 54
12.392918823135771 -2.4660506110982388 2.1789096013344595 64 88 55
12.990409614855789 -2.5804619089655447 2.4590665827963982 68 91 56
12.415487112741571 -2.3938965483945345 2.0825842978471996 66 88 56
13.197924010929285 -2.547618370988246 2.329541565433865 64 89 56
11.814546035496896 -2.7411189389057515 2.3239323294342165 67 91 55
13.780834027481346 -2.5804619089655447 2.5048530466670575 65 90 56
11.992899173667908 -2.263441443223042 2.0082241246342205 66 85 56
13.433105083491204 -2.3052623947154376 2.688950816388965 64 90 57
14.097318318341982 -2.163617138474128 2.7594262669702703 65 92 60
13.357383505453932 -1.9176051021249565 2.700751024134742 60 85 49
12.988424319012047 -1.9889040953051091 2.7654370636666084 62 87 52
13.17473867814502 -2.163617138474128 2.7311159320392915 64 90 56
13.643287103952787 -2.093778234871968 2.853321680529029 69 95 61
13.53862131306137 -2.072082911517981 2.673179886053154 62 87 54
13.820776242584612 -2.289129824781124 2.8127742585056517 67 94 60
13.759465292329644 -2.4181767773379885 2.642389923585203 62 90 59
19.25670152673516 -2.565172102748854 1.7314475252075088 71 80 58
19.601525258212263 -2.522320731564516 1.6259384612399934 75 81 59
10.014118014825701 1.0407493541631796 1.5788173154416145 38 54 8
14.407809194845093 1.313502736087434 0.9888157655406778 42 62 16
11.072066196791454 1.290517570832113 1.578050886941455 39 57 9
10.485192029029532 0.6889136246902612 1.4829714137813506 44 58 16
9.809498580565934 0.38189921059233456 1.4769046383218705 51 65 26
11.127521258272017 1.4712449348119716 1.8512796998236918 37 53 3
12.099606271610423 1.1719322813090616 2.0973100885561626 37 53 5
14.852042240829737 1.5635377225284655 2.5207316047457615 62 77 36
15.811219350866875 1.336436171660293 2.545046821940889 59 75 32
10.238506904991368 0.4731688279308293 1.6765087145406656 49 63 20
10.518136015081922 0.1789956710074264 2.0748807506768205 53 71 31
13.402375554042944 0.3576801574339809 2.544090015224021 56 74 34
12.913172982534485 -0.04465301106629805 2.46645862237215 52 72 32
10.518136015081922 0.1789956710074264 2.0748807506768205 53 71 31
9.2276860896961 -0.14898241597729353 1.6881394479881482 55 75 36
10.478204459494522 -0.14898241597729353 2.0769841414430372 54 74 35
10.719638865684527 0.2834325219949206 2.064540995148542 49 66 28
13.718241621543172 0.0791791276959764 2.5110491399993338 53 73 31
12.979621115345692 -0.16713654782638274 2.4600897892109876 52 72 28
9.427126730400948 -0.254777136380806 1.6856458391491183 48 68 30
10.368134829413652 0.6738394149988052 2.0828790206780297 47 61 18
13.531442776426433 0.10513072412323664 2.6742294700353835 55 75 35
17.313682493088457 1.073297153098287 2.761860202389281 56 74 30
15.567450126081315 1.5613514240188011 2.7009364580128987 64 81 37
17.96231538036778 0.9873501028217988 2.8269194730434557 60 78 36
11.326978992029106 -0.8693314999206989 1.3100899268372468 39 60 20
12.360683985558534 -1.5657225687461704 1.5772945781068761 57 74 40
10.310485612206806 -0.6679045020127555 1.4814793246338447 39 61 20
10.201071456398566 -0.806025539578947 1.5786703129704167 39 59 18
10.86139010517128 -0.8207095131923849 2.56078256311066 56 80 38
10.729621571812666 -1.1220264938418425 2.4235356405285056 54 78 37
10.149833823291749 -0.8093452006846859 2.0950101542295005 50 71 29
11.72622032939234 -1.6974587272418784 2.4565001772881883 60 84 46
11.736911745431186 -1.4274020510327747 2.455386138591626 57 81 41
12.400994086134487 -1.670598265015319 2.2804705184948975 63 80 51
10.780305591663163 -0.8985046147383275 2.2873410921987496 55 78 35
11.67540066164154 -1.444359582847694 2.33516431770121 57 78 40
11.375847736625758 -0.6910473501291813 2.6596930773453704 58 82 41
10.592890454261727 -1.1184475743973903 2.0709921233692574 54 75 36
11.59644253241529 -1.3911804861878978 1.6640914074155142 55 72 36
11.324260910995083 -1.374267695448763 1.9394038865358973 56 73 36
11.001955424881723 -1.2833616165699246 1.761028202496035 55 72 34
12.155700439910774 1.73572184723011 1.3282347468049533 41 58 15
20.165132010643845 -3.1225708967559767 1.2205271748207396 36 51 10
10.884319261768548 2.044140918776844 1.670214945077113 6 21 0
10.868493875920258 1.7509035574912317 1.6703601863300537 1 15 0
12.315970407815705 1.8665650404393468 2.1832654404431193 83 99 53
10.928248373181814 2.231453573848714 2.0542952072273795 63 77 37
11.77464533359688 2.2744778625862563 2.598479822833963 63 81 39
11.417653022975603 2.3954444156065535 2.6527387442461174 60 78 36
11.21132573809247 2.3752940453464277 1.757433395860293 57 71 26
11.162641003016974 2.70477249763069 1.7582570438161507 59 75 30
11.022612503114773 2.612611356911005 2.155104671456162 61 79 36
11.728017849705193 2.7779963922763704 2.4563126285695533 59 77 35
11.241848546664436 2.711641615687447 2.2521156277401406 59 77 35
10.81216378094811 2.4589991066730312 2.16803273630625 66 82 37
11.127156644114761 2.8543961858255495 2.1489037556134343 58 76 34
11.25347548858352 2.992779327872363 1.7567261648036676 57 75 35
11.21616217943364 -3.0178585917326606 1.7573519703941074 61 81 44
10.894756824589704 -2.9905508399336944 2.1628859852711737 66 86 48
12.289166559822364 -2.8525558829123616 2.4022154675921854 68 92 54
11.444686929729865 2.9378720339068876 2.3546765443607085 59 79 40
11.544129698858757 2.9094869271336345 2.4760387376545943 59 80 41
11.444686929729865 2.9378720339068876 2.3546765443607085 59 79 40
11.544129698858757 2.9094869271336345 2.4760387376545943 59 80 41
12.24208440901553 -3.089707731200809 2.5382005019084244 69 90 51
11.064187909106257 -2.8833957372507757 2.1526216063129464 68 89 50
13.862463744703858 -2.6015669134941115 2.804071602089662 67 92 58
13.474895187178745 -2.707896491374017 2.898997886895673 65 90 53
13.529075157390597 -2.916374161912088 2.6745763666323277 72 97 61
13.664803161081048 -3.050346178431961 2.848058426674308 64 89 52
11.77465873968605 -2.762241565442972 1.577618001237741 67 91 53
18.878798464269742 -2.7316527099467773 1.361651679019033 56 72 42
19.00890896648238 -2.565172102748854 1.5750218457235705 66 77 53
18.411466903958452 -2.5351856756244255 1.4115447371887597 64 77 52
19.17138484422491 -2.49138593667894 1.3648898261617555 59 65 41
20.628006696987708 -2.9152891609331255 1.228712796500704 51 67 34
20.613599842219486 -2.8008404823906856 1.1764587024838733 49 67 34
12.630893107433499 -1.828167680180482 2.4948798233241636 60 83 49
12.922057785104966 -1.8664607621041363 2.6011354201833283 61 84 51
13.109315403494522 -2.0034348006760823 2.577782543044538 60 84 51
12.688677433061397 -2.161657021659024 2.3683134048759777 62 86 54
13.305518161510317 -2.5081592037120948 2.554873294611334 62 90 60
12.225289558459862 -1.7397033199911478 1.9110866557994317 64 81 50
12.366609841679544 -1.847061169838045 2.084805758675515 64 82 52
12.493972305925375 -1.7985029186800847 2.3844131769585335 62 83 50
12.687549681791872 -1.9086634901052917 2.3684044765285757 63 82 52
12.275497763569259 -2.010937020041275 2.2892854496504316 64 83 54
11.980691115274146 -2.452658555296549 1.8308239293417123 67 89 57
11.98041569370598 -2.5722508665636648 1.7453245829521344 64 87 52
12.621831295479943 -2.4837371322543436 2.373754617602624 63 89 56
12.404455189220366 -2.3995604323135096 2.2802308746622417 64 89 55
12.990191741775133 -2.4660506110982388 2.2421322564610495 65 89 56
13.497809402711189 -2.6905211557843574 2.5337777250295264 65 90 54
12.599146085448433 -2.6013465999006193 2.1675599496902698 65 89 54
12.7102383302137 -2.208604291223844 1.9819893030771722 66 82 55
12.988424319012047 -1.9889040953051091 2.7654370636666084 62 87 52
12.988424319012047 -1.9889040953051091 2.7654370636666084 62 87 52
13.357383505453932 -1.9176051021249565 2.700751024134742 60 85 49
13.759465292329644 -2.4181767773379885 2.642389923585203 62 90 59
10.461195186999156 1.1719322813090616 1.5784745178067918 42 59 12
10.951075430038813 0.9589139918057152 1.3009212353263162 39 55 9
11.315942947591676 0.9589139918057152 1.9396878302026657 40 54 9
10.39577995505396 -0.03973140280008499 2.0813848851268024 57 77 38
10.572184855280339 0.8999845645665888 1.9670324365773348 40 54 9
13.955253403105981 0.3164014956046239 2.488139619804806 54 72 32
10.584398190656618 0.38189921059233456 1.9665497356693737 50 65 24
12.396010710609685 -1.6464820968616767 1.5772760588299666 52 69 35
12.070980030418989 -1.5652759541975318 1.915616480035065 58 75 41
11.916387495922244 -1.3538939284064897 2.2070257465784464 56 75 38
10.751031132124547 -0.6492061150822925 2.1719049661082597 45 67 25
11.081715974692964 -1.254572497045325 2.0470374768430073 55 74 37
10.696387470793658 -1.074987445134438 1.6719676274123498 53 71 33
9.82287128872816 -1.0664347485291543 2.114364544135161 54 76 35
12.049227904015748 -1.6610200728483355 2.0997420150846855 64 82 50
12.400994086134487 -1.670598265015319 2.2804705184948975 63 80 51
10.925872699649057 -0.5859652702365661 2.5518510114880106 58 82 40
10.114928276225115 -0.44843085205427075 1.6778051724918936 44 65 25
11.583843560983638 -0.5530892859761355 2.3427703480582878 54 77 32
10.687569933859232 2.172884634756015 1.7666956779763623 55 70 29
10.618591120136841 1.9585602289854036 1.7679849464633355 4 14 0
10.905615188073899 2.75484943135678 2.0553852258954812 58 76 32
10.941329173847851 2.1445407065867954 2.160025832841929 65 79 40
11.178935505684896 3.0773040271832572 2.0425565276141966 55 75 35
12.312154908809841 -2.9479690420706706 2.5299908124584074 72 93 56
10.53046180121171 2.6627476267729144 1.8676525660052292 62 79 34
10.504158312905043 2.612611356911005 2.075614927674476 63 81 35
11.50432969545985 2.381890638691669 2.349521110258477 69 87 41
11.303076493584875 2.9047696887844916 1.6665201656469066 57 75 33
11.53073724099374 2.6506083005339205 2.6346092375398777 58 78 36
14.178944742819747 -2.6956597048431394 2.7453491262963 67 93 59
21.454242464737913 -2.7316527099467773 1.0368024817681203 44 65 30
20.28685478763376 -2.865754755376258 1.325848519056605 54 70 43
19.909162536593904 -2.565172102748854 1.2688968189508003 60 73 48
21.640522148879647 -2.965978848674878 1.094619809396777 47 65 25
13.305518161510317 -2.5081592037120948 2.554873294611334 62 90 60
13.359313971263903 -2.4837371322543436 2.4257703746069157 63 90 59
12.901265508098902 -2.2308997798345764 2.4676122363433053 62 87 53
12.696725982772149 -1.904424763846294 1.8979701610294704 64 80 53
12.136886991561905 -2.639256789577918 2.2993157737018786 68 92 57
12.709594809346056 -1.8748685661128068 2.2597962112308263 66 81 53
12.228800391094019 -2.3302468786956294 1.910985007597805 67 86 56
11.629417426401716 -2.8435159852857295 1.7506488506331248 67 88 49
12.42305428366529 -1.8238131654838594 1.90545584051519 65 82 53
12.641503546771332 -1.9339759087091866 2.0725695576541265 64 81 52
13.643287103952787 -2.093778234871968 2.853321680529029 69 95 61
13.790171862786424 -2.204324329711064 2.638321409650101 63 88 56
10.460142736777645 0.824624726872411 1.6742607015726707 43 57 14
10.893166886725165 1.4712449348119716 1.7629516327368377 36 54 6
14.725060727357453 1.4609967011690592 2.422616710076472 65 81 37
9.870407347582185 -0.5867239727830833 1.3750606692587626 41 64 24
10.938697608025596 -0.8139379539147162 2.4019232536193464 55 79 37
10.348408650432726 -1.0023598123588378 2.324294701003891 55 77 35
11.351004664582641 -1.1764756699047156 2.362938863275613 54 77 36
13.249344178677898 -1.7439044713002054 2.718363750921222 60 84 48
11.984387692140258 -0.4440806365145969 2.4305461007432685 56 78 33
10.16878809166749 -1.0516916198971766 2.489177709763461 55 79 38
11.664652866814055 -1.6824421888141212 2.3360481292865765 63 82 48
10.86139010517128 -0.8207095131923849 2.56078256311066 56 80 38
20.172060410023164 3.107823670965692 1.220652651277474 47 63 19
11.067396490457243 1.7691232791493372 2.047705011558729 21 36 7
11.38080936737044 -2.929052184847729 1.754622000910878 64 85 46
13.121025175938676 -2.872753846093734 2.740626508166869 67 92 56
11.139199532026007 -3.108665500868975 1.7586562405625246 57 77 38
12.253493495995006 3.0496356825556803 2.53685071274502 65 86 47
10.768330362292389 1.9983954664977757 2.0621089532401244 80 95 53
18.893795652275514 -2.610549939802518 1.3618201508428274 57 71 45
20.115855082044927 -2.683077223740664 1.2196320867895543 52 68 39
13.142594278263637 -2.43510103748677 2.736772738210806 68 94 60
13.433105083491204 -2.3052623947154376 2.688950816388965 64 90 57
13.475991885933848 -2.5440131982968865 2.6824502213996952 68 94 60
13.087727326958822 -2.062002299376535 2.449969526212611 61 84 52
11.79714168019878 1.565408496750263 1.4073455315718 41 59 9
11.834150783617309 1.651147672485037 1.40786127286612 38 56 11
16.019518582247095 1.5625876508261596 2.6444479884391847 60 78 35
15.567450126081315 1.5613514240188011 2.7009364580128987 64 81 37
11.656320305160497 -0.2847813114565009 2.3367349711079237 48 70 27
16.15165099033366 1.3070863488806452 2.629574392071711 58 74 29
12.012881425212058 -1.564743125716327 2.101511413941309 58 77 44
9.833218044174671 -1.0262923062183553 1.6808831202801404 49 68 28
9.44949407882312 -0.9682754121457421 1.9028418279532244 50 71 31
11.332339324326108 -3.09623498397745 2.3646097334891234 63 83 44
11.649295458734052 2.172884634756015 2.0220627567654006 61 76 34
10.433650786875942 2.378106714208203 1.9725938078883563 63 79 35
13.529075157390597 -2.916374161912088 2.6745763666323277 72 97 61
11.178935505684896 3.0773040271832572 2.0425565276141966 55 75 35
11.921229054686751 -2.18832142403162 2.1060294336878473 64 85 55
11.319751848387941 -2.7819608330853534 2.1378423205731902 68 92 55
12.38326036408161 -0.1902681467413292 2.5218502961641773 52 73 28
10.149833823291749 -0.8093452006846859 2.0950101542295005 50 71 29
10.957952772690744 2.506338134345162 2.547490367430207 59 79 37
13.665884619569734 -2.7632153016210115 2.6550968492719256 70 95 59
10.770768468148399 2.5786656877091514 1.7651630315399527 60 75 33
12.214846365218198 -2.685903751183427 1.4954332112164654 65 89 53
13.923354869497278 -1.9889040953051091 2.7918236784057417 64 90 57
12.346270361173662 -2.3266192068128544 2.18154217574412 64 87 55
10.144581572179762 -0.35506494696322416 1.8793092652487244 44 65 26
12.20498492619593 -2.056180011281114 2.0922988707367978 64 81 54
12.532584133597657 -0.3225182582728387 2.505341839127146 54 76 33
9.665853496559125 0.2834325219949206 1.7877173793506071 51 68 30
11.435617021460995 1.667723194172306 2.131403358323608 25 41 5
10.479929632630423 -0.495747494828101 2.0768928860243925 43 65 23
11.048535177248993 2.4782609198447725 2.391092471023404 65 83 39
