11.42293626809969 1.1881073535748445 1.5990413913430777 44 49 37
12.841554963314055 1.144560127558199 1.4397990761816257 5 9 5
11.781131603884102 1.4622048878978315 1.4279305020557083 32 41 13
11.741269318548007 1.7194608585394344 1.513070226541767 32 42 11
19.61322195540696 0.3366822528889639 2.553903703175403 5 8 14
19.45491294985165 0.2474041305070731 2.5662322222135554 8 8 12
14.282360108854641 -0.35247694206706504 2.3785718404332745 8 10 12
13.862026379457513 -0.444088617136969 2.3084155061971168 10 9 16
13.214772868073391 -0.37298801220746247 1.9853444860395102 8 10 12
12.917062674147283 -0.6051194739971281 2.0822856499276714 7 11 11
12.624392098043707 -0.6745127643202041 1.920267016944052 7 11 8
12.699704088682811 1.6562667247844567 2.3951071938079904 34 48 9
11.35250742317361 1.1525274477363812 1.9614161054436752 32 40 21
11.709593651629024 1.3390370936053875 2.141174394709868 34 43 18
11.557982760167365 1.4397999910181782 2.1496121818494176 34 43 13
11.491707770491784 1.543301434613268 2.153385578225211 34 45 12
11.125689867184242 1.6401864302931801 1.8740657657987165 33 43 12
11.104440239053513 1.5458960201579595 1.8746646346533655 34 43 12
11.077844180079722 1.3602441819515585 1.7820251942828684 35 43 19
12.376748617364376 1.0367626475843732 1.6778623221917255 3 7 4
15.984301515562404 0.35743151699680265 2.8528510413472326 45 61 21
16.04585783595981 1.3022491768150817 2.840205004429506 41 59 17
16.07295716755228 0.8332901712692199 2.8348277122268497 42 57 18
14.467507061575851 1.7016846129376513 2.7410857148556724 40 58 15
13.994584696018139 1.6820079232944454 2.647767546464819 40 55 16
14.918070725344776 1.3813879331269774 2.674877298368918 40 55 17
15.788752835676435 1.2325198183748804 2.8979910044329227 43 58 19
16.76096397748515 1.2325198183748804 2.912382051496596 44 59 18
14.528884141724953 1.405851945189038 2.5832699555521907 38 52 14
13.652400560022516 1.6674581051859783 2.5487370643731273 38 52 11
15.035838924660426 1.2400170435684872 2.6595638199689566 41 54 18
15.671649618561583 -0.12423585518383042 2.930140827589968 48 64 24
15.879392763081905 0.6712510161143409 2.8759959966930237 41 58 17
16.555598940690583 0.613020613979706 2.9736227683682412 43 61 19
16.57543591791186 1.117197122379023 2.9667060098210167 43 61 19
16.65624917864727 0.1795565936477302 2.941099323520487 44 62 22
11.983457129466618 2.1097381482586237 1.9398294596092966 29 42 8
11.948893677834082 2.0294259330425675 2.0324697793156563 33 46 13
11.469652290564769 1.909895024958518 1.774705940401751 33 43 14
12.796674018594135 1.770172635717092 2.3869513706227403 34 49 11
11.619126967138786 1.7498539977687402 2.1461771873903133 32 45 12
12.865722466455342 2.074564817739207 2.2742843683449 37 50 13
12.663095957680916 2.1594361286926413 2.1873942256733327 37 51 12
12.728250804120606 2.3038051982506427 2.0022283619922954 32 46 6
13.188673560801105 2.4261273890183697 2.070762782424903 36 51 12
14.039400047477283 2.2178180974839092 2.3968454159451857 39 54 15
13.749424257203293 2.4951475433161896 2.220945620191343 38 56 16
12.90672140232379 2.546398622868234 1.9958719511820942 35 50 11
13.94657761485922 2.5721774309095413 2.302919998502163 41 59 17
13.78157967515648 2.29650894964765 2.3137328929325336 38 53 14
14.2817151256428 2.657614710435324 2.3786190708722073 43 58 17
13.904416746034823 1.9166923622102314 2.5223472876938144 38 53 15
14.240546506722824 1.9642101221916177 2.6165804422649375 41 57 15
14.302626103475793 2.286855355886038 2.4842926063280997 40 58 16
14.775419372418918 2.54321822036416 2.5571018554609823 42 60 18
14.0826411873654 1.8283106913519904 2.6362743342236175 41 56 17
14.431824868793417 2.1285360627517655 2.4727787358715556 40 55 16
14.70556100843683 2.0258214536798653 2.7044298789340915 42 60 16
14.038543700200483 2.159777724474656 2.6419817013261064 42 60 18
15.14072330958876 1.9322434429195718 2.8113549395354496 43 61 17
14.347147299473752 2.4664833854283112 2.603891668442654 42 60 18
14.578788323628293 2.2537487865094428 2.723424659085159 43 61 19
14.49579870324847 2.6516603392305735 2.5869348291330625 40 60 17
14.059011275585663 2.5820787908972256 2.639320833570311 42 61 17
14.29532201104293 2.3758099111614763 2.7705647004776464 43 62 18
14.337122836207197 2.273484960697106 2.6050653643651556 42 60 18
14.312674727951105 2.448703507243675 2.4833834631197425 41 59 17
14.73219248631657 2.366980808693904 2.447386276685369 42 57 16
14.067119442208247 2.2217162815081246 2.814790320946335 43 62 18
14.280873308707273 2.774215012084666 2.6117256718057984 44 62 20
14.734861988147932 2.7171259229724813 2.7001938399578647 44 62 20
16.4215468870538 -2.9009612310569537 2.7736765392081737 49 66 27
14.745431383745148 2.7514590434793806 2.446308411776273 42 60 18
15.767724569845353 -2.9980153833720777 2.467875141999948 46 64 22
17.222426256477828 -2.9616139021592365 2.6674592983547893 48 66 25
16.339117748867064 -2.9616139021592365 2.639512439839725 47 65 23
14.534197917566148 2.85312499841371 2.4639160370608915 42 60 18
15.715941374350097 3.0808204999334934 2.472013214638916 41 60 18
16.28347648375785 -3.088956320666242 2.6457722062596942 47 64 22
15.936712052574583 -3.0949721212186403 2.560692654423638 46 63 21
14.534197917566148 2.85312499841371 2.4639160370608915 42 60 18
14.009228464527475 -0.6595465993950292 2.2989079130507406 6 12 15
13.580991118363896 -0.5794405105341522 2.3273848069466334 9 11 13
13.30040710787289 -0.7951973441311655 2.2468763646385757 2 9 3
12.556385636697028 -0.7940218378681192 1.9222415060914853 5 10 4
13.03191162920036 -1.060667079098121 2.1674742185844966 31 41 15
13.420814622204967 -1.1819705142695445 2.1479192054774776 36 50 18
12.788400067990699 -0.9304905909436205 2.1804663137290787 0 8 0
14.301167395790566 -1.3748937446173397 2.1919237776108846 36 53 15
14.148620383305078 -1.3346494393793884 2.388508930015974 50 65 27
14.8323504936043 -1.3566171678938967 2.3405406204554735 47 62 25
14.712953583940207 -1.4499563855286544 2.348435827053578 48 63 25
14.342631444502109 -1.2368555911808785 2.374187219876982 47 62 24
14.750787512030097 -1.6352421986473125 2.254936413992063 48 63 24
14.40965363720819 -1.549537609722152 2.103858604839165 43 58 20
14.95846573986907 -1.6300608105111651 2.160819768928096 45 61 23
14.123319470950646 -1.5476746866467355 2.200964496764911 45 62 23
14.140033057832252 -1.6352421986473125 2.2001026459489856 46 64 22
15.436520513944416 -1.4604595091969939 2.3032725251602417 47 62 24
13.707513061769188 -1.2005050181466939 2.4234990000513323 47 63 25
14.348555391348437 -1.2669103778352446 2.278017435395459 43 58 21
14.186386688468069 -1.048510714787541 2.4949834124722496 47 60 25
14.43930887765705 -0.7967438827459321 2.4721231918240893 28 39 21
13.690814616395045 -0.9836490420307318 2.544585041127478 53 67 24
14.704454052159203 -0.43863795968550984 2.5644371242290696 51 62 47
14.505371644939451 -0.3200535699655121 2.5858704906006906 6 12 6
14.11624736942232 -0.9031148645315272 2.631987688299436 50 65 27
14.843304072834057 -0.7121680954115267 2.5502249329760853 52 63 38
14.852986912096675 -0.8830841886067988 2.549254859539573 51 66 29
14.967836563321669 -0.5453946335049994 2.5379473837614457 43 50 37
15.292197154122649 -0.6399430548360046 2.507837624156976 0 4 1
14.704454052159203 -0.43863795968550984 2.5644371242290696 51 62 47
14.724501020973372 -0.5745173363094406 2.701685441589936 48 64 29
14.900377809516458 -0.7228506890570681 2.43393510562728 2 8 5
14.987531242032283 -0.6970963554820662 2.6657611892298267 50 65 31
13.946352505337593 -1.3760593685686424 2.65423094242371 51 66 26
13.487982035075893 -0.9334037093578795 2.7228437917597588 50 65 29
14.133495473970918 -0.8069453897850803 2.8012066996027523 47 65 28
14.214191455199254 -1.0963144901725619 2.785523896690658 51 66 30
13.918546952638385 -1.1557836355132836 2.5209243959876604 50 65 26
13.718539691630976 -1.2742034260163981 2.5416183809488886 48 63 24
13.645995888568672 -1.1743282378842497 2.697543076462744 51 66 27
13.07117251261959 -1.3760593685686424 2.6183966175579503 50 65 26
13.516123178962536 -1.3412066445835398 2.7181901215058355 52 67 28
13.459493593257644 -1.5220499460003913 2.7276251326577228 53 68 29
13.205421949207329 -1.231183206124904 2.6010322794470455 49 64 25
14.267304728189751 -1.0996834041373298 2.6133515656709014 50 65 26
14.072255192579506 -1.231183206124904 2.637610021474295 49 64 24
14.283329222737335 -1.3077761494589213 2.486045087584948 47 65 25
14.723227230993231 -1.5427615027669972 2.448118092217272 49 64 25
13.892062823448134 -2.3811904613329125 2.4084235704576527 51 66 27
14.3807013704088 -2.3087611324391286 2.371446796138319 51 66 27
14.07384051149852 -1.7532951995401054 2.394194592486576 49 64 25
13.426012972168957 -1.7744369094467585 2.447838051419954 48 66 26
15.40041698412749 -1.8632818158981268 2.141725220837783 48 63 22
14.511474147736259 -1.7098234678509348 2.0997236053222847 46 64 22
15.626122153933386 -1.8062063228817251 2.2924125183863016 50 65 25
14.761034826777719 -1.736094030960351 2.3452337175559292 50 64 25
14.834355874897916 -1.72183349400415 2.250350727903642 50 64 25
14.834355874897916 -1.72183349400415 2.250350727903642 50 64 25
15.198778839736725 -1.8873042054226359 2.231127115123498 49 64 25
14.761034826777719 -1.736094030960351 2.3452337175559292 50 64 25
14.747546668421249 -2.037195396667974 2.34612888025036 52 67 28
15.241471217269844 -2.0367135542872234 2.148437760186585 49 64 25
15.507172854283876 -2.0038427620465113 2.0625893794422225 47 62 23
15.809732515616426 -2.0367135542872234 2.201452282978088 50 65 26
15.74095540777515 -2.074525904111182 2.2860112364057428 52 67 28
15.404716652749913 -1.9978594963508076 2.3051309113694156 52 67 28
14.621499679979243 -2.8342572381796933 2.2621689926050395 52 70 30
13.125269401000029 -1.8354016685667052 2.611294840874314 50 68 28
13.125269401000029 -1.8354016685667052 2.611294840874314 50 68 28
13.56844618160289 -1.8814660420935287 2.7097129056058784 52 67 28
13.294550720008665 -1.9743800761119996 2.589964077512211 52 67 27
13.125269401000029 -1.8354016685667052 2.611294840874314 50 68 28
17.16552300188879 -2.671297696387935 2.8269089994690413 48 68 31
15.048742199045417 -2.4651677519322077 2.5301936205014335 50 65 26
14.650413196872774 -2.3811904613329125 2.4541192618847805 51 66 27
14.628474280500857 -2.3856741482026713 2.5724637698418515 52 67 28
13.845210104689398 -2.2073199555560654 2.528372374590466 51 66 27
14.696169135366416 -2.229711188414145 2.4503361391762173 51 66 27
14.650413196872774 -2.3811904613329125 2.4541192618847805 51 66 27
15.187591912073541 -1.948840652196001 2.412105623924207 51 66 27
15.224734798003686 -2.1695195779549143 2.409380850257445 52 67 28
14.876833254140111 -2.083811398007407 2.4357871396963238 52 67 28
15.88824409822409 -2.899174085633499 2.4584291501271456 50 68 29
15.316862132647348 -2.804925670579215 2.4027143341622663 58 75 38
15.484801611287928 -2.76969021007848 2.4911018379167906 58 75 39
15.13628054831038 -2.4498556760894425 2.415905633955525 49 64 23
17.499779741137104 -2.7266897899653513 2.6374482282489295 55 72 36
17.33283382987516 -2.839883305600796 2.655193000196647 49 68 29
16.11239013539492 -2.8726807381339836 2.5442875617036096 49 68 29
15.289349509412315 -2.587329599780464 2.404691667454966 54 69 30
15.788080477826735 -2.9209930401190642 2.370516629356087 56 71 32
14.96492719683991 -2.6743357573356072 2.4289077056539936 57 74 36
15.770058995376539 -1.8883973505691356 1.8484517442147337 38 53 12
16.072957352837427 -1.8883973505691356 1.9083209681482818 47 62 23
15.994223655708685 -1.9103610723989828 2.046346567293826 47 62 23
24.63153692631685 -2.473919233898476 2.1913356445092815 29 43 20
24.594360662930114 -2.4359258745215144 2.143246500238808 4 19 0
11.615190106690733 1.5480432258970396 1.512442919650438 33 42 14
13.718897953699493 -0.48490329212701816 2.1338370166004523 9 10 10
12.928843323053616 -0.4475887287364618 1.8307038455881224 8 10 10
19.814419427094876 0.2728637808791534 2.6346687382623535 6 11 11
20.843254356435352 0.36993699501428706 2.6446959159520405 5 9 8
12.699704088682811 1.6562667247844567 2.3951071938079904 34 48 9
11.512242591278058 1.6473933438712973 2.152210771724431 32 45 10
11.44539226674828 1.242834816279969 2.0544794221383915 34 42 20
15.74030171579109 1.4974929812153768 2.9107014384157437 42 60 18
14.476216922998981 1.5360639287852877 2.589122091074862 38 52 12
14.866782307024074 1.5308006398612604 2.681771662227156 40 55 17
15.035838924660426 1.2400170435684872 2.6595638199689566 41 54 18
15.747072011598403 0.45392241593694116 2.9088796157245524 43 60 21
16.57543591791186 1.117197122379023 2.9667060098210167 43 61 19
11.588946376876892 1.9422132572192192 2.0479834705521758 32 45 12
12.663095957680916 2.1594361286926413 2.1873942256733327 37 51 12
13.217398758238046 1.9809585842889772 2.353681772940955 36 49 12
13.976201623362241 2.6202132153180515 2.208663791141451 40 56 14
13.081052161190746 2.3655735527655906 2.164924661596063 38 53 14
14.240595899736618 2.7008522348767334 2.2845151595135498 43 58 17
14.0826411873654 1.8283106913519904 2.6362743342236175 41 56 17
13.681499042465688 2.4926713009937207 2.692119325512131 44 62 18
13.74264978267868 1.7956052500686135 2.5390586276911575 39 53 15
14.355092719557941 2.1081263494738 2.760005400269775 43 61 18
13.97741941971914 2.3716052349486003 2.65005374351434 43 61 19
13.74264978267868 1.7956052500686135 2.5390586276911575 39 53 15
14.552702243047591 1.8718165006930785 2.7274769397766514 41 59 15
14.135246267591834 2.0280999263288377 2.499791551444662 39 54 15
16.74289167818731 -3.081160146227991 2.7267267734770892 47 65 23
14.375109593033075 2.6407757646787853 2.7565499852059983 45 63 21
14.778894561414365 2.8182504803414936 2.5567465347509764 44 62 20
15.942510110783314 3.0738842876982195 2.560138874206289 41 61 19
14.154625527249017 -1.3566171678938967 2.2897871029294876 42 58 20
14.786513051729017 -1.4604595091969939 2.2529675953531796 41 59 19
14.993696452000293 -1.4692886026617948 2.1592472604243955 39 55 17
12.49271563817427 -0.9833761820943434 2.0109253303776424 45 55 32
12.783802132091028 -0.8582537164979075 2.088146574641173 1 10 1
14.28595523951945 -0.5794405105341522 2.3783086992289055 9 11 14
13.991549680863262 -1.1819705142695445 2.207850937448435 37 53 18
13.454308179229622 -0.8688655218931604 2.33631083922318 0 9 0
14.666235874584487 -0.8019767085462846 2.7102032764787345 50 65 28
15.236103117689243 -0.7967438827459321 2.512864696287317 47 59 30
15.292197154122649 -0.6399430548360046 2.507837624156976 0 4 1
14.508911516180815 -0.6131769833875529 2.585477737660928 50 61 37
14.69416727956299 -0.48997771404574414 2.450500799470157 8 10 14
13.413082675453524 -1.0996834041373298 2.5757663471218057 49 64 24
14.214191455199254 -1.0963144901725619 2.785523896690658 51 66 30
14.089557151419442 -1.2915529908748842 2.8101241523551326 54 69 31
13.718539691630976 -1.2742034260163981 2.5416183809488886 48 63 24
13.847051014305459 -1.0277620313035165 2.667939320907566 50 65 27
13.477030451290032 -1.7061050058013616 2.7246733469555617 52 67 28
13.589360296530142 -1.4018131571854284 2.5556584494832304 50 65 26
14.283329222737335 -1.3077761494589213 2.486045087584948 47 65 25
14.3807013704088 -2.3087611324391286 2.371446796138319 51 66 27
14.911758151049794 -1.8278822408737583 2.335392433071137 50 65 24
15.809732515616426 -2.0367135542872234 2.201452282978088 50 65 26
15.127224238222134 -1.9154552356804957 2.3218174009392625 50 65 25
15.474988213801137 -1.9643193921167101 2.217338531522247 50 65 26
14.383507877868297 -1.8062063228817251 2.187833125990657 49 64 23
15.831868985299968 -1.8873042054226359 2.2810338775631163 49 64 25
15.673073255844168 -1.9354432750587829 2.1305913923322137 48 63 22
14.218376308181208 -2.3009639255161445 2.4920087756384386 51 66 27
15.048742199045417 -2.4651677519322077 2.5301936205014335 50 65 26
14.335445764162383 -2.139663010780424 2.4813319128388236 51 66 27
17.467900902124114 -2.7442046090709336 2.7774624888320005 50 67 31
14.674298626900967 -2.2073199555560654 2.5676009351413875 50 66 27
13.535784456208594 -2.098688557871666 2.561649348286614 52 67 28
15.026889970633407 -2.3009639255161445 2.532271167602017 51 66 27
15.79897819745923 -2.118347791519839 2.369807068102233 52 67 28
16.455452932860602 -2.839883305600796 2.626782416022367 48 68 29
15.20269256931606 -2.6237239260639034 2.5158932422423845 56 73 35
15.727136050494892 -1.8425643986559606 2.055111957471517 48 63 24
16.3183201447602 -1.9750631752685217 2.0361454562724566 47 62 23
15.894727899476994 -1.9750631752685217 1.979891806444257 47 62 23
24.63153692631685 -2.473919233898476 2.1913356445092815 29 43 20
20.17376743209704 0.4602319090691501 2.603464367856996 1 8 2
12.835412003566464 -0.40561638797921995 2.085859973844789 8 10 16
14.073132860817632 -0.23040438194199622 2.294866885480046 8 10 15
13.379609159899156 1.0754024366060275 1.74527263001958 4 8 5
11.173012620804455 1.4520451001100443 1.8727406734161982 34 43 15
11.162484146980757 1.2719004520160841 1.6895613812819783 35 41 25
16.04585783595981 1.3022491768150817 2.840205004429506 41 59 17
15.900073399454023 1.0084929847788637 2.8712558385916336 43 58 19
16.681507541908417 0.8529628700306684 2.93378037645412 42 60 18
15.910003763950094 -0.0953012973275412 2.86901261806424 44 65 23
15.96694655164706 -0.3188584323203823 2.856533041045642 45 66 26
15.915811551870622 0.13805735677021944 2.867710258020591 46 63 23
16.65624917864727 0.1795565936477302 2.941099323520487 44 62 22
11.309629804639206 1.909895024958518 1.6880090072821343 32 42 12
12.616702575673877 2.2356856190506575 2.0956995372547595 34 48 9
11.43353571809161 1.823586347218138 1.8656513720118706 33 43 15
11.810016658605822 1.8486622087640658 2.1357290541762257 33 46 13
13.851853740714683 2.546398622868234 2.1277900648092527 37 52 13
13.792007930500521 2.4358499573397787 2.3130386369008473 39 57 17
13.97827951163548 2.366980808693904 2.401601008699049 42 57 16
15.6087526838578 -3.103647578593216 2.382412544063485 43 61 18
16.79701116751911 -2.9355986273009793 2.719470940960946 48 66 26
17.054032294859926 -2.852709505020696 2.84765617990216 49 66 28
15.287703697271857 2.1081263494738 2.7843668656865947 42 60 16
14.175872625509905 2.706856953273545 2.4959665920418788 43 61 19
14.775419372418918 2.54321822036416 2.5571018554609823 42 60 18
14.077336176054626 2.534994820078358 2.8126558834854234 44 62 20
15.666790442208828 -3.0112299876189614 2.3785164971338806 44 63 21
14.755945540908117 2.1937845832047174 2.559099607006168 40 58 16
14.312674727951105 2.448703507243675 2.4833834631197425 41 59 17
13.806097465409385 2.0258214536798653 2.6737595788505497 42 60 16
13.942948380306573 -1.292131996096883 2.123726403296069 35 52 14
13.612712918224206 -1.011421565903273 2.3251873233526057 19 31 9
13.258142214957699 -1.1014541563786102 2.3506287208975847 42 56 25
14.677048993557577 -1.6414147339408092 2.3508473321757726 49 64 25
14.660947621529592 -1.5454539809069971 2.351934483453418 49 64 25
13.991549680863262 -1.1819705142695445 2.207850937448435 37 53 18
14.342631444502109 -1.2368555911808785 2.374187219876982 47 62 24
14.42603548943238 -1.6300608105111651 2.1031887045264384 46 64 24
14.348555391348437 -1.2669103778352446 2.278017435395459 43 58 21
13.913788032246691 -1.145258611824224 2.3050400349953364 37 50 20
12.950410856986668 -0.9833761820943434 2.080840809588655 22 32 9
15.11087516719633 -0.49823353090244493 2.650157067052704 46 60 32
14.449777084670453 -0.7988700265240966 2.592097232425042 49 64 29
13.645995888568672 -1.1743282378842497 2.697543076462744 51 66 27
14.775013979601013 -1.4372564121985807 2.443911872095695 49 64 25
13.413082675453524 -1.0996834041373298 2.5757663471218057 49 64 24
14.739260568071787 -1.6488922479783668 2.4468104037211114 50 65 26
14.528716468049419 -0.9836490420307318 2.583288432548629 50 66 28
14.072255192579506 -1.231183206124904 2.637610021474295 49 64 24
13.012606689388456 -1.5296481798610304 2.626252894356194 51 66 27
16.132267638110303 -2.145228050520021 2.2651290120771885 52 67 28
14.664762662193786 -1.787848043142617 2.0936249890387746 46 61 22
15.507172854283876 -2.0038427620465113 2.0625893794422225 47 62 23
16.11239013539492 -2.8726807381339836 2.5442875617036096 49 68 29
15.56988850328653 -2.7164950324730173 2.3850467571945133 59 76 38
16.910196526829885 -2.7983319177995405 2.704806619930829 50 67 29
14.822893917571262 -1.7532951995401054 2.4400676254408764 50 65 24
13.125269401000029 -1.8354016685667052 2.611294840874314 50 68 28
14.650413196872774 -2.3811904613329125 2.4541192618847805 51 66 27
16.072957352837427 -1.8883973505691356 1.9083209681482818 47 62 23
11.635507002817777 1.634217404264643 1.5125449267284663 32 41 13
13.060545020615507 -0.3205497780579965 2.165985765554373 6 8 11
15.729455304657222 -0.40716894519183716 2.9136532306707923 47 66 26
16.1554068872863 1.1128087841124432 2.8191057488015367 40 58 18
11.236251911505962 1.7332605121211848 1.870988163141963 33 43 14
16.835651184596276 -2.9818448568638747 2.588169525607565 46 64 22
14.461680479129432 2.605871697407198 2.4701708668039917 44 59 18
15.71005969741226 -3.0997545912333204 2.472486326567672 44 62 20
14.69780504764399 2.3688848812225545 2.565132278738059 41 59 17
14.280873308707273 2.774215012084666 2.6117256718057984 44 62 20
14.155425162030856 -0.7228506890570681 2.387996234071729 0 4 1
12.772550745256487 -0.7308160669285662 2.0886479233007336 7 11 8
14.750787512030097 -1.6352421986473125 2.254936413992063 48 63 24
14.967836563321669 -0.5453946335049994 2.5379473837614457 43 50 37
15.278529060093032 -2.8342572381796933 2.312612221402829 57 75 33
14.40353399304091 -2.4498556760894425 2.3698138511700058 52 67 28
14.740821768914763 -2.5315395610034 2.4466833327378907 50 65 26
15.788080477826735 -2.9209930401190642 2.370516629356087 56 71 32
13.294550720008665 -1.9743800761119996 2.589964077512211 52 67 27
15.770058995376539 -1.8883973505691356 1.8484517442147337 38 53 12
11.847611305176155 1.1095987736431607 1.5135889339814912 26 31 24
12.84864706624185 -0.5580877413398191 1.9139137401351203 7 10 7
15.984301515562404 0.35743151699680265 2.8528510413472326 45 61 21
11.538234820617456 2.0294259330425675 1.954796789334755 32 45 12
14.466013507811711 2.086401251488885 2.590267236022659 40 58 16
16.28347648375785 -3.088956320666242 2.6457722062596942 47 64 22
11.491707770491784 1.543301434613268 2.153385578225211 34 45 12
13.752672028671903 -0.9529932713718964 2.419748716150033 45 57 34
14.734766717766787 -1.5476746866467355 2.255823445144712 48 63 25
13.891476890568237 -1.5296481798610304 2.6617375267685133 52 67 28
14.900377809516458 -0.7228506890570681 2.43393510562728 2 8 5
14.39733698691189 -0.674245083015439 2.752758282713791 46 66 27
14.425789046895556 -0.39110733940993697 2.4733083217910727 5 10 13
15.482354845810521 -1.72183349400415 2.3006131364014952 51 65 25
15.88824409822409 -2.899174085633499 2.4584291501271456 50 68 29
14.211647960705463 -0.5283718034203168 2.2862805114767895 8 9 12
10.91207745251343 1.3602441819515585 1.6923000995311361 34 42 21
14.49579870324847 2.6516603392305735 2.5869348291330625 40 60 17
12.9702447138139 1.879085772614991 2.3728251962453135 34 49 11
13.03074498448851 -1.6851884838322566 2.6238005993573057 50 65 26
17.081273634897876 -2.673266667147956 2.6838237543510486 54 71 35
13.420814622204967 -1.1819705142695445 2.1479192054774776 36 50 18
14.059866376239544 2.515668575780391 2.39526767626723 43 61 19
14.4767791891415 2.29650894964765 2.3646284224333503 39 54 15
14.778894561414365 2.8182504803414936 2.5567465347509764 44 62 20
15.474988213801137 -1.9643193921167101 2.217338531522247 50 65 26
13.03074498448851 -1.6851884838322566 2.6238005993573057 50 65 26
11.435114579517007 1.068915783988407 1.8656094389283082 38 46 29
14.034458410015008 -0.8830841886067988 2.5094635536715706 60 74 40
15.541454627255957 1.186159206513152 2.7429117737846465 40 58 16
