11.172113337499942 0.2236091320794991 2.1864804748310775 68 82 40
11.326118669455333 0.6296482266027645 2.288897546952493 69 85 39
11.576836359207295 0.47129140867648367 2.270128450450107 70 86 39
11.268456649308824 0.3656844817090033 2.2933772263771326 68 82 43
12.08301552026381 0.41320916096200316 2.4690854906154316 67 81 40
11.740411629560864 0.2508258376667223 2.374474816205112 66 80 37
11.624978025302259 0.5282092433667451 2.384830248131969 64 80 32
11.624978025302259 0.5282092433667451 2.384830248131969 64 80 32
10.524054272196503 -0.0984803795495467 1.9050018733059297 65 79 35
10.663521627193603 -0.1972757732914456 1.9004640309129572 65 79 36
10.893377284529988 -0.29232891791410026 1.8932532525291959 66 80 39
11.034993955387215 0.11446910248877419 2.1952983179911385 68 82 42
11.296419466540016 0.0022754483188587317 2.0744611997301856 68 82 40
11.647972630467494 0.11446910248877419 2.2650024404483373 67 81 41
11.603027258849652 0.0025312996037536997 2.2682312857024782 70 83 42
10.987541434047955 0.0025312996037536997 2.198414469106596 70 84 43
10.617525243634203 -0.21879022893066521 2.1100536943738843 67 81 40
10.848355519095868 -0.32306089061898513 2.097368365180591 68 82 41
11.03091301454276 -0.10946970916239188 2.195564980312869 69 82 40
11.610006046553819 0.12881955965350667 2.386196867514876 66 81 39
11.743475397083802 0.14725412074162134 2.506269401320789 64 80 36
10.044880121977895 -0.36070042688248116 2.144531317090312 71 85 44
10.620912930139017 -0.36070042688248116 2.2236918754813617 73 88 47
11.08467253037679 -0.27935715911274367 2.437968180738934 73 88 50
11.864827850010185 -0.27935715911274367 2.492524948987999 78 93 54
11.60612729294284 -0.12320570475354065 2.3865518133719297 71 83 41
11.30596923201094 -0.4077177707993514 2.4152033873428067 80 95 58
11.732739062532708 -0.24546596611278568 2.375153356742491 69 82 41
10.11038041445553 -0.7914457178690645 1.8157709086890363 71 85 46
11.396930241424695 -0.6652498881912882 1.6985539837123467 68 82 43
9.755459587339043 -0.7143419724661209 1.932493494029898 71 85 46
10.813650806199195 -0.5917623640494771 1.7054860074503093 69 83 44
9.949935547253968 -0.562596496388235 1.9251088840931505 71 85 45
10.941502137636983 -0.382251967867902 1.7968248523615886 65 79 38
10.48256854943538 -0.5102376034938322 1.8069044148410318 69 83 43
10.33602646227316 -0.4205482564502004 1.91132550347658 69 83 42
9.896990301587014 -0.46675287274764443 2.037385368923306 71 85 44
11.609475244155796 -0.5233229908509638 2.386245419486237 79 95 59
10.316613349641454 1.3840627609722038 1.420186818624662 51 58 63
10.180634076628486 1.4818721391953313 1.418159515861133 51 58 61
10.341853537627117 1.5814119885034568 1.321864299081672 50 57 60
10.415505835364323 1.1633969347357997 1.9086229297762891 51 59 58
10.356737392681111 1.4818721391953313 1.8098286100839542 51 58 63
10.532437335386994 1.289729164548242 1.7091049893364876 51 58 64
10.532437335386994 1.289729164548242 1.7091049893364876 51 58 64
10.237799324249988 1.3639237912948563 2.0206875876282107 51 58 65
10.366369325898264 1.0738247804806753 1.7113352629067569 48 60 43
10.467848861274065 1.33900297007795 2.2349232429101478 54 68 23
11.006827944056317 1.1189499671135197 2.197143857830055 52 66 20
11.237931812210078 1.1633969347357997 2.0773315132416745 48 60 43
10.931784420308157 1.2604504259345009 2.09293754343003 50 62 44
10.5796743335752 1.4720770770827056 2.1121960391812293 51 62 51
10.864312559438018 1.0230683203563775 2.0965147566404347 50 64 25
11.248946090247978 0.7962160355171576 2.294907413734125 56 72 24
10.954880709721797 1.0645464727173053 2.3189036920103874 56 71 23
10.758791165252449 0.8884488610274486 2.3359543633487707 58 73 26
10.954880709721797 1.0645464727173053 2.3189036920103874 56 71 23
10.612945554209622 0.7962160355171576 2.2242661416526586 61 77 29
11.210693027959044 0.8725799970974062 2.1840481220725065 53 68 26
11.6581982385325 1.0645464727173053 2.381817480044588 60 74 27
11.769235834002876 0.7983976879231609 2.503306686598153 63 78 33
12.232411296113032 0.9113428166086642 2.59530389850963 65 79 32
12.229470019051893 0.8884488610274486 2.454186152956863 62 76 29
12.221868191506283 0.6880090570957063 2.5967243538986597 66 80 33
11.321088217509535 0.33057812163383626 2.558765191341483 68 82 41
11.843018537925909 0.5988992544872902 2.494955957826286 65 81 33
11.93017339605931 0.553293514720106 2.6385198446253417 70 84 43
12.221868191506283 0.6880090570957063 2.5967243538986597 66 80 33
11.716826039057231 0.3919168511258643 2.672674931177313 69 83 42
10.278512000910508 1.4442285688492438 2.3818541984631283 57 71 27
11.575212107745882 1.12289930720223 2.5262575504319904 64 78 31
11.630575381549285 1.3947198060422807 2.687531652004774 67 81 36
11.366544529254075 1.2661629248124004 2.55272632750151 65 79 32
11.749786572942142 1.2102536484869109 2.6671675815210287 66 80 33
11.243270597638597 1.42349435430849 2.5693495742569286 65 79 34
11.567180316869399 0.9472004892851605 2.698893174742452 67 82 32
11.35836518514789 1.1308207700924948 2.73941436430382 67 82 32
9.350389499195005 1.5825884597823086 1.836143609888663 49 59 61
9.378230503372503 1.8001487877704707 1.7262577440919324 51 58 66
8.803506855625253 1.707843683216593 1.9737383049926895 53 61 52
10.03326761368364 1.5814119885034568 1.6158704281211527 52 59 63
8.945566306543764 1.9402287294275866 1.8484625789703184 49 59 61
9.55300119155796 1.902379102291903 1.6181381318109795 49 58 66
10.05207965300489 2.043886500322188 2.0296293376368535 49 59 59
8.984126677270845 1.8275618075281184 1.9651840173588673 49 59 58
9.925869320247203 1.8275618075281184 2.152299415270795 54 63 53
9.76268828583684 1.707843683216593 2.163326532156562 55 66 30
10.295700955976454 1.584058177296118 2.2480790401572497 55 67 23
9.645122213573414 1.7524811121626087 2.453765950231563 61 75 27
9.537108227569965 1.585946382965837 2.313829219435539 56 72 26
9.582044840145471 1.5884614676782436 2.461816870108923 61 75 28
10.437076090527214 1.7524811121626087 2.5146308586276236 65 79 32
10.760655523416338 1.7876213922348603 2.6432862805628146 66 82 36
10.33182861177627 1.839210768551471 2.7259359693651484 66 80 35
9.880372223397362 2.2561764415138708 2.4252791637738467 61 77 29
10.072436691644432 2.0470022782963344 2.4036429788731084 61 76 26
9.793030956988273 2.099925575761287 2.16124207245118 53 65 34
10.424335955033007 2.169231217538562 2.367240315151066 61 76 26
9.356805336357999 2.0470022782963344 2.3316789466833545 58 73 23
9.766372496316144 1.8622068570354635 2.29247154124989 56 70 32
9.417571668340083 1.987269284201869 2.1882085656749872 55 68 32
10.054866069975866 1.9679070485609613 2.5691802501387735 64 80 33
11.082356772523765 2.17944110474137 2.802715661683045 70 84 43
11.410486632716825 2.683941347811668 2.7288076905770735 68 82 39
11.62945527640573 2.5070799629101415 2.687729031475371 66 81 43
11.089923624588245 2.564459086228282 2.8007851503357113 68 82 43
11.395773622883842 2.053186576302822 2.731765748560056 69 83 40
9.524565065545422 -1.1167353478721054 1.9416813527818626 68 85 53
10.024140446243537 -0.9345154135707536 1.716166839240992 67 82 44
10.024140446243537 -0.9345154135707536 1.716166839240992 67 82 44
9.45688063376158 -0.8694109449678193 1.8330847187939214 69 84 48
9.14694152834747 -1.0618140957280493 2.0791383919419113 71 86 53
9.764054799411069 -0.8694109449678193 1.932160464102875 70 85 49
10.210598131445813 -0.7938962300328909 2.3888819733250264 75 92 57
10.725834000471751 -0.7013262277135488 2.338909318445191 77 94 58
10.009502513401408 -0.7924645575364 2.1468171173173953 71 88 51
10.056805665865696 -0.7013262277135488 2.267332167008359 73 90 54
10.725834000471751 -0.7013262277135488 2.338909318445191 77 94 58
10.316205143732933 -0.9934534108597035 2.378015673031782 76 93 59
10.553354357870349 -0.9069775463071046 2.499578157240435 78 95 62
11.045031219551856 -0.5936689189992193 2.4422086647916745 79 95 59
9.981827876886612 -1.119963170213988 2.4136809652305837 77 95 62
11.219217252802595 -1.4224009749305448 2.5726866141611007 79 98 66
9.93416771192189 -1.1776776769382493 2.2777025395427786 73 91 59
10.247802755990996 -1.4434206210225804 2.3850139979451708 74 93 65
9.84638449836289 -1.337741466492051 2.1576149250490646 71 88 59
9.84638449836289 -1.337741466492051 2.1576149250490646 71 88 59
10.996437429021462 -1.4434206210225804 2.4474782369416364 75 94 66
10.90396058036606 3.1343456718555975 2.8526960228275633 74 88 50
11.229833281682582 3.1361104326849287 2.7672354896758584 71 86 48
11.276266242196376 2.8975510507828455 2.756890650066884 69 84 45
10.706938512546726 -2.7071113498422035 2.922972179914612 73 90 51
11.276266242196376 2.8975510507828455 2.756890650066884 69 84 45
9.484351967175547 -2.377380406666791 2.670694786577486 75 92 58
11.272272650352015 -2.9079016963309567 2.757766644239433 79 94 56
9.8837914120168 -2.3877500196773793 2.8449457464513133 83 100 64
11.272272650352015 -2.9079016963309567 2.757766644239433 79 94 56
10.947663289837935 -2.836732999393028 2.8395547633063543 82 99 61
9.613518255949753 -2.046172983452791 1.9380855649891773 80 94 70
10.411160326943085 -1.7538193869908214 2.518074975445814 77 95 64
9.484656439300036 -2.1287409015680674 2.474621994745084 77 93 64
10.20395543909144 -2.3721399239510927 2.546889431838763 78 94 61
11.18407953127088 -1.5885945006009146 2.5776190671283032 78 98 66
9.85756090357876 -2.260593065081905 2.4279413843640256 77 92 62
10.268547108433323 -1.728054091903112 2.3828763020783246 75 93 66
10.670925831929116 -1.989654053686707 2.3438920377921226 76 91 67
9.76079441937827 -2.10273280040953 2.1634571626029016 74 88 64
10.04558026900606 -2.050066179570351 2.4065877582887905 76 92 64
9.889513864413987 -1.8289476227801924 2.154717750372727 75 91 67
10.260655967661437 -1.5841330181481232 2.2508287281801427 70 88 60
10.032451513963785 -1.9711289070965576 2.572656867092607 78 95 63
12.476771554305978 2.681973477820634 2.5638978218252357 62 78 35
12.20567297652449 2.7394487854463945 2.456564393575657 62 77 37
11.035730695496692 2.821122921188228 2.0875261314387634 58 70 47
9.427625833893467 2.4385649652617545 1.7254366425564691 51 62 34
9.418723613006083 2.286529137002357 1.7255839807461582 52 60 49
10.732576749836179 2.363110678982239 2.2157589012565793 55 70 22
9.595375432479322 2.2740614025828227 2.1751124915823117 56 70 23
10.197009481909532 2.821122921188228 1.9161603169670993 52 64 47
12.490935819239965 2.6265174838036813 2.429070916136265 57 72 36
12.272929706790757 2.8217525729313255 2.5898979888196743 66 80 39
10.186136624290397 2.2214004005391494 1.7138388958573645 51 58 61
10.684796546050324 2.6375704985637305 1.8023532084337242 49 62 42
10.336080227489093 2.3644762547940044 2.3760090854725586 60 73 26
10.205056533925344 2.4532820998891616 2.255242680861308 57 71 30
11.99722584514222 2.8643194391416027 2.4781163570641334 65 79 38
10.697730209131084 -2.2985089913543 1.5195562579296515 72 82 65
10.183470815826663 -3.0346613574487185 2.0232655639178976 65 78 46
9.78769140564341 -3.0346613574487185 1.9312478712199743 70 83 50
10.92372327848356 -2.7721198968958634 2.6165064732384478 79 95 58
10.485465132645588 -2.870190234803842 2.361298196401599 75 89 52
10.61302759142767 -2.828411605704473 2.492095412668166 78 93 57
11.295377563038974 -2.9828633591457154 2.5622271882267786 73 87 51
11.054537668968658 -3.021589821235001 2.310569274599809 73 86 51
11.042608546608786 3.138424756874059 2.4424695038726276 69 83 47
10.313996830990611 -2.6137002109322585 2.531294901927776 78 95 59
10.084004909816622 -2.6879132180252876 2.402382290281418 73 88 56
9.967418353553754 -2.9023241504211668 2.14956185117732 74 87 51
9.43883491793556 -2.7448262502687446 2.1866100046172967 73 87 58
12.14824179695627 2.975682579600131 2.6068084103793248 67 80 46
11.869642081749419 2.998687326304998 2.491990573256577 66 79 45
11.207206481866562 3.0297759726673172 2.184267080847115 60 72 46
10.613777720114202 3.139120505387678 2.1102649986941158 61 74 43
11.089825442456213 2.998687326304998 2.437420743338046 66 81 43
9.034752731502898 -2.2777652193953535 2.0860706534086653 74 88 63
9.523312455222051 -2.5909284084532027 1.6182858298183378 69 84 53
9.582493560880334 -2.140181327764668 1.7229177965318505 77 91 67
9.398927114184593 -2.4422639417628975 1.7259126397558184 72 85 54
9.635328542172704 -2.3668621769499256 2.051111491719724 72 85 55
10.38779472823738 -2.641369509923499 1.6143310953218257 69 83 56
9.733342457039436 -2.564259302864664 2.295461877738839 75 92 59
9.80033569718547 -2.631328912423707 2.1607426172970534 72 87 56
9.580644850468428 -2.4576961049327246 2.1761745370850907 72 87 56
11.895797881688392 1.9217000327175955 2.867607327867584 72 86 45
12.747197185713002 0.801681486110124 2.6869099609890066 68 82 37
11.81853551027703 2.376508714153252 2.8919217150245338 70 83 46
11.689001530377492 2.689667738616822 2.9399148797158614 70 83 46
10.170358361456714 -1.3832396800204967 1.5168967527465096 66 81 41
11.269800936706178 -1.5804885505905897 1.3427414477504662 65 81 58
11.086594966790793 -1.5804885505905897 1.43071848016968 65 81 59
10.207426746735704 -1.778856407868554 1.6151008657590347 66 83 52
10.274936107194668 -1.58145988956208 1.8117691561295997 65 82 48
10.165646265985256 -1.3832396800204967 1.6152830759677306 66 81 42
9.745816499853559 -1.2589926632319552 1.8251336459322944 68 83 49
9.497038403893434 -1.362915825451186 1.831949664742771 69 83 52
10.50389743150165 -1.582647595391805 2.1165398508356574 66 83 53
10.561470562744368 -1.6934195637564997 2.1132328227724373 69 83 53
9.846273916286796 -1.8012588559862395 1.9290062594089599 73 87 60
10.234597756972434 -1.0717253056325513 1.614983168490231 67 81 45
10.91952101898581 0.5282092433667451 2.3219131757186116 66 82 36
11.09279335549603 0.2853814620450938 2.4371058275945683 66 80 39
11.624978025302259 0.5282092433667451 2.384830248131969 64 80 32
11.777957854850374 0.2236091320794991 2.2558501962806927 67 81 40
10.893377284529988 -0.29232891791410026 1.8932532525291959 66 80 39
11.647972630467494 0.11446910248877419 2.2650024404483373 67 81 41
11.034173784420537 -0.24546596611278568 2.312254936778154 70 85 45
11.338609612007659 -0.0984803795495467 2.072411861311571 67 81 37
10.200589088837413 -0.6481297092876881 1.813560686626881 71 85 46
10.816977069810083 -0.7238722975581887 1.799472939154211 69 83 44
9.915423204297356 -0.7914457178690645 1.717772261020266 68 83 45
10.903015208646586 -0.5233229908509638 2.32332759286773 76 91 53
10.629079986978189 -0.7143419724661209 2.1094032851606626 73 87 50
10.673637665050256 -0.6253683579532644 2.2199194957212764 74 89 51
10.73850720561773 1.289729164548242 1.3312429416668412 50 59 59
9.92816479302339 1.9979066524048439 1.5155805725312463 50 58 64
10.237799324249988 1.3639237912948563 2.0206875876282107 51 58 65
9.701606021434538 1.4720770770827056 1.9345945035513232 51 58 65
10.128108757404847 1.1633969347357997 1.815333337696066 53 61 55
10.011240571467038 1.0230683203563775 1.9228445603682425 48 60 39
10.084421698972983 1.2604504259345009 1.9201800476266615 52 60 60
10.710588677019626 1.3639237912948563 2.104862107627319 50 62 46
10.710588677019626 1.3639237912948563 2.104862107627319 50 62 46
11.6581982385325 1.0645464727173053 2.381817480044588 60 74 27
10.278512000910508 1.4442285688492438 2.3818541984631283 57 71 27
11.378483523117902 0.6880090570957063 2.5511572207223367 64 79 32
11.843018537925909 0.5988992544872902 2.494955957826286 65 81 33
10.746802469143717 0.7057685307529724 2.3370262063677343 61 77 31
10.640592585022867 1.179948518079662 2.3466772436152903 57 71 25
11.462893967732624 0.7057685307529724 2.3999252788965064 59 75 29
10.666558177896093 0.8725799970974062 2.1073050811218437 61 76 35
11.769235834002876 0.7983976879231609 2.503306686598153 63 78 33
11.248946090247978 0.7962160355171576 2.294907413734125 56 72 24
11.856933047241263 0.801681486110124 2.649861784374597 66 80 33
11.541753040987533 0.4738719225898291 2.5303705322893704 67 81 40
11.35836518514789 1.1308207700924948 2.73941436430382 67 82 32
9.415019011285377 1.692813710446098 1.8342786128426736 51 58 64
9.686666410801296 1.9402287294275866 2.048352189423062 52 60 57
8.984126677270845 1.8275618075281184 1.9651840173588673 49 59 58
10.589870467369451 1.907252240643169 2.494980395211499 63 77 30
10.310825906849594 2.1247043203855647 2.531734774501567 63 79 31
9.734608636134602 2.169231217538562 2.2953467254342783 57 72 22
9.793030956988273 2.099925575761287 2.16124207245118 53 65 34
11.315097473274909 2.369880760259967 2.7485012583128667 68 82 43
10.33182861177627 1.839210768551471 2.7259359693651484 66 80 35
9.810259003256549 1.907252240643169 2.4335278499676485 61 76 26
9.810259003256549 1.907252240643169 2.4335278499676485 61 76 26
11.530043984134423 -0.46780444675266647 2.5318212545398016 82 98 61
9.524565065545422 -1.1167353478721054 1.9416813527818626 68 85 53
10.749002863916177 -1.119963170213988 2.475615785789892 79 98 65
10.553354357870349 -0.9069775463071046 2.499578157240435 78 95 62
10.849104174994649 -1.2072710302934684 2.6285030330609063 82 101 70
11.272272650352015 -2.9079016963309567 2.757766644239433 79 94 56
10.947663289837935 -2.836732999393028 2.8395547633063543 82 99 61
11.229833281682582 3.1361104326849287 2.7672354896758584 71 86 48
9.649409767750452 -1.9421277985978516 2.0503513386357084 77 93 69
10.319586236032679 -1.7086074471696353 2.246219115775356 72 88 62
9.844181398509217 -2.2338412120383473 2.6033036781696444 77 94 61
10.260655967661437 -1.5841330181481232 2.2508287281801427 70 88 60
9.484656439300036 -2.1287409015680674 2.474621994745084 77 93 64
9.575756273555944 -2.0578272931729478 2.6522771999934127 78 95 61
9.998224007584778 -1.989654053686707 2.2722428164065014 77 91 67
10.032451513963785 -1.9711289070965576 2.572656867092607 78 95 63
10.04558026900606 -2.050066179570351 2.4065877582887905 76 92 64
10.423812110467228 -1.8639816802496323 2.3672916937594337 75 91 66
11.99722584514222 2.8643194391416027 2.4781163570641334 65 79 38
12.094919478912686 2.784703770255929 2.3445330924245016 62 75 43
12.019027798542192 2.607145322018204 2.625245388059014 65 80 40
9.520525475403854 2.1376288463661504 1.6182997420668197 49 59 64
11.418533285702418 2.784703770255929 2.2818478925789014 57 69 45
9.3438699108755 2.1995104469212903 1.9492127884468728 53 62 37
9.774846722452798 2.5263447862226847 2.0436892819103893 52 66 25
11.807286072236 2.7644752834367248 2.6577706467143525 67 81 40
10.55011627274985 -2.855084368455253 1.5188386814942039 74 86 58
10.212952746598237 -2.7895889354903303 2.1339321935985427 74 87 57
9.616659053917106 -2.3689777541291694 2.30625610714155 75 90 60
10.084004909816622 -2.6879132180252876 2.402382290281418 73 88 56
9.590942689627605 -2.289715442416404 1.829333881665736 74 86 63
9.567179925353479 -2.2777652193953535 2.1771488785826643 72 87 60
10.743266725065853 3.137184015179881 2.6462692093497657 71 86 49
10.92372327848356 -2.7721198968958634 2.6165064732384478 79 95 58
9.590942689627605 -2.289715442416404 1.829333881665736 74 86 63
11.681822734978915 2.071365821730034 2.9429429565669762 69 83 44
12.037050336518826 2.564459086228282 2.8285570065287775 70 83 46
12.15603697904798 -1.3498012070276362 2.7996067590148637 80 99 65
10.23927812115374 -1.0717253056325513 1.5172598946403537 66 82 44
11.141157352532089 -1.6712451685326215 1.4314089822922995 63 79 59
9.795906820873402 -1.161573835716593 1.6169633684736804 67 81 47
10.33378494082113 -1.681234731988129 1.8103699104408362 66 83 49
9.543414716134388 -1.2589926632319552 1.7235455911121877 67 82 46
10.122121220674861 -1.4814729824802322 1.7147498218360395 67 82 45
11.576836359207295 0.47129140867648367 2.270128450450107 70 86 39
11.317910110009207 0.41320916096200316 2.4140166515628194 66 80 39
12.682997044749 0.2853814620450938 2.539411938237576 66 81 40
11.872415054757155 0.2853814620450938 2.4916831426793857 67 81 40
11.64410652386418 -0.10946970916239188 2.265278858500719 69 82 39
10.152495583101366 -0.7143419724661209 2.0247492016443207 72 87 49
10.385306535408326 -0.46675287274764443 2.123488979395629 73 87 47
10.579261102293039 -0.4077177707993514 2.3523812548341967 77 92 54
10.941502137636983 -0.382251967867902 1.7968248523615886 65 79 38
11.743475397083802 0.14725412074162134 2.506269401320789 64 80 36
11.164050210559655 -0.21879022893066521 2.1869914897441993 68 82 41
11.027913143397223 -0.1972757732914456 1.9863655589606588 65 79 38
11.770309762643656 -0.21879022893066521 2.256381215817471 67 81 39
10.098271307472103 1.6807425992855312 1.516511610685886 51 58 63
10.214533068657019 1.3840627609722038 1.517130076317849 51 58 61
11.076468632992627 1.8713492681658668 1.244738765118647 51 58 63
10.127716120255371 1.5814119885034568 1.7146697435138476 52 58 61
10.852354896656836 2.376508714153252 2.869151867496632 69 83 44
11.716826039057231 0.3919168511258643 2.672674931177313 69 83 42
11.363379134972622 1.179948518079662 2.4095348340248477 61 76 26
11.474134483358718 0.8884488610274486 2.3988566036356698 60 75 28
9.76268828583684 1.707843683216593 2.163326532156562 55 66 30
11.188124839086615 1.0738247804806753 1.9800554243608415 49 61 44
11.864768693198277 0.9968800981831059 2.4925315203836 63 77 30
11.410486632716825 2.683941347811668 2.7288076905770735 68 82 39
12.221868191506283 0.6880090570957063 2.5967243538986597 66 80 33
11.928505977549447 2.3665137315699436 2.6387739185201626 65 80 37
11.366544529254075 1.2661629248124004 2.55272632750151 65 79 32
10.333859829641856 1.4598669820631431 2.2451130640756487 55 68 23
9.17568027807854 1.584058177296118 2.077394106692855 53 62 50
10.694066606593951 1.2246344128864963 2.2184707096931873 52 67 16
10.413213229193595 1.3074134040670111 2.3683329228197305 57 71 32
10.718788987723304 0.9621911688967946 2.216726932330728 54 70 25
10.536229808787335 0.9372030153039176 1.9046006458327602 62 75 38
10.523966066302526 -1.2640091180472546 2.5033224440372424 79 98 67
9.85726794976557 -2.5142289350919054 2.6010844032163623 77 94 59
11.272272650352015 -2.9079016963309567 2.757766644239433 79 94 56
10.564329536204488 -1.909597654225263 2.498189959988179 77 93 64
10.706938512546726 -2.7071113498422035 2.922972179914612 73 90 51
11.276266242196376 2.8975510507828455 2.756890650066884 69 84 45
10.065143544266293 -0.8847733942794076 2.266639514454644 72 90 55
9.205440404513942 -2.186499440454216 2.734213078716077 80 97 62
10.662249159627066 3.1309054325270225 2.9427161938050665 72 87 49
10.298944688194872 -1.4592460648706789 2.2478257841809226 71 89 61
9.674728197056076 -1.0205630214438075 1.8270443174879587 68 83 49
9.673195652301004 -1.0618140957280493 2.1695681141048677 72 89 57
11.21111181094735 2.557280235639644 1.3415262933002043 50 61 40
10.836301420528759 2.427715721867877 1.4274609220290044 51 59 52
10.116962476053585 2.1376288463661504 1.9190084447227973 48 58 60
10.268972843090673 2.5263447862226847 2.130491861040372 53 66 35
10.85723626433554 2.2740614025828227 2.327282936038932 60 75 24
11.342244132344518 2.9230421629293613 2.1759087845918303 59 71 42
9.337730202658518 -2.5305826774947366 1.9494742157990403 70 85 53
11.253025331977 3.1379059781763936 2.5680052173877437 71 85 49
9.667007259972536 -2.68544476914708 1.9359575667551847 73 86 60
9.667007259972536 -2.68544476914708 1.9359575667551847 73 86 60
10.399919605863689 -2.9483670147144583 1.7108788884254613 73 86 53
11.755723182363475 3.016118856199119 2.3731247729774787 66 79 46
11.011259142584864 3.138815544330748 2.314162334183519 68 81 46
11.909893197395862 2.8235999076082567 2.863427467777592 72 85 48
12.467798974194992 0.6601073846961945 2.7351505078353204 70 84 43
9.659747017697882 -1.471585204468681 1.9362449234412198 69 83 52
10.23978929662311 -1.8012588559862395 2.02059374022898 71 85 56
9.811102610108156 -1.903922028058884 1.8234041318655407 75 89 63
10.342669307505982 -2.087959051108875 1.5177955793958366 74 88 63
10.50329544474286 -1.2885269785203293 1.4228835790465144 64 80 42
11.564913124209125 0.002851975407008688 2.390346412875047 72 83 43
10.381841968745734 -0.32306089061898513 2.013998066439767 69 83 42
10.761749960994148 1.200255512412977 1.6128174180316852 49 60 50
11.934947127909398 0.7962160355171576 2.3577129949460573 58 74 26
10.054866069975866 1.9679070485609613 2.5691802501387735 64 80 33
11.749786572942142 1.2102536484869109 2.6671675815210287 66 80 33
11.315097473274909 2.369880760259967 2.7485012583128667 68 82 43
11.325512588441875 1.2246344128864963 2.2889443044233806 53 68 19
11.622239700686956 2.22838826747962 2.6890033591833133 68 82 39
10.398514922068205 1.0230683203563775 2.0132370745285013 51 64 27
10.490434224794999 1.3840627609722038 1.806724021354439 51 58 64
10.209322236167566 -1.5860441292274985 2.3890154057218185 74 93 65
9.93416771192189 -1.1776776769382493 2.2777025395427786 73 91 59
10.38290239429649 -1.3057920555310778 2.3713285731460836 73 92 64
10.310599132720524 2.36213169166139 1.3210936558501485 51 58 61
9.646134108003713 2.5869048786067883 1.7219064366307364 51 64 31
10.565016688005317 2.6809780880413583 2.113030524550304 50 64 44
11.673771023113435 -2.9524566540594246 2.680008268477645 76 91 55
9.870629716207832 -2.4798368687457337 2.426413670490202 79 95 62
11.011259142584864 3.138815544330748 2.314162334183519 68 81 46
11.67762730870901 2.943965024762922 2.679344833015715 68 81 42
11.085764686440248 -3.0049000987939976 2.4378520797730427 73 86 50
10.060560980910092 -1.471585204468681 2.0292129281884717 66 83 50
10.5639012858323 -1.8726248362929818 1.4237383536501125 68 84 56
10.48174206850869 0.11446910248877419 2.117823931707399 66 81 38
11.296419466540016 0.0022754483188587317 2.0744611997301856 68 82 40
9.600480849446635 1.727062219060613 2.3077818774435523 56 71 30
9.923337692637325 1.9979066524048439 1.6163700994019596 49 58 64
9.34001904393026 2.043886500322188 1.836445359094632 49 59 64
11.951764945541834 1.048116177940806 2.635246708339764 66 80 33
9.85756090357876 -2.260593065081905 2.4279413843640256 77 92 62
9.455312779702105 -0.8847733942794076 2.185377387050291 72 89 52
9.583022158416657 -1.2228342280471522 2.0539574084671286 69 86 54
10.725834000471751 -0.7013262277135488 2.338909318445191 77 94 58
9.615286793788249 -0.9591707100964547 2.052197776437655 71 86 50
11.611203012641829 -1.3931602219338275 2.6909620934791825 80 99 67
9.663325208319812 2.363110678982239 2.049602605412362 53 64 28
11.67762730870901 2.943965024762922 2.679344833015715 68 81 42
10.61302759142767 -2.828411605704473 2.492095412668166 78 93 57
10.274936107194668 -1.58145988956208 1.8117691561295997 65 82 48
10.618921501660441 -0.29232891791410026 1.8038161734952995 64 78 37
10.485465132645588 -2.870190234803842 2.361298196401599 75 89 52
11.276266242196376 2.8975510507828455 2.756890650066884 69 84 45
10.29466214059132 -0.5102376034938322 1.7123207481230929 65 79 38
11.610006046553819 0.12881955965350667 2.386196867514876 66 81 39
10.339506380828615 -0.562596496388235 2.0159426373019267 72 86 48
9.706817569758135 -2.1727287990535054 2.2978838050469834 73 88 64
11.93017339605931 0.553293514720106 2.6385198446253417 70 84 43
11.219217252802595 -1.4224009749305448 2.5726866141611007 79 98 66
9.810259003256549 1.907252240643169 2.4335278499676485 61 76 26
