12.36653357641331 1.8619971663768058 1.36893796261244 34 37 29
13.76518865706682 1.6790327949286532 1.4631165198322587 41 45 30
11.271843437357894 1.7093024617146375 1.8884499471074758 38 41 36
13.385857380865966 1.9121627432469799 1.5349769820764356 36 37 27
12.520611608938541 0.7206310090214603 2.2151226225235834 22 24 26
13.582045635373172 0.4505029927554513 2.2489356280477235 21 25 23
13.681638198921641 0.8524984108446001 2.152786816727903 22 24 24
13.582045635373172 0.4505029927554513 2.2489356280477235 21 25 23
13.728364273082803 0.5494035943489854 2.443924875522271 22 25 22
13.365533293549642 0.6404444789086438 2.363604478887458 22 24 24
13.243582923631896 1.337362398965481 2.174711818722455 22 24 28
12.938101779958524 1.250191968545621 2.0990045775254984 21 23 27
11.696216709016703 1.250644334758854 2.3869180995283754 28 33 21
12.527299016745895 0.8619631893359381 2.2147216241063923 21 23 26
11.880255658753171 1.31406726275883 2.1517994759132546 23 25 25
12.457196084310535 1.31406726275883 2.2189527157241455 23 25 27
12.611720281369655 1.182353896871495 2.312590851636362 25 28 26
13.158418409030595 0.9222872191308608 2.179183937264163 24 25 27
12.685867398073777 0.942822597027193 2.307247761478802 23 25 26
11.958855659714505 1.182353896871495 2.250902243951708 23 25 27
11.705392676170124 1.0870030926868395 2.1616402039079317 23 25 27
12.369811626554148 1.2857472244222654 2.3306626516652016 26 29 23
13.296803593873982 0.7917782692918289 2.3688646090983334 23 25 25
11.332309399482584 1.1480604023576764 2.568321917968167 35 40 22
11.858835975666157 1.2061181599564286 2.5028232388730993 34 38 25
12.829428336520198 0.709987131783946 2.406983915360799 22 27 17
12.83595485482025 0.8745283103012693 2.4064211733575993 24 27 25
11.858835975666157 1.2061181599564286 2.5028232388730993 34 38 25
12.012284982389913 0.9179681429431261 2.637933781557991 35 41 19
11.75805008150049 1.069844393822767 2.6786892099248294 35 41 19
12.443582485357926 1.250644334758854 2.4419985503664203 31 36 20
14.016632855326018 0.6148550850535448 2.5355798587889082 24 27 19
11.75805008150049 1.069844393822767 2.6786892099248294 35 41 19
11.967600911031052 1.5216510338036175 2.050253879584073 22 24 28
12.599712179330723 1.9549263475176943 2.3134645589248133 37 42 27
12.199969039310224 1.7409322212155238 2.3439754702436284 36 41 26
12.11950879116825 1.626329482380223 2.3504747384773195 55 58 55
11.946191327630324 1.9549263475176943 2.2517600010799343 52 54 47
11.619411696816115 1.6205581090962682 2.1666121223217014 40 42 38
11.703310617130121 1.7235092457132954 2.161759542482153 53 54 49
11.871151191942342 1.8233084935374568 2.1523031347650194 53 55 49
12.199969039310224 1.7409322212155238 2.3439754702436284 36 41 26
12.11950879116825 1.626329482380223 2.3504747384773195 55 58 55
12.20528536730533 1.3957828555499077 2.3435504991054827 29 29 30
12.433292118551138 1.4919902124945572 2.57954578069637 34 40 18
11.584838925940971 1.2516865709246838 2.709610776008017 36 42 20
12.510006208914238 1.7909815907243907 2.5698830550900404 36 42 19
12.672144743311897 1.9997518057570245 2.420831701397138 31 37 15
12.274760688241559 1.7627876177716568 2.4585034109321464 31 37 15
12.99220948404768 1.5023173076129277 2.514546953141618 34 40 20
12.098450232293999 2.0554948911619197 2.476613593100983 36 42 19
11.584838925940971 1.2516865709246838 2.709610776008017 36 42 20
11.579237738416445 1.8814158704665942 2.7106612218891057 36 42 19
12.017455941760293 1.30572607292391 2.6371535022051384 35 41 19
12.843948064512954 1.5102543060456637 2.4057332224779877 41 44 33
11.930328987668224 1.655932305831143 2.6505444066651043 36 42 19
12.175641757042774 1.987096791942695 2.6140999876456403 36 42 19
12.012056484004734 1.8286666082033958 2.637968302148689 37 43 20
11.652466827935402 2.5235989091207127 2.3909192795039695 34 40 17
12.107176793644829 2.1377096795064157 2.1395419813452987 54 54 47
12.274699118808307 2.050642985734348 2.230260700827672 54 55 48
13.291585663261621 2.1377096795064157 2.266667664995296 40 45 28
12.667102868125342 2.1950361830751137 2.3085915858168176 30 36 16
12.082662684536366 2.4283148261437 2.35349406482646 33 39 17
11.930202293395647 2.2763432434569078 2.149053033397892 33 39 18
12.093169175179709 2.263197654248363 2.3526303198727696 34 40 17
12.236696220674043 2.5896176805665716 2.3410507094703967 34 40 18
12.35933754369948 2.089124959037319 2.033843918879529 55 56 46
12.422932393127567 2.1665968250865806 2.443976001021572 35 41 18
12.724219091420165 2.4425539143639514 2.5442253708623084 35 41 18
13.190536760540223 2.3422142218729216 2.6329393507398144 36 42 19
11.910688129610163 2.4425539143639514 2.4969840271101655 35 41 18
11.921346185396413 2.244892287795224 2.495795670859722 35 41 16
12.065889829335939 0.07092097067056151 2.3548776348140077 13 16 10
13.276340206141406 0.3619681201443818 2.2676271878563186 21 25 24
12.139890115440558 -0.04142119927347262 2.2388985619223867 5 8 3
12.157156400483833 0.18620626649955135 2.347417832364101 12 15 11
13.04033952384117 0.26708965471188706 2.282870741236991 18 22 21
11.556228910051018 0.06349373026070806 2.1703237776577047 7 10 7
12.239054813684492 0.21027973477837655 2.4620962980836913 19 22 16
13.425990884932991 0.4469792910524292 2.4712385844485554 21 25 20
12.148403531337808 0.08031178337961142 2.471386952123361 28 31 23
13.371159922669015 -0.31208950437406446 2.1681441684241056 1 1 1
11.831510827374398 -0.7045899257577537 2.154507035770575 41 42 35
11.92630129571005 -0.622186547896103 2.2531120434271874 41 42 35
12.257268889232964 -0.5154723421794515 2.0380056075468573 34 36 33
12.599391608268771 -0.34246894411803047 2.2104332866813823 64 64 62
13.152895956774792 -0.22377884104111395 2.179476412689633 0 1 1
12.826999864072246 -0.4761305337376435 2.297317156857212 45 44 39
12.328366740374847 -0.5914029690931444 1.9462398781980048 19 20 18
12.90480199485296 -0.43241010821423925 2.1929389088947113 65 65 62
12.131124788302493 -0.16221885515942175 2.349528535765266 33 34 27
12.456651502561604 -0.13178007498053806 2.1217097269016367 4 7 9
12.599233741446758 -0.42394704260756916 2.4274445733637497 43 42 35
13.152669121109529 -0.30821921811840486 2.497900807505977 39 40 31
12.367354011419058 -0.30821921811840486 2.4493545803386154 40 41 33
13.720613770121664 0.50501659735303 2.567450449933415 32 37 21
13.274486560683833 0.5784503714293859 2.6217102923012257 33 39 18
13.038452326776483 0.4408748934459523 2.65426793616857 33 38 21
13.492386292153794 0.380073713604978 2.594156004976896 29 32 24
13.335431507249663 0.24136333516633543 2.6137810153408823 37 41 22
13.335431507249663 0.24136333516633543 2.6137810153408823 37 41 22
12.78158738033603 -0.07134729889576502 2.6936631883419135 37 41 22
13.335431507249663 0.24136333516633543 2.6137810153408823 37 41 22
12.384303168713885 -0.060436206604248435 2.585858341072554 38 40 26
13.408523247994871 0.3411615840070495 2.7756347798254692 36 42 22
13.408523247994871 0.3411615840070495 2.7756347798254692 36 42 22
13.264840793808835 0.63695566732304 2.805031738748066 37 42 18
12.778125425490261 -0.1552363605634557 2.940499034250603 41 45 23
13.02054117695535 0.1702389531250931 2.863591647917824 40 44 23
13.012445510688496 -0.11159151955192027 2.8657800221943583 40 44 23
11.573133614207435 -0.9553225361754069 2.398296871105631 41 44 21
11.831426771308104 -0.775565780900401 2.259644737460697 42 44 27
12.009774085410754 -0.6911017617851882 2.3595487490913545 43 44 31
12.357000165051485 -0.5512213929124749 2.589426466109342 43 44 28
13.311704262343314 -0.21067281592340756 2.616846528321865 38 42 25
12.607515862782467 -0.3518989420075263 2.557971815349222 42 43 27
11.78593214237578 -0.3518989420075263 2.511199952804629 42 43 31
12.120487096285983 -0.4092003774561586 2.621964503679265 43 45 27
12.456332148849603 -0.21067281592340756 2.576615706864544 39 41 28
12.02902498511554 -0.4799269426731251 2.4840090433357904 43 44 32
12.605721654779765 -0.48704115867039355 2.723637144585015 43 46 27
12.348550025018376 -0.5929619715617772 2.451193260312359 44 44 33
11.85088346670006 -0.6722317200771041 2.5037273958120347 43 44 30
11.840161983270146 -0.8732089483353804 2.504950045732151 42 45 25
12.28254736032827 -0.5971607801369584 2.787517255857477 41 45 24
13.081016160699617 -0.37706797101384676 2.8478271847769365 40 44 23
12.15461325316242 -0.7147079005460246 1.9518805010565752 69 69 67
11.299972811534703 -0.8480483826103915 2.0812263390253234 37 38 28
11.8207717729025 -0.8480483826103915 2.1551071987823125 38 42 27
11.299972811534703 -0.8480483826103915 2.0812263390253234 37 38 28
13.828530311550665 2.930132664090172 2.5554957549873163 37 43 21
12.85747829613679 2.8565343571836377 2.6815321013855633 37 43 20
13.748363400976967 3.0608184246846504 2.564337485154781 37 43 21
12.913771024280448 -3.088873030071391 2.5229786936780645 37 42 21
12.754645174321542 -3.0950815963639013 2.413498680105547 38 42 21
12.631992708616119 2.692361640118523 2.4244577543711308 34 40 16
12.875539043434662 2.4637717684465534 2.6787093618951605 36 42 17
12.870576845473256 2.6337537465512626 2.527709171075293 35 41 18
13.020195947365048 2.6976754660977105 2.6569203757629096 34 43 17
12.626994652849097 2.759221124396097 2.5556398708929056 37 41 20
13.007189966009205 2.930132664090172 2.512959251667997 37 43 21
12.824594307450479 -2.9785608578960012 2.4074013199202726 36 41 18
12.83286737324012 -2.8923187059456126 2.6854175974086982 37 43 18
12.759593228245754 3.077809991800137 2.3020216996688063 36 42 20
13.008794259830545 2.8733418054695252 2.284965685927741 33 39 16
12.75133189036119 -3.0999826715532386 2.3026030821146897 34 40 19
12.845932185810709 2.9738123303338186 2.296008194807814 35 41 19
12.845932185810709 2.9738123303338186 2.296008194807814 35 41 19
13.447991638751114 3.077809991800137 2.357400770832551 37 43 21
13.447991638751114 3.077809991800137 2.357400770832551 37 43 21
12.82129909977884 -2.9955035589705763 2.297712358311882 34 40 18
12.366613995350923 1.7811900384102137 1.2855937177578682 35 38 31
13.839279481142402 1.5324755198809428 1.3906692795843685 37 40 30
14.120832101310144 1.6790327949286532 1.3218325740762642 39 43 30
13.605242971609766 1.7649326312389861 1.2352993024223742 37 38 30
13.145682326945343 0.6593920492182435 2.1798589149284107 22 24 26
13.290578212946023 0.5818269282786703 2.2667309805419484 22 24 24
13.075797085992088 0.7909347491072913 2.183591790458938 22 24 26
13.581972413015272 0.4954693679469304 2.34756071064095 21 24 21
13.728364273082803 0.5494035943489854 2.443924875522271 22 25 22
12.702410357467175 1.337362398965481 2.1098662057021653 21 23 27
12.60014785819734 0.7917782692918289 2.31343281763876 22 24 25
12.527299016745895 0.8619631893359381 2.2147216241063923 21 23 26
12.131929908156133 1.219383399988334 2.1382383459677228 22 24 24
12.926667677115676 1.0870030926868395 2.290485961877189 24 26 27
12.369811626554148 1.2857472244222654 2.3306626516652016 26 29 23
12.126807761419068 1.0003147749807784 2.138507580881006 22 24 26
11.951766985820885 1.137148098677258 2.3644469475605807 28 31 25
12.110955349468945 1.0809855711501586 2.4752978653807824 32 35 26
12.184518705768657 1.1480604023576764 2.612850724419206 35 41 20
11.75805008150049 1.069844393822767 2.6786892099248294 35 41 19
12.012284982389913 0.9179681429431261 2.637933781557991 35 41 19
13.206995753591345 0.6148550850535448 2.4924382126697635 22 26 19
13.07874227294273 1.2857472244222654 2.3861190395545724 27 30 22
11.75805008150049 1.069844393822767 2.6786892099248294 35 41 19
12.438588676208687 0.9705238469956677 2.442475728976209 29 32 25
12.052664450020494 1.428292171062866 2.046587938321203 21 23 27
12.121292922715838 1.5102543060456637 2.3503292332919536 44 44 44
12.361067744375948 1.8512108102858253 2.3313350099764465 38 43 28
12.990544965408569 1.6336132280066873 2.514723807676357 31 37 15
12.434890476981446 1.8858162585035834 2.4428295286249204 30 36 14
12.667162530258947 1.9297473829328455 2.550879200187077 38 44 21
12.92324458729241 1.3957828555499077 2.3989822033555734 34 37 27
11.496314372916244 1.4580127738427195 2.7266282467353484 35 41 19
11.49443323447677 1.674298416048825 2.72699988887258 34 41 18
11.687118632010089 1.3443846582509629 2.5228802659810197 34 40 20
11.582821057546477 2.126183933374632 2.5356423565473802 37 43 18
12.673791448426034 2.1377096795064157 2.2060729097214096 55 54 48
11.923096584143531 2.346487979451676 2.253330447659615 33 39 17
11.57730479547654 2.344736636502702 2.397904974060635 35 41 16
12.236696220674043 2.5896176805665716 2.3410507094703967 34 40 18
11.681522229668758 2.216105398088701 1.9681611062544748 53 55 45
12.911603239834255 2.050642985734348 2.2915090873545707 38 43 28
12.817410052937438 2.263197654248363 2.4080225988315567 34 40 17
12.724219091420165 2.4425539143639514 2.5442253708623084 35 41 18
12.164288897393703 0.24273853607155046 2.041865308364766 19 23 23
12.057153188108703 -0.04627534293265282 2.355600591963381 26 27 20
12.94723658415959 0.05747311105163445 2.190590428841488 4 8 7
12.393130169597006 0.05747311105163445 2.12486171687457 0 1 2
12.148567256558444 0.06349373026070806 2.2383350208667254 6 10 6
12.065889829335939 0.07092097067056151 2.3548776348140077 13 16 10
12.239054813684492 0.21027973477837655 2.4620962980836913 19 22 16
12.580934439664322 -0.5643678589067416 2.211525204069632 49 49 45
12.491112730151553 -0.64375674973976 2.1200156672556574 58 58 54
12.999872423846748 -0.2463834372098684 2.285560728862779 32 32 28
12.519691684904306 -0.37908657144713737 2.319347906023844 44 43 38
12.357402564711569 -0.31208950437406446 2.0339220953006847 4 4 5
12.853304532626765 -0.14543487205733802 2.29549993085417 11 13 8
13.00805236850987 -0.13178007498053806 2.1872581407346834 0 0 0
13.220662943443438 -0.34246894411803047 2.271156852101635 65 65 62
12.999795922353536 -0.2739408040069781 2.392588982122927 41 41 35
12.999795922353536 -0.2739408040069781 2.392588982122927 41 41 35
13.492386292153794 0.380073713604978 2.594156004976896 29 32 24
13.564632323220986 0.5227385019343247 2.746692449714873 36 41 19
13.325829854829543 0.13309341602614175 2.7921859800573134 39 43 22
13.777944130787274 0.2829432389902522 2.7110620354950545 36 40 20
13.244328021467973 -0.060436206604248435 2.625702330510142 38 42 23
12.009774085410754 -0.6911017617851882 2.3595487490913545 43 44 31
12.28254736032827 -0.5971607801369584 2.787517255857477 41 45 24
12.997979351301494 -0.4092003774561586 2.6601764636869034 41 43 27
12.607515862782467 -0.3518989420075263 2.557971815349222 42 43 27
12.265457591457944 -0.7711552891504054 2.601662498733071 43 45 26
13.384925572283214 -0.2991763598260945 2.7802632454902456 40 44 24
12.256944340623898 -0.7737645091158519 2.4602915659904956 43 44 28
12.15461325316242 -0.7147079005460246 1.9518805010565752 69 69 67
11.47568623459508 -0.7768840575981717 1.9757009698541963 54 52 48
12.549212375517008 2.7395154711744416 2.3171649913540864 33 39 14
13.256555241839179 2.559536878744421 2.624078268292668 36 42 17
13.314334356495337 2.898680454867718 2.61650538683465 37 43 21
13.168057760505274 2.806354532553637 2.496344860627941 36 42 19
12.76290436754097 3.070311131277389 2.41277308464612 37 43 21
13.680104295256708 3.031536123200058 2.7269088071265406 36 42 18
13.012041985764634 2.8434551185504056 2.391577275250831 34 40 17
13.231052300720433 3.0484174008520144 2.62747435534096 37 43 21
13.314334356495337 2.898680454867718 2.61650538683465 37 43 21
13.29056944754792 -2.9295550594822677 2.619600124152669 36 41 18
12.759593228245754 3.077809991800137 2.3020216996688063 36 42 20
12.82129909977884 -2.9955035589705763 2.297712358311882 34 40 18
12.36653357641331 1.8619971663768058 1.36893796261244 34 37 29
13.837716855684414 1.6059426233365008 1.3906487157977128 40 44 30
13.459044731912197 1.687544336478285 1.2315092856483587 37 38 30
12.692546090049811 1.0003147749807784 2.2049840110874483 23 25 28
13.581972413015272 0.4954693679469304 2.34756071064095 21 24 21
11.59588224779287 1.0098574397371518 2.534018696529047 35 40 24
11.937660318661877 0.8920085727660584 2.493984387998709 33 38 26
12.283646969138871 1.0344086425946721 2.3373491787572696 24 27 25
12.017247409704282 2.1950361830751137 2.2469783275706634 32 38 18
13.065642338562057 1.7627876177716568 2.5068315286004754 31 37 15
12.510006208914238 1.7909815907243907 2.5698830550900404 36 42 19
12.436587794664499 2.1641701254002537 1.9428124570232017 55 56 46
11.352663601830589 1.8233084935374568 2.0786294677278536 55 55 51
12.40246922760786 2.5235989091207127 2.4459466829629335 34 40 17
12.103686271870663 2.216105398088701 2.044417069321391 44 48 34
11.538585832805065 1.615872664784936 1.9733658076862663 24 27 24
12.210456040820452 1.516544160146184 2.2343460016713306 29 29 29
11.932141406012303 1.4780057022131654 2.650260427915273 34 40 17
12.87219816573618 2.6439921204046737 2.2942010639517862 33 39 16
12.2938393313027 1.4136880440075075 2.2290542867773695 22 24 24
12.199969039310224 1.7409322212155238 2.3439754702436284 36 41 26
12.673791448426034 2.1377096795064157 2.2060729097214096 55 54 48
12.501459034139424 2.3477749293371426 2.119509223630713 36 42 22
12.331879260396164 2.344736636502702 2.452831483977803 35 41 16
12.348550025018376 -0.5929619715617772 2.451193260312359 44 44 33
13.453279005355405 -0.3518989420075263 2.5989434800216817 41 43 27
13.105161079244406 0.42771863708247626 2.841797043514257 38 44 24
11.933071739865504 -0.8952336706373893 2.6501147505716114 43 46 25
13.777944130787274 0.2829432389902522 2.7110620354950545 36 40 20
13.04026325975065 0.2967118918487865 2.3892571630952846 20 24 21
12.4820042370097 0.15141107599024184 2.1204623461700756 11 13 15
13.317919768031107 -0.08705398913120244 2.793819760162708 39 43 23
13.105161079244406 0.42771863708247626 2.841797043514257 38 44 24
11.831426771308104 -0.775565780900401 2.259644737460697 42 44 27
13.276265297731712 0.4002480781456742 2.3704526028842876 20 24 22
12.416951266370031 0.33012411677999753 2.031528771274357 22 26 26
10.846572074890688 -0.8480483826103915 2.000695983698831 39 37 31
12.8492210762812 2.9544585027928045 2.4052801447798093 36 42 20
13.672399173405829 -3.0696840388770448 2.7281908620655297 37 43 20
12.397378638821548 2.559536878744421 2.584162335121672 36 42 17
12.76290436754097 3.070311131277389 2.41277308464612 37 43 21
13.440153449412966 -3.0999826715532386 2.3579855428972856 37 43 22
13.008794259830545 2.8733418054695252 2.284965685927741 33 39 16
14.049765486296899 1.7509821167395943 1.3933967413538877 40 44 29
11.703460168292501 1.2857472244222654 2.2686816266827865 24 26 26
13.206995753591345 0.6148550850535448 2.4924382126697635 22 26 19
13.158418409030595 0.9222872191308608 2.179183937264163 24 25 27
12.829428336520198 0.709987131783946 2.406983915360799 22 27 17
11.523800796373695 1.7409322212155238 2.2818297571281003 52 52 50
11.99609223887454 2.4983829677230065 2.2483941089038626 33 39 13
11.61205072660521 1.9182344425247724 2.0662405124129077 54 56 49
12.443381094533793 2.007070032837613 2.122365054040788 55 56 48
12.982295776031712 2.102972000750535 2.3940399879760808 29 35 15
11.910688129610163 2.4425539143639514 2.4969840271101655 35 41 18
13.135292289850746 -0.39565025448027275 2.0902668930426724 4 5 4
12.83505753232758 -0.4799269426731251 2.5316471136359056 43 44 29
13.697481158919068 0.1092013629645468 2.7240363370285774 37 41 22
12.139726273193654 -0.052417046161025306 2.4722892977256263 36 38 30
12.213197763727388 -0.18333310946685238 2.4647213445225304 38 39 31
13.223085517845178 -3.0807539744112202 2.6285421387526497 38 42 22
13.020195947365048 2.6976754660977105 2.6569203757629096 34 43 17
12.012056484004734 1.8286666082033958 2.637968302148689 37 43 20
12.417991138930065 1.4580127738427195 2.759099538559541 36 42 20
14.016632855326018 0.6148550850535448 2.5355798587889082 24 27 19
12.280044637167652 1.3733313645430438 2.4579748333528273 34 40 20
12.605721654779765 -0.48704115867039355 2.723637144585015 43 46 27
13.19266754186397 0.33345062594506264 2.4938707358055723 20 24 20
11.943709821492059 -0.6439828176620939 2.648453392207376 44 46 28
13.720613770121664 0.50501659735303 2.567450449933415 32 37 21
11.694218059170373 1.8512108102858253 2.2693446318228103 51 54 49
12.93909505313443 -0.03748831148593529 2.1910395107318497 2 5 5
12.851389869932847 -0.2474004706930181 2.6824890965213055 39 43 24
12.85747829613679 2.8565343571836377 2.6815321013855633 37 43 20
11.919552156440844 2.4181014906363862 2.1496363147006203 33 39 18
12.904647864217678 -0.5287693892583594 2.400553552601916 43 42 35
11.999194574277665 -0.8585287024936303 2.3604367659835432 42 44 24
12.239217326254018 0.16703236454123477 2.2325101242580203 13 15 15
11.47568623459508 -0.7768840575981717 1.9757009698541963 54 52 48
12.515998373543932 -0.7670374397087667 2.7400836345518753 43 46 26
