11.778912666630232 0.8476033754352766 1.752241478380585 31 36 5
12.404154061724201 0.9012016543343107 1.6616585483904707 36 41 10
12.270897256235017 0.7864666078486677 1.5810254881343282 39 44 16
13.152311293680508 0.9484121495407037 1.580339950074224 31 38 8
12.044854165914765 0.9926881320107366 2.1043066873543963 39 46 16
11.956074968792429 1.0414021372770312 1.923095078187426 38 44 17
12.26662362565851 0.30597994490793806 1.4994463253392543 45 50 26
10.973156676605461 -0.21365048838588613 1.6735472274503058 35 40 9
10.950255351087412 -0.21365048838588613 1.4908517633337328 32 39 9
10.955934329099017 -0.12259768151891924 1.7660405916055884 35 42 12
11.841855699838174 0.14348562955763577 1.6659858270382617 41 46 19
11.841855699838174 0.14348562955763577 1.6659858270382617 41 46 19
11.777338523276192 0.7254520666943477 1.7522659998458732 40 45 14
11.748180289943429 0.2466428656209143 1.9296085697717964 40 45 16
12.016281958308001 0.3326737852304954 1.9212536796525677 42 47 18
11.441410061499674 -0.02946094964364371 1.9396836494759824 36 42 15
11.120019181536051 -0.02946094964364371 1.8557066070765706 33 42 14
11.876086517110659 0.8562442177363138 2.112721142736672 37 42 13
12.538313088167948 0.9354325353231575 2.275824366012943 40 45 18
11.949933983253793 0.7061120143060438 2.3185091659902635 44 49 17
10.806027009827652 0.3369256654655666 2.2908197419620926 46 51 22
11.902905133431558 0.4513328562873848 2.01596568753663 42 47 18
11.09691451321798 0.4480959828947516 2.2680530877907863 44 50 14
11.545902244473067 0.3642444317870878 2.030770940084862 42 47 17
11.46790319501394 0.5485676929132725 2.2412538254123766 42 49 16
11.75532238009836 0.2709793954949308 2.118917678613785 43 48 20
11.642524099038916 0.5316559221958495 1.8425873526970136 42 47 18
11.53708935552686 0.30048390499183747 2.236507246381435 45 50 21
11.828828199911044 0.7867866746857516 2.217283102653708 40 45 14
11.390931149295245 0.7171231674785566 2.0375223227831385 42 45 16
11.507807359683285 0.6126031119600511 2.354754029872189 46 54 24
11.341651470094547 0.6380798798663148 2.1413410262090964 42 47 16
11.949933983253793 0.7061120143060438 2.3185091659902635 44 49 17
11.719490465244238 0.6908788422875144 2.4633264310528804 46 53 21
12.153919069234158 0.7870312865760214 2.420113113719372 45 51 18
11.356723329746458 0.5766266716771301 2.504005700823346 47 53 25
11.91028590796714 0.44255112661927204 2.587064716763309 48 54 27
11.298228416802251 0.2164113107450061 2.3734252696496325 46 52 26
11.183921797816256 -0.23498237015679097 2.0468705837721033 40 45 14
12.127132797209507 0.17263359844735318 2.1988467155720555 47 51 24
12.028967449644686 0.07080710362438783 2.2047853411286926 47 54 25
11.90012119442408 0.07894458213403868 2.32239791803648 48 55 30
12.796485693736704 -0.26093907641760156 2.364744952119835 51 60 30
13.175116666836304 -0.3341159654534345 2.576304301332128 50 60 30
10.87348062192237 0.28911010484577593 2.566690331095562 48 55 29
12.698404944104649 -0.3877128201289718 2.6385818709422404 52 62 34
12.141492290889193 -0.29315774396131955 2.421277360152599 49 58 28
13.44885934563451 -0.22789766981394294 2.6942551958956353 50 60 34
12.653906040687644 -0.15050183309545787 2.3762748154287654 50 59 31
12.768639889350826 -0.16977739511329146 2.4865123544626995 50 59 30
12.489678621868041 -0.0554131541250506 2.669848496436326 50 59 33
12.12745832976464 -0.047115104358600855 2.5587929222604098 49 58 32
12.704702145287161 -0.0409773990854672 2.4930912941929964 49 58 31
12.104319432949014 1.7678434132033174 1.74731155777674 38 43 18
12.072024352940367 1.1590038059082952 1.8326856746976763 39 48 18
12.027077721348403 1.240209639764031 1.920925576603956 38 47 17
12.147733329832564 1.3261969630437542 2.0063716925601933 39 45 18
11.464926405912024 1.6051526806837473 2.1344559960674303 41 47 20
12.504138049914731 1.4290898546733706 1.907028166024493 41 47 21
12.31658265394644 1.302089118756057 2.1877222648176122 40 46 19
12.03251352520015 1.2088624012054485 2.104912563109433 39 45 18
11.464926405912024 1.6051526806837473 2.1344559960674303 41 47 20
11.91257872049686 1.4941413050225638 2.3214210178985595 42 48 21
12.410449520909342 1.5137706179178356 1.909667841221868 40 46 21
12.396977302986098 1.599276092661612 1.9100509057495398 40 46 21
11.817830907372032 1.1712971725254764 2.2179855656889567 36 43 13
12.708059664243684 1.3811645699905972 2.371848966064389 43 50 20
12.602632991141352 1.6091045437463742 2.380519407387915 44 50 23
11.621535332979626 1.873138020826981 1.8430907038459927 38 46 17
12.097990082255343 1.7075527890777005 2.2005970023158787 43 49 22
11.695132122913616 1.8071552646416762 2.1220628276452485 43 49 24
11.061400474572121 1.9914461107038242 1.8572590371919908 44 52 23
11.477647898210243 2.033529041193839 2.1337555946744966 46 53 23
12.120515607480375 1.8331953059243375 2.305535742367143 46 52 25
11.968337798184917 1.7230678720655235 2.3170841385937857 45 51 24
11.770338694207181 1.1256058920124032 2.3327532470904138 37 43 16
13.105827914205712 1.2289728055412668 2.752359989652641 48 55 23
13.016470883326525 1.4293745897618202 2.7694542844839085 48 55 25
12.09393580693731 0.7873805141319452 2.563011440889799 47 54 22
11.742742070137508 0.6684331453429502 2.6105488185069285 46 55 28
12.984061365829675 1.6205476545759456 2.5999436240954594 46 53 23
11.744320850608348 0.9067398093380559 2.6103199772039183 47 54 22
13.250980444196951 1.1912126035390551 2.5673421507337526 44 51 20
12.729505685249684 1.4842144403729844 2.4905245128309073 44 50 23
12.280424172769731 0.7879197253986635 2.704427690034607 45 55 29
12.423262258152397 1.1912126035390551 2.523603324901069 43 48 17
12.17786369683029 0.9979609880143511 2.5525433204167194 45 52 17
12.775648349729533 1.1321773253317828 2.627700622844968 45 52 20
12.237435583395337 0.9613611435963408 2.4123888946073233 43 48 17
12.498582222599795 1.629279540928399 2.668454043744053 47 54 22
12.988792750343539 1.2367749659727285 2.4647563199282776 42 49 19
12.996495628242153 -0.06725365859876328 2.7734120305643346 49 59 35
13.059004810412404 -0.27451104078795363 2.761197060276329 51 61 35
12.87758143447537 -0.5629823358389042 2.7981442889815065 54 64 36
13.691399971359543 -0.34415374660671333 2.8530825807345814 50 60 36
10.666764300424202 2.1774011941730476 2.072035890136227 47 53 26
10.740815113330408 2.084145847889174 2.1776709696923198 47 54 25
12.022889865706707 2.5368543667614 2.5721224857525335 48 57 31
12.565044628444468 1.8010694634291544 2.6582234975999057 47 54 22
11.793266772843687 2.0332551895333064 2.455599912838238 47 53 24
11.844623162298518 1.960161486043971 2.596081228019958 48 55 23
11.59205064424019 2.2219813967245536 2.4770876487024225 48 55 25
11.613961072054593 2.436738852002895 2.629743408248929 48 57 31
12.495404330427077 2.436738852002895 2.6689510903101175 48 57 31
12.29531794944611 2.0327473608481865 2.701842752286496 48 57 30
12.005034580232367 1.7425148158817618 2.4343263934738646 46 52 25
12.156753029172242 1.8654968791277746 2.419848152954531 46 52 25
12.11391473121602 2.1458270538067064 2.423875159619387 48 53 24
12.145330565211394 1.8479390618016769 2.7288711353847366 47 56 28
11.754938908661751 2.6750691439061063 2.60878481037275 49 58 32
12.206580229273392 1.7675827683631449 2.5490317134110754 45 52 22
11.968934111262481 2.317100382607436 2.579202987121693 49 55 28
11.561580129973578 2.420709898826662 2.4804593093529683 49 55 28
12.356659839573961 3.0137249250374296 2.6914066800219456 51 61 34
20.32542693406626 -3.0008308106757218 0.9468800799274834 2 10 0
10.57150172447612 3.0753341309648268 1.7732374479755995 46 57 26
10.630807342695821 -3.015071158276188 1.7720925478595164 47 58 27
10.553926128889593 -3.1111793861048227 1.7735792701123612 45 58 26
10.529810211465753 2.9798831613998416 1.6778897203718401 46 56 31
11.442322356246576 -3.0261315811319576 1.4942965832976471 47 57 27
11.599803831432542 -2.940146923579526 1.495337149991226 49 60 27
10.746585920469439 2.4023326132503833 1.9648029439101813 48 55 25
11.099781115983507 2.409996683429012 2.2678367883042845 47 54 24
10.144987312817568 2.8298097369100255 2.100441002797801 47 57 31
10.202180223934022 2.861401482835367 1.882160949933253 45 55 29
10.53918201778367 2.329105030529738 2.0786808085763493 47 52 20
11.395630782127645 2.332711071617648 1.9412371258876178 46 52 22
10.509794160599606 2.7654825771654457 1.8727552376023102 46 54 30
11.24720577681028 2.5729963305266392 2.2569122424327963 47 57 31
10.144987312817568 2.8298097369100255 2.100441002797801 47 57 31
10.600417660033266 2.482056610893763 2.0754684417534532 46 55 27
10.057896218146373 2.629349716568949 1.8867812045762589 46 56 30
11.566941460433048 2.7251597911358 2.234482152166993 47 56 30
12.241093810852178 2.7405025695337977 2.5448569033245905 49 58 32
12.055534996071865 2.5045933345254294 2.4294397239884855 47 56 30
11.760212089654464 2.9419978997939267 2.333575207348819 48 58 30
11.712758533497809 -2.9851507414646594 2.337454593159111 47 60 29
11.643023852958853 -3.103886065886693 2.343239762476605 47 60 29
10.346880169657728 -3.103886065886693 2.2043543684160167 47 58 28
10.463224122447688 -2.8985178007191705 1.9760887717297468 47 60 28
10.597893436535871 -2.8706835600725573 2.1870646591138656 48 61 28
11.042539330533058 -2.9851507414646594 2.27218476967008 48 61 29
10.364806858875829 3.0594957420819973 2.2030844534004324 47 57 31
12.014957751898718 -2.936953918718074 2.573154502689902 52 65 34
11.9625161957256 3.0337453384947675 2.5800547704433066 51 61 35
11.346227575970426 -2.7912210755785956 2.5052554644291205 54 68 37
11.946987141386494 -3.091995078721839 2.5821243701685086 50 63 32
11.827418866836403 2.915643393723184 2.4520801569942803 49 59 33
11.726744862708262 3.048360948225667 2.4625590853228325 50 60 34
12.165028475238682 -2.7912210755785956 2.554124245337401 54 67 36
11.726744862708262 3.048360948225667 2.4625590853228325 50 60 34
18.14051487581621 -0.44036034776852917 3.1009287613046137 58 68 40
18.14051487581621 -0.44036034776852917 3.1009287613046137 58 68 40
10.338024792297611 -0.550042466384464 1.388468722194291 35 40 13
9.49387644025556 -0.9116160023648683 1.7965932555853197 49 58 26
10.622207738537496 -0.4197662608239744 1.4883772994876212 20 29 0
9.897768724708287 -0.8316584773693334 1.5834781914562575 49 58 26
9.970972428353555 -0.6889451468371833 1.482980804683621 32 39 7
10.28127737260801 -0.33028974892620594 1.6804888343078308 20 29 0
10.167439785977225 -0.550042466384464 1.5831418129679398 17 26 0
15.549071920055095 -0.9575102851670979 1.3189652980481956 46 51 26
15.062997442538876 -0.9171163247364411 1.241257904293098 46 51 26
15.659760630808478 -0.8637471703606802 1.2542626601064235 46 51 26
15.823773783728715 -0.9171163247364411 1.1213798169803817 46 48 22
15.845129678807186 -1.0483215227760112 1.3237697335023761 45 51 26
15.997012870964856 -0.9937468693948852 1.453349556350454 48 53 27
10.693151834403837 -0.894910728215714 1.488925340594582 42 47 20
10.062818824314785 -0.9725229549923757 1.5832701729540481 43 52 24
10.173555748654667 -0.46187393641357044 1.8830665958604218 21 31 2
11.975901364781661 -0.5125486798677552 2.316500296075574 52 62 34
10.4646611139591 -0.839366544152258 2.196111466995869 51 62 32
10.516287638355935 -0.7582313620060754 2.079892924646411 52 62 33
9.838482277981441 -0.6061050127541745 1.8940812504771334 48 57 27
12.918134391154098 -0.5291983840644009 2.608486458613757 52 62 34
11.118706819612445 -0.3652478262894237 2.1542626342162787 52 62 33
10.378773459363215 -0.8316584773693334 1.8766898035917499 51 60 28
12.918134391154098 -0.5291983840644009 2.608486458613757 52 62 34
12.097067414722838 -0.5743412568885846 2.4254718296160203 49 59 31
12.379655349553108 -0.6506924698880212 2.5285758284198407 53 64 36
10.073313565630938 -1.195728631549802 1.6827628523924913 48 54 27
10.233410173992857 -1.195728631549802 1.780023368420661 48 54 25
10.011024352875586 -1.195728631549802 1.5833347128070763 46 50 28
10.654346791663883 -1.3177570080781231 1.5825775936300368 47 52 25
10.5363441274235 -1.6030600006248539 1.7739223819995644 53 58 32
12.300667110112478 -1.9365234037205357 1.7444650442957497 55 60 36
11.746268917165814 -1.7741356301045634 1.7527513592859723 53 57 36
10.620905290660403 -1.0028500531195021 2.185530869650687 50 61 30
11.253323165532828 -1.2211392480698777 2.3775644881108216 54 64 34
12.351128026900595 -0.8501525772502132 2.5318670593998682 54 67 38
12.00900297595945 -0.966787692601178 2.573931250467977 54 67 38
12.227193913180402 -1.0171065655533063 2.713838286427872 55 68 39
12.227193913180402 -1.0171065655533063 2.713838286427872 55 68 39
12.17414366710634 -0.7349141940307097 2.723498940005846 54 67 39
12.511753877359954 -0.6175068967854949 2.6664017000873796 54 67 38
13.094304549116064 -0.7349141940307097 2.754511216542398 54 66 37
12.227454740859743 -1.171140391657304 2.546500811760959 55 68 37
12.441815299773838 -1.2668198483545468 2.6774458264451018 56 69 40
12.809889340539083 -1.4655377359674848 2.6229849466879203 56 69 38
11.71408971047265 -1.4798429811132452 2.4638987974239006 54 67 36
10.905686924248322 -1.4105524879398421 1.8614675088967898 50 56 27
11.113803253918265 -1.6030600006248539 1.9511046182483132 54 63 33
11.113803253918265 -1.6030600006248539 1.9511046182483132 54 63 33
11.153026044023202 -1.606521062807786 2.152232680077529 56 66 36
10.761383482692938 -1.3936892177738422 2.0672247015145246 48 57 25
11.742840082050204 -1.6002101545905882 1.8402073876544902 54 60 33
11.732051292775534 -1.606521062807786 2.223523104235956 54 65 34
10.124864319999846 -1.260383045469279 2.101604951124206 47 57 27
10.666016833666736 -1.260383045469279 2.1825480476327828 46 59 26
11.076133875745274 -1.3729110771229092 2.269625616872252 52 62 32
11.630277602470004 -1.6108134771852887 2.3443082390354144 54 67 36
9.657216985278403 -1.260383045469279 2.0121849498737525 45 55 25
12.16402868237437 -2.2007866170372217 2.302308487286321 55 69 40
13.305907423790506 -1.8165374347030474 2.7171985232014424 57 70 41
11.925488022053518 -1.8795441881052248 2.442165890324268 55 69 40
11.77078908248841 -1.7510484030458544 2.4579359703833736 55 68 39
13.735933910511516 -1.7788318712870266 2.6524988265831997 57 70 39
11.914312270840952 -2.5855195495154972 2.5865193171461627 55 69 38
11.830351446020902 -2.3579358264089856 2.451779567766096 56 69 42
11.914312270840952 -2.5855195495154972 2.5865193171461627 55 69 38
14.212708391580748 -2.2285507418851758 2.74791814056922 57 70 42
13.941749237475651 -2.3589836758382297 2.7977143971858194 56 70 42
13.652060293227189 -2.130939858117887 2.6641704252484186 57 70 42
12.471922163145866 -2.1055958108389277 2.3915870284494307 53 70 40
12.31202352823555 -2.272127734849028 2.4056340268294596 55 69 40
13.506376627927443 -2.1721987361716306 2.538743340784036 56 69 42
11.913023731199068 -2.1721987361716306 2.4434104379591526 55 69 40
11.199305231756888 -2.051208016963176 2.14951923492937 55 68 39
11.957115263128612 -1.8162100424986973 2.2092107410932114 55 68 37
11.80283086704328 -1.7129324685872762 2.218946422528286 55 68 37
11.923916241137325 -1.968495669299545 1.9240867704151137 55 65 37
11.598016622937946 -1.8833374612386968 1.9344688917254582 55 66 31
12.17954285724333 -2.141107854440679 2.195725608614492 55 69 40
12.406712411810378 -2.051208016963176 2.284885314477303 53 70 40
12.093829994243185 -1.9520441244935516 2.307531134083165 56 69 40
11.701672788547327 -1.72975622600489 2.3383675009143907 55 68 39
11.22745647412509 -1.7129324685872762 2.1478819414761476 55 68 35
11.480509923337806 -2.006205807546736 2.0335947865574573 55 68 38
11.894027788750597 -2.0907842703966377 2.016321819146974 54 67 38
12.89275912639233 -2.011253247773776 1.8156602957138583 57 63 38
12.512291914411968 -1.9365234037205357 1.823265759349818 56 62 37
12.20211702991516 -1.857266105219939 1.8298290004618452 54 63 34
18.58428878484657 -1.6974946632033405 1.6854189668673958 20 17 0
12.04659802427819 -2.476859134418058 1.7481662927195503 52 62 32
11.289585245651391 -2.42119668618028 1.7601992525871792 51 64 35
11.057643546634571 -2.8312026691951053 1.7642218698735723 47 60 28
12.7052757762998 -2.1888273910313165 1.659499330713141 55 64 36
12.7052757762998 -2.1888273910313165 1.659499330713141 55 64 36
14.862410803416747 -2.014770092811267 1.4443372584916585 47 52 27
14.769640905830279 -2.014770092811267 1.511553658462733 51 56 31
12.157831425654448 -2.7778401933719183 1.4988067621898238 49 61 28
10.69213373192777 -2.6638462868295734 2.0707363085292747 49 63 32
10.69213373192777 -2.6638462868295734 2.0707363085292747 49 63 32
11.523311938001308 -2.5144627658336356 2.237446503441749 55 68 39
11.764737463908101 -2.609778757641499 2.3332076353430704 54 67 36
11.43458075769404 -2.357660456870696 2.2435668917200235 56 69 40
11.239577491644656 -2.4931420984677253 1.946635047796874 52 64 33
11.435923205899291 -2.7170897129823675 2.3610415176193316 54 67 36
11.59189228204033 -2.4434216096473254 2.3475469609075663 55 68 39
11.133302823730457 -2.573872977404652 2.0492163874789373 53 66 35
10.32923112908075 -2.763033109582299 2.0900299775234426 49 62 29
11.185443465025676 -2.6239606081020557 1.853993974902627 50 63 31
11.519799156950864 -2.42119668618028 1.845557551600525 53 63 33
12.015754039080681 -2.2844017948740434 2.2055941082934036 56 69 40
11.452702233372007 -2.430689771495974 2.1351307758804516 54 67 37
11.916135961486237 -2.5435542206626742 2.443099267981989 55 68 37
12.500412745482821 -2.121438025605318 1.8235109203713917 54 64 36
11.640660546370558 -2.2217321406249657 2.0267421127280354 54 67 38
11.518189601679127 -2.293552457629585 1.8455969433311097 52 65 36
12.259583994723721 -2.237725602566421 1.8285870789345575 52 65 34
12.213548497285368 -2.293552457629585 2.003865323050618 53 67 38
12.645161877304918 1.0129661172183457 1.6599221337980656 37 46 17
12.089734709280616 0.9161257777420978 2.0086054745314397 33 40 8
11.99974254747819 0.8476033754352766 1.834300627990034 39 44 15
12.025008872858804 0.22624842475274248 1.6645316991806791 42 47 20
11.843151982592682 0.41388777063773907 1.751246434216261 41 46 18
11.70405430897307 -0.026937098898835377 1.4960105423224987 38 47 19
11.944397087152987 0.605057414550292 1.7497002690500714 41 46 18
11.560642203116235 0.1567268321825262 1.9356996277340532 40 44 15
11.457624368599673 0.0641883661548549 1.9391366317525451 37 44 14
11.2937985021191 0.7061120143060438 2.2535388124193467 43 48 17
11.75532238009836 0.2709793954949308 2.118917678613785 43 48 20
11.25478293817142 0.7867866746857516 2.1463021071404524 38 43 12
11.951485393890609 0.8676666004625058 2.3183887964641445 43 48 17
11.613507946648658 0.7866057937751785 1.933961254170107 40 45 14
11.23497597577752 0.4020784098751726 2.147446285504836 43 49 13
12.174818371789526 0.5766266716771301 2.552917775410241 46 53 27
11.346062701257564 0.19208975975842096 2.249798555311885 45 51 24
11.519654350451185 -0.13513288169256754 2.1314560274396 45 53 23
12.013524292565787 -0.03250644985775035 2.205730809747704 46 54 26
12.08112055860404 -0.13513288169256754 2.2016150563739574 44 53 25
11.999340665991792 0.19208975975842096 2.314697643997889 47 53 29
12.909952464954237 -0.29315774396131955 2.472393661286996 49 58 28
11.426582686683176 0.24764065308782285 2.4957981608810176 48 54 29
12.589385611025438 -0.036253888385116104 2.3816247943053233 48 57 31
12.554711470241141 -0.22789766981394294 2.659793858593813 50 60 34
12.698404944104649 -0.3877128201289718 2.6385818709422404 52 62 34
10.660632130508716 2.1214386905159475 1.8683510383896957 47 53 26
11.479492521591068 1.5020292421642307 2.133654190622245 40 46 19
12.31658265394644 1.302089118756057 2.1877222648176122 40 46 19
11.898542797828153 1.6091045437463742 2.322521903227097 42 48 21
12.189255674265246 1.2728655374620688 2.300452259766934 39 46 16
12.139357364012639 1.4003452235239615 2.198115679687405 41 47 20
11.580714987147886 1.4003452235239615 2.128148944556162 40 46 19
11.453858158474954 1.9022112620105602 2.034756094970635 43 49 24
12.028947380824103 1.6051526806837473 2.204786567790494 43 49 22
11.926046319362474 1.6948922712281371 2.0150401100505366 40 46 19
12.386954501973257 1.3464022939137206 1.8258769522371379 40 47 20
12.396977302986098 1.599276092661612 1.9100509057495398 40 46 21
13.003626540169506 1.641722740913299 2.771993127997182 48 56 27
12.604879201946384 1.285577675359065 2.6522369373320043 46 53 21
12.225289342740345 1.2367749659727285 2.4135015642662463 40 46 18
11.742742070137508 0.6684331453429502 2.6105488185069285 46 55 28
11.892040136051675 1.0691021761280595 2.4455157228529094 42 47 16
12.996495628242153 -0.06725365859876328 2.7734120305643346 49 59 35
13.691399971359543 -0.34415374660671333 2.8530825807345814 50 60 36
11.340905911628186 2.084145847889174 2.250165563907223 47 53 26
11.67053535851487 1.9799722720243287 2.340945277903955 46 52 25
11.59205064424019 2.2219813967245536 2.4770876487024225 48 55 25
11.688854046361643 1.8010694634291544 2.6184516327381346 48 55 23
12.081427349306542 2.101002881607854 2.5645985460672147 48 55 24
12.022889865706707 2.5368543667614 2.5721224857525335 48 57 31
12.495404330427077 2.436738852002895 2.6689510903101175 48 57 31
12.52360301261922 2.189065210003756 2.6645660634101516 48 55 29
11.968934111262481 2.317100382607436 2.579202987121693 49 55 28
11.550556360441924 1.9065272013938404 2.4816871269550336 47 54 24
12.45224214217998 2.8354454112200274 2.675776005337369 51 60 34
12.341626732906683 -3.0827145565619354 2.6939337128882377 52 65 35
12.341626732906683 -3.0827145565619354 2.6939337128882377 52 65 35
10.735371212307077 2.887306778024511 1.6758314455439336 45 55 28
11.387243953536185 3.0811657906227743 1.4939258366565593 44 57 26
10.425288354223744 -2.9851507414646594 2.198840770246653 46 59 28
12.01079218986578 2.7905183958296886 2.4337657708910037 49 58 32
11.187119001233922 -2.8358746099123864 2.383760950605306 52 65 34
10.2089001851158 -3.107923011747193 1.9868019780264794 45 58 27
11.7802360384658 -2.964235167882651 2.4569522682282807 50 63 32
10.22706873772737 3.068258871595682 1.9860172666881266 47 57 32
10.342351132249552 2.9629056100859836 1.9811085363103507 45 56 29
10.2089001851158 -3.107923011747193 1.9868019780264794 45 58 27
11.1184482804392 2.482056610893763 2.1542779845013347 47 56 28
11.072911239819403 2.332711071617648 1.8569528385399159 44 51 21
14.696758192705365 -2.5346365753948175 2.8618683990827947 55 69 40
9.996117564449674 -0.6889451468371833 1.683631198934389 43 52 20
15.41566911802003 -0.9171163247364411 1.179840724238037 45 50 25
12.918134391154098 -0.5291983840644009 2.608486458613757 52 62 34
10.686755335826398 -0.33028974892620594 1.8676015128492367 28 35 5
11.984720981296125 -0.7532867429670628 2.43631160248552 52 65 36
10.954602309819236 -0.46187393641357044 2.057695031416603 46 56 28
9.94804491692619 -0.6729705309871616 2.112070863732285 52 62 34
12.568268361653821 -0.46134125776644164 2.5075539060521037 50 60 31
12.371117292838937 -0.40802261590741806 2.4003752043046793 52 61 31
10.13093110519226 -0.9116160023648683 1.9902046214252989 50 59 27
10.552192124472437 -1.5062088933075655 1.7736130572257784 50 55 30
10.41896442330784 -1.106296331003513 1.582843765493774 44 50 23
12.167800695119338 -1.9365234037205357 1.663428517884861 55 60 35
9.768735170225982 -1.0592952534564648 1.790134631488022 47 55 26
10.863571270643506 -1.3177570080781231 1.7677222760292883 48 53 27
11.059071896304472 -1.346701995797048 2.3960764871911726 55 66 35
10.603110806144464 -0.9342907427192209 2.3077315875266082 51 64 35
13.40876663549963 -0.6175068967854949 2.700528408510003 54 65 37
11.742314142293951 -1.1056552376310058 2.6106108718186327 53 66 37
12.227454740859743 -1.171140391657304 2.546500811760959 55 68 37
12.347653902397811 -1.4459205073703922 2.6929182264704923 56 69 40
10.348695230582903 -1.4907324412156437 2.204225536565004 53 63 33
10.460865357883915 -1.3729110771229092 2.1963734584620953 49 59 29
11.128828951290904 -1.5062088933075655 1.9505649227407211 52 59 29
10.652378297886814 -1.499297179843531 2.072775995123149 51 62 29
11.270091068563662 -1.260383045469279 2.2552506439354136 50 60 30
13.294737388397468 -2.2285507418851758 2.7190617848846736 58 69 41
12.695320871004734 -2.1721987361716306 2.4940670002527003 55 69 40
12.31202352823555 -2.272127734849028 2.4056340268294596 55 69 40
13.305907423790506 -1.8165374347030474 2.7171985232014424 57 70 41
11.77078908248841 -1.7510484030458544 2.4579359703833736 55 68 39
12.16071763934413 -1.9983511972832155 2.419477823067088 55 69 40
11.77605516595916 -2.051208016963176 2.2206694277968015 53 70 40
11.622832125337213 -2.141107854440679 2.125892022796269 54 67 38
11.923916241137325 -1.968495669299545 1.9240867704151137 55 65 37
11.701672788547327 -1.72975622600489 2.3383675009143907 55 68 39
11.188494613062018 -1.6993112401542765 1.948437279387338 55 65 33
12.502167143946298 -2.006205807546736 2.1772324358800637 55 69 40
11.751563225541 -1.7932330613860548 2.022119209887967 55 66 32
11.480509923337806 -2.006205807546736 2.0335947865574573 55 68 38
12.191734673763893 -1.9144237571688494 2.1950044143941545 56 69 40
17.632662741614443 -1.7609634480874363 1.577914925997591 18 16 2
18.961775236915944 -1.4261836735996052 1.7901207531170809 51 46 23
20.463423175889297 -2.9413860998742525 0.9517259140851224 7 15 5
11.812235048937307 -2.6665593962634855 1.751723952963247 49 62 30
11.96174916315697 -2.3573082148107463 1.7494379470494594 51 63 34
15.225244872477047 -2.074215977754089 1.513328435040797 47 52 27
12.043519507437592 -2.237725602566421 1.7482121130299222 53 65 34
12.28858336871151 -2.121438025605318 1.7446375585521627 57 63 38
12.832578468471826 -2.1888273910313165 1.7371977757382449 54 64 36
11.955463995743441 -2.8570727914950953 1.4133580720490173 48 60 27
10.860205031012399 -2.763033109582299 2.1700585903572787 51 64 32
11.591617153321128 -2.6594358377106353 2.4771353899769144 57 70 40
11.205925278132275 -2.6638462868295734 2.1491333116810196 51 65 34
11.99510935263321 -2.1679093863425476 1.9218989837585756 54 67 37
11.64384557559664 -2.4931420984677253 2.026607971726677 53 66 35
11.078649515328346 -2.7085787164271538 1.95237345407319 47 61 30
11.828767023569508 -2.293552457629585 1.9270546762400314 54 67 38
10.709780304339969 -2.573872977404652 1.9662321375669278 51 64 33
11.14858830858995 -2.357460287536436 1.949857593292793 53 66 37
11.59189228204033 -2.4434216096473254 2.3475469609075663 55 68 39
14.695496604694773 -2.1841189448489446 2.8621674124307357 56 70 43
12.166795063697549 0.9679326438232857 1.8305983717340364 35 41 14
12.287071675906999 0.30597994490793806 1.662526791277363 43 48 21
12.573479420898693 0.3818949938153512 1.5807793139632431 44 49 21
11.2937985021191 0.7061120143060438 2.2535388124193467 43 48 17
11.719490465244238 0.6908788422875144 2.4633264310528804 46 53 21
12.489678621868041 -0.0554131541250506 2.669848496436326 50 59 33
10.848366064735028 0.38293537275375905 2.417360726276605 47 53 25
11.601550635705605 0.4956163241448594 2.127029985352972 43 48 16
11.072663311591498 0.44255112661927204 2.5394934442688624 48 54 27
11.563573475864976 0.5805835868163176 2.030013994944498 44 47 16
10.670168942596543 1.9914461107038242 1.6764756770369456 42 50 21
11.718432059504918 1.937193779485277 2.2244119314559363 46 52 25
12.189255674265246 1.2728655374620688 2.300452259766934 39 46 16
10.546768513624327 2.033529041193839 1.9726926281536183 46 52 24
12.405709818991067 1.240209639764031 1.9967155371235297 37 46 18
11.910690794271954 1.1217674082843108 2.015653837562198 40 46 19
12.206580229273392 1.7675827683631449 2.5490317134110754 45 52 22
12.996925044483298 1.4713437571856605 2.5983008740723514 45 52 22
13.086415539489932 1.3264239309628085 2.587081327693773 45 52 22
12.237803618473071 2.5867217317967164 2.711940610649059 50 57 32
12.495404330427077 2.436738852002895 2.6689510903101175 48 57 31
12.511945038057595 1.4539988170795344 2.66637200638207 46 53 21
11.379626202890686 2.1458270538067064 2.3660495681898137 48 54 22
10.529810211465753 2.9798831613998416 1.6778897203718401 46 56 31
11.442322356246576 -3.0261315811319576 1.4942965832976471 47 57 27
11.71090317176739 -3.098749863920185 2.464236942298413 49 62 31
10.425288354223744 -2.9851507414646594 2.198840770246653 46 59 28
11.317459363472759 2.5045933345254294 2.37166804780594 49 55 28
10.002050887498836 2.7251597911358 1.9959571444046695 46 55 29
11.9625161957256 3.0337453384947675 2.5800547704433066 51 61 35
11.168712841849246 2.4023326132503833 2.0475728700335836 46 53 23
10.288359976843457 -3.0016824993962645 1.9833924744478595 47 59 27
10.478574005958183 2.9419978997939267 2.1951532133605225 46 58 29
18.131300805497183 -2.3848316984655216 3.1163374221741122 55 65 35
11.32633050373417 -0.3012513804741121 1.4045337176551884 26 35 5
15.41566911802003 -0.9171163247364411 1.179840724238037 45 50 25
10.720081077289796 -0.5125486798677552 2.179014418837356 56 66 38
11.985016579633475 -1.857266105219939 1.749087410743166 54 58 37
11.00456060980997 -1.2291998012563716 1.6732529733250188 47 52 28
10.508659861961862 -1.4105524879398421 1.6781060931956284 48 53 27
9.609631281343727 -1.1554040907540841 1.902070901498687 47 56 26
12.483783901528408 -1.0446462440623747 2.5168159099219087 53 67 39
10.530458106094272 -1.2919149585143008 1.9733510409006192 46 55 25
13.868729910617402 -1.924700244198927 2.634801221438617 56 69 38
11.699815668834905 -1.6162774319608624 2.4654160588083998 55 68 37
12.322563347995905 -2.0479798284458304 1.9121828053622176 55 65 37
11.760008709431844 -2.1055958108389277 2.3335917365148213 55 69 40
11.80283086704328 -1.7129324685872762 2.218946422528286 55 68 37
10.630549103619291 -1.171140391657304 2.440837539795681 54 67 36
10.970256632054948 -1.4907324412156437 2.2777634125299033 54 64 34
18.847140607398043 -1.4800192367890914 1.791476772895904 45 42 22
12.161684393090605 -2.593056823100063 1.6634752378762054 52 62 31
11.523311938001308 -2.5144627658336356 2.237446503441749 55 68 39
10.746415099270488 -2.7085787164271538 1.8659040568903809 47 61 31
12.033000310385644 -2.357460287536436 2.104888636258446 54 67 38
12.280755084302246 1.0831665003917745 1.74474950352753 38 47 19
11.687909002109423 0.05869993200333696 1.581535733785503 39 46 19
11.697712849553747 0.6570455063499601 1.9312271287537228 43 46 17
12.103677478863682 -0.26093907641760156 2.306793353262005 52 61 31
11.138147882437083 0.5049984286998238 2.3884184705252216 46 53 20
12.062805912408821 0.41388777063773907 1.8328905217643545 42 47 18
11.392558683818194 0.8562442177363138 2.0374503437996907 33 38 9
12.169626025182936 1.6843680320400596 1.8305365382377548 38 44 19
12.16533346914601 1.0777283419547823 2.1965684496998694 37 44 14
12.668549532172893 1.7230678720655235 2.375072295321281 45 51 24
12.64004956059279 1.2667158840712893 1.8206591940781047 38 47 19
12.820862921468683 1.3571937754564363 2.4812284820321646 44 50 22
12.145330565211394 1.8479390618016769 2.7288711353847366 47 56 28
11.914955021244968 1.1321773253317828 2.58643233050835 46 53 19
12.184799565078704 2.305976792409165 2.721534908473924 47 57 30
11.131515793438627 2.244110829556148 2.265452285819406 46 53 19
13.105827914205712 1.2289728055412668 2.752359989652641 48 55 23
12.119203110627252 1.0250632756271365 2.3056335935998318 39 44 17
12.71637149231327 1.6140830622231115 2.4918813703697964 45 51 24
11.370929288356484 -3.113861571502332 1.4938153269786454 47 58 25
11.187119001233922 -2.8358746099123864 2.383760950605306 52 65 34
11.548999238333497 2.6758527040824465 2.3512038612891635 48 57 31
10.099384267894852 2.5729963305266392 2.103086566061547 46 56 30
11.70318896989066 2.6145252305061426 2.4650569004642424 49 58 32
12.061222396985324 2.8814511414875406 2.5671774002752796 50 59 33
11.205640672885526 -2.8706835600725573 2.259953310286825 50 63 31
17.131638313417852 -2.3848316984655216 3.1148633917608866 58 68 40
10.632450290993308 -0.7618566419804225 1.4884568761697492 37 44 12
15.303214986306086 -1.01391367180331 1.246621595608329 45 50 25
9.996117564449674 -0.6889451468371833 1.683631198934389 43 52 20
12.379655349553108 -0.6506924698880212 2.5285758284198407 53 64 36
9.700011881298154 -0.7582313620060754 1.8988678837331279 52 62 34
12.558708639659582 -2.011253247773776 1.660537316024964 56 61 36
11.911152881524902 -0.8931878794819836 2.7763640755795764 54 67 39
10.553968195435381 -1.2211392480698777 2.3119652713176366 52 64 32
11.813555016688179 -1.6880614633110032 1.838554908011235 53 62 34
11.967701160708852 -1.7741356301045634 1.8350229792069563 53 62 34
11.635607279287168 -1.9144237571688494 2.1252112940492536 55 68 37
11.857273505740793 -1.8443486943417227 2.3257805341090494 56 69 40
9.607369775222855 -1.0028500531195021 2.0146377950138854 46 57 24
10.636679573109436 -1.606521062807786 2.073586263686939 54 64 34
12.695320871004734 -2.1721987361716306 2.4940670002527003 55 69 40
13.307509965863037 -2.250331581533356 1.6554752050303305 54 63 35
11.397376401079594 -2.746061145345779 1.758386548827894 47 60 29
16.988619202322244 -2.6964838313518404 1.5781847990034032 8 14 0
11.466988093439632 -2.5467653738594267 1.7572343374258643 52 62 32
11.627616667337328 -2.573872977404652 2.125636867880282 51 65 36
12.114289725505344 -2.2217321406249657 2.1009246706691 54 68 39
11.298228416802251 0.2164113107450061 2.3734252696496325 46 52 26
12.489678621868041 -0.0554131541250506 2.669848496436326 50 59 33
13.197208593556109 -0.46035129161091315 2.7358111933999436 54 64 36
12.615885595933838 1.4941413050225638 2.3794171853799204 43 49 21
12.140037201824212 0.4897035232872602 1.6636409719267249 41 46 18
11.721072377611499 0.8834661166257286 2.463158958418802 44 51 18
13.036678685972547 -0.1946441729371548 2.593272436567504 51 60 33
10.800128368726561 -2.921249982564671 1.7688943992426367 47 60 29
11.288172694131761 2.8298097369100255 2.2539441661333677 48 56 33
11.658957775766748 3.0594957420819973 2.3419089158481454 49 59 33
10.437603862247565 2.2599950315753308 1.874910299605012 45 51 24
12.512291914411968 -1.9365234037205357 1.823265759349818 56 62 37
13.442952105478799 -1.984448219294826 2.6951719801626157 57 70 41
13.21954691643065 -2.05645790062955 2.571027887540482 57 70 41
10.432980808891214 -1.1554040907540841 2.084355482786804 48 59 26
12.812989234019076 -0.7461428170310759 2.6225611904007398 54 67 38
12.483528429526737 -0.8663150972684338 2.670815114474462 54 67 38
11.057643546634571 -2.8312026691951053 1.7642218698735723 47 60 28
11.14858830858995 -2.357460287536436 1.949857593292793 53 66 37
12.363086134918087 1.053326049202292 2.690332323100381 47 54 22
11.260123866134277 2.3241910610746315 2.376934350896802 48 55 25
10.84990579362549 -1.106063385310626 2.2872780627722187 49 62 31
12.048918556430156 -1.3126680260806034 2.5687570988692583 54 67 36
15.3305145110235 -0.9575102851670979 1.3821792944544096 47 52 27
12.918134391154098 -0.5291983840644009 2.608486458613757 52 62 34
15.315255264906046 -2.074215977754089 1.4480955963289186 52 57 32
15.225244872477047 -2.074215977754089 1.513328435040797 47 52 27
10.728828783237622 -2.800358510087866 1.9654911383536786 48 61 28
12.614792071769267 -1.1056552376310058 2.6507634383585725 55 68 39
11.689539432913367 1.7857440047444093 1.9314906695910157 40 46 19
12.005034580232367 1.7425148158817618 2.4343263934738646 46 52 25
11.507807359683285 0.6126031119600511 2.354754029872189 46 54 24
11.389537647248327 -1.8162100424986973 2.1386452341817765 55 68 35
12.568268361653821 -0.46134125776644164 2.5075539060521037 50 60 31
