19.89824995519456 0.18842550093754112 0.9438272419086826 56 75 31
19.43778803889877 0.06043730662898607 1.0498527138860079 62 81 39
18.17229981580358 0.2898062940590419 1.3106585826970039 56 74 31
17.68749626785156 0.2343902858321147 1.361546018024831 58 77 32
18.08520805108568 0.16770621372899397 1.5888140245265514 65 86 41
18.735479741321658 -0.05500691430844264 1.2631077194970612 65 83 39
19.039850444315743 0.11936357741648354 1.097773342033429 63 83 37
18.605579198326282 0.11936357741648354 1.1456372181540064 60 81 35
18.20324626536459 0.0010272471261992039 1.3675589476793142 65 86 40
17.945420628048293 0.11272673963657935 1.5889543903260246 66 87 42
17.935945697329302 0.05705496529034556 1.4773189892419616 68 87 42
18.978947395814906 -0.1048627330829411 1.6407115288739516 63 84 37
18.323838335561923 0.22168188901816263 1.6432154217311343 62 82 38
19.975657839156966 0.21026132695195968 1.840676874288567 63 83 41
18.296536833770663 1.2005919307885309 1.076868679895338 27 36 6
9.508490953460694 1.0287649831928778 1.3938032751467015 32 46 6
9.226494751008083 1.3707452214318396 1.497662902630732 34 45 5
9.475514270820302 1.2668652907910025 1.4995881715125892 36 47 7
8.026762635577859 1.5921712981467007 1.6114012071275798 44 57 11
9.129919573368163 1.2316601623258208 1.943654606887619 32 45 1
8.68239226813397 1.5921712981467007 1.9638979245836758 50 65 15
10.907227595138663 1.1253266910098914 2.1894849713032514 33 49 4
8.474151466021084 1.8352603715759845 1.3719268319891444 47 59 10
9.479288885208437 0.32942258285931014 1.3932522341389426 31 45 6
9.14787456997479 0.8777432587934595 1.4970332296840447 32 46 6
9.797573516815897 0.7990994165249027 1.6040592846439239 34 48 6
9.97755088442788 0.8946455175554243 2.2575199886632884 36 52 6
9.394634788564247 0.7224104679788884 1.8209684070078591 34 48 7
9.546775499266706 0.5318873606543835 2.162610457992156 38 55 14
9.439798019173091 0.36798823497187144 2.0468274375389637 38 56 15
9.805427852789359 0.4742210908535104 2.0276955396687315 38 54 15
10.610756353098525 0.9681712424468868 2.2095210133932284 37 52 9
9.392977537495058 0.5700397532923398 1.7124211469896706 34 49 8
9.95851686869154 0.7108361786498724 2.2590879876407506 31 47 4
10.138668295031666 0.5318873606543835 2.2445600431023722 39 57 17
9.836181836482535 0.4778231010194778 2.411008231476187 49 67 24
9.673588545038484 -0.2479267514171691 2.153824462267547 35 47 2
9.308387608108495 0.0026820093940728624 2.31799246128708 48 63 22
9.524669932849854 0.28738631441585016 2.297156339173138 45 62 21
8.826984597794537 -0.32773351339332146 2.3697797582238387 56 72 28
8.166795927155414 0.002339418785927495 1.8595855115774704 40 54 13
9.169141612458118 0.25231892729424954 2.062107101662092 45 61 20
9.363904559331054 0.14803437568685934 2.312514033177525 51 66 25
8.225565450613663 -0.12474647821247987 1.8574635151420782 34 46 3
8.230017281225807 0.12935019869447098 1.8573040610449019 48 62 21
9.519188204472737 -0.12474647821247987 2.164559780648833 35 48 5
8.166795927155414 0.002339418785927495 1.8595855115774704 40 54 13
9.52303531123975 0.12935019869447098 2.1642871117718836 54 69 28
9.41685805634781 0.17296471803205732 2.4621914411415675 52 68 28
8.995007734673925 -0.389445878406452 2.522548665384007 55 71 27
9.361655137844457 0.0031421543715234998 2.469525677252315 51 67 27
11.25065173663749 1.1876816653941689 2.4039134531041193 52 68 21
11.722959879287602 0.8095726557637334 2.648391071610672 52 70 26
11.740927281737665 1.0042154012651674 2.4886532955716536 51 67 19
11.261116494450214 0.9190762748533867 2.5465862311251675 49 65 18
12.102248430141398 0.9190762748533867 2.592917676081289 51 68 23
11.824011660968557 1.0575322292692788 2.6327189967892086 53 72 26
10.888105924558618 -0.6111239412647271 2.8188190010913154 57 76 37
8.560140768668903 -1.657082323135511 2.9070830894897655 59 82 50
9.926816539315443 -0.3639085041119489 2.13709236354228 28 42 1
10.271565502480792 -0.4705108668101137 2.1158954710908544 31 45 3
9.428150096490052 -0.3639085041119489 2.047464506674855 31 43 2
10.12420687900515 -0.5278936806820389 2.2457009954929172 39 53 8
9.388748882739545 -0.8010032974909995 2.310092170170562 56 68 24
9.103791976765992 -0.4728549439952777 2.339017759193306 56 71 27
9.774261796287654 -0.4116949336308552 2.2746931486499897 43 58 13
9.352021411779845 -0.8916637302244033 2.1766755614254336 55 69 25
9.95549982922354 -0.8916637302244033 2.259337264246621 54 68 23
9.635191055702915 -0.6895664757780615 2.4346031828432775 58 70 27
9.579483829871839 -1.0692014852275067 2.16031710100147 56 68 23
9.510773446125738 -1.0014471005240904 2.298455133743386 55 69 26
9.510773446125738 -1.0014471005240904 2.298455133743386 55 69 26
10.174064585105695 -1.3656260502829631 2.7303589633192527 63 83 46
9.63286838353627 -1.2741212635893528 2.434885469169507 56 70 30
9.63286838353627 -1.2741212635893528 2.434885469169507 56 70 30
10.106315832063954 -1.0543926731938351 2.538922607948414 57 71 33
10.303822372694583 -1.140278121234944 2.7023761503396138 59 75 37
9.873219049088652 -1.2190039514425697 2.5741434671629966 61 72 35
9.737725046700977 -1.4059793598904107 2.5963632581842706 65 79 44
10.52738907774292 -0.953125683976291 2.6591495716059574 56 71 32
9.737725046700977 -1.4059793598904107 2.5963632581842706 65 79 44
9.63286838353627 -1.2741212635893528 2.434885469169507 56 70 30
8.845302778647788 -1.6282231955488586 2.797174402668942 62 83 49
7.7084884222535575 1.9952103672875272 1.6130787137396758 51 64 12
7.731049178005265 1.9952103672875272 1.4834833174573698 51 64 13
8.743843021261124 2.205825630656524 1.493618185059819 46 60 9
7.960907006783356 2.4588821235154668 1.6117372930578722 45 61 8
8.540848967772712 2.564432639948358 2.1019029621114127 46 62 11
8.045131352723809 1.9952103672875272 1.8640814194264497 50 65 13
7.016155263258039 2.0662238734920897 2.4326979147657175 50 66 14
8.06430258311284 1.8708481215278785 1.9958993164660301 51 66 13
7.802442376680826 2.0662238734920897 2.516229818251766 50 67 18
8.540848967772712 2.564432639948358 2.1019029621114127 46 62 11
8.15641757732355 2.515222117568586 2.458406767213372 48 66 16
8.268807600665738 2.280653315684167 1.855922262193472 45 61 10
8.042513090213049 2.176890271278126 1.9971261722671128 48 63 10
7.829243924930195 2.2642971796902085 2.1561843638147247 47 62 10
7.345354024292897 2.1343911175408694 2.2005199319929645 49 65 12
7.723213047806496 1.9170613421759324 2.165312922377458 49 65 13
8.710337673680227 2.613279569325966 2.3836395691946373 46 65 15
8.11846490149653 2.6867194633361438 2.1327485078657444 46 65 13
8.416255322651514 2.7694912853384146 2.421312893911616 51 69 22
7.358511008916067 2.5748320855923352 2.6054050402669633 51 72 26
8.416255322651514 2.7694912853384146 2.421312893911616 51 69 22
8.215101171206964 2.9780612229089445 2.2761436385134184 53 69 21
9.575312485625519 3.133158562141199 2.9128218292612953 61 82 43
9.605754371030375 -2.1046620759300816 2.899587209555111 60 81 49
11.717232103841434 -2.7756526457496316 2.649301287147567 64 79 41
8.326699147580687 2.6308580216692556 1.7307040450281774 47 64 12
9.04563533478655 -1.8723288369122781 2.2003377357683096 65 78 43
9.336292267479605 -1.9971773443439553 2.177843220471984 64 77 42
9.265778672111365 -2.058301588961185 2.3222608638752664 63 78 42
9.975285798604224 -2.058301588961185 2.3955765386336147 62 77 43
9.772868487443619 -1.8017454809205304 2.5904633720626666 64 81 51
11.102241245606407 -2.568612088385355 2.418743378321774 69 80 45
10.318543004678295 -1.7641829146231338 2.5096491680624693 62 78 44
9.703787511584052 -1.9190148413091597 2.4263681952112472 65 80 46
9.942423908018055 -1.9818462581051066 2.563314585530636 64 83 51
11.573593295619062 -2.691520236231152 2.5077973616678433 64 78 42
11.927149678016926 -2.6185790550468018 2.61742764403752 64 79 43
11.52883622695538 -2.521009609498761 2.680693483358972 63 80 46
9.772868487443619 -1.8017454809205304 2.5904633720626666 64 81 51
10.18744465715721 -1.7370322491035959 2.3733089564735437 62 77 41
10.336786805274432 -2.179751548603223 2.3584714932967037 62 75 40
13.785203882260081 1.026101749395647 2.882710523477929 54 76 29
20.074286538078344 0.2486124686458982 0.9501659058740255 55 73 29
19.435903539023077 -0.05826838741816422 1.0497970760079771 63 81 38
19.77128530333643 0.12682634400598405 0.9391669691869875 57 77 33
19.042856496163004 -0.05209088591401828 1.429901922239349 62 83 40
17.487449656590574 0.17746948758065526 1.3591161229706779 61 81 36
18.49579194947449 0.0010882888882434603 1.1429479984431625 62 82 40
17.487449656590574 0.17746948758065526 1.3591161229706779 61 81 36
18.740443058761038 0.17746948758065526 1.1488931762431511 59 79 33
17.58188256117744 0.11936357741648354 1.3017095819473967 65 86 40
19.975657839156966 0.21026132695195968 1.840676874288567 63 83 41
19.960257074428302 0.26047143356735386 1.7892522145608052 57 76 31
19.798744338305905 0.15895255334585714 1.8431495711748946 66 86 43
18.875213951636567 0.0009726893042420193 1.6410963977871378 69 89 45
18.900716203006237 -0.05209088591401828 1.641001387453995 64 86 43
8.871204321287587 1.3465800350381307 1.9550878679878974 34 48 4
8.131425504700147 1.7158627996306661 1.4877926071573253 47 60 12
8.834612402102273 0.0020744372211905465 1.607686467829837 41 52 12
8.854304260194477 0.0020744372211905465 1.4945828958610157 37 48 8
9.723436576951103 0.4271269963380281 1.5014067520517127 32 46 7
8.830711235891235 0.9681712424468868 1.8373209767426681 33 49 6
9.790227964279131 0.4271269963380281 1.7066381675084974 33 48 9
9.428962945675659 0.8014121031159436 2.047419990971202 30 45 3
9.424008428427893 0.32942258285931014 1.7119516846792961 33 48 9
9.414808879517162 0.8777432587934595 1.82042090477315 30 46 3
9.407164451256078 0.4742210908535104 1.9321522336237265 37 52 12
9.554308224997675 0.9681712424468868 2.0406579264350997 31 47 3
10.639698962594235 0.8946455175554243 2.330267338426916 45 61 13
9.359992047502745 -0.14278297517658453 2.312897093967485 47 61 18
8.826984597794537 -0.32773351339332146 2.3697797582238387 56 72 28
9.516975485722421 -0.282446076937498 2.2978748241151745 45 60 17
9.412967554733012 -0.16686009998645504 2.4627033373904093 53 68 28
10.27406168792395 -0.47763058574805584 2.708582649287273 54 72 31
11.056430014431472 -0.25100214097244034 2.7760260495988764 52 71 33
9.926816539315443 -0.3639085041119489 2.13709236354228 28 42 1
9.478523071805846 -0.5993145594319033 2.3014898529077614 56 69 25
9.527434250081933 -0.9657254867936065 2.0420907733722116 57 67 21
9.95549982922354 -0.8916637302244033 2.259337264246621 54 68 23
9.405625839318027 -0.7983609853118612 2.0487015183757578 52 67 18
9.266797473419315 -0.5531932429747413 2.4824975285722664 54 69 26
9.225472624241888 -1.1858640110703698 2.1862105982812476 56 68 23
9.99156713118814 -0.8049984342448141 2.5558220608940276 54 68 28
9.23053370680597 -1.6138212105038494 2.695149712672745 64 84 48
9.871642143061718 -1.1290841752745417 2.407007935979898 56 70 30
10.253267530184457 -1.5994455164133425 2.5183975582761766 61 75 39
10.285264233439722 -1.4331523012719105 2.5140822150075124 60 73 36
9.873219049088652 -1.2190039514425697 2.5741434671629966 61 72 35
9.651067953355463 -0.9155401263953733 2.4326797027542924 56 69 28
10.512835718006516 -0.6616774130211532 2.6617995653005777 54 71 31
9.873219049088652 -1.2190039514425697 2.5741434671629966 61 72 35
8.62627782442262 2.368753825681286 1.6085778265192328 43 59 8
7.722872287157266 2.564432639948358 1.8767073918207897 47 62 9
7.633024525809977 1.9791696021247538 2.3430285275686518 50 66 13
7.387101554195933 2.2389422173869944 2.3759891200329397 49 65 15
7.387101554195933 2.2389422173869944 2.3759891200329397 49 65 15
8.327173219131517 1.7361804341485847 2.1170437022997413 51 66 13
8.621546117750347 2.4588821235154668 1.96682632798481 45 60 8
7.016155263258039 2.0662238734920897 2.4326979147657175 50 66 14
7.465228156288185 1.8708481215278785 1.749345056283643 52 65 13
7.572264001762468 2.055779423802076 2.025518704728589 49 64 12
7.802105076410976 2.825514697303344 2.1584919509883838 50 67 20
11.717232103841434 -2.7756526457496316 2.649301287147567 64 79 41
9.450245804741924 -2.444087587738261 2.979150763904455 62 83 48
9.575312485625519 3.133158562141199 2.9128218292612953 61 82 43
9.399136902051989 3.125959561943005 3.016622075390016 64 85 47
8.326699147580687 2.6308580216692556 1.7307040450281774 47 64 12
8.461715824075533 2.743215876910414 1.9747372377480539 47 63 11
9.334624658398676 -1.8364178562342224 2.052645205316659 64 77 46
8.592547514365114 -1.8364178562342224 1.8448963126811462 63 76 44
9.302988079447466 -1.856924818947674 2.67914604948316 64 83 51
9.942423908018055 -1.9818462581051066 2.563314585530636 64 83 51
11.927149678016926 -2.6185790550468018 2.61742764403752 64 79 43
11.382820315943885 -2.4854510501025975 2.5309687910408356 63 78 44
10.207576982839242 -2.1377046567660183 2.5246525457128906 62 76 45
13.785203882260081 1.026101749395647 2.882710523477929 54 76 29
19.00645751220531 -0.1048627330829411 1.4825980750660688 62 80 36
18.278713821944024 0.22168188901816263 1.588623261659668 58 77 34
10.311228558796055 1.0287649831928778 2.003720233420202 33 48 7
10.597662407626261 1.2316601623258208 2.2104388007617497 40 56 9
9.939359317349256 1.1693203031460118 1.4015517166298588 35 46 7
9.184820322631758 1.1253266910098914 1.826809918921096 33 47 4
9.209793104937976 0.22474912544551146 1.3879991764227189 33 47 8
9.879928308954403 0.6554008539602305 1.6037819180446913 32 47 6
10.292238592074249 0.5168727278979098 1.4074075801596264 31 46 7
11.824011660968557 1.0575322292692788 2.6327189967892086 53 72 26
9.516975485722421 -0.282446076937498 2.2978748241151745 45 60 17
9.785497742230959 0.4161911446707734 2.273718741544118 40 58 17
10.187595489310619 0.6035867944703289 2.373293635472703 48 65 23
9.52303531123975 0.12935019869447098 2.1642871117718836 54 69 28
9.46845144707655 0.002339418785927495 2.1681813145161195 42 57 16
11.056430014431472 -0.25100214097244034 2.7760260495988764 52 71 33
9.576734536723663 0.3333558436427681 2.4417783602937835 50 67 26
9.352021411779845 -0.8916637302244033 2.1766755614254336 55 69 25
9.940109199062281 -0.7072159432527468 2.260612037493247 54 67 24
9.905426280202594 -0.7983609853118612 2.1384658443298346 53 67 22
9.635191055702915 -0.6895664757780615 2.4346031828432775 58 70 27
9.154105430755695 -1.1290841752745417 2.3337206635094976 56 70 29
9.456560526255855 -1.1235438271876215 1.9301787486211062 53 67 24
10.303822372694583 -1.140278121234944 2.7023761503396138 59 75 37
7.485884656796326 1.7361804341485847 1.8867217583622096 51 65 14
7.3376752659102875 2.1944332821279495 2.6102027386752478 51 70 22
7.802442376680826 2.0662238734920897 2.516229818251766 50 67 18
8.06430258311284 1.8708481215278785 1.9958993164660301 51 66 13
8.08049681189362 2.564432639948358 1.9949922261124644 46 62 10
11.357142708704142 -2.8308858117613385 2.5342068775551603 64 79 40
8.15867672811818 2.867250344483006 1.9906688688530656 49 65 16
9.653884663409562 -2.179751548603223 2.2853274321008112 62 75 40
9.66825687356414 -1.8723288369122781 2.284038674207281 65 78 43
11.382820315943885 -2.4854510501025975 2.5309687910408356 63 78 44
9.703787511584052 -1.9190148413091597 2.4263681952112472 65 80 46
9.942423908018055 -1.9818462581051066 2.563314585530636 64 83 51
18.840657021279622 0.0009726893042420193 1.5350062922523637 65 84 41
17.788600093832034 0.06043730662898607 1.246145855186672 64 84 44
9.365615032586293 1.0287649831928778 1.6055940360659282 34 48 7
8.389840787560322 1.4678255450467987 1.8516963810740978 44 58 12
10.848713980638811 0.7308773245060072 1.3217333804683613 32 46 6
11.542717609178686 1.0714044533730402 2.376482991986607 47 63 17
9.514508857717825 0.6337658118519413 2.0427831773255947 36 51 10
11.63915417922274 0.8046639522469793 2.5001725968438535 50 67 22
10.107747784801305 0.8046639522469793 2.3815031331032177 49 66 20
10.089612378403062 -0.8010032974909995 2.3833958158576625 56 68 24
9.527434250081933 -0.9657254867936065 2.0420907733722116 57 67 21
9.428150096490052 -0.3639085041119489 2.047464506674855 31 43 2
8.271354230907953 2.1070597131650213 1.7317833206826043 48 63 11
7.6931341468748675 2.380924442137306 2.5361853307636384 49 68 18
7.633024525809977 1.9791696021247538 2.3430285275686518 50 66 13
11.113695240150115 -0.8117424821119107 2.762792925445787 55 72 34
8.560140768668903 -1.657082323135511 2.9070830894897655 59 82 50
7.723213047806496 1.9170613421759324 2.165312922377458 49 65 13
9.363904559331054 0.14803437568685934 2.312514033177525 51 66 25
8.441264049875763 2.481019441558396 2.2535460458875045 46 62 11
9.152885125773558 0.22474912544551146 1.7161622007404926 39 54 14
8.441264049875763 2.481019441558396 2.2535460458875045 46 62 11
10.621851561158968 0.7108361786498724 2.3318638574219657 42 59 16
9.081356731471361 1.479175780308104 1.496491947280439 35 46 5
10.121323725125112 -1.5953438248749428 2.3800931854166625 60 75 36
9.211813916617004 -2.109360806137729 2.0596300975506305 62 74 38
8.404754317046802 2.37121858157026 2.111441422492274 45 61 8
8.710337673680227 2.613279569325966 2.3836395691946373 46 65 15
9.942423908018055 -1.9818462581051066 2.563314585530636 64 83 51
11.357142708704142 -2.8308858117613385 2.5342068775551603 64 79 40
11.453916715644143 1.131438855427087 2.5221548660153656 50 66 18
8.912650148276391 0.11483544246509905 1.495082779178755 39 50 10
