16.240101533408613 1.1572493888424606 1.1783599180173119 43 63 21
16.473571405857644 1.1824845285419552 1.3123135164424429 45 65 25
11.183425096032876 1.0941082731137088 1.3717931801967511 34 55 11
10.486310841082707 0.6983152248891289 1.5506852807188964 32 53 5
10.687671337936953 0.9668817451771656 1.4572559683659276 30 51 6
11.159866367624364 0.44151663586022966 1.462079518506381 37 58 12
10.768636991948648 0.5662673648073502 1.4581132845740992 34 55 7
10.938413923691252 0.8334605781227823 1.272867067560279 31 52 5
10.450620352416658 0.7643756533074633 1.9418247094034908 31 52 2
11.87224523673946 0.7643756533074633 2.1795534830758783 32 53 2
10.89645114821281 0.9945354689231932 2.1309132147723817 28 49 1
10.482920613630608 0.533293771184088 2.0452472851244567 36 56 8
17.72191919874157 -0.1400259245886387 1.1517491358264629 48 66 49
11.0351840701021 -0.023514772096963985 1.5516856984660103 48 69 30
11.16859943219045 0.15651198268625732 1.5519140132434155 42 62 20
11.429808796049791 0.24353198361829267 1.4646569316370606 40 60 17
11.083081585876396 0.06704112780396657 1.6420573568759573 46 67 28
11.474165220386205 -0.20204582904344923 1.37690068374475 47 68 33
10.733962389351547 0.35695895274005407 1.6443792281854952 38 59 14
10.989441971298596 -0.6061281788282881 1.5516061432573123 39 59 19
10.925595879093038 -0.4015850194973679 1.6430863207820667 39 60 25
11.327366654924587 -0.48294714516956083 1.5521787033039023 40 61 24
11.729824265414678 -0.7994737386976135 1.3811787491272185 36 56 15
12.962438559181278 -1.079105341944598 1.3993981275398868 42 62 22
10.765374113740485 0.2667247456221508 1.8328688094020007 42 63 20
10.482960087696492 0.3927164529880005 1.940624787343861 38 59 12
10.55059395192902 0.2667247456221508 1.741195365759336 40 60 16
11.300554932382557 -0.028720243969304487 2.215270151625319 46 68 25
10.795687807996618 -0.12490995609153684 1.9294190514924814 51 72 33
11.712261936778084 -0.6621107760351429 2.0878014074277664 45 67 24
10.486592782091538 -0.12490995609153684 1.8400067937146367 50 71 32
11.209738738416055 -0.5798551814091987 2.113481197097767 43 63 21
12.343229302341133 -0.385581500265728 2.363224589789599 47 69 26
13.074156059971338 -0.385581500265728 2.4169532003809637 47 69 26
12.361825784412696 -0.5798551814091987 2.2524717605249998 48 70 27
12.64320986503699 -0.7172371470502055 2.4563402864840573 54 76 33
11.950442732679756 -0.49553818189740534 2.5307119425748876 53 75 34
12.484923671924143 -0.43413586487319455 2.472001617597895 52 74 32
11.652341504601564 -0.385581500265728 2.3029325119854427 43 65 24
11.80134233943326 -0.7026234005355851 2.5489945259172497 55 77 36
12.260991746152246 -0.6149798908844681 2.4954225182282874 54 76 33
12.861365385849595 -0.2742768073790032 2.4358441868211416 47 69 26
12.11761001674908 -0.2742768073790032 2.382292884507549 46 68 26
12.644134873621361 -0.48769447727535875 2.3393757115809533 48 70 27
11.905087489241643 -0.8938592557861825 2.4012925748837954 53 75 33
15.068202328734763 0.12220179526718529 2.7265870018695884 50 72 27
15.150309710614255 0.2810098118234053 2.714453337538712 49 71 26
14.612758532737367 0.10495698141105601 2.6366506877821143 48 70 25
15.57536907794631 0.24270838642362697 2.657969495178354 48 70 25
15.297484997063323 0.426575040888971 2.693783943747302 46 68 19
11.574741082275375 -1.0731552551053474 1.9973727252204885 48 70 29
11.39641937486515 -0.993548753279576 1.818044584447523 45 66 25
11.815764392123905 -1.0237737096437156 2.1828894529885496 48 70 29
11.292299660222962 -0.9401598671923779 2.0087699752026644 48 68 27
11.77589479183389 -0.964845075044776 2.2935420403532913 50 70 28
11.85648637678908 -0.8656269541896893 1.9865990095325692 45 65 23
12.459933596077189 -0.964845075044776 2.353770775541918 51 73 31
12.174314200457244 -0.8014434746655754 2.1623599598664915 47 69 26
11.837130974080813 -0.7350337557633336 1.9873211181493349 40 62 19
16.14558244908344 1.3039154645535995 1.2421699998133549 43 65 24
15.851122347974725 1.3039154645535995 1.3019165526551957 44 66 23
15.92543861353394 1.3680574534879344 1.2374525337528384 44 65 23
15.81081711945869 1.3537469054666265 1.0972195228247958 45 63 23
16.123929743595752 1.433934195988865 1.175375907981162 45 65 23
16.53489834580483 1.433934195988865 1.119535560732026 44 64 24
10.694403893384548 1.2692038945934516 1.2658531880884176 34 55 6
10.997622201939608 1.383986329793526 1.4604691654489725 33 53 4
10.543493416913082 1.1784970860667352 1.5507943674492914 33 54 8
10.213806214913612 1.8667403756281542 1.6481338741394485 3 21 1
10.78634453402853 1.66085270141274 1.5512447632559212 32 52 17
10.8520496375779 1.66085270141274 1.4589830476828647 31 49 21
10.451664526135813 1.5677042426610388 1.9417858419778378 0 15 0
10.854286638798436 1.5677042426610388 2.02775353669124 9 29 0
10.35671328107528 1.2692038945934516 1.7444174206779972 29 49 4
11.231810759913989 1.1387654836596255 2.1122964765706698 29 49 2
9.978748203001246 1.8983382776136606 1.9602892056526091 24 45 5
10.21266108244314 2.0878063760689893 1.7468918379542642 25 46 7
9.191986439817239 2.20612461925632 1.9956860511505257 51 72 24
9.371087635755192 2.141566217828326 1.7628951370537367 45 66 18
9.930370701774168 2.044683694473548 2.074040874072126 58 80 34
11.109933936944223 1.6813072482597584 2.228227982605189 37 57 15
10.185587514369344 2.284360603698979 2.3003569565507362 54 77 27
17.706761462838546 1.0020599948168707 2.81824123928459 47 70 20
9.57217558593687 2.4704700379343514 2.220294208005562 56 79 28
9.450541230966603 2.4526101941241607 1.87038627533892 52 74 25
9.768949642774833 2.2956335316338 1.9691204384440018 52 73 25
9.444208913049783 2.6049965478914605 1.7613894732082562 51 73 23
12.630100232111756 -1.3284861663047627 1.5540992096071757 48 68 29
13.30104483835453 -1.4932624759434847 1.5549415347472844 50 70 32
13.45952577030353 -1.7182822388348382 1.4807102532575942 55 76 42
13.31824183925203 -1.6438128755091785 1.6300823802874123 39 60 25
9.999573043280282 3.0674469537072024 1.549706216500912 48 70 25
10.122876268914016 2.9687506821000404 1.5499631451807405 48 70 21
9.412346759475733 2.8450688262945185 1.65473404724634 48 70 21
10.121802614252834 -3.0159358928562994 1.450878609875479 48 70 23
20.297740306786203 -2.714945355504223 1.0436665213549858 43 63 30
19.866414382144292 -2.587654725937751 1.0886965933610735 46 65 33
18.770670503471095 -2.4967245416068655 1.506242539757688 58 73 48
18.42994139754925 -2.5407753351495543 1.3956820628861586 55 72 43
19.302957222858325 -2.4213141926157338 1.2974529012865177 54 70 41
19.057345161847987 -2.4213141926157338 1.3479994934607646 58 71 43
12.298338001945504 -0.9987575223121998 2.491406711410472 52 76 35
12.007867421960633 -1.119957942226338 2.523915331254719 52 76 35
12.515856020275605 -1.407687363049092 2.6100701716828265 55 79 41
13.3478335846634 -1.565984608151784 2.6534890029223552 54 79 41
12.379349336760024 -1.048111811095702 2.629134898789526 55 79 38
11.96958033533106 -0.6800625784383474 2.6937389612678855 55 79 38
12.950137524305541 -1.3773830248471208 2.714918968649055 57 82 45
12.66130039088617 -0.9169653747533527 2.5908458125418514 53 77 36
12.87824135797495 -0.6800625784383474 2.7273703809371566 54 78 37
12.698325180628537 -1.126028054888241 2.7608795020678984 57 82 43
12.279645373385142 -0.8130524566668507 2.6437577251756346 54 78 37
11.598215742437475 2.496397654265726 2.5755311578442113 52 77 25
10.767560602931935 2.496397654265726 2.5257024119745806 55 80 28
11.003414001326584 2.9936672318628976 2.6673617765518993 52 76 33
11.881590964473467 -3.089441845179643 2.70941017876987 60 84 41
13.202536203087478 -2.5611269220730333 2.674639121154666 63 88 56
13.484279709572576 -2.433022017877664 2.6347602741410925 61 88 54
13.674207422872005 -2.0138088674296446 2.6102807098964873 59 84 50
12.637522673755168 -2.241858493226333 2.456891037463464 58 85 53
12.627982386752398 -1.8756903412793855 2.595157138242451 55 80 46
12.822078675995376 -2.0138088674296446 2.570755386434304 56 81 47
12.64311522878732 -2.6241734031271937 2.7719430946707093 61 86 49
12.991011866203237 -2.3278973376983654 2.550813233503355 61 88 55
12.642255609445126 -2.2173710960916577 2.593303684062441 60 87 55
13.058535489796938 -1.9291667472526632 2.697010923682873 60 85 51
12.945485186929055 -1.7531560555578223 2.7157101944682633 59 84 49
13.674207422872005 -2.0138088674296446 2.6102807098964873 59 84 50
12.64311522878732 -2.6241734031271937 2.7719430946707093 61 86 49
17.465630208899405 0.8899474952039402 2.8623570524751667 48 73 24
13.34413436773957 -2.114419816629509 2.8521667453135193 62 88 54
13.527959359695567 -2.309748000707471 2.809568621056178 61 88 54
13.62294972157071 -2.003977179659816 2.789904578153592 62 88 54
13.803062034553422 -2.1796745249237057 2.7559117410847627 62 89 57
11.65568460266674 -1.1964937058024832 1.9019011385172693 48 70 29
11.640130609461064 -1.1602798851682454 2.091328390063822 49 71 30
12.660543607711675 -1.568121346608762 2.045704862092341 51 72 35
12.402886460251231 -1.3924088937590624 1.967228578435689 48 70 30
12.01803771949294 -1.1964937058024832 1.9806712707826761 49 71 30
11.953702460913133 -1.3754414592130064 2.076354009995786 48 72 31
11.796486295573748 -1.3079061996607653 1.723049678646874 47 68 28
11.578826903383293 -1.2981093466431384 2.4326774954200534 52 75 33
12.302388972103195 -1.5678606139476206 2.1553822077716465 54 75 38
12.060994750734325 -1.5671497432386443 2.38725157792722 54 78 38
11.532988445340408 -1.3297797791532422 2.312273102190296 51 74 33
12.090893582855635 -1.064002243991299 2.3846238357120506 48 72 31
12.230586328631665 -1.42983641165756 2.4987260799722995 54 78 40
12.187165558709635 -1.566647424186539 2.503498021048767 55 79 42
12.143657685631503 -1.4600010079520351 2.2671374861682887 52 74 36
11.42593762382194 -1.1168414108371838 2.2070486314795685 51 73 32
11.38470291933993 -1.064002243991299 2.3242675579741574 50 72 29
12.187165558709635 -1.566647424186539 2.503498021048767 55 79 42
11.399506887803781 -1.566647424186539 2.451220542477791 55 79 39
12.61482056593355 -1.486966524668545 1.7937374875380094 49 69 31
12.430992599296326 -1.9400022633009324 2.0552227198664546 54 78 45
13.26832371085041 -1.9097705332600219 2.022291752573481 53 75 42
12.817412141635478 -2.071225124526706 2.4398778362718927 57 82 49
13.294628100840375 -1.7439974368583935 2.1067563422823934 56 78 43
13.219164449052688 -1.8525726478602706 2.2009013817036154 55 78 45
12.803366505832859 -1.6751611228581267 2.327419297482926 56 78 42
13.107468051048448 -1.8811718882306523 2.3057370717917136 56 79 45
12.511145007360595 -2.063400547864981 2.1443804573907888 57 81 48
13.161527890857927 -2.171119585192973 2.4094861991650527 56 83 49
13.030984088617863 -1.760494726748357 2.2114738011177852 56 78 43
12.697505425491544 -2.018843633414744 2.335319484212503 57 81 47
12.421227057626016 -1.9159757009908034 2.3568766722368464 56 79 44
12.09989077597511 -1.687688305606599 2.3838370588868445 55 79 41
12.543775013737212 -1.9591290960599759 2.466096694941357 55 80 44
12.868234914221363 -1.6497450394051403 1.869682115655992 52 73 38
12.981957950204285 -1.7301175535718032 1.8669841133005356 55 76 41
10.022308132183007 2.702772754926389 2.0689977535748922 50 74 24
9.422655668416875 3.0592163634716587 1.8713005298929732 48 70 25
9.240522188613816 2.810391685307782 1.9933108346259787 47 69 20
10.22466353768618 2.810391685307782 2.1726750848537195 48 71 23
9.584801157358932 2.702772754926389 1.9772193378017202 52 76 25
9.459615979559208 2.9265738575161264 2.101650793821412 49 71 23
9.853946201159957 -3.1090542781587045 2.198753550790655 54 76 31
9.39708874799551 -3.1126796448161245 1.8721437631930145 50 72 29
11.597242991578701 2.8578964051367115 2.5756631739939815 48 72 27
11.35154440367897 2.8968690668869694 2.456351988770425 48 73 25
11.241725732326444 3.035735308303639 2.4683925785883605 51 73 30
10.972646027429011 2.711223411879322 2.4997652543424325 51 76 26
10.495697485803985 3.0489362049139777 2.2742406815185165 51 73 30
10.455476434036527 -3.10438988858292 2.411301573588314 57 79 34
11.264107765424589 2.5818611782934195 2.465904817659165 52 77 27
9.818470405321364 -3.002099259938038 1.966998926436029 50 72 26
9.818470405321364 -3.002099259938038 1.966998926436029 50 72 26
10.106331179991335 -2.8653463275643434 2.1807402246384293 62 84 46
10.314098375831229 -2.6982603014229487 1.8446240799692837 60 84 46
10.765661261551914 -2.6112762981670916 1.8328616547086356 61 85 49
10.375777899117743 -2.753380070256063 2.1627049687643383 63 87 49
12.394789362974237 -2.9336791952970724 2.6269250366671435 65 89 49
12.18318554466048 -2.409846674403502 2.2644280112288464 57 84 50
12.389084711704147 -2.495158958760443 2.3594780138505427 58 85 51
13.045586020910088 -2.521873809412442 2.5446045143806315 61 88 54
12.754155304715777 -2.641843272094173 2.579103106150303 64 89 55
12.535933967784548 -2.779783618334096 2.607352419447384 67 92 54
12.799642759078107 -2.097795257222592 1.9542879176617995 55 78 47
12.445491743526167 -2.1434621704208765 2.0546097312843274 56 81 49
12.245394020460727 -2.1966588700192617 2.158465372074847 58 83 48
12.725912427318493 -2.335849329545358 2.2294693128535084 57 84 50
12.206927733647507 -2.2590256080728026 2.2628119260401016 57 83 48
12.762814624118846 -2.271721229046759 2.1316929293819165 58 83 48
20.491470171530143 -2.8410538979474893 1.0491607337054005 42 62 23
19.758603717971706 -3.1271573591196358 1.1422384269565442 36 56 11
19.82564037610837 -2.9088568770193164 1.1985437185512497 42 62 24
19.49405914986584 -3.0165153727121496 1.191893618416223 35 55 13
19.82564037610837 -2.9088568770193164 1.1985437185512497 42 62 24
19.635100693162318 -2.9621611110106945 1.1947518953161915 36 56 16
15.89593219124652 1.2198709057346617 1.1693814692018798 42 62 20
10.458663412546564 0.8334605781227823 1.550632110064258 30 51 3
11.392668046252453 0.908975521141398 2.103825568788391 30 51 1
11.443383877587909 0.6206437238223397 2.1012127929659092 33 54 3
10.24211024408462 1.0485937418075753 1.7463802339941077 30 51 4
10.354570052274381 0.4834269551992667 1.7444537230602404 36 57 10
18.054620902258165 -0.07840470991635547 1.0986714022432165 44 65 34
11.16859943219045 0.15651198268625732 1.5519140132434155 42 62 20
12.49577772551274 -0.9700482383033713 1.473741177558104 40 60 20
10.747520693788708 0.07370202089728671 1.9310994610373227 46 68 26
11.430873439745776 0.19041756857772768 2.2067296856425704 41 63 18
10.435957943536232 -0.2215651251331626 1.7430857881580755 45 66 29
13.074124409379358 -0.3109644381036124 2.541400736029722 49 71 28
11.11584391891295 -0.5274007277518324 1.9186447907882347 41 62 23
10.863727975933294 -0.6621107760351429 1.9270724910701014 39 59 19
11.478364165696474 -0.5749541783430667 2.5921824122556183 54 78 37
11.071033530480241 0.29465865899595434 2.1210544117617194 40 59 17
11.073454565210955 -0.4407443753646807 2.018045430288636 41 62 24
12.34224821459435 -0.5749541783430667 2.6345037347629168 53 77 34
11.345380229930722 -0.48769447727535875 2.2123042132280224 43 65 23
12.782494130095541 -0.5447328745722056 2.443115975692329 51 73 30
12.19797188489362 -0.8076792241434952 2.5023043644512786 55 77 35
10.884424618258429 0.3927164529880005 2.0263926166821036 39 60 14
12.42307313863078 -0.6423010246565726 2.3567278794437443 50 72 29
11.210745112879371 -0.34639605399677775 2.1134270597918055 42 63 24
12.36087964965323 -0.8040541260724157 2.361777511807414 52 74 31
14.849075316388506 0.37171224333756236 2.608568014182368 47 68 20
15.150309710614255 0.2810098118234053 2.714453337538712 49 71 26
15.20112207801276 0.21345456590519202 2.570531000314344 46 68 21
14.612758532737367 0.10495698141105601 2.6366506877821143 48 70 25
12.236500142404035 -0.8776370011369293 2.2608107604054495 49 71 28
12.274873757269221 -0.9401598671923779 2.1568662916039156 49 70 27
10.791927704548156 1.4751797546611949 1.5512548794850831 32 53 6
10.742693609774067 1.567992129039006 1.5511653089516715 31 52 10
10.343939230578197 1.1387654836596255 1.9458402489865387 28 49 2
10.097540396197179 1.7703394773983425 1.7489208593707084 0 11 0
10.91298929532171 1.2370889867520796 2.129963136901437 26 47 1
15.942958051370137 1.3143036053463188 2.6157548262454964 47 68 21
9.18018970296614 2.2956335316338 1.766941221415814 49 70 21
9.241743002305757 2.544311788321947 1.9932514453274064 55 77 26
9.85979946021886 2.372917366953538 1.7532635436179849 50 71 24
13.261129522224126 -1.56852482888187 1.554893808623495 44 65 29
10.294159764354285 -2.918732603807559 1.4528958520383612 55 76 37
9.412346759475733 2.8450688262945185 1.65473404724634 48 70 21
19.5602910294314 -2.3451562397356085 1.2476783220812264 49 61 33
19.528178400348807 -2.5407753351495543 1.1925891462072782 51 68 39
19.7654646490922 -2.6642899960908464 1.1423970109543111 47 66 37
19.73196845842821 -2.4632171332717334 1.1416216234885859 51 67 41
12.859517867344366 -2.4541553739621187 2.730694607219806 63 89 56
12.511042192672928 -1.7245213506568857 2.6107249408722213 56 81 43
11.315363250920388 2.6376460667806825 2.616181756007558 50 75 25
12.909137241183588 -1.5650697500152089 2.7219600447709373 57 82 46
13.067758012954629 -1.202419641639896 2.6955317723312997 58 82 42
12.822078675995376 -2.0138088674296446 2.570755386434304 56 81 47
12.89603427336087 -0.9524651805859135 2.724243346580963 56 80 39
11.115587370554682 2.804716541044892 2.648063233291093 49 73 28
12.991848409740639 -2.7149015218119494 2.7079106051249404 64 89 51
11.945335530625028 -2.893406983184599 2.697982531104005 61 85 45
12.637519119945281 -1.2571703112333743 2.5939176541031577 55 79 39
12.627982386752398 -1.8756903412793855 2.595157138242451 55 80 46
12.298338001945504 -0.9987575223121998 2.491406711410472 52 76 35
17.666592093008003 0.7481552571221345 2.8250964256905164 48 71 23
13.803062034553422 -2.1796745249237057 2.7559117410847627 62 89 57
11.659777549430265 -1.3549624089589503 2.1923127813133547 49 72 32
11.38470291933993 -1.064002243991299 2.3242675579741574 50 72 29
12.225660177212717 -1.7036129563661746 2.499264231355336 54 78 41
12.355058863834895 -1.2981093466431384 2.4853937403701387 52 76 36
12.558173319218788 -1.1753761194137526 2.4646670252721745 50 74 33
12.831668145424395 -1.5683395436573722 1.8705602810287305 47 68 31
12.090893582855635 -1.064002243991299 2.3846238357120506 48 72 31
12.34530393234494 -1.8357708787825668 2.4864205816230776 55 79 44
12.817412141635478 -2.071225124526706 2.4398778362718927 57 82 49
13.3388357312612 -1.9591290960599759 2.512990867940695 57 82 47
12.917692669533725 -1.66505189517165 2.2180289440159453 55 78 41
12.435737587755646 -2.171119585192973 2.3557089205087083 56 83 47
12.163520876405569 -1.2836110706630408 2.0668304933178923 48 72 31
12.917660635578303 -1.7804146977703927 2.3190990708809593 56 78 43
13.17083879766808 -1.8084705327096717 1.8626107085311525 56 76 42
13.431707153130064 -1.883963265770172 1.8567816584381696 55 75 42
13.107468051048448 -1.8811718882306523 2.3057370717917136 56 79 45
12.734489940795818 -1.9758303447728434 2.228948091193929 56 79 46
11.874790528211918 -1.254533256634687 2.179404077893507 50 73 32
9.878330761986033 3.0489362049139777 2.196962613467562 50 72 28
9.996059133094732 -2.8948364659624413 1.9595784808340557 58 79 40
11.489772935000781 3.0181702344280286 2.5905628654218407 52 74 31
10.268399840504934 -2.7930536942469133 1.9487379893857155 59 82 44
9.853946201159957 -3.1090542781587045 2.198753550790655 54 76 31
10.61323836636853 2.9265738575161264 2.26488398923643 49 72 25
8.87744350857564 2.810391685307782 1.890390109408424 49 71 23
12.754155304715777 -2.641843272094173 2.579103106150303 64 89 55
9.802303043338721 2.649035015702407 2.202583746727034 54 79 27
10.502470027607124 2.5818611782934195 2.4063184133497706 55 80 28
10.47275048903903 -3.1090542781587045 2.276100638881911 52 75 32
11.489772935000781 3.0181702344280286 2.5905628654218407 52 74 31
12.868074128042828 -2.2590256080728026 2.3226827053997336 57 84 50
12.43674818440429 -2.338355973946336 1.9660891375494987 59 84 49
12.540007180267164 -2.21604504167387 1.9626557553974304 56 81 48
19.726963792871068 -2.856865233139937 1.2505061575099032 46 65 38
19.77270238912392 -2.8956742351166396 1.0862149008313802 35 55 15
20.297719920059425 -2.788220596583087 1.0997838715677126 45 65 32
19.440218249406474 -3.0092282706067244 1.0771895493115267 30 50 8
19.47187531014417 -2.788220596583087 1.191439985033306 47 66 39
20.011961344681385 -2.8410538979474893 1.0924986538665011 40 60 21
10.848845849524558 0.6983152248891289 1.8308055079187877 32 53 4
10.257499371625688 0.6206437238223397 1.8461742816496107 35 55 7
11.10378874768384 -0.11368761718404138 1.551803787586787 55 76 39
11.324076764797779 -0.20204582904344923 1.4636621251117732 54 75 39
11.453404731022932 -1.1149446107105456 1.6397495526356065 45 67 26
10.60214562666487 -0.5274007277518324 1.7403587673638343 40 60 20
10.961841491911546 -0.24517552117215224 2.127176689189768 45 66 27
11.852426445630174 -0.7994737386976135 1.8083450429818424 38 58 16
12.343229302341133 -0.385581500265728 2.363224589789599 47 69 26
11.762668280802734 -0.9214079450613807 1.7234908404587148 43 63 22
10.725112500835209 -0.025858190627359827 1.9318867270672149 48 70 29
11.300554932382557 -0.028720243969304487 2.215270151625319 46 68 25
13.283507299056387 -0.43413586487319455 2.5187431464584407 51 73 30
10.971915442920888 -0.7350337557633336 1.7345916728898843 36 56 14
10.69710499581135 -0.3141985284089114 1.7388391465197122 41 62 24
15.608344647719498 1.285497180286949 1.1615475491845428 44 62 22
11.376716776513156 1.295824043751682 1.3752184407980073 33 54 5
16.280090539156266 1.3680574534879344 1.1793763868962301 44 64 24
9.996846054725191 1.9971288610099316 1.8535492904573383 13 34 1
10.384761777496117 2.379803782082908 2.4189388013671858 55 80 28
10.502263039630991 1.465432595283677 1.9399123635293287 24 44 6
9.488625569825288 2.044683694473548 1.9815857869226254 50 72 26
15.482142891728621 1.2782586115035246 2.6695623667662334 45 67 19
11.984952208417862 -1.2270716965496982 1.636686854811128 45 66 26
13.296515281023476 -1.6438128755091785 1.5549361332410088 47 68 35
19.19904502674397 -2.4967245416068655 1.3496713041329638 54 70 44
19.368912093929236 -2.714945355504223 1.133026809451846 48 67 38
18.35721680114716 -2.587654725937751 1.2829791888258537 52 70 39
12.279645373385142 -0.8130524566668507 2.6437577251756346 54 78 37
12.991848409740639 -2.7149015218119494 2.7079106051249404 64 89 51
13.24632445441273 -2.0848392218122607 2.6681240739753322 60 87 55
11.96958033533106 -0.6800625784383474 2.6937389612678855 55 79 38
12.345404489430054 -1.4707245894721588 2.1530782296162796 51 72 34
13.479128263835948 -1.8286911193038269 2.0986458780649366 54 76 43
12.958602018509813 -1.8049236521427414 2.4270837048738163 56 79 44
12.554508689196124 -1.4066889149773651 1.7137915951884224 50 70 31
12.302388972103195 -1.5678606139476206 2.1553822077716465 54 75 38
12.863520786534403 -1.9097705332600219 1.9522851778856833 53 76 42
13.14781840030555 -1.9159757009908034 2.410647179336803 56 79 46
11.750321700577768 -1.2191738119462407 2.295463094470259 51 73 32
11.42593762382194 -1.1168414108371838 2.2070486314795685 51 73 32
12.187165558709635 -1.566647424186539 2.503498021048767 55 79 42
12.393069005430466 -2.1124816959203425 2.2504278041979013 57 82 48
11.399543187937047 -1.4467165437851173 2.32304700786635 52 76 36
12.225660177212717 -1.7036129563661746 2.499264231355336 54 78 41
12.260244005005948 -1.3079061996607653 1.8849984547592529 48 70 30
12.614590942666647 -2.4193789247414696 2.4591205946994514 59 86 52
11.241725732326444 3.035735308303639 2.4683925785883605 51 73 30
9.310711878426966 2.949927316677367 1.764156518262315 48 70 21
12.331605518854795 -2.332523203653702 2.3641810019666045 58 85 51
11.46881507349524 -3.0981654168829773 2.593543752511035 61 85 42
9.881886535412693 2.746504154025359 1.7528511382379197 52 74 25
12.236507482956107 -2.4028117310468584 2.0636054417488463 59 85 51
20.128394691993943 -2.920720032509628 1.3089318969550485 47 67 31
19.797001236955065 -3.071622098949054 1.1431243887327285 31 51 7
16.13438307705557 1.2419441314933275 1.3067510446034183 44 64 24
12.31608141658615 -0.8563795024098106 1.4723205441762532 36 56 16
12.217746773837321 -0.7274700381818523 2.262078292985678 50 72 29
10.86233694797125 0.17182430968175832 1.927120149864335 42 64 20
11.367558175437278 -0.13857477522037848 2.2108478325038328 48 70 28
16.280090539156266 1.3680574534879344 1.1793763868962301 44 64 24
9.853730148063795 2.517382294456746 1.6509659135170534 49 71 23
17.905017148513927 0.8662257815865815 2.7866805669314942 46 68 18
10.449426268698549 2.044683694473548 2.157973887232237 50 72 25
10.180820637375406 2.20612461925632 2.175636174543959 52 73 24
10.667340222672145 1.7924646942828883 2.144439988810208 30 51 9
10.333417608419788 1.3653191755561764 1.8440989823369816 27 48 2
10.294159764354285 -2.918732603807559 1.4528958520383612 55 76 37
10.558814438477732 -2.8256192729813403 1.4558642567885889 57 78 40
18.078165329100205 -2.4632171332717334 1.448194011364344 57 72 46
11.901821993077464 2.9936672318628976 2.7057396361811583 57 81 40
11.82075634288863 -0.9169653747533527 2.5465597390127988 53 77 36
13.089899311557058 -2.136002032194187 2.5396422002091064 60 85 51
13.514621589343777 -1.7946817671992248 2.8124429861972113 63 88 53
13.183602463908262 -1.6567237643127337 2.111765772844565 54 76 39
12.785512872663597 -2.02190351017479 2.040685804503058 55 77 46
12.702346319852973 -1.4795607987396504 2.044013536479754 49 70 31
11.640130609461064 -1.1602798851682454 2.091328390063822 49 71 30
11.795315597525407 -1.1753761194137526 2.4115362456030547 51 73 30
13.147912819648655 -1.568121346608762 2.1133972873505105 54 76 38
11.220304565073342 -3.10438988858292 2.4707901666728063 58 82 39
12.26014641263755 -2.271721229046759 2.062570329719914 58 83 49
20.07143930081745 -2.9518328260732587 1.0370912048256908 33 53 13
19.571838031501652 -2.8410538979474893 1.137874282706885 43 63 31
10.486310841082707 0.6983152248891289 1.5506852807188964 32 53 5
15.92543861353394 1.3680574534879344 1.2374525337528384 44 65 23
10.986662084079095 1.7521858747372214 1.4603586554253274 26 43 17
12.950137524305541 -1.3773830248471208 2.714918968649055 57 82 45
10.424173445590785 2.649035015702407 2.2800749136794645 51 76 26
13.148613496209556 -2.3210252820424766 2.682840618712373 62 89 56
10.805576161696688 2.766959053055631 2.375814101596318 49 74 25
10.231483905870574 1.2692038945934516 1.6479999859965133 31 52 6
10.178349901131313 1.6700403887948512 1.8483721996060043 0 13 0
12.060994750734325 -1.5671497432386443 2.38725157792722 54 78 38
12.791141287005086 -2.2814881770358713 1.8715396966643385 58 83 49
13.24632445441273 -2.0848392218122607 2.6681240739753322 60 87 55
12.831668145424395 -1.5683395436573722 1.8705602810287305 47 68 31
13.527959359695567 -2.309748000707471 2.809568621056178 61 88 54
10.545014931133212 -2.984866369332137 2.270280449369304 57 79 36
11.445916078313665 -1.42983641165756 2.446326020495066 53 77 37
13.47909756416894 -1.9400022633009324 2.1869088463283726 54 78 45
12.766613939075471 -1.5675435645417184 2.330140513769425 55 77 41
12.515856020275605 -1.407687363049092 2.6100701716828265 55 79 41
10.200889373048028 0.908975521141398 1.847742682753306 29 50 2
9.567103076978851 2.375772747783709 2.0950677446284987 54 76 26
