17.30315510444035 1.7518009707561126 0.815747105543344 26 36 5
17.904719658682282 1.6727710319079239 0.7696559842779657 28 37 5
16.679905305210102 1.6652050722766158 0.9384647682073249 23 34 6
15.706039807598371 1.7270920817047684 1.1885613012097287 19 32 2
16.38829383278759 1.8101201642477125 0.9997357754249526 25 39 8
9.098033746727687 0.1584203081681286 1.8084316974829688 47 66 25
9.055232557104379 0.26770155986826044 1.586447986598115 25 41 4
8.999128008796108 0.04520205397430842 1.8110946115072188 46 66 25
8.284353842405935 1.103461126525478 1.5879045466135757 34 45 1
7.953656585661329 0.7551490692394867 1.7148409484832265 36 46 17
7.9563724272810035 0.9337906156480456 1.5886098630169454 41 53 8
9.465283791978562 0.39579833409049686 2.425715151115737 15 32 0
8.986176934833937 0.9656704888965724 2.323293060558563 31 42 4
8.04306827306369 1.0425775617199273 1.9720932696705735 34 46 6
9.262919848773107 0.23873725875343263 2.4512083614928457 43 62 22
9.06079815109929 0.5347531031371214 2.3156098557762816 14 28 1
8.167678868038214 0.4671049462582691 1.9656283895894553 6 19 0
8.325928281075424 0.654160533385627 2.091451810194487 1 8 0
8.47037273079126 1.483865029733871 1.4692952600707025 32 45 3
8.442982733917173 1.6027536400901108 1.468964838010803 42 56 14
8.026074544731308 1.868430350606296 1.840914907060288 73 87 46
8.039143820695475 1.6070715766000798 1.972300419585175 78 92 50
7.891191266901253 1.3407773045593474 1.8456508089094448 31 43 1
8.980259066966855 1.4360052318505285 2.490247848254011 63 80 34
9.034089635122145 1.3063573367917045 2.318338974804969 63 78 34
7.723866308025101 1.766594613223721 2.13675368971092 63 80 35
9.152144476688871 1.91166326231793 2.3064465220050003 64 82 36
7.813314341825199 1.3063573367917045 2.1294975691134566 38 51 6
8.238208028235732 1.4568845096941176 2.244815550950793 69 83 38
8.210043529919862 1.6127378534602086 2.2475588968092532 67 81 37
10.010079965360198 0.6223764732208036 2.520688032005164 40 57 30
11.556197598144848 0.4721459387199013 2.8729575279407484 72 95 57
11.556197598144848 0.4721459387199013 2.8729575279407484 72 95 57
10.441354865400465 0.7381915859900419 2.6373288260675056 86 101 63
11.361445602301675 0.6781311136765519 2.9446057521980853 66 87 48
10.834150875090746 1.0991338859988322 2.782137051341339 61 83 42
10.026900314431142 1.9688165666884416 2.5183465810539807 65 83 37
17.347337050814897 2.5902461103659418 2.9874743514831676 74 101 60
8.086267452479245 1.9869550358104384 1.588323682939064 73 88 46
8.995809616125548 2.3461986401554524 1.4752425208766524 75 92 46
8.348746734865635 2.4309405533630017 1.7079801026977914 70 90 44
9.492340397769189 2.503069337902322 1.2649356929224345 64 84 36
7.689899311552736 2.1593473014145736 1.589227212720741 71 87 43
8.537066687128178 2.5977473806420086 1.4700909170795942 64 84 39
7.9495349656855625 2.530107293607417 1.843581802110646 66 86 44
8.55793136217863 2.2599011576414125 1.8237470165822547 73 91 45
8.226524694780938 2.9226219461158918 2.2459505479571535 66 90 47
9.02822412275534 2.7046209868414794 2.047387469785264 69 90 48
8.78951277544069 2.645220643758015 2.1956565573730384 67 89 48
8.244518637495467 2.645220643758015 2.0971233631962765 68 89 48
8.303128102074025 2.7046209868414794 1.8316876121142482 66 87 45
8.78951277544069 2.645220643758015 2.1956565573730384 67 89 48
7.838887036563477 2.0432732096225092 1.9831719675932589 65 80 37
8.014066224783523 2.446334058499757 2.113913088966073 68 88 44
9.52848497383533 2.1154841221472784 2.4181224815389615 65 85 39
8.588473357474365 2.2401348809668717 2.2126450243831077 67 86 42
8.603206994668517 2.344323993699599 2.0730661373860526 68 88 43
9.096651524454636 2.7766381045937547 2.311982136970086 66 89 47
8.701661776511667 2.8232925677310723 2.0668621511500227 68 90 48
8.832612552538063 2.0432732096225092 2.1921414743948033 66 84 38
8.305714491763743 2.1593473014145736 1.9587127691356776 71 89 43
9.611200124753505 2.8887229219635326 1.481377609229571 67 88 48
10.043984951717821 2.7904756725341033 1.3847103669267917 65 86 46
9.790370592368554 2.6530338510039164 1.2745336818121566 65 84 38
9.129342279903998 2.751985686707992 1.3658139939476006 65 85 42
8.939339181108004 2.751985686707992 1.5866509182340665 66 87 47
9.61434326914946 2.9922067135805848 1.795444493275646 67 90 47
9.352312429639966 2.974456577162983 2.029577414424399 67 90 47
9.163635395074952 2.8596555742241114 1.9207420930455117 67 88 48
17.614106822066336 2.5092118600598714 2.9094754648743284 71 98 56
17.826763654288325 2.630272097172451 2.863469361407603 66 92 50
8.795372891900648 -0.4265924723287295 2.343802573839611 44 69 30
9.296878223957924 -0.27303903545339947 2.44679791615556 47 72 34
8.687061263266317 -0.4916722638450019 2.067771989250565 50 75 37
9.294560865473947 -0.6510758174074879 2.4470971245028768 61 86 48
8.479866343814402 0.05860458780071333 2.222252363274418 45 66 27
8.492244701553235 -0.08963982566277566 2.2211414015715594 44 67 27
8.321955691400877 -0.36923699158860757 2.0917255668762182 46 71 31
9.100115323013558 -1.2634127303165479 1.6965903737199668 56 77 30
9.119691906606992 -0.9491707257934 2.042216158603592 58 81 38
9.306006654324005 -0.6943307442147011 1.915164163505984 45 69 30
8.737775234519201 -1.1146339971297343 1.8184303694723045 58 79 34
8.211094717058096 -1.056535167299255 1.9634260352929895 61 82 37
9.003618311184217 -0.856078500894798 1.8109724100555522 47 70 29
9.280931622999594 -0.8897851819666067 2.448862090601085 65 91 51
9.08032784798646 -1.2259611639971466 2.0444272343621934 63 85 40
9.023411237588531 -0.7742326566844092 2.0476628645924384 45 71 30
9.810177457541528 -1.7605175615920026 2.386183769713202 72 97 56
9.731538341997355 -1.6114053079463198 2.394803996692663 69 94 52
9.18400265367759 -1.314398994889359 2.3033111303264358 68 91 48
9.035058904316145 -1.3722143913933544 1.8101202735189819 62 83 36
9.164563446420681 -1.6019739336938934 1.9207051348350601 73 97 52
9.15310124445413 -1.828542397419087 1.8069747426096527 75 99 54
8.951875225916355 -1.8606670603413884 2.051795806614719 76 101 59
8.75210413635965 -1.7360555897161167 2.0637455631488315 77 103 59
9.184009518321362 -1.606070327391346 2.165008432483645 70 96 52
9.357683374267614 -1.955349466869014 2.439037402412417 75 104 64
9.15310124445413 -1.828542397419087 1.8069747426096527 75 99 54
11.487640168963086 -0.21797632910673598 2.895566596595308 70 95 57
10.199472668066347 -0.9223700788024332 2.6821363829076725 68 95 59
9.425070901548372 0.0832785387486604 2.6136332399357327 51 75 35
10.21187605672133 -0.609448515979613 2.6796875625124073 67 93 53
10.625088999535578 -0.5312352473384165 2.838798962868885 69 96 59
9.74453089189573 -1.0354052241031135 2.5598698071386736 69 95 57
10.41293712142464 -0.7474788605619888 2.9128584134283595 68 97 62
11.389148640717984 -0.7474788605619888 2.932768584250472 67 96 63
10.613168535213507 -0.9841415864542973 2.842415218177807 69 97 62
12.270940481551845 0.22424780551421503 2.9963422029653843 70 97 60
10.837880925670973 -1.9091027737080544 2.781222292132931 73 102 65
10.766750657107806 -1.6451026465174263 2.7991831975817894 69 98 61
10.314373590068397 -1.8395631718443746 2.660109686801295 71 99 61
10.262203275228854 -1.413237730473814 2.669931852061828 67 94 55
10.23960738059859 -1.629008246333707 2.674276780378208 69 98 58
10.23960738059859 -1.629008246333707 2.674276780378208 69 98 58
10.035074110932328 -1.2711569921134602 2.51721433521048 69 94 53
10.484419192410792 -2.0284937136133907 2.6299352392269943 74 103 65
10.035074110932328 -1.2711569921134602 2.51721433521048 69 94 53
9.911581894863986 -1.4409998052993218 2.534719609283155 69 95 54
10.141483392416985 -1.955349466869014 2.502796117722688 73 102 60
9.755468145661395 -1.7020893542095836 1.6880993797305186 66 90 45
9.760916029518706 -1.3924290484129664 1.5853163382831588 61 83 36
8.11700655512507 3.0786679936520653 2.256800984687133 67 93 52
8.012643599466276 -2.7974470269027933 1.8413790581402747 79 107 63
8.500750556344142 -2.682380086834434 2.3781961713898507 75 104 64
8.51817263978696 -2.924254880596076 2.0785574775523354 79 107 65
8.85849010177739 -2.541494849916191 2.336875305127462 75 104 64
8.872775375515504 -2.6196708873990744 2.188904492983053 77 106 65
8.515635971684766 -2.7477232438726595 2.2190533863867836 75 103 62
8.76181214038043 -2.7974470269027933 2.0631504652412174 83 111 68
8.11700655512507 3.0786679936520653 2.256800984687133 67 93 52
8.391218285455968 -2.6811577689885997 1.8288859671228623 78 104 59
8.387441699297373 -3.0585408086157226 2.0872513079901043 72 99 57
9.154206861759056 -2.7477232438726595 2.306242617437108 75 103 62
9.160026115786916 -2.5768522810152446 1.9208859029562249 76 103 61
8.453562943810354 -2.0302991431682047 2.0828152169410896 76 104 62
8.309192428306043 -2.3252415394343613 1.9585417405288812 74 102 59
8.812081619051881 -2.5079897773905078 2.060092925223052 75 103 61
8.683287769028832 -2.4232769419568774 2.2045084453249446 75 104 64
9.648988619525666 -2.098706090491032 2.404093533138709 74 103 64
9.269633719200163 -2.08223982453701 1.916571853987185 73 99 54
8.721973979276546 -2.221631699637458 2.2012530670226607 76 104 63
8.888164585090383 -2.1445161192540483 2.0555403397402743 76 103 61
9.25254415508883 -2.3252415394343613 2.16001205675867 74 103 63
8.976604149527246 -2.4120031499127492 1.9283569867356671 74 102 60
8.677325324757899 -2.4120031499127492 1.8201920359426664 73 101 59
9.289180571503334 -3.0764047031100277 1.5860537685574403 64 89 45
10.442635564996683 3.1031481966260555 1.391892607574656 65 89 44
9.694972752918158 -2.8675937937350158 1.6888347435618496 66 90 46
9.472168767433624 -3.0764047031100277 1.3733328054789546 65 89 45
9.27786553189322 3.0990050472677764 1.5860723775768553 66 90 46
9.472168767433624 -3.0764047031100277 1.3733328054789546 65 89 45
9.060846856888539 -2.7304385270100213 1.4759304625632448 70 96 50
9.092075686840543 -2.7304385270100213 1.696702197917231 73 99 53
9.4073887212179 -2.9701190192695446 1.5858620372121377 65 91 47
9.981767829932643 -2.7706379470149156 1.4847056161138346 65 91 43
8.562653033642885 -3.068547200630282 1.8236044824901099 69 94 53
9.256124169634985 3.0938617814684344 2.0347168233435573 66 90 48
9.520802663596292 3.0990050472677764 1.7976901035378776 66 90 44
9.465330416404631 -2.63343162736982 1.585769806068813 72 98 52
10.35614321003627 -2.307251869512464 2.6524464970997346 75 105 67
17.669569211219063 3.049324417433986 2.896549497964807 67 96 55
9.485054291945584 -2.307251869512464 2.6028880316610508 74 105 67
9.908397538616327 -2.1880276178030225 2.535182663496737 73 103 65
10.745221684492279 -2.1880276178030225 2.5882470675569498 75 104 65
17.713508400469678 -2.8941122524617864 0.9805808930125298 49 65 17
17.416894273357244 -3.0295739601928955 0.969128698753304 38 56 10
17.35333164747339 -3.0992135239880767 0.9666116541753954 40 58 10
17.724796095910968 -3.0368552197361374 1.0474660416313841 37 55 7
17.54628215980386 -2.9097272953141613 1.1064259844031081 42 58 10
17.943758433383252 -2.8294018125413225 0.9891519754885578 13 30 1
16.785588587757875 1.738550009109467 0.9430700956628598 23 37 7
9.010793071689157 -0.0691827229286633 1.8107774126955958 52 73 34
9.010793071689157 -0.0691827229286633 1.8107774126955958 52 73 34
8.584756627118411 0.20433219537898542 2.2129686560977233 44 63 21
8.039143820695475 1.6070715766000798 1.972300419585175 78 92 50
8.13416108867519 1.7406619298154686 1.9673461278384743 75 89 48
8.711531873274739 0.4137524456746517 1.8191920691133086 20 33 1
8.25860231631998 0.34181180722399546 2.096132859486201 18 35 1
8.47037273079126 1.483865029733871 1.4692952600707025 32 45 3
8.894594211414534 0.5168892874008452 1.5867306827621876 27 39 13
8.648386266992533 1.1671030212859643 2.2074771162004163 40 54 11
8.238208028235732 1.4568845096941176 2.244815550950793 69 83 38
11.527027340644132 0.9447798148334847 2.8823089961925845 61 82 42
11.670433397973955 1.358538018564104 2.839435037886959 62 83 42
11.77549457347141 1.0991338859988322 2.812014099588885 62 82 42
11.361445602301675 0.6781311136765519 2.9446057521980853 66 87 48
7.494311356380781 2.0432732096225092 1.8606165088629052 68 84 39
7.772901561672079 2.1593473014145736 1.7182148289557126 70 86 40
9.373830698587932 2.9922067135805848 1.585915976090239 69 92 50
8.329936818661086 2.2599011576414125 1.4675779832635918 73 89 44
8.453734186247983 2.7766381045937547 2.224611538828132 67 90 48
8.481096894559506 2.9519768403328217 2.0809915729787667 68 91 48
9.092382567752576 2.503069337902322 1.4762604775324895 67 87 40
8.846946737387968 2.4309405533630017 1.9338382629446977 71 91 44
9.474287666720265 2.751985686707992 1.9088009310353007 68 89 47
9.449787921899514 2.0432732096225092 2.2782918521092803 65 82 37
9.22200205365798 2.2401348809668717 2.29961105425593 65 85 41
8.573721754339887 2.446334058499757 2.2139316265894218 67 87 45
8.674987535424746 2.3415839461396466 2.3574311442535247 67 87 46
9.640646366780175 2.8887229219635326 1.689503039594502 67 89 49
8.615415459806707 2.7046209868414794 1.9440672300876893 68 89 46
9.341977539002903 -1.3469184783420585 2.1536266634746095 65 89 44
9.147410576433362 -0.5999684964491077 2.0406721005787505 43 68 30
9.267295942145621 -1.7360555897161167 2.1589484354861894 76 101 57
9.189803040151556 -1.4859771131954862 1.919703058903675 66 88 41
9.113853816430874 -0.9834198657552308 2.3102559452597653 63 89 47
8.472241977283616 -0.9834198657552308 2.222938738325718 67 90 47
9.300154715354054 -1.9016064029148334 2.292133536887393 75 103 61
9.248025000515591 -1.717141182698572 1.9174137298939924 75 99 54
9.755311130613586 -1.4604779067220564 2.3921749860129586 68 93 50
8.26088778309061 -1.1786491976008313 2.0959724948748146 64 88 44
8.752089729542478 -1.1173183265816 2.3486383915294406 70 95 53
10.484419192410792 -2.0284937136133907 2.6299352392269943 74 103 65
10.23960738059859 -1.629008246333707 2.674276780378208 69 98 58
10.625088999535578 -0.5312352473384165 2.838798962868885 69 96 59
10.92500677351555 -0.40619829563816795 2.760620612952664 69 95 57
11.445360637212515 -1.673454194232903 2.910735978515642 71 100 64
9.770477065400751 -0.5032727454740114 2.555844050956784 65 90 51
9.436209427588844 -0.127181937783567 2.611612656753113 50 74 34
9.425070901548372 0.0832785387486604 2.6136332399357327 51 75 35
9.965587897960571 -1.7933393469115155 2.526957296081116 72 99 58
9.978275700406547 -1.1230041540585352 2.7291955039716806 69 96 61
10.837880925670973 -1.9091027737080544 2.781222292132931 73 102 65
9.70029237949205 -1.4947718608045897 1.688769709388411 64 86 39
9.676384422619993 -1.5987297578384068 1.6890625574071885 67 89 44
9.154206861759056 -2.7477232438726595 2.306242617437108 75 103 62
9.2491192708717 -2.682380086834434 2.4530167928932407 75 104 65
9.578950576598304 -2.541494849916191 2.412177521272473 74 104 66
8.700344336852169 -2.6811577689885997 1.940247152075955 78 105 62
8.079345137793664 -2.924254880596076 1.9701887967251774 78 105 63
9.2491192708717 -2.682380086834434 2.4530167928932407 75 104 65
8.921290063985916 -2.8909240044314286 2.3301247048854754 72 100 59
7.941393517103115 -3.0585408086157226 1.977532236459293 73 99 57
8.374908441112037 3.0873069699939784 2.088101336066355 68 92 49
9.450714557001447 -1.9337864486965697 1.7994026082879424 70 94 49
8.468531302772039 -2.1445161192540483 1.9508690638380592 74 100 58
9.346458011503724 -2.221631699637458 2.2877850207202566 74 103 64
8.736482477304207 -2.3252415394343613 2.0647063443516895 75 103 62
9.02121904343376 -2.7304385270100213 1.5865070043056768 68 94 46
9.27786553189322 3.0990050472677764 1.5860723775768553 66 90 46
9.475358031110105 -2.9701190192695446 1.6915838030809425 67 91 48
9.092075686840543 -2.7304385270100213 1.696702197917231 73 99 53
9.628553858924013 -2.8675937937350158 1.5855159568490256 64 90 46
9.520802663596292 3.0990050472677764 1.7976901035378776 66 90 44
9.531829321869177 -3.0764047031100277 1.797423036490489 67 91 48
17.675513089360756 -3.0007803640535413 2.8952083523315415 72 101 61
17.93740280410606 3.066765139404269 2.842625949682742 61 91 50
9.874360646029022 -2.4402451115159867 2.540170419402515 74 105 68
17.66527519053862 -3.104418392328914 1.1720808456650589 41 59 11
17.416894273357244 -3.0295739601928955 0.969128698753304 38 56 10
17.537339963386895 -2.9610069579331357 0.9738365623267156 48 64 16
17.368417624220935 -2.972602909105731 1.1012897560472652 47 63 15
17.778698053950798 -2.848662459937862 1.1129634999668512 14 31 0
18.063559764223015 -2.7897645374293827 1.1207194471095128 15 32 0
17.662341571250337 -3.1019861362436547 1.0454245771390887 39 57 9
8.303105323303463 1.766594613223721 2.238587427782746 64 80 35
7.813314341825199 1.3063573367917045 2.1294975691134566 38 51 6
8.956841255459164 1.766594613223721 2.3263639790180766 65 81 35
8.663172988029912 0.8400440338777317 1.7029713144696834 41 54 12
7.707626092354164 1.0425775617199273 1.8523731539956942 31 43 0
8.691217027913284 1.7207495136384903 1.3553219751019092 50 64 21
8.06790494013997 1.472181122555152 1.9707873731596846 50 62 17
7.81885064008508 1.868430350606296 1.7173422195045775 72 86 45
9.233378723409668 1.9688165666884416 2.4550909253699036 64 83 37
9.178502602923267 0.8668420791978357 2.4624196398841414 24 37 9
9.215110072445182 0.6223764732208036 2.4575137101906024 6 18 4
8.704136987772387 2.530107293607417 2.0667082540793524 68 88 45
8.363895141268545 2.2599011576414125 1.7077300738942027 75 92 46
8.295831892087447 1.9869550358104384 1.3448782454758184 75 90 47
8.603206994668517 2.344323993699599 2.0730661373860526 68 88 43
17.50619450369687 2.7381943511686333 2.9371804066223945 75 103 62
17.720146422870155 2.8257224184865386 2.8853847436131166 67 95 53
9.480639319138131 -1.1173183265816 2.423855019781193 68 93 53
8.621386601537 -0.23406295029699395 2.209794680477561 44 68 28
8.672337082003747 -1.9016064029148334 2.205436624526831 75 103 62
8.479866343814402 0.05860458780071333 2.222252363274418 45 66 27
8.368515639756703 -0.7718411708188554 2.232437906572216 52 78 39
9.810177457541528 -1.7605175615920026 2.386183769713202 72 97 56
9.624946677076542 -2.0284937136133907 2.579043061806905 74 103 65
9.654483528098027 -0.7681461463942935 2.574209298654654 68 93 55
10.381525553377331 -1.2111241101907182 2.6478728736781108 68 96 58
11.291705801085394 -0.33614661928662465 2.9784239287800274 68 95 61
10.788242510513012 -1.3705698905970327 2.793637435704704 67 95 59
11.478492487668905 0.14359140654611255 2.8987605473216638 72 96 57
10.314373590068397 -1.8395631718443746 2.660109686801295 71 99 61
11.141499296523522 -1.629008246333707 2.714721464070187 69 97 60
10.625088999535578 -0.5312352473384165 2.838798962868885 69 96 59
9.755468145661395 -1.7020893542095836 1.6880993797305186 66 90 45
8.11700655512507 3.0786679936520653 2.256800984687133 67 93 52
8.129937409232994 -3.045367526498128 2.255499609618119 69 98 56
8.934177864477 -2.098706090491032 2.3287563831769535 74 103 64
8.278652477818223 -2.098706090491032 2.2409190718781824 76 104 64
8.374908441112037 3.0873069699939784 2.088101336066355 68 92 49
8.333228401929789 -2.6196708873990744 2.0909495409703966 77 105 62
8.67981473941975 -2.5768522810152446 1.7027164144122335 76 102 58
8.736482477304207 -2.3252415394343613 2.0647063443516895 75 103 62
8.76181214038043 -2.7974470269027933 2.0631504652412174 83 111 68
9.990123460389135 -2.54586049449683 1.584983177190487 67 95 51
8.853776936508018 -1.97669494409314 1.933545223032286 75 101 57
17.778698053950798 -2.848662459937862 1.1129634999668512 14 31 0
17.246792278775946 -3.0368552197361374 1.0977086677392445 38 56 10
16.171048647081037 1.8286135098873308 0.9152088295114396 27 38 5
7.94951910438214 1.91166326231793 2.118821990994114 65 81 36
8.733174708221476 2.1593473014145736 2.064910287421613 68 86 40
17.456231434432592 2.329056389838601 2.951480586944987 70 95 55
8.285393058038958 0.8508083595032183 2.094259519228724 21 30 16
8.78951277544069 2.645220643758015 2.1956565573730384 67 89 48
9.552782888744801 2.8596555742241114 2.019238201965956 68 89 48
10.262203275228854 -1.413237730473814 2.669931852061828 67 94 55
10.21187605672133 -0.609448515979613 2.6796875625124073 67 93 53
8.78460259098659 3.0786679936520653 2.3449993000857803 67 91 51
8.26474253320385 -2.8909240044314286 2.2422535146193074 72 100 59
9.249284878992055 -2.484689048278748 1.6945510991207373 70 98 56
9.323959980955358 -2.5079897773905078 2.1549010738363634 76 105 64
10.42843509512161 -2.986537887553405 1.488401580733737 65 90 45
8.129937409232994 -3.045367526498128 2.255499609618119 69 98 56
17.454997360737966 3.0213337615323477 2.951848334716103 73 102 63
17.30315510444035 1.7518009707561126 0.815747105543344 26 36 5
9.191228401369576 2.751985686707992 1.8059765122604716 68 89 48
8.775091956701582 2.5691618430229823 2.3460596721375664 67 88 47
8.570204323802535 2.5977473806420086 1.7044136819484428 65 85 41
8.954457019606114 2.974456577162983 1.9292812248985869 66 89 46
8.885896455589926 2.9226219461158918 2.333912197392959 65 89 47
9.209195816461177 -1.4748884263995614 2.1631616795590776 67 91 48
8.862188995686362 -0.36923699158860757 2.1897541468367887 48 73 33
8.795372891900648 -0.4265924723287295 2.343802573839611 44 69 30
10.82139561748644 -0.7616827808522267 2.785286941028299 69 96 60
9.888184813467378 -1.6186401704430187 2.538136134274067 71 98 57
8.515635971684766 -2.7477232438726595 2.2190533863867836 75 103 62
8.335820578544915 -2.7974470269027933 1.9572374148838176 79 107 63
10.031935238348936 -2.221631699637458 2.3629947396481077 73 102 63
8.783290414115852 -2.3182710535949016 2.345145397096255 74 104 65
9.50944991912384 -2.3182710535949016 2.420391747535034 73 103 66
8.929680884486253 -2.8363761163643475 1.813000705778452 69 95 53
9.503106472416778 -2.63343162736982 1.480357744374433 70 96 50
9.164563446420681 -1.6019739336938934 1.9207051348350601 73 97 52
9.014031599274611 -2.244089627069799 1.9268061139457608 72 98 54
9.01083970895708 2.751985686707992 1.697843403724084 65 86 42
8.502071741879064 -0.5614516960463303 2.2202623906769396 45 70 31
10.999836644501318 -2.132425726156141 2.7439813502914725 75 105 67
17.66527519053862 -3.104418392328914 1.1720808456650589 41 59 11
10.54749145991216 -2.023901666486846 2.8633130139892904 74 103 67
