15.755413668221964 1.4517513897939358 0.9091988630650343 42 36 17
14.355294000495483 1.3872934102316077 1.2387303546668305 48 38 20
15.880359523347451 1.3727983394463628 0.9153108750643266 36 30 10
13.91984721026398 1.4605982098401291 1.3032613199762788 47 38 20
14.999418402189375 1.6844907242994933 1.1092468804699442 46 47 24
14.923721861063779 1.828978140906522 1.1803649202922217 47 50 25
14.149777017279522 1.6100186343770513 1.233717482449108 38 34 14
15.296964508314172 1.7449588884845308 1.259882587014649 49 51 24
15.164098453340378 1.6766252644858752 1.2570658062530944 48 51 25
15.592442919632813 1.8976561420990845 1.1280765845340537 45 48 23
14.581597705819009 1.6844907242994933 1.1706891977831986 48 50 26
15.098608599445551 1.6131926087938957 0.9583475635508045 38 35 14
15.911364412520719 1.9632827352644089 1.1375582467537755 43 47 22
16.439325692843713 2.056997437212114 1.0145656752451824 39 44 20
14.722541676867632 0.0925224756003048 1.7290524919853096 47 56 24
7.771368118661828 1.9018177288986362 1.6120130474675352 47 50 19
7.8154016771661015 1.3421186310900854 2.1564962727066916 46 51 17
7.352870398162693 1.0694545448851551 1.7513269488548742 20 24 0
7.31027113895523 1.3421186310900854 2.04225416354677 45 48 19
7.605631901562742 1.3723882300370946 1.7452645675845089 28 30 3
7.596390086257164 1.0694545448851551 1.8811937954926534 36 41 9
7.6833906335689255 1.3012138918816074 2.33564971751062 45 49 14
7.065793538682106 0.7703018235155509 2.05997433483407 41 46 14
7.300739645004908 1.0525990644944252 2.3872522136523955 44 50 17
7.181024098293926 0.7658754852185448 2.4051640471149054 42 49 15
7.06253683769832 0.6414880198782775 2.229015855806229 43 50 16
7.181024098293926 0.7658754852185448 2.4051640471149054 42 49 15
7.584266302869518 0.593091197739255 2.5559065629821083 43 50 16
7.59137860926033 1.9494435773814318 2.0234651871870044 46 50 15
7.8244633792689475 1.806527107615178 2.1557282314301336 46 49 15
7.618125176495183 2.077847422092833 1.8802787604014377 45 49 15
7.319958191349998 1.806527107615178 2.0415796210465205 46 49 18
7.319958191349998 1.806527107615178 2.0415796210465205 46 49 18
7.718844369756691 1.6419824639405272 1.8761091857219887 47 48 20
7.850337551376242 1.7753800336728986 1.870834495097536 44 46 16
7.692527926988466 1.6531575994454506 2.167129681986846 47 50 16
6.5317806705099395 2.505130213364885 2.1040264641127058 43 50 14
7.210396622746473 2.153790110128582 2.04932847066187 45 51 15
7.320042174857963 2.012041731975691 2.2020911758704416 45 51 15
7.067093299927328 2.2523843273990973 2.2285174001387222 45 51 14
6.408567018037212 2.376536587952945 1.7782905840356547 43 50 15
8.292732565956193 1.668481524708957 2.4374078433504316 47 51 14
8.415263197101666 1.8485741895355607 2.4204358059787796 47 51 14
6.4134540673399005 0.06259193071992925 2.1149521378935447 43 50 16
6.437947778183755 -0.35448094020868104 2.3064277088641285 47 53 17
6.983842913674032 -0.14568061672384702 2.4368676097862316 45 50 19
7.332254095117243 -0.8106824477241499 2.3826895918290862 50 52 26
6.437852287528332 -0.11935853728311588 2.112660539431298 45 50 17
7.332254095117243 -0.8106824477241499 2.3826895918290862 50 52 26
6.764667072131209 -0.5356335411270801 2.263532196542291 48 53 26
8.314884914911822 -1.1870715674431815 2.6474493376851926 52 57 28
7.289450022439334 -0.8205268442494992 2.6200197332829886 50 55 26
7.710358657792508 -0.9755346344112273 2.5316921474536067 52 55 26
7.243047863938722 -0.186724066902868 2.631278643632754 46 51 18
7.221370601011432 0.09841179971430326 2.636667193031452 43 50 16
7.491511221612234 -1.0820491526821168 2.3605308735885164 52 54 28
6.931478753592471 -2.17486196922988 2.4457981604441317 59 66 32
5.347098698173965 -2.7905154992563186 2.0196368855543865 49 59 22
6.6976862977249665 -2.4617668055237147 2.0894673138868214 55 62 28
6.208498428813338 -2.610555164896216 2.135051097477412 56 63 27
5.7362891742108655 -2.610555164896216 1.987207523795472 52 60 24
6.835093815248625 -2.06741847666123 2.2550107136023487 54 59 28
7.913611972404928 -1.8338970226809446 2.3080903251825298 54 59 28
7.232683143041422 -1.8870020230965758 2.3973192996128887 57 62 31
7.867966918589648 -1.6827687760019496 2.503586664958272 56 61 30
6.464524904619356 2.5973146289662066 1.6203515112695324 41 48 15
6.143620308499532 2.7403836021492696 1.7873783667863443 42 49 15
6.143620308499532 2.7403836021492696 1.7873783667863443 42 49 15
5.717054967504956 -3.0232453954647642 1.8038261636642818 44 54 17
14.130339063716411 -2.1439514956156542 1.3799934316856186 36 41 9
13.725318722571973 -2.1201069800904047 1.1441525811242346 44 48 19
13.554058204206811 -2.185533903331731 1.295856320756439 36 39 5
15.176941195715491 1.2471154172215515 1.1872219505112578 42 32 14
13.91984721026398 1.4605982098401291 1.3032613199762788 47 38 20
14.719722582996242 1.757719638467819 1.1746544163794375 48 50 25
14.61696487495552 1.6936128631954899 1.0176089934121189 41 40 21
7.7561560134925465 1.2455400164922352 1.612093931532529 20 21 0
7.2632604733640065 2.077847422092833 1.614898208199672 45 49 16
7.689456719526685 1.49583654819078 2.1674008100559727 47 50 16
7.575805096424961 1.1985952785766456 2.0244652176979745 43 49 16
8.078952186982185 1.9494435773814318 2.1350081835303882 46 50 15
7.043658058687552 0.8958028740803216 2.2310900414565427 45 50 19
7.718844369756691 1.6419824639405272 1.8761091857219887 47 48 20
7.178756623335865 1.6531575994454506 2.051616178856355 46 49 19
8.292732565956193 1.668481524708957 2.4374078433504316 47 51 14
7.337209575512829 0.3687156569366315 2.608801749481403 41 50 18
5.597970032019949 2.663650698469855 1.9981623648759568 43 50 15
7.1811097066446115 0.7577776406954714 2.646905761643904 44 51 17
7.210311362120667 1.9494435773814318 1.8984177471066286 48 50 17
5.777826600619773 2.505130213364885 1.8013305228064076 42 49 14
6.647779748607866 0.48224248429938255 2.2782150523680853 43 49 15
6.961358548496114 0.07652507150270145 2.4406742214758066 43 50 16
8.196618352360414 -1.4412527663161023 2.67493723156202 55 60 28
9.100823680561033 -1.4412527663161023 2.724392676965074 56 61 30
7.710358657792508 -0.9755346344112273 2.5316921474536067 52 55 26
7.243047863938722 -0.186724066902868 2.631278643632754 46 51 18
8.314884914911822 -1.1870715674431815 2.6474493376851926 52 57 28
7.401033127980333 -0.4447370652958478 2.594353844466064 47 53 17
8.150845930680882 -1.1581573274518526 2.281965438234445 52 55 26
6.667248287495997 -2.3376525289764887 2.275720940070304 58 65 33
6.857473951523675 2.7403836021492696 2.076216722478315 44 51 16
5.717054967504956 -3.0232453954647642 1.8038261636642818 44 54 17
5.9159332741020805 -2.850187629048934 1.7958548124498428 48 58 21
15.592442919632813 1.8976561420990845 1.1280765845340537 45 48 23
15.133730328969149 1.757719638467819 1.1136563096414671 45 46 23
16.06873324096732 1.9915711444916917 1.0001621975461192 40 42 20
7.375323176264268 2.077847422092833 1.750771336114186 44 49 16
7.187428649743252 0.9939893229977176 2.0509868787623495 48 54 20
7.566689343214136 0.9332637457957447 2.5594178219856465 44 51 17
7.081452099574271 0.2915206736863929 2.420809897236288 41 50 19
7.193912955312255 1.1985952785766456 1.8991925759017732 40 43 16
7.876204776804777 1.9018177288986362 1.7392126527680745 45 48 17
7.095816353703935 2.376536587952945 2.057723350469024 44 50 14
7.683470644611201 1.4615497105059687 2.536718270156462 45 51 15
7.375406529333024 2.2733182077617595 1.8908196607223053 43 49 13
7.809512141009749 1.2431233081275512 2.5137517165626466 44 49 16
8.795664000188458 -1.745015286463462 1.6072109062782969 51 53 26
6.983842913674032 -0.14568061672384702 2.4368676097862316 45 50 19
6.835093815248625 -2.06741847666123 2.2550107136023487 54 59 28
6.139874489561808 2.9030445066053128 1.958316524756823 45 52 15
14.227846474509349 -2.185533903331731 1.1601503416489138 43 46 12
13.74920410677895 -2.245434327744079 1.4483174198341198 18 20 1
14.148107589805372 1.5351095193467703 1.2336761298459868 36 31 11
15.332222113444093 1.828978140906522 1.1200144676766253 44 45 21
15.097044093902216 1.532221073393578 0.9582747544048031 39 35 14
7.476153950266959 1.506013792030589 1.7483180091480068 41 42 13
7.566689343214136 0.9332637457957447 2.5594178219856465 44 51 17
7.303890135508776 1.1368043679160955 2.2037089090445923 45 50 15
7.951317921710099 2.012041731975691 2.303792210680566 45 51 15
7.867966918589648 -1.6827687760019496 2.503586664958272 56 61 30
6.8882799822022704 -0.6525501094831134 2.453341772845145 48 53 24
7.216250383608601 -0.6849639125708491 2.2126475627641886 50 52 28
5.689566635458101 3.079534666766581 1.8049730021001797 44 52 17
14.542089083975744 0.0925224756003048 1.5928183009071784 46 55 22
7.06253683769832 0.6414880198782775 2.229015855806229 43 50 16
6.1377012191352485 -2.6932730464115315 1.6229925911165763 50 60 23
6.478085828567798 -3.0232453954647642 2.108926086190046 46 56 19
7.1754655173769155 1.49583654819078 2.0518554558225315 45 48 18
7.507259600790352 -2.06741847666123 2.358417099439327 56 61 32
6.437852287528332 -0.11935853728311588 2.112660539431298 45 50 17
7.5552453893992135 1.481875665306137 2.352057750319159 47 50 15
7.8154016771661015 1.3421186310900854 2.1564962727066916 46 51 17
7.979741252394008 2.077847422092833 1.999927722189541 45 49 15
