11.29738352028867 0.29164546476932335 1.289454867275366 57 75 32
12.006138804387067 0.26730610698543783 1.3918795267374295 58 75 38
11.643310564999075 0.4577162298388401 1.4730173537748188 63 78 36
10.07345458324234 0.32069396194353395 1.7568432575259456 63 79 33
11.613444497152516 0.377404817700933 1.2973113884791796 61 77 31
10.704737993360215 0.355897740135623 2.1504489983302415 9 23 0
9.817480032394604 1.881225184637849 2.089063746599142 48 64 19
10.560695529244075 0.3993222217670096 2.278242485234263 18 32 1
10.941041234738762 0.572398859335284 2.3727292891962595 36 51 5
11.63339525708886 0.9480585498382813 2.437019095795309 58 73 23
10.297709656765203 0.5083715947370008 2.176551617941367 11 25 0
11.164374494576933 0.6522725291784317 2.48798465020635 51 66 14
10.716970086724771 0.7531980112071787 2.544614439162658 51 67 15
12.398555094490217 1.2463473573658164 2.4906674339413755 60 76 30
11.865382163091217 1.1259034365963771 2.414321972630482 61 77 30
10.68741865063278 0.6751875307493678 2.2681468039588717 31 45 16
10.82394530514634 0.7593192223262073 2.3839769407340126 44 59 15
11.366259243331307 0.45398843279426493 2.4651332363855256 45 60 6
12.127060579399549 0.6174401985688059 2.681009645957398 55 70 16
12.852065090858158 1.400683048347643 2.4456534952845277 64 82 37
13.850709900338318 1.4938279719244432 2.761724611451224 61 79 31
14.79118113262886 1.688419414199058 2.7855134083514344 65 83 35
13.937809896555379 1.8745535530285349 2.7463674155802176 70 91 52
13.849480406337094 1.6555706384006708 2.599422959298068 57 73 27
15.19253423613226 1.4449180268346016 2.93304187519336 64 84 45
14.335402449755957 1.8272654379262463 2.6844400319270365 59 75 29
14.25073273299594 1.506365096666792 2.696670733682852 57 73 27
14.335402449755957 1.8272654379262463 2.6844400319270365 59 75 29
15.199450203893706 1.7623224113061284 2.9309026176800868 63 83 44
10.498797177354085 2.4639294217886856 1.9476314572063917 40 53 10
9.851171548906402 2.237661950625503 1.9737866275051608 41 57 11
9.77558568433124 2.144867689311481 2.0915093815980654 49 65 19
10.906485535750305 2.4639294217886856 2.0329902101697166 54 69 27
11.367745361192801 2.237661950625503 2.2190005074342882 69 83 36
11.432895542393489 2.3122583156006913 2.3292257987977125 66 82 38
11.670328460229447 2.401334326895355 2.4333046137288377 65 80 41
12.029674183258678 2.3032386986622617 2.5320634976005474 70 89 50
12.029674183258678 2.3032386986622617 2.5320634976005474 70 89 50
10.745600091537444 2.3942475334221682 2.1479615113220425 78 93 50
10.097249885983164 2.7522117394514676 2.190368678325367 69 86 47
10.814498934930365 2.4821255216192952 2.2583423557088667 78 92 54
10.4496733893428 2.645049652469091 2.166513967505293 75 91 50
10.097249885983164 2.7522117394514676 2.190368678325367 69 86 47
11.48583122748767 2.7002229564754243 2.4522687087832944 61 81 42
11.796844394594808 2.583818461761591 2.420873940146116 76 93 57
16.658235691828782 -0.5008245279680669 1.7435416814697673 65 85 43
9.882238487125123 -0.22024127222383733 2.0853307658721443 26 45 1
10.330622583441473 -0.19743748652835308 1.9540822022206465 61 79 34
10.158946812018215 0.012837034196239668 1.960905778620484 66 84 40
10.047883017183599 0.2219987702824961 1.8597711520336901 65 83 38
10.196223891493508 -0.0933309928583583 1.9594029705154319 64 81 38
10.120149150702524 -0.33041859735812257 2.0720898799601626 22 40 0
10.300921227666274 0.1327023546365239 2.176335692618699 5 19 0
10.277477354423194 -0.1043722474953507 2.177915757263036 10 26 0
16.178352916624345 -0.5853856110506912 1.6862275274180571 58 76 31
9.051003803428706 -0.19748518485937305 2.623532136709236 54 71 19
10.794967280165892 0.016308343265772438 2.3868190772128965 58 73 37
11.440607722388195 0.3745234641704667 2.610263685027836 54 69 17
11.00062525258252 0.27927197974172446 2.3671467980157863 38 51 16
9.478224029599383 -0.11836259544033079 2.237771101072469 56 72 24
9.567255961153608 -0.28584075862155583 2.3708282748031215 50 66 15
9.202143835309732 -0.40409567598430335 2.595406940712985 52 70 18
10.322460960233323 -0.665369888866496 2.84222226500776 59 79 32
9.14136113343985 -0.4230728164390287 2.2671284503871063 49 65 16
9.918422608292255 -0.7034194014315102 2.676152672409342 53 71 22
9.918422608292255 -0.7034194014315102 2.676152672409342 53 71 22
10.373242029303519 -2.516629221258374 2.826748682577129 72 93 54
10.373242029303519 -2.516629221258374 2.826748682577129 72 93 54
14.917803093376062 2.0659060630446104 3.056118104896488 65 86 46
10.282624254575103 -1.4344978522912082 2.855040953086571 66 87 43
9.423135731054186 -1.119670368406092 2.7951710474149567 59 80 34
9.327683366756384 -1.4344978522912082 2.8247344470771774 60 82 38
10.019731945530898 -2.1621525767770366 2.6564078194738 61 82 43
9.613902693808997 -2.0611928629408753 2.528571665290362 63 80 42
9.456535145583231 -2.0793356567572574 2.7855158206864816 61 83 45
8.7890820749833 -1.7255263815366173 2.6784919001734324 55 77 34
9.67658240001316 -2.3062231114567755 2.72868497505695 60 81 43
9.405276271953065 -1.9878884579268794 2.3887279745520247 63 80 42
9.405276271953065 -1.9878884579268794 2.3887279745520247 63 80 42
10.571972114949306 -1.7717547253676293 2.277330751130825 69 90 53
13.271671639719566 -1.7703721792735192 1.7116617002007315 58 66 58
14.40911982040878 -1.7563328397728932 1.770845335546345 38 42 39
14.262276957565492 -1.6859308023918 1.7729333850332867 58 63 60
10.109240425982364 2.89997069114415 2.072681296105669 69 86 50
9.947639082031678 3.0120951557486095 2.0816179200306775 64 81 46
10.668380391751251 -2.661038689163232 2.7506225461166056 73 94 56
11.21241390453326 -2.8643822227082327 2.4824109464330535 70 90 54
10.538290130142299 -2.9023350831072032 2.781751622197135 70 91 54
10.92088590049581 -2.952903958934511 2.6978779894633442 70 90 53
11.903198260166691 -3.0092328213423913 2.547451508882295 76 96 59
10.974650320844118 -3.0264721395327285 2.36956903107226 73 89 54
10.940025975689268 3.1257349644747734 2.372825217024109 71 87 52
11.92344607019042 2.973534594726875 2.5449425089333273 55 75 40
10.561155061590501 2.840220403883539 2.776040343027524 62 82 44
10.486010477396368 2.8309315487847746 2.418690371162542 57 78 40
10.502227266204375 3.108149880250784 2.7909923922297084 65 86 50
11.541212886352016 2.7799004643244136 2.59561339208091 58 78 40
11.054440869373487 3.1233346361197 2.5010811638480726 66 87 51
9.800639282648769 2.6098757519264435 2.700682663252838 64 84 46
11.09962751541023 -2.899323983265355 2.358071792927215 68 86 48
10.561155061590501 2.840220403883539 2.776040343027524 62 82 44
11.110440208129779 2.973534594726875 2.494349164256358 58 78 43
10.942951440061874 2.9028908483832234 2.6936545698544965 62 82 45
9.480428981569004 -2.319562318838589 2.548880974039645 64 84 45
9.931632040637705 -2.2071174877914244 2.4844603976150488 64 81 43
10.665379614074048 -2.7304967219370027 2.3998276669808893 65 86 49
11.311963237957409 -2.7796578651096344 2.3394040913816347 64 82 36
10.413500333352111 3.127577532880511 2.168870542722422 72 87 50
12.775763740793167 -1.9712144020496345 1.9613164144305617 65 74 60
12.740304601986358 -1.8654378996697225 1.7974794749160081 61 70 54
13.058543231769322 -1.9406146268897744 1.7918621737174785 58 64 56
13.402267477065877 -1.8437233532401407 1.6352585900894085 55 63 55
12.37691570686453 -2.0069839186641536 2.064320100600437 59 71 47
12.630777673578256 0.4223357994082924 1.7188606936356023 59 77 29
10.259743504784764 0.41333370480266907 1.557476134530478 67 84 38
12.49332523785153 0.4223357994082924 1.5598576505363142 59 77 32
9.362490566946075 1.881225184637849 1.9961472337811499 27 43 2
8.52933123608787 1.881225184637849 1.554773550966751 56 74 32
9.446369100076902 1.7449980485351644 1.7693533054981405 66 84 41
11.236323893147095 0.3993222217670096 2.345934091802497 26 40 3
11.667421469267339 0.524412978229711 2.578062459572785 52 67 13
11.865382163091217 1.1259034365963771 2.414321972630482 61 77 30
12.782244211571319 1.5222046347395273 2.452218153756919 64 82 36
14.25073273299594 1.506365096666792 2.696670733682852 57 73 27
14.335402449755957 1.8272654379262463 2.6844400319270365 59 75 29
14.258105533761332 1.669338008727701 2.695587468517501 57 73 27
9.334866631636219 1.9886025994187415 1.8825584406802347 25 41 2
9.798701556156535 2.3942475334221682 1.9760706091897626 61 74 29
10.73283343166471 2.604808144513712 1.9390165087295634 50 65 23
10.3652284429369 2.793696006087685 2.0591784767979826 78 94 56
11.267446369328296 2.5076607317045383 2.4761324786059937 73 90 54
11.345005068804577 2.318653818867034 2.1139302759066494 68 82 37
12.069881203060861 2.5076607317045383 2.527308688511032 72 91 53
11.322305679390661 2.3942475334221682 2.22204358190194 75 91 47
11.475193758012216 2.4821255216192952 2.325739135011491 71 86 48
10.234933302530429 -0.29739500378336337 1.8543422102274891 52 71 30
10.377217242465298 0.2219987702824961 1.9522723317014294 68 85 40
10.644077884053084 0.2012432381559983 1.6519956322881044 57 75 32
10.457064445748514 0.2474305293006687 2.1660349276364816 10 24 0
17.787736074210468 -0.5008245279680669 1.966921926854267 66 86 44
9.675552993014662 -0.5055964412793402 2.7289278965217543 54 73 21
10.852305619719905 0.15039379365562316 2.381218264635746 53 68 32
11.00443978774758 0.4495623428836703 2.682163361276659 58 73 21
10.986783506500448 0.17347339562102787 2.509389669976792 54 70 15
9.622656185862775 -0.24887760972970088 2.226007623733789 48 65 13
9.622125390020468 -0.8769989879696796 2.7418003112956866 53 72 25
9.457178885998553 -0.5799980198132435 2.5525412567215757 52 69 17
15.026046313541444 1.8487500545602342 2.9942988583166765 64 84 45
11.205893692730335 -2.816037837413179 2.893697975137687 70 91 53
9.327683366756384 -1.4344978522912082 2.8247344470771774 60 82 38
10.769251802416884 -1.8901041383078243 2.26179762511104 61 80 48
9.338943568469471 -1.7779292027545892 2.821077783925642 60 83 42
9.613902693808997 -2.0611928629408753 2.528571665290362 63 80 42
9.392387077917641 -1.888600301452367 2.562946483086549 63 78 40
9.80738692393131 -1.9630990318042623 2.6992269151732153 59 81 41
13.112096633564866 -1.6947821447688263 1.7133876823374559 64 73 62
9.313612234234958 2.89997069114415 1.8832939769585373 73 89 55
10.668380391751251 -2.661038689163232 2.7506225461166056 73 94 56
10.305275467564924 2.9952955759670647 2.299633662762682 62 80 43
10.942951440061874 2.9028908483832234 2.6936545698544965 62 82 45
10.244875976723362 3.1257349644747734 2.304909841370195 64 81 45
11.92344607019042 2.973534594726875 2.5449425089333273 55 75 40
10.210911826726923 2.710047925087058 2.622010095318924 64 84 47
10.561155061590501 2.840220403883539 2.776040343027524 62 82 44
10.668380391751251 -2.661038689163232 2.7506225461166056 73 94 56
11.378749440788374 -2.9859699534343838 2.6195878543262427 75 95 58
12.018523625507557 -2.8643822227082327 2.533393548462401 76 96 59
10.538290130142299 -2.9023350831072032 2.781751622197135 70 91 54
10.561155061590501 2.840220403883539 2.776040343027524 62 82 44
12.714323893746762 3.1233346361197 2.5952252677649748 67 88 53
9.903975144312867 -2.44151991387613 2.4880884202187206 64 84 45
11.181484615831351 -2.5361758085069543 2.4859893464160345 64 84 47
11.422653233054866 -2.7304967219370027 2.459006978144073 70 91 54
11.16625435833937 -2.926564789917701 2.232738963667896 75 90 53
10.413500333352111 3.127577532880511 2.168870542722422 72 87 50
12.094761866430414 -1.8907781219254014 1.895916605386764 59 71 53
13.058543231769322 -1.9406146268897744 1.7918621737174785 58 64 56
10.854074263401165 0.29164546476932335 1.558205540858607 56 74 26
12.304006976353717 0.34698771771869236 1.396256029733101 61 77 31
9.600662695974334 1.7659379561101753 2.101990343005942 66 83 39
15.199450203893706 1.7623224113061284 2.9309026176800868 63 83 44
11.557687156609926 0.7531980112071787 2.5932719070184618 53 68 15
11.164374494576933 0.6522725291784317 2.48798465020635 51 66 14
13.937809896555379 1.8745535530285349 2.7463674155802176 70 91 52
14.468159199763127 1.4752515727409052 2.8514276944507944 72 88 38
13.84188995552708 1.515393641714963 2.600333979960932 60 76 28
10.378352858598449 2.5490028444721347 2.0585067022532737 75 90 49
9.851171548906402 2.237661950625503 1.9737866275051608 41 57 11
10.73301609129598 2.7002229564754243 2.3929761070100413 59 79 41
11.766087436869142 2.633585593592478 2.5649276496784985 62 82 43
11.56469321610562 2.144867689311481 2.31848241348995 66 80 35
11.796844394594808 2.583818461761591 2.420873940146116 76 93 57
15.582049546444845 -0.5317259957916388 1.4977848658595536 67 87 48
9.741655721712254 -0.1043722474953507 2.0935080471672327 22 38 3
10.771400956797612 0.2012432381559983 1.7446607371492813 59 77 37
10.240496055105613 0.01436598086291519 2.1804264880945228 4 20 0
9.531922387671177 -0.2534615866733624 2.7648253084016603 57 75 24
9.675552993014662 -0.5055964412793402 2.7289278965217543 54 73 21
11.133311749100638 0.3201980337856913 2.4916361676426537 52 67 13
8.929869910072755 -0.33521661057677726 2.4474189082799205 53 69 18
9.192462016612893 -0.49026148365126754 2.4137738644216324 52 68 17
9.918422608292255 -0.7034194014315102 2.676152672409342 53 71 22
9.338943568469471 -1.7779292027545892 2.821077783925642 60 83 42
9.147040160072542 -2.1621525767770366 2.605399606963648 63 83 44
10.571972114949306 -1.7717547253676293 2.277330751130825 69 90 53
10.769251802416884 -1.8901041383078243 2.26179762511104 61 80 48
13.459950121897721 -1.6177434528904975 1.861916043748177 60 67 63
10.502227266204375 3.108149880250784 2.7909923922297084 65 86 50
10.665379614074048 -2.7304967219370027 2.3998276669808893 65 86 49
10.665379614074048 -2.7304967219370027 2.3998276669808893 65 86 49
11.088707961278574 -3.0092328213423913 2.4969464955522573 71 91 55
10.713506191668097 2.6098757519264435 2.7405272797648017 63 82 44
13.402267477065877 -1.8437233532401407 1.6352585900894085 55 63 55
10.321610931131858 0.41333370480266907 1.4604484571979528 60 76 30
15.19253423613226 1.4449180268346016 2.93304187519336 64 84 45
10.708836508146911 2.695002118396146 2.0422062979189444 62 77 35
10.219854158126086 0.11871751991049734 1.9584564797282584 68 85 40
15.019050497022068 1.3866828504350894 2.9974722595104932 63 83 44
10.36928982988626 -1.119670368406092 2.827921108643293 61 82 36
10.550449354960623 -0.8769989879696796 2.778700674533357 57 76 29
9.313612234234958 2.89997069114415 1.8832939769585373 73 89 55
11.110440208129779 2.973534594726875 2.494349164256358 58 78 43
10.461353695690988 2.869659373968894 2.2863910395806166 66 84 45
11.311963237957409 -2.7796578651096344 2.3394040913816347 64 82 36
10.191404757744499 0.355897740135623 2.0682625299665998 13 28 2
14.258105533761332 1.669338008727701 2.695587468517501 57 73 27
11.714418255679616 2.215826296681065 2.4289217985521296 60 74 31
16.98863574953451 -0.5317259957916388 1.9866774262036861 60 78 32
9.948653996269158 -1.8373055828167764 2.4822458987754894 61 81 42
9.866827929348474 -0.3713134151842895 2.2071265963192443 48 65 15
10.24596011752639 0.572398859335284 2.3048143661365064 15 30 0
11.139778567085862 0.8615161954810543 2.4908728505851574 53 68 16
9.99975391653207 -0.19743748652835308 1.8612023543079554 56 75 32
12.05859796463467 2.8309315487847746 2.5286365817774907 56 77 39
10.449869401517537 -3.0397520173036296 2.16650125252383 76 91 53
9.780213723610759 0.45629799281678096 1.8679176561095898 14 30 0
14.475421258612267 1.7166002580578923 2.8497522378027904 72 88 38
9.137951311193284 3.0120951557486095 1.889510971450042 71 87 54
