14.971138907079686 1.9974318059155087 1.5179274236756495 24 17 5
15.246130285133672 1.8498697965300503 1.6501693357241307 35 33 13
10.6976497347381 2.32757587111598 1.778773369211462 37 42 9
9.674678835921114 0.6704652016407635 2.2675926010449263 22 27 0
9.042956231504087 0.8616808572078553 2.1846392543222892 23 30 0
9.817853157329584 0.7638263037517719 2.395372933551401 22 28 0
9.926868634442151 -0.05715829759685391 2.3835700669028856 48 51 16
9.305284510483057 0.48724444831914976 2.1649099705545103 32 35 3
11.948784641366611 0.39951743684232444 2.7878286826226386 49 52 17
10.638155243964086 1.3368653591980117 2.3153477753995646 27 34 3
10.064858664259546 1.5924597448308453 2.114757487667358 36 41 9
10.095953241576872 1.4766004621654822 2.112895725274095 40 47 13
10.616925256248775 1.5924597448308453 2.1954394557640864 35 42 8
9.98762359269851 1.3368653591980117 2.2416507611161527 38 45 13
11.397581078233664 1.7484101376175871 2.5114887034446856 44 50 14
13.075598752898674 1.3961465217799764 2.7754445752920023 48 53 20
12.25481345048299 1.1960262059212203 2.7254367540174105 45 51 15
12.219761716177722 1.7484101376175871 2.559726741028303 48 54 18
13.075598752898674 1.3961465217799764 2.7754445752920023 48 53 20
11.709069804371534 1.7792266871810387 2.6298170945161776 48 54 18
12.66494032448066 1.258152684084705 2.657356276586068 45 51 15
11.223242714801597 1.4643107614770483 2.3911926472277156 38 45 11
12.163448044232723 1.5990112818354796 2.566802669890273 42 49 15
12.357877317942657 0.32455117535583367 2.986140274194952 54 59 28
12.543684615371502 0.21355549444615918 2.9100231914125563 52 57 26
12.534901795123496 -0.1376967951822333 2.913013620567489 56 61 29
11.914704863722866 1.1052932726608309 2.7956569620479 48 53 20
12.357877317942657 0.32455117535583367 2.986140274194952 54 59 28
12.543684615371502 0.21355549444615918 2.9100231914125563 52 57 26
12.107315305806132 0.9087930955842798 2.7539227934463932 44 47 15
11.914704863722866 1.1052932726608309 2.7956569620479 48 53 20
11.847650534924211 0.747928340488762 2.8117182005929107 52 55 22
16.478616665489 1.772163442911653 1.829071680379828 42 45 18
15.770150746490287 1.8498697965300503 1.840958581091091 40 39 17
16.024571206328915 1.7193538685848118 1.9686697874080465 46 49 19
15.290712476404943 1.9974318059155087 1.7822248892619 28 23 7
17.097483105363786 1.9119159587061423 2.0060416627389577 38 36 15
17.27334774813611 1.8498697965300503 2.066024898634576 44 43 19
9.844991626420518 2.3169825257716288 2.2532021249967857 46 53 16
11.066734614437209 2.3979500758230246 2.06085461773251 43 50 16
10.445070940446923 2.3231060968906534 2.092884049030168 45 52 16
11.070765231277386 2.2360992443223924 2.27991076809876 46 53 19
10.672490135963283 2.2533758553965755 1.9761735218657324 39 44 13
10.458302456322599 2.0233721065520927 1.9849792536718722 38 44 8
10.125657392328645 2.1690204306389225 1.9994679495645304 41 46 14
10.580484846738942 2.1690204306389225 2.0855360838876735 44 49 16
10.297941351665788 1.8194904153174782 2.101123678269511 37 40 9
11.174414415254745 2.5712203986208717 2.271979316072143 43 50 13
10.50011210939508 2.4787669455911123 2.089870761361892 43 50 14
11.41102686871031 2.0233721065520927 2.146125054265706 40 45 12
10.504360146603066 2.3169825257716288 2.3271490792518077 47 54 18
10.838141817101347 1.8194904153174782 2.1808010780649902 40 45 12
11.28755932197762 2.073738636574244 2.26354596893679 43 48 15
10.947941898475475 2.32757587111598 1.8682657962352436 40 46 10
10.708070755105052 1.8505812653416818 2.309347827626952 44 50 14
11.405283918499737 1.8505812653416818 2.3742268350078977 44 50 14
11.852232859637004 1.942436273993767 2.6087075298001428 49 56 19
11.265529344584383 2.501179952768482 2.3871752770974264 47 52 19
10.78824341491151 2.2118924550100063 2.4355077112448584 47 54 18
11.775018920822921 2.0199983655049225 2.468773047518825 50 56 20
11.010601646617006 2.0199983655049225 2.4121433721101124 43 52 18
11.214245585628818 2.3169825257716288 2.3920535584517406 49 55 18
10.800336883974296 2.6760707081360295 2.3015973295703045 44 51 14
11.697091031033677 3.0568968787994115 2.4771780525195366 54 57 26
11.100836445797999 -3.0786570097530173 2.5491238521439166 55 59 26
11.697091031033677 3.0568968787994115 2.4771780525195366 54 57 26
11.218054111835563 2.79321031009701 2.3916888650749994 46 51 19
11.95267971954939 3.0432885387051125 2.5946267166337607 55 58 29
11.218054111835563 2.79321031009701 2.3916888650749994 46 51 19
11.02834880385787 2.9211848809240486 2.410344997259347 50 53 22
11.216065449444917 2.8329501332116713 2.2688480817938705 51 51 21
12.800036885793281 -3.1067551240475395 2.0772348138132752 50 52 25
11.683854248153452 -3.099178944345484 2.235712800250349 51 54 26
11.026325927058139 2.9473915582073102 2.2833738696646884 49 52 21
11.693276307716795 3.0752744649085106 2.235081224538248 50 53 24
11.683854248153452 -3.099178944345484 2.235712800250349 51 54 26
11.457328438755672 3.081768466694315 2.0427546279327977 48 51 22
11.391027621614883 2.864762880522565 2.1472640694971337 46 51 20
10.601056654927344 2.8329501332116713 2.1965190459170865 50 53 20
11.553814766995227 2.984825359054686 2.038496606465178 48 51 20
11.204251405599383 2.9680847019795213 2.158140510019892 49 52 21
12.325995783600858 -3.099178944345484 2.2996024833772997 53 54 27
12.327805398658144 -3.0940054388328027 2.4143332425842248 54 58 25
12.334927351787021 3.0752744649085106 2.2989562261633756 50 53 23
17.90209237818594 2.5841047235825365 2.8623937432552005 52 57 24
11.895767073505832 -2.847357696967769 1.7575648794781622 50 54 20
10.016110031791477 -0.20122840526048943 2.3742047869639338 50 53 18
10.483516597510922 -0.2811015367695312 2.6433283037166713 45 48 16
11.156822557271227 -0.559817663303265 2.726386086052814 50 53 22
13.53093972609162 -1.1369516438668137 2.1326652054183155 133 133 123
14.436305244919957 -0.9648428955535585 2.356277923128865 46 46 26
13.76049433986587 -1.0164372843280545 2.209995322431085 33 33 16
14.08914659716397 -1.1369516438668137 2.192766119577221 102 103 91
15.061066424624126 -0.9934674923154669 2.516013186003421 48 47 30
13.632180302517803 -0.8259596452084426 2.312471066073581 54 56 33
13.632180302517803 -0.8259596452084426 2.312471066073581 54 56 33
12.065289649772003 -1.3875738172348724 2.7625441596253957 64 65 41
12.096174208555496 -1.8347818701583725 2.75618467381267 61 63 40
12.31461401943644 -1.0412797529855986 3.010444462220238 55 60 31
11.738461357836167 -1.335285585520275 2.840062981240372 62 64 40
11.711728443096124 -1.6257736757119061 2.8474909149098537 63 65 41
11.849825609434049 -1.0795731221669647 2.8111825169648124 60 62 36
11.545836467165952 -1.6053944909528945 2.655580891267178 63 64 43
12.4671351051949 -1.2427239352675352 2.937689131466709 58 60 34
12.4671351051949 -1.2427239352675352 2.937689131466709 58 60 34
11.52206370042963 -2.0316345663383504 2.9078966189396787 61 65 43
11.603388629642485 -0.9216835466438005 2.8800758598758365 58 60 34
12.4671351051949 -1.2427239352675352 2.937689131466709 58 60 34
13.283092579981782 -1.7042229895635965 3.035822712973513 58 64 37
13.836486085323624 -1.170953771153896 2.036141226819758 143 143 135
14.548432877642645 -1.247717068964905 2.170313190395357 138 137 134
10.46480210036396 -2.524464481345182 2.3307217634037234 57 58 31
9.906511743513358 -2.439195627017275 2.38574316726815 57 59 33
10.388393244763627 -2.3369733837768707 2.337734921111705 56 58 32
10.289514095330828 -2.4249057127488753 2.2185747400609146 57 57 31
10.462670266712182 -2.593237124114482 2.206109811620328 55 56 29
10.384097766689843 -2.4980956312438902 2.096265600905061 55 55 29
10.8235883920977 -2.6403312457062325 2.4316868001576775 56 59 30
11.56053306164116 -2.1986863812219393 2.6531798893743828 60 62 38
10.668719299708703 -2.460962570563262 2.6123003421722446 59 62 35
11.219010000254736 -2.3252885030657384 2.713986209802344 61 63 38
11.912631920598175 -2.1436669317942556 2.7961400771256577 61 63 39
11.180711474670996 -2.9206020961005525 2.5385930341645326 55 59 28
10.891961894540131 -1.9561883260973518 2.5782468321627228 59 61 40
10.687759480080267 -2.1986863812219393 2.6092627621330635 59 61 35
10.8235883920977 -2.6403312457062325 2.4316868001576775 56 59 30
10.8235883920977 -2.6403312457062325 2.4316868001576775 56 59 30
11.289798677467509 -2.622887257219719 2.7004288982649434 61 68 38
11.6675215873883 -2.311796940336127 2.860270142461587 62 68 41
10.324253969283953 -2.104728786951255 2.4899762254937245 57 60 34
10.668719299708703 -2.460962570563262 2.6123003421722446 59 62 35
10.958396146441013 -2.498100760892506 2.76959126523465 61 66 41
11.180711474670996 -2.9206020961005525 2.5385930341645326 55 59 28
11.348482205269663 -2.7729515860387184 2.5174456399672978 55 60 30
10.553214031662085 -2.7729515860387184 2.462040298846734 54 58 27
10.146538194897083 -2.03339412668644 2.360969184558269 55 57 34
10.516564788678455 -2.2677927568287215 1.9825450719358653 53 54 29
9.739764348321152 -2.2526210792426204 2.135071617737191 55 56 31
10.503587264164526 -2.150808706036554 2.3272185092721873 56 57 33
11.259511113446562 -1.858473935292433 2.3877441399907493 53 54 32
12.826549225114661 -2.9479430639035304 1.823655636811182 51 54 23
10.819465693918277 -2.7490095250149653 2.1820080450665698 55 57 26
11.09126791724173 -2.7880896160054416 2.0596749963933134 52 56 22
11.547018118996212 -2.7346952541080882 1.8523986414154603 51 55 21
11.017179372700872 -2.6958149144862076 1.9627850937468003 53 56 24
11.688010643559796 -2.911150110090834 2.032706010856192 51 57 20
10.996321262138629 -2.973421489848093 2.2857338521622803 54 57 23
11.759769954194512 -2.9914375132060496 2.230661550795272 53 57 23
11.452422477962822 -2.6110003816169707 1.94712479814038 54 54 28
11.099666414067897 -2.559348407368288 2.0592725436639743 54 56 28
11.525183448452546 -3.005988408678165 2.039751734870297 51 53 24
12.032673835463411 -3.0179814440249935 1.928139002434596 51 53 24
10.666999228383501 -2.559348407368288 1.9763944381067613 54 55 29
12.826549225114661 -2.9479430639035304 1.823655636811182 51 54 23
11.837083363265519 -2.857559371727168 2.33711379171635 54 56 25
11.6413056798616 -2.533847631034186 1.850056358709156 53 54 26
14.999014771163488 1.9974318059155087 1.6514798635761414 28 22 8
8.530179754712945 0.6704652016407635 2.0868001725143697 22 29 0
9.357645021759142 0.23205928642580267 2.2962925543462824 47 50 17
9.357645021759142 0.23205928642580267 2.2962925543462824 47 50 17
8.351818717532762 0.48724444831914976 1.965149449984978 24 29 0
10.066456721515168 -0.06696316373234248 2.524331509091752 46 49 15
10.077391112914858 0.10456876867978544 2.52280445447034 45 48 13
9.64166971995833 1.2166825320695989 2.1415241986908566 46 54 23
9.64166971995833 1.2166825320695989 2.1415241986908566 46 54 23
10.132842049836478 1.707742809469326 2.110704532002388 33 38 5
13.051604913657908 1.6112403696662911 2.7802694160071093 53 56 23
11.256437855119836 1.7254686737298794 2.388035002172392 44 50 14
11.650748099289755 0.9635875895292036 2.865295723456186 48 51 19
12.7327974187019 1.6224255566765171 2.853724936234503 53 56 23
11.668185912179002 0.519801514669462 2.86007319461049 55 56 25
15.834843493286158 1.7855391535108727 1.9059870860935042 45 46 22
10.899257416593846 2.0233721065520927 2.0690698659083036 36 43 9
10.504360146603066 2.3169825257716288 2.3271490792518077 47 54 18
10.559092264415497 2.501179952768482 2.3222695708190924 46 52 16
10.956089054573715 1.9673402564818496 2.2889262453517016 43 50 16
10.632727451652752 2.3979500758230246 1.97777893205302 41 48 14
10.447206365378621 2.2360992443223924 2.2072015761792523 46 53 18
10.639019444039302 2.1353806362362495 2.3152729275743225 44 53 19
10.406582926191671 2.405018851135764 2.210089330916397 45 52 16
10.555600606207213 1.9252585620243106 2.0868699533355732 34 40 13
10.50011210939508 2.4787669455911123 2.089870761361892 43 50 14
12.72372373656045 1.942436273993767 2.648645178929614 49 55 19
11.54460750785075 1.8902546396254598 2.494228819414232 46 52 16
11.95267971954939 3.0432885387051125 2.5946267166337607 55 58 29
11.110752922861467 3.0432885387051125 2.5477992562703737 54 57 27
11.68767204672389 -3.0873959071089128 2.4782076971968845 54 57 25
11.9434623020969 -3.0786570097530173 2.595895415140822 55 61 27
12.485413816430249 -3.103338358321033 2.18631566158159 50 52 25
11.553814766995227 2.984825359054686 2.038496606465178 48 51 20
11.216065449444917 2.8329501332116713 2.2688480817938705 51 51 21
11.95849072195832 -3.1067551240475395 1.9304561772796502 48 51 22
10.915096976970915 -3.0940054388328027 2.292212426884377 53 57 24
11.026325927058139 2.9473915582073102 2.2833738696646884 49 52 21
12.462860978746185 -3.028033882465524 1.7489730594332926 50 53 23
12.706874532207623 -2.870286595763266 1.6660748253449327 52 55 23
9.564272451569451 -0.3900329769150823 2.4245129332591016 48 51 18
9.364591194727497 -0.2346734376817279 2.4493238589805806 47 50 17
14.805328066786295 -1.049923640636136 2.4296327952904653 43 42 27
13.571969537196296 -0.8887184025822594 2.220360422049594 55 57 35
11.849825609434049 -1.0795731221669647 2.8111825169648124 60 62 36
12.4671351051949 -1.2427239352675352 2.937689131466709 58 60 34
11.52206370042963 -2.0316345663383504 2.9078966189396787 61 65 43
12.441967923387237 -1.648698692944357 2.9477146833282757 60 65 40
12.039282470658678 -1.613267259179013 2.7680050207581455 63 65 41
11.63983592374137 -0.4588439087147196 2.8686214851632275 58 61 31
12.096174208555496 -1.8347818701583725 2.75618467381267 61 63 40
10.667691448608347 -1.2796829916935033 1.9763665742577174 141 139 131
11.063109494225788 -1.593028293349614 2.280504653607824 74 73 61
13.283092579981782 -1.7042229895635965 3.035822712973513 58 64 37
14.008539439571166 -1.247717068964905 2.1113429442030145 142 142 136
14.215317059916053 -1.0988594400513556 2.0228041551145033 132 133 124
10.998349657562306 -2.950552556170735 2.4133904125386394 54 57 26
11.09930986914911 -2.562699225259514 2.5493282070224264 58 61 34
11.542932619626159 -2.460962570563262 2.6560573141230615 61 63 37
11.6675215873883 -2.311796940336127 2.860270142461587 62 68 41
11.69754941229833 -2.7098088520751022 2.6315732124934597 59 64 34
10.552671157037633 -1.858473935292433 2.322838258084192 54 56 32
10.516564788678455 -2.2677927568287215 1.9825450719358653 53 54 29
9.839633919561692 -2.340029489741678 2.0127936416477485 54 54 28
11.41992001704026 -1.9004972276205554 2.50881130623314 58 58 38
11.259511113446562 -1.858473935292433 2.3877441399907493 53 54 32
11.342583775040229 -2.887085361446887 2.1500432771897797 51 57 20
10.650016676987146 -2.649383441088657 2.0818472471090486 54 55 26
11.166862611478868 -2.857559371727168 2.2725504363369162 54 57 25
11.676335181272195 -2.973421489848093 2.350451211778166 55 57 24
15.752673071122672 1.9119159587061423 1.3926707667533207 31 28 9
9.389887108073719 0.64350720987986 2.4460811698518325 21 26 0
9.399805870012433 0.2701936217576154 2.444817863438887 40 43 10
10.681395506776584 1.707742809469326 2.1910948197590785 41 46 15
11.292029575653778 1.707742809469326 2.2632174480543044 40 45 14
10.064858664259546 1.5924597448308453 2.114757487667358 36 41 9
11.195279590557842 1.595305326463659 2.3938755222382406 42 49 14
12.560804970147023 1.426803909857999 2.6733616469934542 45 52 16
12.121331150371503 1.6112403696662911 2.75110079851112 50 55 22
11.914704863722866 1.1052932726608309 2.7956569620479 48 53 20
12.447384967206528 0.7260809256910241 2.945510561860463 47 50 19
12.348962348667362 -0.21176496489497731 2.9908165893964695 55 60 29
12.107315305806132 0.9087930955842798 2.7539227934463932 44 47 15
13.247941796595732 0.6435372102568322 3.0647629049071625 53 58 27
16.700485219685905 1.9119159587061423 1.9517191243066578 30 27 8
15.721927239098255 2.0566154938864454 1.7763416092088722 19 13 2
10.672490135963283 2.2533758553965755 1.9761735218657324 39 44 13
11.106951947196182 2.1690204306389225 2.1639837339398684 43 48 15
11.010601646617006 2.0199983655049225 2.4121433721101124 43 52 18
11.969229717125637 2.79321031009701 2.448663060656776 51 53 21
10.601056654927344 2.8329501332116713 2.1965190459170865 50 53 20
11.391027621614883 2.864762880522565 2.1472640694971337 46 51 20
10.353016031681015 2.726262600440325 2.0980072928029805 44 51 12
12.49423142430237 3.081768466694315 2.185816678127368 49 52 23
12.336735656716584 3.067201834923972 2.413520265421665 53 55 26
14.630273128218542 -0.9042316665922532 2.4436121284178336 53 52 32
12.420813595424683 -0.6539302661259452 2.9565896061959136 58 61 32
11.085359311957182 -2.593237124114482 2.2787817549261873 54 57 27
10.728720883297937 -2.700843437843717 2.307596857076629 54 57 26
11.5348568681921 -2.879768679244123 2.6573858035047784 59 64 33
11.135885325717402 -2.104728786951255 2.544464271161074 57 60 38
11.325758985334467 -2.0329154746481026 2.693752058413706 60 63 40
11.895552449028415 -2.498100760892506 2.800152035130697 63 69 40
10.207036240467005 -2.3324925909713867 2.5051843235436797 59 61 35
10.656298460986381 -2.439195627017275 2.4501540495007075 58 60 34
10.675360794731453 -2.2311956437428124 2.4479996516817883 58 60 34
11.168860034644691 -2.820549633262251 2.396429846486917 53 57 26
9.844166975964322 -2.150808706036554 2.2532702027958633 55 57 32
10.307090648492505 -2.340029489741678 2.1006032661867806 54 56 30
12.01031121519077 -3.005988408678165 2.1140931122084883 52 57 22
11.452422477962822 -2.6110003816169707 1.94712479814038 54 54 28
11.422721211126847 -2.7490095250149653 2.253764719395501 54 57 26
12.01031121519077 -3.005988408678165 2.1140931122084883 52 57 22
11.525183448452546 -3.005988408678165 2.039751734870297 51 53 24
11.205561646870573 -2.4788355111356073 1.9558454278298787 52 54 28
10.638155243964086 1.3368653591980117 2.3153477753995646 27 34 3
11.914704863722866 1.1052932726608309 2.7956569620479 48 53 20
10.64640755472752 1.4766004621654822 2.193444438658232 33 40 8
12.219761716177722 1.7484101376175871 2.559726741028303 48 54 18
12.535825843297443 1.6040371446818327 2.677317113340861 46 53 17
8.897128140314996 0.4220067138490867 2.3431876630077975 38 41 8
9.23950356874383 1.0475283089584266 2.1697272846053117 22 29 0
10.127860164746474 2.073738636574244 2.1109993555575812 40 45 12
11.032438087972968 2.405018851135764 2.282895286379184 46 52 15
11.609363664665247 3.067201834923972 2.356170274567436 49 53 22
11.697091031033677 3.0568968787994115 2.4771780525195366 54 57 26
10.672490135963283 2.2533758553965755 1.9761735218657324 39 44 13
11.030415961110347 2.4787669455911123 2.1686690501814936 43 50 13
12.357009528019981 1.8902546396254598 2.5430533648116667 47 52 18
11.791615635900197 2.9211848809240486 2.467008676791319 50 53 22
17.694965482918843 2.4553088928189264 2.9066541352622197 52 59 26
11.801081290081118 -0.70417219030777 2.823444876674679 56 59 30
11.770203532659945 -1.9074973377226803 2.8315094009630357 61 64 40
12.49388529510359 -1.7874851433216794 2.684065884581561 61 63 42
11.60514747006487 -1.7874851433216794 2.645993353243882 60 62 41
14.31314323112177 -1.170953771153896 2.098618664249738 139 139 135
10.675229241801457 -2.6958149144862076 1.876106922558475 51 55 22
10.284792540743744 -2.562699225259514 2.4950232041242386 57 60 32
10.629997706036635 -1.9004972276205554 2.4531485114977247 57 57 37
10.658259803869628 -2.7880896160054416 1.9767465650411087 52 56 22
10.462670266712182 -2.593237124114482 2.206109811620328 55 56 29
10.462670266712182 -2.593237124114482 2.206109811620328 55 56 29
9.718867133198144 -2.4249057127488753 2.136433093137989 56 56 30
12.24213948475584 -0.4469358958104654 3.067841867963341 53 59 27
12.25481345048299 1.1960262059212203 2.7254367540174105 45 51 15
10.319124174898803 2.2533758553965755 1.8870019333229575 39 44 11
10.448576406292176 -1.3800171868544562 1.9853885043151016 155 154 146
10.154471439204526 -0.2346734376817279 2.5122228895079513 46 49 15
9.721162082930102 -2.3369733837768707 2.263597851557215 56 58 32
11.12385988083702 -2.6110003816169707 1.8634211992396075 51 55 23
12.678352643021372 -3.028033882465524 1.8266771264109178 50 53 23
9.93795661099347 0.08930977323615648 2.3823922568943376 47 50 15
11.770203532659945 -1.9074973377226803 2.8315094009630357 61 64 40
11.09930986914911 -2.562699225259514 2.5493282070224264 58 61 34
12.218388336871111 -2.7676345283264565 1.7525775130515933 50 55 21
15.608540991636813 -1.094401604174643 2.579719312095803 19 17 7
13.918089732276858 -1.0606657105588206 2.115247882961139 39 40 26
8.31490785736936 0.5948634211576206 1.7166981921775122 23 30 0
11.083249799720962 1.9252585620243106 2.165426211349574 40 45 12
9.399805870012433 0.2701936217576154 2.444817863438887 40 43 10
8.964823428518736 0.3658401612521857 2.1907940465444504 42 45 12
11.603388629642485 -0.9216835466438005 2.8800758598758365 58 60 34
11.289798677467509 -2.622887257219719 2.7004288982649434 61 68 38
