20.935377464785436 0.45584389423108657 2.4074110333823153 35 41 14
15.949702375877425 1.197433044747669 2.475668818918326 32 42 18
15.75451985357562 1.2952472290833899 2.4916002950031673 33 42 20
16.22121091647118 1.156575618805516 2.55862441719104 34 42 18
16.22121091647118 1.156575618805516 2.55862441719104 34 42 18
15.89815912210972 1.3782132980083763 2.5902007350131977 36 42 20
15.543174370796276 1.2238619109901565 2.6285396027607586 36 42 15
15.543174370796276 1.2238619109901565 2.6285396027607586 36 42 15
15.878817247395675 1.318151488169689 2.728318267954168 38 44 16
12.48757028418456 1.5176853788205433 2.030631686315648 43 52 37
14.656804091655589 1.6106728529231067 2.373526819224287 52 56 54
13.768041544369314 1.9655707655107468 2.4429028453427954 53 57 57
14.34681357517127 1.857031905304711 2.5056270724729965 48 52 48
14.97635675377425 1.6204145579448428 2.5634017909738587 37 43 23
15.450494420881427 1.7081079245965398 2.41438032653922 54 56 58
14.384306447680515 1.926261428755432 2.393343828651181 53 57 59
15.544792235009881 1.61501384781171 2.5095613475697607 42 47 36
15.550841639344961 1.5061369894275285 2.5090302755163787 41 46 33
14.17667193998583 1.6677319948321203 2.841234551826745 35 46 11
14.240432480497914 1.8956468861026037 2.8271005901022495 36 45 11
14.891709140330422 2.1529129840984185 2.712550061005213 39 44 27
14.564999871092477 1.8360905366231262 2.7645635769331784 36 42 17
14.509150263528431 1.456495744008233 2.7744071499894276 36 45 17
14.574419271686152 2.2551353867231385 2.7629347479225554 35 44 18
14.388478842554095 2.074867974144928 2.629393850514024 38 43 31
15.076485505444104 1.9423474206503442 2.6864978017893946 38 43 30
14.888809063205473 1.6364456323705299 2.7129760477814875 38 45 15
13.915053836786894 1.6979768491836496 2.9095121186929425 35 46 9
15.512888809282753 1.8943514374641248 2.6320156767300364 39 42 34
14.050072723205034 1.7946755908077032 2.6740173289401614 38 44 21
15.336689649212275 1.4881856254440318 2.65296958524516 37 43 16
13.980007625831828 1.9877016791415472 2.890608005040129 35 46 11
13.801512806479394 1.8943514374641248 2.561267608255301 38 43 33
14.517363656692424 1.7643042921417942 2.6138188265144966 36 42 20
15.336689649212275 1.4881856254440318 2.65296958524516 37 43 16
14.320069591087636 2.3913277448268975 2.810430624654166 34 44 14
13.951207122953338 2.018503378842587 2.3239659335079423 56 58 64
14.162207509672562 2.289912846800467 2.523500145192761 52 56 55
13.491536379961099 2.121518121829786 2.467667366542486 49 53 52
14.98839895645641 2.289912846800467 2.5621717938753084 39 46 38
15.151728979157427 2.276130190246927 2.676452667371329 35 40 26
15.003822486361203 2.4621203215654868 2.5606026691130173 44 49 41
15.166986417287168 2.484013265684309 2.674452209588228 35 40 24
14.922740129375354 2.6105994179065406 2.7080268068948605 37 42 20
14.436622914505671 2.6814880696351366 2.6234934952104503 33 37 22
14.132058911577213 2.5733534661807385 2.851600563690731 35 46 13
13.92491289533441 2.406645706811278 2.9065351007411904 34 44 14
14.74554695282965 -2.4266131928014945 2.7347589416443614 40 50 20
14.276112042948776 -2.132229617050761 2.8195059767527697 41 54 24
14.886962385564054 -2.496007821279323 2.5726693950194566 35 44 27
15.461401450495377 -2.6032670091239045 2.638007096643438 37 46 19
15.074582743006262 -2.5257717182026433 2.6867558081140483 38 48 18
14.276112042948776 -2.132229617050761 2.8195059767527697 41 54 24
14.132058911577213 2.5733534661807385 2.851600563690731 35 46 13
13.787360487236567 2.1447176764290963 2.9526495584928383 34 45 12
14.246703794694735 -2.4491006546036056 2.825750147478028 44 53 23
15.728081719580365 3.0691279071023283 2.9876110736422783 38 49 16
14.93654788713104 3.0903589527293884 2.91123351674164 38 49 16
14.958314035052709 -2.903849802318042 2.9051088365892612 40 51 18
15.046655932729735 -2.6496159025479202 2.8818651076014032 42 51 21
16.657275904551025 -1.8076169416942995 2.773582816073801 39 51 26
16.602799481494014 -1.6403698131638902 2.78218873551422 40 53 27
17.14431178218218 -1.9096978565333633 2.7058082567912596 36 48 24
16.688143717636457 -1.8690787638762352 2.628838226954824 37 49 26
16.573540683959198 -1.7485652325405978 2.6412580591361983 39 51 29
16.979506665665934 -1.6302024286863808 2.7271432782010496 38 53 28
16.979506665665934 -1.6302024286863808 2.7271432782010496 38 53 28
16.979506665665934 -1.6302024286863808 2.7271432782010496 38 53 28
17.14431178218218 -1.9096978565333633 2.7058082567912596 36 48 24
16.83065091774669 -3.013457612009662 2.747730284129715 34 42 26
15.891385483886351 3.1143353555345614 2.7265184710036316 32 40 28
16.456251832987764 3.109296490698386 2.806691918363363 37 47 18
16.65734746678083 -2.144020504235707 2.6321318329390095 36 46 24
17.091457533392692 -2.0835921193518745 2.5883665865873082 36 45 25
15.455239910214445 -2.5713874344469416 2.796103972659289 40 50 20
16.341996664921563 -1.836946269869685 2.547509323936477 37 46 30
16.518860279509173 -1.9391127336303273 2.531839949927449 39 47 33
15.994238941396604 -1.7129251568974935 2.4721324818027663 42 51 37
13.046513074215982 1.4291030742102744 2.0960540064439224 35 44 27
15.407860314093472 1.3521688321249368 2.6443506073471212 37 43 16
15.603532231489593 1.3211617555455908 2.403426299484056 45 52 39
14.454824717132189 1.6273165048454323 2.621288756634316 36 42 17
13.98544434723873 1.6364456323705299 2.6832541359489293 37 43 18
14.34681357517127 1.857031905304711 2.5056270724729965 48 52 48
14.388478842554095 2.074867974144928 2.629393850514024 38 43 31
14.240432480497914 1.8956468861026037 2.8271005901022495 36 45 11
14.373649751168223 2.0936237684115393 2.799754384634198 34 43 15
14.811092931866446 1.7228557304316119 2.4643126574815497 48 53 45
14.847413446673086 1.8029957797118183 2.3603258422639746 54 56 61
12.069271718260797 1.6071076623342933 1.9566248030064632 47 55 44
14.657428606009487 2.190560845130107 2.5976495025578794 40 44 40
14.564999871092477 1.8360905366231262 2.7645635769331784 36 42 17
14.590280430177865 2.5172151867895334 2.7602116659681633 36 43 16
13.980007625831828 1.9877016791415472 2.890608005040129 35 46 11
14.895124886450299 1.4748828625432664 2.7120490491955818 38 45 15
15.521732991877643 2.190560845130107 2.6309969380871685 33 38 29
13.787360487236567 2.1447176764290963 2.9526495584928383 34 45 12
15.358832666008126 -2.4128808697244684 2.6502645454153724 38 48 26
14.47823418102033 -2.298261045949626 2.779999548989394 40 52 23
14.593524354401266 -2.6032670091239045 2.604933724644963 35 44 25
14.74554695282965 -2.4266131928014945 2.7347589416443614 40 50 20
14.786408517967583 2.687406143502147 2.959517791528982 36 47 14
14.852271369063809 -2.4925579561349758 2.936828094271596 43 53 23
14.899234237823372 2.406645706811278 2.922167343185342 35 46 13
14.762766300176144 -2.8111269876083713 2.968431996534168 40 50 20
17.03277829794753 -1.7739436219091025 2.7200904740328524 39 52 27
17.03277829794753 -1.7739436219091025 2.7200904740328524 39 52 27
16.602799481494014 -1.6403698131638902 2.78218873551422 40 53 27
16.8613768915272 -1.981312629169833 2.6108746111459453 35 46 25
16.573540683959198 -1.7485652325405978 2.6412580591361983 39 51 29
16.51878811732908 -1.6226255121812105 2.647354531678034 40 54 31
16.421185544638103 -2.033654914501769 2.6585004920064153 34 48 23
16.125493940222565 -1.7739436219091025 2.6947160250436166 38 50 26
15.008019882949538 -2.276193637624227 2.8917365048588075 44 54 24
16.476010450877034 -2.990088442677961 2.803262823857133 36 44 21
16.476010450877034 -2.990088442677961 2.803262823857133 36 44 21
16.341996664921563 -1.836946269869685 2.547509323936477 37 46 30
16.22494884610331 -1.7287763948180195 2.5582751391428906 40 51 33
16.903004199934507 -1.8109421100612157 2.500025402535345 42 49 42
15.62103664147635 1.3987680854641797 2.5029255967644692 38 43 30
14.010483420819321 2.014015520213762 2.5388978797302513 43 47 40
12.757136513703793 1.6857683720578207 1.8521410983243296 47 54 47
14.83999956349511 2.383143310746377 2.720231583142798 37 43 23
14.213344779575294 1.7411183545368496 2.5184579919111005 36 41 26
14.115682879547643 2.219309526339601 2.855514017265835 34 45 12
14.076362789527376 2.736623802265878 2.532129574318028 41 45 37
14.18084560395271 1.8272597937946136 2.4089305549947437 51 56 52
14.50266635165015 1.6490847360441718 2.7755712902162486 36 45 15
15.479449112211276 2.984293637412673 2.635895026552339 29 36 22
14.63309191169037 -2.610755981699656 3.0299489583205013 42 52 22
16.8613768915272 -1.981312629169833 2.6108746111459453 35 46 25
16.11296277076708 -1.8109421100612157 2.4628758431166196 38 47 38
15.901786841453351 -2.664813434078962 2.589829912397753 34 42 26
16.029334781402568 1.263518054685376 2.577035278145364 36 42 20
15.407860314093472 1.3521688321249368 2.6443506073471212 37 43 16
14.604889567011442 2.378051114261347 2.6036270698677746 32 37 26
15.377385773126132 2.3745773148354434 2.5245836416801026 52 56 52
14.982635671959763 1.4982534711304314 2.5627599233300424 35 41 19
14.185077844868829 1.9423474206503442 2.65550622819422 39 44 28
15.074582743006262 -2.5257717182026433 2.6867558081140483 38 48 18
16.456251832987764 3.109296490698386 2.806691918363363 37 47 18
13.787360487236567 2.1447176764290963 2.9526495584928383 34 45 12
14.9495326100259 1.7946755908077032 2.7041715496074947 37 43 19
12.955125752803996 1.6071076623342933 2.100147202671616 49 55 51
14.695275131230522 2.0060113814221676 2.7427731602462186 36 42 20
14.852351628245477 -2.6599997138877156 2.7183798828830317 38 48 18
14.405796715833779 2.683100484215938 2.7935369165639936 34 45 8
14.64806258446121 1.8943514374641248 2.598707638979664 36 41 26
14.47823418102033 -2.298261045949626 2.779999548989394 40 52 23
15.75451985357562 1.2952472290833899 2.4916002950031673 33 42 20
14.688954530154083 2.5640344943696274 2.5941111928105283 36 39 30
14.405796715833779 2.683100484215938 2.7935369165639936 34 45 8
14.9495326100259 1.7946755908077032 2.7041715496074947 37 43 19
