16.65661737116409 1.374369914765153 1.4115878402922704 49 67 21
16.68247278663754 1.434648934645037 1.3507916409768093 48 66 20
16.4931357299511 1.434648934645037 1.409996075412964 48 69 20
11.081615001121257 0.5872444264427313 1.5129488470527468 44 59 12
16.14763834301346 1.361750908515629 1.2792945124909012 51 67 23
16.12092516046215 1.299420588481443 1.3429951556037711 51 67 23
11.650168004815642 1.3748054242731935 1.3421440742672148 39 55 5
10.410511278021776 0.7798208010238653 1.7994105893216323 43 56 7
11.053517811606385 1.1769329414837713 1.6940841046534105 44 58 11
11.352633982010191 1.3748054242731935 1.6024518864051611 41 57 9
11.247105748369696 1.3560215205986845 1.968816772002028 37 51 4
10.599909883468007 1.138752043858017 1.893275706204106 37 52 2
11.062367258152388 1.2327278702574334 2.076546198415618 36 51 1
10.246848509459776 0.5584815967650805 1.9048113051253168 45 60 13
10.513738572903668 0.6413495613232699 1.7971266456300867 44 58 10
10.236285239328756 0.9185048878367933 1.605905527591499 39 54 5
16.735431549368517 -0.1308684205743551 1.0282586532036277 43 64 31
17.264683750889066 -0.11487296567974124 1.2379672241342436 51 69 49
17.185130996051353 -0.05363792672846097 1.2363665303781273 47 67 41
17.689712742731686 -0.10825167222591807 1.3635069209239206 39 55 51
17.689712742731686 -0.10825167222591807 1.3635069209239206 39 55 51
11.041228002982498 -0.3623428752842174 1.4216476275980259 43 63 27
10.624818402060539 -0.2740598059093709 1.5104588297711228 44 64 26
11.179173919850351 -1.085145000583824 1.5134542295312385 49 64 25
10.846784219586462 -0.9600336040316814 1.5116950156095912 41 59 19
9.784604337559395 0.46606787293895724 1.921252725675846 46 63 17
9.310365883952104 0.014083277372685402 1.717320114814804 55 75 35
9.887181694455979 0.5201795447127194 2.1436670365686212 46 62 14
9.296204636266674 0.015798453548142348 2.05888070662183 53 73 32
9.808041988034192 0.3642141168591931 2.0313712826351082 47 65 19
9.86901570078118 0.13674825050335476 2.1448547977688213 51 69 25
9.781665665587337 -0.4926662172415757 2.150640753947022 42 62 22
10.385798781975495 -0.18117883212359628 1.6053998936371354 48 68 29
9.335951922868611 -0.10561310628864683 2.0566216548923695 52 72 31
10.119470393429639 -0.5354316983747666 1.9091826877332092 43 61 19
10.506464734957222 -0.48643873648351976 1.7005388314196126 43 63 25
10.26856906278469 -0.6833531191101142 2.0092388710894946 42 60 18
10.694749243714742 -0.3788807869540679 2.329696771368596 46 66 25
10.694749243714742 -0.3788807869540679 2.329696771368596 46 66 25
11.504744502791596 -1.070437629866339 2.520972138509191 58 77 36
11.82279671301546 -0.948674118223311 2.4842731112388345 57 75 34
12.110260028646174 -1.2107822169420932 2.597150415250157 58 79 39
11.266755079957038 -1.2107822169420932 2.551163469502913 57 77 36
11.658379831462737 -1.1448632750381513 2.6650199189448145 58 78 36
12.196580355993584 -0.8580237847861437 2.5855719990046557 57 77 34
11.496002288029741 -0.6650972312942298 2.3849569545997733 52 71 27
12.224376088627844 -0.6389430365337613 2.581923667494442 53 73 29
12.946469173547166 0.02088547854226956 2.6412251811596272 49 69 25
13.413065121310595 0.02489292502767552 2.7425630545753807 50 71 24
12.636172021319096 -0.3446718715844865 2.688167835771201 53 72 26
13.440643348265993 -0.1655235784988125 2.737724547626177 51 72 25
13.08022245205116 -0.29254713116760733 2.622831981297273 50 71 24
12.422368799884838 -0.8784343035039136 2.7248792356880984 60 80 38
12.202289562109913 -1.0520214593029884 2.767710849079813 59 81 39
13.189848188636565 -0.4180887155356764 2.7848298926930157 59 80 35
12.636172021319096 -0.3446718715844865 2.688167835771201 53 72 26
13.189848188636565 -0.4180887155356764 2.7848298926930157 59 80 35
12.879204976259052 -0.9147126228459642 2.8564918261257644 61 83 41
12.449660436187 -0.5984265151555604 2.719954109741606 57 79 34
11.340734670106945 -1.3702510654178595 1.78036588984248 55 70 34
11.41547243747949 -1.2836831017711208 1.6901559919198341 52 67 31
11.25736723631011 -1.2563954479064792 1.9684335371217985 57 72 33
11.376510681476779 -1.2236065559088027 2.163959121922698 59 74 36
10.377306372053804 -1.1276883042244932 1.9004520778844445 51 69 27
10.699688787570354 -0.8358600263067756 2.0954173516032712 46 64 22
11.610360539379032 -1.0210631564337065 2.374580572385577 56 74 32
11.242910901927251 -1.1835638784393756 2.284414940106803 57 74 35
10.41081964746654 -1.0796328623369906 2.111550953995998 53 71 31
10.298933635506364 -0.9027964244405529 1.8019321872192602 44 62 22
10.912462779990696 -1.0210631564337065 2.3109418008305367 55 73 33
11.043628016590304 -1.2596158830032986 2.4294071611797157 56 76 36
12.27784950884861 1.7173355697502766 1.5185903476391551 41 56 6
12.148429554781371 1.5535109080273526 1.5180336716510343 39 54 4
11.37896313832311 1.5519581724849771 1.7796513879089506 39 54 4
11.627528973647136 1.5519581724849771 1.8638848269697155 38 52 4
11.479783016922136 1.8164415996311214 1.6021011570793184 24 32 25
11.517033038841411 1.7302888397568024 1.7771111946857951 34 43 31
11.661094779580358 1.9288458775898123 1.9539356574624016 2 14 1
12.545722114559448 1.6486578032813441 2.1976499311878173 30 44 1
12.093681796842628 1.7457285278800962 2.124496006137199 5 18 2
11.962269495745119 1.5500989865607893 2.1313017315465093 36 50 5
11.08181990278989 2.400441716717738 1.8787795680192774 56 74 27
11.504239512519485 2.3348787056667426 1.777343948838529 52 70 21
11.502424418704328 2.613345987521998 2.0554806609731857 55 76 24
11.230669347009664 2.5326637227456206 1.8745662645146592 55 73 25
11.750155517741119 2.3348787056667426 1.8607368975143996 55 72 24
11.328820001925553 2.1896904373102397 2.063567342805 62 78 33
11.193852468312624 2.0540040433856595 1.9708179067012275 43 59 14
12.649862896976673 2.4946154740779787 2.4036804668725935 64 85 33
12.001016433523166 2.613345987521998 2.1292765502991955 61 81 29
12.292299220218968 2.331817235038876 2.2126647320775943 59 79 30
12.391925827564151 2.4072800061648465 2.311188502678423 62 83 32
12.52521566041255 2.5592839646423617 2.3015066817789274 62 83 32
17.16179325501851 1.9438357419148378 2.6791633952922167 60 78 32
16.50230499838948 1.545009243339395 2.6262824545519066 56 72 22
16.597810644007208 1.787554938840575 2.616211849650007 55 75 31
17.027816177383833 1.8168154918671253 2.6952065553663376 56 74 28
19.1008295898817 1.3392075090179103 2.8620396727839004 52 73 22
11.136062129248376 2.658962946303962 1.6931656469643965 53 73 21
13.009997318644476 -1.7090136375023735 1.5215307304281769 48 64 27
21.34206287791062 -2.8477565150732738 0.6765888447304829 56 76 31
23.11893038376982 -2.9617806553499975 0.7673021024955194 43 61 15
20.476811635074856 -2.78566096494472 0.9661375637240989 49 66 30
21.370087866743496 -2.915042543470139 0.9378622188147937 42 60 16
11.80841903623825 3.1305915932178023 1.5165129556411894 49 71 24
11.861626468095587 3.0460673747053555 1.5167566911828503 52 73 25
12.215442158804143 2.882128648651426 1.518323388598719 54 73 24
11.285443777219681 -2.8816070725562963 1.4248985485177852 61 84 42
11.580233974991804 -2.797204499205933 1.428638129765703 63 86 46
20.31581046036272 3.081542935398156 1.1852174712381256 45 64 13
20.234990795934454 3.1343016702529405 1.074199283059903 38 56 8
20.32082694786529 -3.03684778585739 1.0764868456108427 37 55 9
20.13487256622557 -2.990010738802524 1.2346938244203685 43 61 17
20.15281099768248 -2.9273800938821535 1.12767838604463 46 64 22
19.774638365457506 -2.805253222266128 1.1185824116479544 53 69 34
19.94823144854217 -3.0953099025425903 1.2314232637638982 34 55 7
20.437137409917668 -2.9816311185064706 1.0795514785983364 40 58 13
20.301568188810222 -2.9384608902118012 1.2375609589759056 47 65 23
19.964396231495915 -2.859274891118033 1.0668398137205908 47 64 27
20.987656329017813 -2.652576855608554 0.9244278139952996 47 64 28
21.981911109708598 -2.569994138029093 0.8419180230157782 50 65 33
20.03194226771593 -2.474054150113343 1.0686983090296396 55 67 38
19.369439136767348 -2.4308791011166915 1.2208541535764306 60 70 43
19.735188072690875 -2.7312024544711146 1.060423764847956 53 68 33
18.522762689458563 -2.679205707067468 1.2613542576058103 59 72 45
18.80770525004571 -2.582932140928071 1.4299263993071238 62 75 47
18.6963082785467 -2.629769205721014 1.3199601749324084 58 71 42
17.976349819008657 -2.553118332265101 1.4233650241725084 64 74 45
18.632418861542693 -2.582932140928071 1.5364039936575622 71 81 58
12.527681614353245 2.799546297043652 2.301330287819626 54 75 26
13.70707895856895 -2.428735187510703 2.4276160337633543 64 87 54
13.071626829310462 -2.6356439215865968 2.2646449011434755 64 87 52
12.131139255276421 3.1268375739574825 2.331013790352286 59 83 38
12.31598084999211 2.9038935703824746 2.3168380058108853 55 76 27
14.229006906093899 -2.4958316630712627 2.386257684976142 64 87 54
12.889631099989945 3.0137755355294704 2.3834464087610785 58 81 36
13.01078759592559 2.997581657079948 2.4918005513848054 60 82 38
13.135448838906234 2.8747336829231993 2.4794117670741214 57 78 32
11.113972916511988 -1.3675714915580275 2.5720011783674748 58 78 38
12.185384730657818 2.702393486428692 2.2192390718883286 55 76 27
13.056731478772267 2.5951823802921137 2.4871838211756128 57 79 29
19.831815262808295 1.2858446300434185 2.9228661913349923 54 75 26
19.795997589800326 1.5200644259652785 2.931160862281013 56 77 29
12.911216895397962 -1.8668142858761991 2.6462417443292146 59 83 43
14.415854818924098 -2.3457548456714696 2.756356725673443 66 91 54
12.911216895397962 -1.8668142858761991 2.6462417443292146 59 83 43
12.788208389198278 -1.5350912852137264 2.6643496863136447 59 80 41
14.479534400344276 -2.601771750191343 2.745652097799828 67 92 55
15.507256785264403 -2.9924084855589834 2.7544029028364063 61 86 45
13.654354382089348 -2.255233490713986 2.5533530179178863 61 84 49
14.036453168407853 -2.3493358726988345 2.5137087532861786 62 87 51
14.49137908591954 -2.4422824352022094 2.5922607796678783 66 91 55
14.186595438830917 -2.5523857208733385 2.628430830843869 66 91 55
14.121594947264349 -2.3479160166999886 2.63665918569409 65 88 53
14.49137908591954 -2.4422824352022094 2.5922607796678783 66 91 55
14.121594947264349 -2.3479160166999886 2.63665918569409 65 88 53
14.888927442658138 -2.7885826118201464 2.5500851648101195 68 93 54
14.63553911064442 -3.030339691755899 2.5763763163809097 70 95 54
15.011229431051463 -3.0141213435186684 2.66804212309238 67 92 51
15.102237804326673 -2.8728221738170143 2.656414082264868 67 94 55
15.258380135689432 -2.7416687450008412 2.6373475798710886 67 92 56
14.728869023994019 -2.905973155936513 2.566462887032856 69 94 54
14.609677881342467 -2.582869301263983 2.4615085140062325 64 89 53
14.875575084246103 -2.726842616457338 2.4397004635410235 64 89 51
14.623273029738671 -2.623545132971334 2.5777002345647175 66 91 56
12.121443584048755 -1.5515087051154066 2.028773854880441 58 73 37
12.698499533022545 -1.9062996100660732 2.006494100401522 64 80 46
12.995488423739175 -2.074940840366711 2.4933514233775504 61 82 45
13.440433280790751 -1.9746170614620058 2.3411025932673906 64 81 47
13.018602031744386 -1.769953219164894 2.373041500615199 65 80 44
12.190329077461488 -1.5471613607695518 2.32640696186972 57 77 38
11.588997848385825 -1.4352571930352653 2.2588383939413537 56 76 37
12.432225204791049 -1.5402848079126072 2.5557799855169434 59 79 39
12.618583377233298 -1.643372492874834 2.0989786184214694 60 77 39
11.6730874945633 -1.3965075243203684 2.5010735494296843 57 77 37
12.31365391562893 -1.5495551566744414 2.21136910612081 58 73 35
12.958600412112235 -1.6506956607714796 2.271922282963381 60 80 41
13.057792638804603 -1.7502294583182223 2.2655265106697713 62 82 43
12.230379114308862 -1.5441596389496846 2.4422280036638004 57 77 38
12.254093080964692 -1.6708779825459799 2.439930638480105 59 79 40
12.358940941446843 -1.7944674351722012 2.4299512566278145 63 80 44
12.6481061127879 -1.8016716834929225 1.8396206609277215 60 76 41
12.905627152431101 -1.879874007327699 1.8341275597150508 64 79 46
12.104300410968918 -1.5531332170475014 1.7669674720448436 56 70 37
12.104300410968918 -1.5531332170475014 1.7669674720448436 56 70 37
13.031980446094833 -1.9858722317597206 1.9946138898250294 64 78 46
12.578340480616008 -2.411359948281476 1.9247115898737501 65 86 50
12.958907252387867 -2.411359948281476 1.99715936880419 66 86 52
12.96507735748363 -2.29146285109419 1.9969432122006254 65 82 51
13.065010921347707 -2.0602395991331632 1.910983184088629 63 77 46
13.308462744532717 -2.238959575627152 1.9045157834006115 66 81 51
13.13336564121489 -2.1175574825369745 2.3640454030395697 64 81 49
13.377214313439305 -2.224151383535478 2.1533258138346802 64 82 50
12.841780540054026 -2.47818782054365 2.088867109595511 66 87 52
13.096077382289874 -2.0659606635638226 2.2630928703397957 64 81 48
13.712912429020593 -2.2710983104948945 2.427125213661392 62 83 50
13.450128747098454 -2.3503399935906617 2.3404034207230495 65 86 53
13.091645754737703 -2.1013348074000864 2.078021428319988 65 79 48
13.210949721348763 -2.022636316156099 2.161639785389186 64 81 48
13.33296513687263 -2.4188671097034478 2.2484487236985586 65 88 52
13.33896221790154 -2.282662055778707 2.2480869516158153 65 83 53
13.53018540239076 -2.20509402424383 2.3346863095640678 65 82 52
13.233889683490306 -1.9543634211207033 1.8274463886014152 63 77 46
13.395525349413434 -1.8257146863463531 2.5829836458629325 60 81 43
11.144043847393233 2.7424218903155593 1.8770038944121492 54 75 24
12.579676810584191 -2.8564077006402133 2.195696284715875 64 88 48
11.72891001167584 3.0267100219156986 2.1438392483634745 54 75 28
11.301886917542557 3.1295721560000507 1.8725915672687143 54 75 28
12.289028851315539 -2.643341955405182 1.600039091612439 66 87 53
11.67012654144655 -3.0611122151774808 1.953623742234529 58 80 35
12.278726046508794 -3.0529328316102777 2.2134912373615117 60 83 38
11.16462802197541 2.8321851797445436 1.9719249329457011 54 74 24
12.219415610821633 -2.6014659877216673 1.935586266661681 67 88 54
11.659947722748328 -2.8816070725562963 1.8630458802808023 62 86 45
11.480082184676547 2.859290720066734 1.7777848917281802 55 73 25
11.248682795496364 2.9467247797383056 1.7821067494970584 53 74 25
12.389822072652276 -2.952832295219714 2.20679422851831 65 88 44
11.945499510861486 -2.797204499205933 1.8558615569669834 65 89 49
11.362575608792849 2.927397137670178 2.0619728610348758 53 74 25
11.675097760993603 3.1283444978499237 2.146816257060582 54 77 32
19.218347123468114 -2.5386841944650693 1.6415854480688135 52 58 37
23.511364533736494 -2.384356247501724 1.7572885176494937 39 38 22
22.648161734358474 2.090401317478233 2.981712085478516 58 82 36
23.47079211782164 -1.0198053110023773 1.4580481446628077 45 63 44
23.242572234556786 -1.1158282011738698 1.543227639778594 47 65 46
23.36316796989428 -1.2116917860423735 1.586176438409941 48 66 41
23.325748585350464 -1.6922022840216753 1.4140754287014352 48 60 43
23.264046252586027 -2.1664681660124963 1.369970236698851 60 61 45
23.227289124829248 -2.323139877936385 1.672546898780797 44 43 25
23.236787339653205 -2.262170034266675 1.6293281030045597 33 34 20
23.227289124829248 -2.323139877936385 1.672546898780797 44 43 25
16.4931357299511 1.434648934645037 1.409996075412964 48 69 20
10.159865219615668 0.7798208010238653 1.5076939715010889 40 54 7
15.978950153686025 1.4257720877732476 1.2761254122143004 50 66 22
11.408872696059866 1.0957760242143586 1.5146099467395684 44 57 10
11.059942581426188 0.9735084947328112 1.5128353655154525 37 52 1
10.41904883355298 0.7046129334260135 2.0024776282088372 44 58 9
10.868084137330984 0.8542594711171647 2.086473502949132 42 55 6
10.896532114489673 0.6184041302790674 2.193962319428132 44 60 11
10.767423985799123 0.9185048878367933 1.8880817579919835 40 54 7
10.629206205508423 0.5081945519815579 1.6990323051450213 45 61 13
16.618986833708657 -0.057157050290549585 1.1597330139207558 43 64 31
17.845636198351354 -0.05052666304971997 1.3077265012306019 47 66 50
17.922257363141405 -0.10825167222591807 1.3088776816904975 49 66 55
10.940252420958707 -0.5674691195002861 1.512200529686129 44 61 23
9.821465262004185 0.32758444867040976 1.7096443933419223 47 65 21
11.266755079957038 -1.2107822169420932 2.551163469502913 57 77 36
11.266755079957038 -1.2107822169420932 2.551163469502913 57 77 36
9.677970002884432 -0.440531071870458 1.9252833824597966 44 64 25
11.196236494860962 -0.2538184130201571 2.4137603213980006 48 68 24
9.728368498348031 -0.3363381711714981 2.0354388960906022 45 65 25
10.25301120027261 -0.08503590929683394 1.6058482296987813 55 75 37
10.25301120027261 -0.08503590929683394 1.6058482296987813 55 75 37
11.109342507080108 -0.5573515867131194 2.422582467488261 47 67 25
10.776835750339046 -0.5941068517434396 2.2019678999166046 45 63 21
9.481591426173257 -0.22399203522055539 2.0485280771219974 47 67 25
10.365289680258549 0.42153043881525637 1.800425853025499 46 62 15
12.717492781327929 -0.7434178717212738 2.6752170884695077 58 78 36
13.440643348265993 -0.1655235784988125 2.737724547626177 51 72 25
12.905530566253507 -0.5276026220411254 2.8496125186892516 59 80 34
13.542210723587749 -0.3446718715844865 2.7205202543268823 55 76 29
10.986830174192603 -1.1676550092261377 1.7872221298333721 54 69 30
11.185961889745712 -1.1276883042244932 2.0704375985038888 55 73 31
11.166582174503969 -1.085145000583824 1.6029794956175039 46 61 21
10.234589996896405 -0.7612977349799196 1.8034120111717342 41 59 17
11.735597435693975 -1.3266543852074248 2.2486122568000386 58 75 37
11.3358378590847 -0.9220091520521609 2.2773387234503475 50 69 26
11.286323396553637 -1.1337445528037022 2.404846583553607 58 76 34
10.713663800855919 -0.9220091520521609 2.20628445763841 50 68 27
11.774863657093897 1.899034911912759 1.5163581090060063 19 31 16
12.554185938939682 1.7969021740480675 1.4397330588993187 39 53 6
11.561519293994492 2.4601275792574366 1.7763059480920782 53 71 24
11.794877508088819 1.839588470297845 2.042468377137077 4 17 2
12.559578948650334 2.613345987521998 2.1968510432710566 58 79 27
11.071907675659064 2.613345987521998 1.9754793963037498 55 75 23
11.069953730661265 1.9288458775898123 1.7855714431583867 0 11 0
11.5237424303879 1.4519394095544713 2.054506780311562 35 49 2
11.871090370865382 2.2666625637588673 2.039196424799864 56 75 27
11.341468107424499 2.3348787056667426 1.6909385835188775 50 66 16
11.112404363317498 2.2666625637588673 1.8779041747513985 57 73 27
11.504239512519485 2.3348787056667426 1.777343948838529 52 70 21
11.065518568065299 2.1360034972995425 1.7856588763763617 42 58 13
11.287420946634269 2.0125275639143623 1.6915166606009142 5 21 0
11.842465461940142 2.400441716717738 2.040419767813955 58 77 29
11.652469866523058 1.6416865447933329 1.8632389625599923 35 45 20
11.554395096468763 1.8164415996311214 1.6887141575392743 32 41 28
19.063638555609597 1.5299419123166689 2.8689179840776022 54 74 25
16.9518700978255 1.6811933270022537 2.704660808636376 54 72 26
17.396129516268328 1.667704619721552 2.652832300702915 56 73 28
21.003329760511622 -2.859274891118033 0.9833581171089016 46 64 22
21.21179100796464 -2.9722801934149286 0.9323763922560083 38 56 10
23.264254119923194 -2.9012260651373944 0.7737574688199306 46 62 16
12.129458712268866 -2.7176103572296544 1.3513303077990417 67 90 50
20.284790665130153 3.1346896757965728 1.184596690819857 36 54 6
19.964844019044264 -2.8743789447356987 1.1780717097761695 52 69 33
20.253281960668005 -3.0927123640265783 1.0746886123652715 33 53 3
20.26473665536033 -2.6013669808686344 1.0179826860109877 51 65 32
19.226426651632988 -2.679205707067468 1.162108663699669 56 70 40
19.519611132483934 -2.507786785324575 1.2236605227832174 61 73 44
18.712859283189548 -2.507786785324575 1.3749922555504956 66 75 48
11.60883168559443 2.702393486428692 2.150528216240655 54 75 25
13.01545282451056 2.9038935703824746 2.37329178518416 56 76 31
12.775711900928682 2.7097044996327306 2.516416460225608 54 76 26
11.291835580242447 2.799546297043652 2.169023066976254 54 75 25
13.336445164827783 -2.1441267057512445 2.5901121729611414 59 83 46
13.087404084738656 -2.014512154380189 2.6218716272700364 59 83 45
12.81088981151526 -1.7046208217312726 2.6609371527518575 60 81 42
13.404403014382488 2.8376698520580392 2.581924893754994 59 81 36
13.404403014382488 2.8376698520580392 2.581924893754994 59 81 36
15.258380135689432 -2.7416687450008412 2.6373475798710886 67 92 56
14.840402299398004 -2.681386634487459 2.69102238642894 67 92 56
14.036453168407853 -2.3493358726988345 2.5137087532861786 62 87 51
14.49137908591954 -2.4422824352022094 2.5922607796678783 66 91 55
14.49137908591954 -2.4422824352022094 2.5922607796678783 66 91 55
14.679814806093756 -2.829167923219333 2.7141925367804998 65 93 54
12.55872093236769 -1.8257146863463531 2.5407687885427457 60 81 44
11.803678277002124 -1.4488459659588762 2.139757266629411 60 75 37
12.919108905172786 -1.6596582208621493 2.381039864042856 60 77 41
12.542888230044754 -1.9115076675556841 2.413109244131851 64 81 47
12.455554885265695 -1.685326216230271 2.5529630353172443 60 80 40
12.624101735393154 -1.8463052279091847 2.193160192617294 65 82 46
12.899220688190317 -1.8220629955375427 2.0863307206713397 63 80 44
12.682136423642485 -1.879874007327699 1.757920888564146 63 78 44
12.465711543394479 -1.72049101810415 1.8436538413648098 56 72 36
13.031980446094833 -1.9858722317597206 1.9946138898250294 64 78 46
12.584697173784008 -2.29146285109419 1.9245249713139225 67 82 52
13.537914696590429 -2.129156229262699 1.8986457965170138 63 77 47
13.124526071256001 -2.173392395693771 1.991434882292765 65 79 49
13.53018540239076 -2.20509402424383 2.3346863095640678 65 82 52
13.712912429020593 -2.2710983104948945 2.427125213661392 62 83 50
13.096077382289874 -2.0659606635638226 2.2630928703397957 64 81 48
13.321536823083258 -2.1796745707437877 2.4616941773570296 61 82 47
12.841780540054026 -2.47818782054365 2.088867109595511 66 87 52
11.98650210576652 2.962887326845953 1.600777366827146 53 74 24
12.203919659878833 2.882128648651426 1.6002430871530218 54 73 23
10.884442353328694 2.7424218903155593 1.7892908709602164 54 75 23
11.633274748344604 2.776067528328396 1.6879109249495754 54 74 25
12.844798415137458 -2.7651287866341607 2.1808862709265857 64 88 49
11.916303133580696 -2.7176103572296544 1.6851169621261672 67 88 51
12.579676810584191 -2.8564077006402133 2.195696284715875 64 88 48
12.19087526297372 -2.529697442033389 1.7655563881745957 66 87 52
23.64658607519829 -2.541043837687673 1.8430799084868488 30 31 16
22.648161734358474 2.090401317478233 2.981712085478516 58 82 36
23.04465001541395 -2.2280347431524663 1.3680317658991763 54 56 37
16.68247278663754 1.434648934645037 1.3507916409768093 48 66 20
10.89230174589062 0.7151087292454222 1.5119422785345316 42 56 8
11.144421735922366 1.263945403739984 1.8769931742840469 40 54 7
10.223406636106505 1.0009010591490817 1.9056071117884763 37 53 3
16.701236512478644 -0.12235271658038652 1.1618786977035622 46 66 37
10.798745221209272 -0.8291766610757019 1.4182726164853208 40 58 18
10.01834746430149 -0.9860706086036418 1.912737142879465 50 65 26
9.377757473207076 0.1220557726789534 1.7162596296717925 51 70 28
10.098929394802433 -0.6207514681804284 1.6063832492241314 41 59 20
11.691975771253821 -1.297079984882556 2.3673655408488408 58 75 37
12.636172021319096 -0.3446718715844865 2.688167835771201 53 72 26
12.905530566253507 -0.5276026220411254 2.8496125186892516 59 80 34
12.299800354500626 1.471395667199109 1.4370062748242045 40 55 5
11.277479781245646 1.4625313474483446 1.691623596963229 38 54 5
12.400782979126902 2.1896904373102397 2.2061417741321496 59 79 30
11.77723200984428 2.4749291914857205 2.141193959156591 62 82 31
11.881178367912685 2.5592839646423617 2.238786558109102 64 84 32
12.91043788079677 -1.6321252441412435 1.5211505052721632 51 65 33
23.016176146850007 -3.0236966013268787 0.7626619142053559 39 57 11
10.948976477975018 -3.0611122151774808 1.4203814398778603 52 73 26
19.180917869036925 -2.5386841944650693 1.5373878509264747 74 81 56
18.77797721620488 -2.4308791011166915 1.321074420422015 58 66 40
12.149963168940552 2.65414931479435 2.3295416462289777 57 78 29
12.182937329073827 3.0137755355294704 2.3269787349993205 55 77 32
13.518358243661853 -2.4958316630712627 2.33552469439699 64 88 51
14.43276424750727 -2.6356439215865968 2.3713815242364786 65 88 53
12.182937329073827 3.0137755355294704 2.3269787349993205 55 77 32
12.879805033533296 -2.5527965224774207 2.1789875420507467 67 88 56
19.795997589800326 1.5200644259652785 2.931160862281013 56 77 29
13.282266291516462 2.9767316409279694 2.5967793827590833 61 85 42
14.101846114582411 -2.519389151571159 2.507348195491596 65 88 55
15.477685293091145 -2.623545132971334 2.612239399209786 67 92 56
14.586171021705503 -2.9924084855589834 2.7285133204364227 65 90 49
15.252375772766442 -2.769362075256002 2.797695003260926 65 93 53
12.361769304023356 -1.637277212843127 1.8460075893921808 55 70 36
13.015243090043603 -2.238959575627152 1.831857718686938 65 79 49
12.739783962623331 -1.9565861834012974 2.5203344517519564 60 81 44
13.193355252480824 -1.8755644023510016 2.3594372538928745 66 81 45
12.618583377233298 -1.643372492874834 2.0989786184214694 60 77 39
11.544822276363144 -1.4182867191213182 2.3804882487339554 57 77 38
12.720427288633537 -1.7340286799941311 2.0943134356489326 61 78 40
12.769936614895709 -2.3510876516699475 2.092076899892586 65 84 53
11.357467597583165 3.0372758961807667 1.8710684800008313 53 74 27
11.78696021712737 -2.9699674561962417 1.9496353772384443 62 84 39
11.945499510861486 -2.797204499205933 1.8558615569669834 65 89 49
23.511364533736494 -2.384356247501724 1.7572885176494937 39 38 22
22.495595666984165 -2.29059269641148 1.497797856006984 58 59 41
23.199777109674567 -2.262170034266675 1.5862847657407784 56 56 38
16.14763834301346 1.361750908515629 1.2792945124909012 51 67 23
11.69890672297601 1.2900254246894387 1.4300898137490747 44 60 11
16.735431549368517 -0.1308684205743551 1.0282586532036277 43 64 31
11.945492584629909 -0.5035739368064441 2.620378602615487 52 72 29
11.947643989914814 -1.350555141790777 2.132070248757102 59 74 35
9.805001201888428 0.015798453548142348 2.149082800885514 51 71 29
13.087906511863219 -0.7296335914791979 2.8063510686716318 59 81 37
11.242910901927251 -1.1835638784393756 2.284414940106803 57 74 35
12.82237969407924 -0.5035739368064441 2.6592215158156187 55 77 32
11.286323396553637 -1.1337445528037022 2.404846583553607 58 76 34
16.50230499838948 1.545009243339395 2.6262824545519066 56 72 22
20.13487256622557 -2.990010738802524 1.2346938244203685 43 61 17
11.839735546124414 -3.0679123815919693 1.5166566776701884 57 78 32
11.954911771691588 -2.984274170904411 1.517178773699625 59 81 36
20.601387409070885 -2.9273800938821535 1.083811970807025 43 60 17
19.289810978090987 -2.6013669808686344 1.1063359378302928 56 69 38
19.507386635588478 -2.5203803323722602 1.0538739721960608 57 70 40
13.676174799436934 -2.9924084855589834 2.699156484446479 64 89 48
14.919138439234704 -2.519389151571159 2.547077365959094 64 89 53
15.113594478465627 -2.680501953048522 2.528307057048793 65 90 52
12.882102646027189 -1.9374446571163677 2.1788633699778974 64 81 47
13.493993729068821 -2.1491205913995257 2.2388816134532386 65 82 50
13.018602031744386 -1.769953219164894 2.373041500615199 65 80 44
12.802525887832429 -2.019613907783597 2.390659008438111 64 81 47
13.132480691927878 -1.7944674351722012 2.479701731415142 63 80 44
12.681110543257537 -2.022636316156099 2.096104051683663 64 80 48
11.301886917542557 3.1295721560000507 1.8725915672687143 54 75 28
16.877863558286666 1.3155014858281942 1.4136923103424672 49 67 21
11.76678887773962 -0.7517402473307501 2.4904650094130174 55 74 30
12.97503918022505 -0.1392432219356271 2.6372128213127457 49 70 23
9.54996112869173 0.22725225219027423 1.713618503935422 50 68 25
20.01680582888726 -3.0423846749054793 1.2326324360297498 42 60 15
11.968250578871144 -1.3675714915580275 2.6170763315165875 60 80 41
15.102237804326673 -2.8728221738170143 2.656414082264868 67 94 55
12.362094817215876 2.8747336829231993 2.4296554717445162 54 76 28
13.36525178844745 -2.47818782054365 2.1539155760241866 65 87 51
11.937177581923754 -1.4692380383899428 1.600901286112519 56 70 37
14.710455265474328 -2.4620284376842254 2.7096422446568416 66 91 55
12.649537385319604 -2.6799790890306294 2.097551414585726 66 88 52
11.77413023005797 -1.4599684375218933 1.9500691789663442 58 73 36
12.224376088627844 -0.6389430365337613 2.581923667494442 53 73 29
12.113611721601599 2.0540040433856595 2.1234792198904944 62 78 34
18.654577696273645 -2.553118332265101 1.263612562511975 59 70 38
12.573019152258837 2.7595837250753577 2.4104272135943323 54 76 26
12.958600412112235 -1.6506956607714796 2.271922282963381 60 80 41
11.888532135525935 -0.9880962088109789 2.628784746790142 58 78 36
11.660392633513029 2.9038935703824746 2.253815458960731 54 75 26
14.118308452545039 -2.5527965224774207 2.2955089966858444 66 88 56
15.011229431051463 -3.0141213435186684 2.66804212309238 67 92 51
10.82893983519743 2.4749291914857205 1.9851096786080198 59 78 28
12.113611721601599 2.0540040433856595 2.1234792198904944 62 78 34
11.818644071910526 -1.2596158830032986 2.484728486604903 56 76 36
11.72891001167584 3.0267100219156986 2.1438392483634745 54 75 28
12.160739802100746 1.6358594159786881 1.6003476758990018 39 54 4
15.125968412740274 -2.4934550784735086 2.8218468459119275 68 93 55
11.466441044647524 -0.8449488054588808 2.3876917234945116 53 71 29
11.277411863697523 -0.7573095396602673 2.281769104197806 50 68 26
9.53615568800184 0.25381944598600886 2.0455679710404375 49 67 23
12.545722114559448 1.6486578032813441 2.1976499311878173 30 44 1
