11.829706311061779 0.5605842459686116 2.02091889344963 52 67 15
11.628669729002235 0.6931809306694073 2.0292895952146703 52 67 15
11.009391259885877 0.9634140998540975 1.8606693244737769 49 62 8
12.269802412166227 1.235249001867268 2.2969161422626336 44 56 6
12.125275935040507 0.8359691414344504 2.307550463129784 46 62 8
10.882786234574073 0.8359691414344504 2.1710119675072037 49 64 10
12.154764836912083 0.6787431440200284 2.3053517882152077 51 66 13
11.61949588512306 0.9907515844308961 2.233272896035496 46 62 2
16.663434527054353 -0.3413793541811587 1.275265947753463 45 57 7
16.663434527054353 -0.3413793541811587 1.275265947753463 45 57 7
16.102483672469045 -0.281073315041068 1.3291607231037432 45 56 6
16.079877755354467 -0.4820905425338614 1.3924138886800255 54 64 19
16.462315701777 -0.4244743845239585 1.2072936414170623 52 62 16
16.550862227173486 -0.39921009741274815 1.3975422686743606 53 64 16
11.480757138277164 0.060097812682679476 1.8484450392339813 48 64 14
11.576068548940267 0.2597488883378052 2.0315336179000556 51 67 15
12.347238556875638 0.5265984812501713 2.2913609800771635 49 65 14
11.870522376656691 0.47708628102643835 2.115099635184232 50 66 16
12.268565997058722 0.18231367745663837 2.2970056330220636 48 64 14
13.205642739293724 0.32056425141264383 2.447086760692546 47 63 11
12.705182016371458 0.428400310159825 2.3744953308012406 49 65 13
11.813143592433521 0.2870579559561828 2.2205481813125347 50 66 14
13.443038726636454 0.428400310159825 2.4261471310961205 46 62 10
10.62417348385137 -0.3214339113552654 1.6789514649719406 47 60 15
11.267120036370722 -0.20893934439079298 1.583827538256288 47 61 14
11.161000138817835 -0.12070943217721886 1.673730448846437 47 63 15
13.143726637370735 -0.28349024441670784 2.452761629828093 48 63 21
11.743888252853955 -0.2534705715332471 2.2250365721261662 43 58 14
11.585510321595674 -0.4956580989858578 2.2355632755934316 48 63 22
12.614976010013805 -0.3942293533329365 2.3819415010371254 46 61 20
11.34461118142964 -0.13262044396147396 2.041686463917153 48 62 15
12.228607503727735 -0.14712062138447846 2.29991140929006 44 60 14
11.270603040911556 -0.03360178160558523 2.045032221825336 49 64 14
12.949676297053646 -0.7252238329481934 2.471167877725661 62 79 39
12.706012665250363 -0.6499415775101525 2.374427521013521 54 70 32
12.149467174447459 -0.9250804122453722 2.5592305877869808 61 77 37
11.85610690046391 -1.0556838348378332 2.597950980963745 62 79 38
17.272072092276954 -0.7102075861719077 1.162792177480984 62 73 36
15.962226506487314 -0.7102075861719077 1.4544360894284136 61 72 38
16.912106203679468 -0.5694943129147858 1.153573228023483 53 65 21
11.634614684538738 -0.7408719344849689 1.9352307512755378 44 55 18
11.980846610638114 -0.9453050615722218 2.10953519467924 48 61 26
13.012956710229169 -1.121381886147669 2.3502641435932023 58 72 29
12.396101499676611 -1.069432862273302 2.400718381145618 58 72 33
11.854500728756092 -0.7342162118924538 2.2179000612172493 49 63 25
12.396101499676611 -1.069432862273302 2.400718381145618 58 72 33
11.384885471828639 -0.8073833496811269 2.039886383686817 46 57 21
12.739496087151561 -1.2231320778075867 2.371705408844126 62 76 34
12.338597196895662 -1.1259152934679715 2.5363501662742176 63 77 38
12.20786239380259 -0.9007244806021342 2.4177350322129203 63 75 38
14.475247040950553 0.10969400560280683 2.709825562337204 60 76 26
13.961875825543048 -0.5060542696734269 2.62599691870174 63 79 39
13.17806846100263 -0.04794048119824962 2.5789744365470604 51 67 22
15.015253750687389 -0.06698696195722924 2.799823606713191 64 84 40
14.463240816527039 -0.5865434949450592 2.711630725382121 64 82 41
14.265750066675084 -0.4355891289342187 2.742889636154226 64 82 40
15.378560627876722 -0.055887115308073824 2.7386353547326983 60 76 30
15.015253750687389 -0.06698696195722924 2.799823606713191 64 84 40
15.070884351939846 -0.2602089234849748 2.789593885968692 65 83 41
21.60043130048705 -2.224319601507621 0.9899312058351071 39 49 11
12.836671914075282 1.5688137160241735 2.161264796235094 53 65 14
12.877205737944763 1.475323889453482 2.159156574818779 55 69 19
12.799689820219795 1.3646090387764553 2.2607296306487332 48 61 10
12.05867214886757 1.6717501505865129 2.205166781463461 47 62 10
12.680290915672632 1.4655133004532659 2.268525176803129 47 62 10
9.060401881546207 2.4598959516414065 1.6977117348364315 62 77 24
9.206144373600686 2.3021192975840967 1.806157549677178 59 74 23
9.206144373600686 2.3021192975840967 1.806157549677178 59 74 23
9.866122566693415 2.3021192975840967 2.0045821558875017 58 73 23
8.953536393746443 2.3021192975840967 1.587195059378978 51 66 13
9.190080956541214 2.0497015402417276 1.9202822330434697 53 68 16
10.38928710985192 2.2919824141167746 2.329391967830164 57 72 20
16.170894121335007 1.567063278183131 2.7837989684854363 58 74 22
16.547631453818806 1.567623527334786 2.7271644502892567 58 77 26
11.510113260073995 -1.3817437257882677 2.649946469163429 62 80 39
11.641520048837245 -1.2087736607410615 2.6292655683458723 61 78 37
8.963920597627867 2.5525420049997174 1.9294928209704891 52 70 15
11.052940471575791 2.7770467248206434 2.3995247893500395 54 71 20
10.450348073434991 2.722548173787909 2.464781745666273 52 71 20
10.749218426490996 2.650423692576578 2.588547386827138 57 73 20
10.226355494098629 2.5072806860225723 2.49252783554477 56 72 19
11.03956461226619 2.5072806860225723 2.547307538198589 56 72 19
10.450348073434991 2.722548173787909 2.464781745666273 52 71 20
10.012113901030796 2.5918996127881213 2.3657301997735405 56 72 22
9.691530663198067 2.819204982245971 2.569209056397781 53 69 16
10.419631222610544 2.4792043250773683 2.32663542868664 55 71 19
11.523841426905495 2.936091237570817 2.3559777460302467 54 70 17
9.570761544815646 3.009179826285753 2.5891012002093743 56 72 20
10.747786421967326 3.0468551223120133 2.4310373757409494 55 71 18
10.337981085854206 2.7770467248206434 2.3341062331900053 53 70 15
9.836312829320034 -2.552063143481579 1.7908218734007582 55 71 23
9.98331710393243 -2.6437201552378746 1.9991513071956386 56 72 23
10.24482934597887 -2.610550456850741 2.6743709053107656 65 83 38
9.980436284261458 -3.0571328610325095 2.7299754026439356 58 77 28
10.063936524850316 -2.817453435817325 2.7113654256083577 64 83 38
9.5537001470496 -3.0740385425357846 2.5920046026763486 72 90 39
10.063936524850316 -2.817453435817325 2.7113654256083577 64 83 38
9.640897077126649 -2.8792735611742897 2.577412321572553 102 120 72
10.21509158662245 -2.3215044772866364 2.34568072080999 60 75 34
9.76679977837332 -2.211439358060447 2.3916769821481774 60 77 35
9.730076370258928 -2.425001950593096 2.395737872650175 60 75 34
9.76679977837332 -2.211439358060447 2.3916769821481774 60 77 35
10.050388454957265 -2.313170529972638 2.5159680903615427 60 78 35
9.661086799295651 -2.443727110368253 2.574118365635265 65 82 37
10.184610931955145 -2.079888552831397 2.4979494030717015 61 79 37
9.661086799295651 -2.443727110368253 2.574118365635265 65 82 37
10.184610931955145 -2.079888552831397 2.4979494030717015 61 79 37
9.588991738177091 -2.8184797817713307 2.266634297323971 66 82 32
9.606491788332285 -2.7689964126058095 2.4097694704126846 81 97 49
9.695490824199512 -2.5855664518662773 2.1303957662306123 58 74 26
9.880408519228448 -2.6955874281582752 2.2422465584798466 58 74 25
9.201345243745093 -2.6325450603938867 2.302361217692358 63 79 33
10.182153616703616 -2.488738756163532 2.1007282514063577 58 74 26
12.006515614937781 -1.4110266292216471 2.577566236412447 59 75 35
11.963032033059028 -1.5674601583767596 2.583338710875287 60 76 36
13.200908178847456 -1.4723293827875268 2.2359002119092564 58 71 40
13.225966456891353 -1.3576163695047239 2.334471200008281 57 72 33
12.433433427430577 -1.4618625847364364 2.2852899156722386 57 72 34
13.11045029474834 -1.4618625847364364 2.3429419242790765 60 75 36
11.898687692967993 -1.3019859346664762 2.4476417659453693 59 73 33
12.391448059310893 -1.5685320892330712 2.288232552948716 57 72 33
9.648761779482056 -2.3271344545587804 2.0150425963035783 57 71 30
10.333068945342779 -2.2545614173149358 1.9837488814328725 56 71 29
10.190165835491687 -2.470394852063972 1.5852048409404274 56 70 23
10.350978300045917 -2.3311925049333406 1.7797154269068929 57 71 30
10.662358282792377 -2.3271344545587804 2.1852316716170597 58 72 28
10.252230769626406 -2.1670215002243722 2.096728628366546 58 72 29
9.683514223985421 -2.13147241723296 2.2585092574737207 62 75 32
20.321710099094474 -2.233875456293165 1.2786315331774785 38 50 12
20.14130573302637 -2.4141187680337772 1.4786570834833856 39 53 8
20.674072433593448 -2.266829049077237 1.1282673217721004 39 49 9
11.960784073658717 -1.5659216591986327 2.770543025342639 66 87 47
21.191994073658165 -2.1625029253186425 1.1911705042477487 37 51 8
21.509869988753863 -2.0055105136388582 1.4377590882945155 46 55 21
11.844283895962183 1.2677787120755064 2.116441080501398 47 59 8
11.928817748822798 1.1362242665752709 2.213200692526916 47 60 7
16.102483672469045 -0.281073315041068 1.3291607231037432 45 56 6
16.37059376703892 -0.281073315041068 1.2698154078785568 47 59 10
16.493649934936816 -0.3636966613459795 1.1422993383426354 48 59 11
16.493649934936816 -0.3636966613459795 1.1422993383426354 48 59 11
15.861750172613709 -0.4244743845239585 1.3254186070789316 53 64 17
16.7613405920421 -0.5364333704962958 1.3388368624221043 56 68 23
16.55219587709455 -0.4820905425338614 1.2732192886362488 55 65 20
12.149467174447459 -0.9250804122453722 2.5592305877869808 61 77 37
11.285069027426957 0.06607826179243292 2.044374341135773 47 63 13
10.834454798899298 -0.44812408648343083 1.9635607176365604 50 63 21
12.443632977236668 0.2870579559561828 2.2845791840960934 49 65 13
11.094154887737652 -0.22909837486417636 1.9538819662869134 47 62 16
11.581626591981305 0.14977489394031598 1.845963634456635 52 68 18
11.233336738627438 -0.03055492558032652 1.7630907415030774 47 63 13
12.228607503727735 -0.14712062138447846 2.29991140929006 44 60 14
17.065980093704464 -0.670980725590871 1.343051309845825 62 73 36
16.045400805740556 -0.6220798272894907 1.5175983734013523 60 71 32
16.274753661528095 -0.6220798272894907 1.3945723915312689 57 69 26
16.204191825258757 -0.7533702554954491 1.2012269277539582 39 50 17
12.620747306518338 -1.0053489752287608 2.504753411442996 61 75 36
12.880787659893128 -1.1801796147616754 2.4779415460948355 60 74 35
13.02755204010305 -1.164129563934279 2.2463802731354514 58 71 35
11.291009952184542 -0.810939960540583 2.2561741079958404 56 67 30
13.415232778694655 -1.2578569289556798 2.3210487493126792 60 74 36
15.026115108221356 0.13131063778069416 2.7977973993282195 61 79 31
15.026115108221356 0.13131063778069416 2.7977973993282195 61 79 31
14.46397202875342 -0.055887115308073824 2.7115204970193565 59 76 32
13.945226537317053 -0.5264381118082578 2.801569579334957 64 84 42
14.767845928292891 -0.3209613197309048 2.850557755460735 64 84 41
15.015253750687389 -0.06698696195722924 2.799823606713191 64 84 40
15.015253750687389 -0.06698696195722924 2.799823606713191 64 84 40
13.58979831413671 -0.4436590057690022 2.532616995985399 59 74 35
14.711069417611466 -0.08357585999504573 2.8637324154146526 63 83 39
14.223310036823992 -0.3212985954375037 2.594437366300881 60 75 33
12.639125599436912 1.5686085442363051 2.271259004673974 48 63 12
9.210213131442487 2.146971063070409 1.6956364748257062 49 64 12
9.898070653682074 2.4598959516414065 2.0030875621831425 56 72 20
10.276252465099724 2.3833063791013456 2.211996608108603 53 69 17
16.579094924607976 1.418727379447676 2.722871329265524 58 74 26
16.547631453818806 1.567623527334786 2.7271644502892567 58 77 26
11.464747074051953 -1.5668350455927817 2.657387559110312 60 80 40
11.464747074051953 -1.5668350455927817 2.657387559110312 60 80 40
10.546061195177426 2.819204982245971 2.6205908622288154 54 70 18
10.435186470995175 3.009179826285753 2.6394147349190593 56 72 20
9.413440535002504 2.6582305774158854 2.1492768024953794 52 68 16
10.855468807021264 2.9076444645807253 2.4195854889645156 54 70 18
11.037733967791167 2.8194445023626136 2.2750822192113644 54 70 19
9.912217544207492 2.650423692576578 2.5355292673700323 54 70 17
10.403499069579109 2.5525420049997174 2.202897922907079 53 70 15
9.591293470937913 -2.7454854854398474 2.017896465616574 55 71 20
9.880408519228448 -2.6955874281582752 2.2422465584798466 58 74 25
10.499549351684953 -2.8792735611742897 2.6283625820845264 81 99 53
10.181970343110994 -2.299571725328784 2.6867609479408747 69 87 44
9.362846158701482 -2.610550456850741 2.626246496006494 80 98 52
9.40386408337453 -2.079888552831397 2.4340903584097537 62 77 36
9.899434838210624 -2.476387114873966 2.7491404119718093 70 89 45
9.164560995459494 -2.817453435817325 2.665839901829603 84 102 57
9.588991738177091 -2.8184797817713307 2.266634297323971 66 82 32
9.40386408337453 -2.079888552831397 2.4340903584097537 62 77 36
9.258329652740796 -2.313170529972638 2.452674293359368 61 77 34
10.193361303515184 -2.921614004783207 2.4968060286058376 97 114 61
10.872881383061108 -2.398087966184175 1.4922469628092574 56 70 29
11.770152379091769 -1.4325050578492706 2.4608728921566767 60 75 34
13.200908178847456 -1.4723293827875268 2.2359002119092564 58 71 40
12.391448059310893 -1.5685320892330712 2.288232552948716 57 72 33
10.740109972722072 -2.404371204785875 2.0705562512917686 57 71 25
10.135490414300612 -2.236755965501805 2.222403398702938 59 73 30
19.83150421735941 -2.3425914472737785 1.217949810973019 37 49 4
19.54832038877081 -2.3065205651049543 1.424317835576705 36 50 9
10.96283165420616 0.7592430366754774 2.059497025890579 51 66 13
11.584183603299168 0.6147597361751639 2.130130287853397 51 66 14
12.032080375059921 0.7592430366754774 2.206793994227251 50 65 12
11.447183625723477 0.35045280101269405 1.941484336324689 53 69 19
10.922933630228465 -0.5870895503244149 2.06144023737432 49 64 24
12.181973405887662 -0.7252238329481934 2.4201426004964817 61 75 37
17.05833187428554 -0.6220798272894907 1.2205519760939538 57 68 27
10.695649057862365 -0.6686253639531965 1.869430356559184 46 61 22
12.058688736397269 -0.9706358786940651 2.312571161686922 60 72 35
13.503649148354617 -1.2864473194875405 2.21843521215252 50 59 43
13.503649148354617 -1.2864473194875405 2.21843521215252 50 59 43
12.620747306518338 -1.0053489752287608 2.504753411442996 61 75 36
14.711069417611466 -0.08357585999504573 2.8637324154146526 63 83 39
14.521714664617773 -0.21848276467561864 2.7029323250041064 62 80 37
14.521714664617773 -0.21848276467561864 2.7029323250041064 62 80 37
12.47281320586447 1.383474009976448 2.0861210825238987 54 66 17
10.83998529038414 2.936091237570817 2.2906858873856755 53 70 16
11.510113260073995 -1.3817437257882677 2.649946469163429 62 80 39
11.05337617855643 2.8702808157120105 2.5454610345889215 53 69 17
10.41954061542323 -3.0740385425357846 2.6421560471453045 64 81 32
9.82957813966412 -2.7027597748676033 2.5477679390881267 92 110 64
10.100107633021423 -2.412869358177038 2.2250781791510534 59 75 28
10.63955558185894 2.6582305774158854 2.3073267330791696 54 70 18
10.62565935552555 2.3889264119006057 2.4445000620834545 57 73 21
10.552072309267285 -2.172656301531544 2.619599091224118 63 81 39
9.715071391267887 -2.488738756163532 2.0117963382188515 56 72 24
10.277748021007461 -2.5140452740799137 2.3397285731236837 59 75 30
9.327415302164773 -2.55114461237805 2.4437287621729165 66 83 39
9.640897077126649 -2.8792735611742897 2.577412321572553 102 120 72
9.704897400579247 -2.2545614173149358 1.7938513306797774 56 71 31
10.135490414300612 -2.236755965501805 2.222403398702938 59 73 30
11.12746580705947 -1.5674601583767596 2.535717239212802 62 77 36
9.937941534982313 -2.404371204785875 1.8929888989198806 56 70 23
19.93864463168435 -2.3065205651049543 1.324920701032791 35 49 4
19.265509286204182 -2.4185100385877365 1.3161426339133249 36 49 7
19.70094409274723 -2.3796932701930738 1.3739439036438652 35 49 4
21.180304766245538 -1.7511547206445062 2.2404438558177224 45 47 33
11.190010178267588 0.8290908252438328 1.9504322419586726 50 65 10
11.576068548940267 0.2597488883378052 2.0315336179000556 51 67 15
11.414857910233309 -0.3542856157175013 2.139443858680841 46 59 15
10.699151390085483 -0.53421586674597 1.7728210678507277 48 62 22
12.173389896663917 0.07337812399751463 2.3039708386263587 47 63 13
12.077940701271867 0.3857215297249953 2.203993380790728 50 66 16
12.691953513676605 -1.0287002923863628 2.2677550098523596 60 74 33
14.647658746454619 -0.37021309674014213 2.684948563889398 61 79 37
21.542644859570995 -2.0505052187452866 0.9314900067455941 58 67 37
9.650053479975835 2.379333153171057 1.58601134436401 54 69 17
12.877205737944763 1.475323889453482 2.159156574818779 55 69 19
9.294227040952112 2.212518160075329 2.0332792784782576 57 73 25
10.261392812813263 -2.5855664518662773 2.2130779320806404 60 76 30
9.912217544207492 2.650423692576578 2.5355292673700323 54 70 17
10.732596280688044 -3.0933621713095425 2.4326837353712296 56 74 20
11.410445954316877 2.3889264119006057 2.500793256679256 57 73 21
10.118905277445405 -2.3271344545587804 2.104393905267801 57 71 29
11.258405499845024 1.0455134487976376 2.0455884257127703 47 60 5
16.417363330202438 -0.5364333704962958 1.4576759624203048 56 66 22
12.851411271332477 -0.03732327755533677 2.362763700736269 47 62 12
10.342627159585854 2.212518160075329 2.207214965521162 58 73 23
11.03956461226619 2.5072806860225723 2.547307538198589 56 72 19
10.76041971934155 -0.22909837486417636 1.8675778878058107 46 60 15
12.639125599436912 1.5686085442363051 2.271259004673974 48 63 12
10.127052619591428 3.0311291781961867 2.5055640355785167 57 73 21
12.13254709446838 -1.2620459965665785 2.561351692892786 61 76 36
10.110929962767381 -3.0853111423506028 2.507726739439157 69 87 34
11.42246169546989 3.0586704750921574 2.3648891780798533 54 71 16
11.021237958537263 0.9048191521321455 2.056681313999782 46 61 4
13.079093547880442 -0.5533219499835749 2.4587854915863803 58 74 35
11.38767197463018 0.16446457400150385 2.039762371010047 49 65 15
19.40913389152101 -2.3796932701930738 1.4751708715572498 35 49 4
