12.892131695227771 1.7413040412115204 1.9917656235971815 37 47 10
11.847071999366284 1.8734773975784058 2.128338250659308 37 46 9
12.202318177486163 1.7759349981644093 2.208870788455825 37 47 9
12.037866916453062 1.5704401604221192 2.219039810859968 34 45 7
13.08435035262674 1.823680751617789 1.9851976700250669 34 44 7
12.206898063366149 1.846404182909643 2.017044989342271 36 46 9
11.875269736853902 1.6645737465738946 2.0304491767340984 34 45 8
10.51977403124931 1.2346562178099532 2.0953198111907607 32 39 2
11.969203399717312 1.4545905399592243 2.3333893213658414 35 45 7
11.927069821502325 1.5703987261319332 2.33676983051093 35 45 8
11.43261584606681 1.7990201612428731 2.2597787789176946 38 48 11
12.09415832212467 1.341818128133421 2.3235642449481464 34 44 7
11.620784148054785 1.9465508828748974 2.3624417568224043 39 49 12
14.709962671705012 1.0782103077487704 2.695163974609446 38 48 11
12.533031879874498 2.1485815278358285 2.688480011246001 44 54 17
13.589443920006557 1.5703463822435058 2.5484636453841425 38 48 11
13.439252455087603 2.1485815278358285 2.7210594754488375 44 54 16
16.070393255441076 1.1597202945629952 2.8243184466220588 38 48 10
12.89301279413914 2.427712774407484 2.829024921834108 49 58 25
8.60417713077359 -1.7045914886063718 2.089867738003769 39 50 16
12.138627577339856 1.9654344685728418 2.1134305129646354 37 47 10
12.49005703880488 1.9314775737730674 2.006226257262619 36 46 9
11.530346084397777 2.23906903050111 2.1455592550513884 38 48 11
11.766039723110563 2.5603943788538643 2.350019023627632 41 51 14
11.536677863971903 2.466967971518373 2.252372103930435 39 50 13
11.945335243939871 2.006003677334756 2.2249202403834474 38 48 11
11.75361987405035 2.0973320768628345 2.1333036007350046 38 48 11
11.478248189872133 2.385661766472912 2.1485019086281425 39 49 7
10.838836268781774 -3.0839045224304664 2.4384920473359464 49 60 27
11.518046708774781 3.0672068298530415 2.371515406559052 50 60 30
10.897020413587711 -2.967780858952449 2.300970868437872 48 61 28
12.629284943495675 2.8875225351171783 2.18402681760367 50 59 27
12.491688922257357 2.860676537875705 2.294153414534211 50 59 27
12.629284943495675 2.8875225351171783 2.18402681760367 50 59 27
12.33507533642378 2.796288394457718 2.1038544144086826 42 52 15
12.737117254360127 2.7613451170893297 2.277263766580215 43 53 16
12.63219724230492 2.055142634378889 2.394555482310081 39 49 12
12.842007701183348 2.1155546502412244 2.497404410391951 42 52 15
12.424721640777786 2.219095963006061 2.412767101749512 40 50 13
11.924002852647282 2.2996723787797353 2.4611299669529862 40 51 14
11.957555967347854 2.4876620085868857 2.457670679905088 43 53 16
12.808983277572718 2.286554749508555 2.64606777541591 46 56 19
12.748323935399663 2.4876620085868857 2.5072534146578733 46 56 19
11.046439499128207 -3.074311295761132 2.5662967926453972 50 61 28
13.161418746207517 2.5655423051272876 2.771080029861876 50 59 27
12.7584328934928 2.71900187546372 2.3839321283229764 44 54 17
13.261392000489252 2.601420566306165 2.586227324124337 49 58 26
13.394581263850466 2.4089147185159168 2.7285801363429423 49 58 24
13.025845614384084 2.733048100661908 2.616092489109005 50 59 27
11.127981029235652 -2.9115913637674335 2.555093413377879 46 59 26
11.329665760842406 -2.739137398494531 2.2672861686701404 44 57 26
12.010375362167629 -2.466333237865121 2.11988238562719 51 60 42
11.692429874836712 -2.5797926329134953 2.356256512482564 48 61 26
11.094892699783834 -2.8106253077952035 2.4116844547861582 44 57 26
12.104588078786604 -2.4839172363328506 2.3227573858541586 49 59 34
12.104570792459526 -2.3946488452029056 2.02109343672499 50 59 46
11.551979663472663 -2.625285994062036 2.501957349133384 44 57 27
11.29779172963271 -2.7603051577382827 2.53284477301868 45 57 24
10.899133364032954 1.1755513030559017 1.8753513701317432 35 42 6
12.892131695227771 1.7413040412115204 1.9917656235971815 37 47 10
12.71470037793482 1.823680751617789 1.913143272669093 34 45 8
11.648942852762433 1.9062275754658302 2.2445781600886656 37 47 10
10.825683748445734 1.341818128133421 2.1883249840864147 34 41 4
10.84769473968365 1.1349353169518535 2.077916234209189 32 39 2
13.396291118951284 1.997226708353766 2.570205133321906 43 53 16
12.797575629117933 1.7990201612428731 2.380704459648931 39 49 12
12.35229706027624 1.9465508828748974 2.4193587057573165 40 50 13
13.391349126441549 1.5703987261319332 2.4446165907738617 37 47 10
12.68063281044886 1.4545905399592243 2.3904400690500296 36 46 9
12.533031879874498 2.1485815278358285 2.688480011246001 44 54 17
13.62593668553433 1.701250686694835 2.5445022792224337 39 49 12
16.261480012956117 1.5701855709750951 2.7902891455887753 40 50 13
16.292408284492023 1.3933698757976463 2.7851457020319725 37 47 10
8.352265942139665 -1.7251751540368898 2.253333797869211 38 49 13
8.7305961669957 -1.8040455194816616 1.716583985364619 41 51 18
11.536677863971903 2.466967971518373 2.252372103930435 39 50 13
12.103119402683543 2.23906903050111 2.214962469671466 39 49 12
10.921927844505655 -2.9435441625739274 2.4295633168113264 47 60 27
10.813737453582762 -3.091105495247584 2.3078870425977773 50 61 28
12.445457055591092 2.669300311700056 2.1944600026610783 40 50 13
12.513422636388807 2.8276952832615048 2.404862461608226 51 60 28
12.693667713601473 2.786308322540842 2.5131288948511323 50 59 27
12.935264351539155 2.6668430788276525 2.487865929387292 48 57 25
13.155349372339929 2.397937207728721 2.599357176800287 46 56 19
11.938736706850934 2.286554749508555 2.6062294514397966 44 54 17
12.35820771699445 2.190985229136922 2.5515012807863413 42 52 15
12.082118961947947 -2.5472955041058056 2.2162685242728064 51 61 37
11.353624099768556 -2.688776577809695 2.386565391113482 45 58 27
11.094892699783834 -2.8106253077952035 2.4116844547861582 44 57 26
11.433811572305613 1.341818128133421 2.2596926486442257 33 43 5
12.079048157922966 1.6742800004019953 2.216459991456092 36 46 9
14.709962671705012 1.0782103077487704 2.695163974609446 38 48 11
10.3753619915637 -1.6763757964287869 1.9947737344680363 44 54 20
10.921927844505655 -2.9435441625739274 2.4295633168113264 47 60 27
12.289383760874891 2.1526333237373425 2.3087846154803318 39 49 12
12.491688922257357 2.860676537875705 2.294153414534211 50 59 27
12.158546537492514 2.3086346712360326 2.3186147779124884 39 49 11
10.847683415473117 3.0566230183002054 2.4375303737041687 50 60 30
13.72617833692543 2.517781488849885 2.6765203636560355 49 58 25
12.596804732414565 2.6624343278402156 2.6781908779344468 50 59 27
12.7584328934928 2.71900187546372 2.3839321283229764 44 54 17
12.156662592774879 2.6668430788276525 2.4378190582707564 45 55 18
11.127981029235652 -2.9115913637674335 2.555093413377879 46 59 26
12.052200353028388 -2.3313538886151197 1.8454145269937148 50 58 47
10.899133364032954 1.1755513030559017 1.8753513701317432 35 42 6
11.968632295721118 1.6862175305532636 2.333434910877833 37 47 10
13.130942187471046 2.265530061158518 2.77710165061058 49 58 24
15.976567337438695 1.3558419881844044 2.842719686413972 39 49 11
11.478248189872133 2.385661766472912 2.1485019086281425 39 49 7
11.247184993110087 2.055142634378889 2.273435029794369 38 48 11
11.043356207367403 2.1526333237373425 2.1743951859878905 38 48 11
11.127981029235652 -2.9115913637674335 2.555093413377879 46 59 26
11.488689229371175 2.397937207728721 2.5093993481549717 43 53 16
11.070374432388276 -2.8495516048342595 2.287038620842628 45 58 25
11.847071999366284 1.8734773975784058 2.128338250659308 37 46 9
8.270570671560847 -2.10125126588705 2.644171330233532 37 48 10
11.74292283970967 2.6199560273286915 2.238204419838896 40 50 13
12.503577246713947 2.050864870266463 2.0959214466955114 37 46 10
12.49005703880488 1.9314775737730674 2.006226257262619 36 46 9
11.968632295721118 1.6862175305532636 2.333434910877833 37 47 10
11.551979663472663 -2.625285994062036 2.501957349133384 44 57 27
12.472041303485684 1.7570417019974283 2.0973870679773405 36 46 9
