9.666952804770148 1.258704006311552 1.8681373122853617 48 57 5
10.558629521615389 0.9848574756833769 1.5549047043763033 51 58 10
11.350409289481393 0.910004571343199 1.3786282245889387 51 58 10
11.62450131004675 0.4972116614261017 2.0963791971765415 55 63 17
10.577823393797814 0.3682735539573599 1.6495530064244932 56 64 18
10.53472405300737 0.7143340483301618 1.7456066336385194 55 61 17
10.726782416199184 0.5804664566483179 1.7424453321068916 56 63 18
10.872106208711775 1.015401644149401 2.1370073275634005 53 61 12
11.698528101837924 1.1133389733798325 2.3043374015307467 61 69 21
11.903715676703353 0.7031318643766782 2.2889078666358245 57 65 18
10.703026411630047 0.3682735539573599 1.742830116473574 57 65 17
11.442858466351824 0.9521547210897122 2.3246632022124745 60 68 20
10.585877088187846 1.1973951689611768 1.4602558100477174 51 58 10
10.265710244637477 1.288814288813333 1.4567934905693691 47 54 6
12.504976361879248 0.6367531283950232 2.2476298605078764 55 65 16
11.493810638789453 1.258704006311552 2.2073472788725574 59 68 15
9.910649516665318 0.9280515231688518 1.7567391448687746 52 59 9
10.761049087887782 0.4972116614261017 1.9349075563785143 56 63 19
10.78414131151241 0.7823378631050526 2.0354185731623584 57 64 20
12.014121058933984 0.6045373026684643 1.4734414361566428 57 65 21
9.538762680713527 -0.24436445598250106 1.8722579314643324 58 64 21
9.912781511423226 -0.12175023800028094 1.5538692207344271 56 62 19
9.875231677220834 -0.02070569585739674 1.6551691847894556 57 66 21
10.038782997174383 0.08076203879768627 1.7543386028338601 56 66 20
10.167089103192472 0.1805955171792821 1.751996487320294 56 67 18
10.399749352080509 -0.02598697660930042 2.2875749702716943 68 80 31
10.740177857167252 0.20051275358815912 2.144834793724982 58 69 20
11.10908411938944 0.10124349799000354 2.353258693944337 68 80 31
10.074816139767337 -0.023047713494279747 2.07103263212711 56 66 20
9.467885709859177 -0.27408420934804756 2.1064221843699755 65 77 32
10.467198756983711 -0.1523859005233533 2.281973511165688 69 81 32
11.225163105254563 0.2252842403569187 2.3430300992383035 66 78 28
9.825191920563926 -0.5860925441403729 1.863205903416609 71 78 39
10.030603484968834 -0.6695333293982326 1.6538592301782185 59 65 28
10.69979565176463 -0.4038134593711092 1.5551143853886888 53 60 25
10.466646527733218 -0.1742505061744968 2.4162951058935023 73 85 36
9.657425775466848 -0.7368031740263069 1.8684396140625468 70 77 41
9.695222995959828 -0.8897385274999475 1.8672439327164887 68 76 41
11.013242997939424 -1.1955063032712858 2.361947736915787 74 88 43
10.120331290727878 -0.7153645653718789 2.4557865358089987 75 85 43
10.703272630318494 -1.0167699424510341 2.3916951659119996 78 89 48
10.574902773368091 -0.8218039173037538 2.404821142959043 75 87 44
9.857187329482691 -0.8218039173037538 2.336604760721013 74 84 44
10.455364264101219 -0.9793892393831065 2.1625534069785055 72 82 44
9.921323788475876 -0.6240655059779144 2.330407122816706 76 86 44
9.369087435806904 -0.5512025267640779 2.1126924214341525 76 86 44
9.541318712073634 -0.4381473677526361 2.228446252272963 75 85 41
12.284782835588773 1.1752262701789713 2.498686967443161 68 78 27
12.284782835588773 1.1752262701789713 2.498686967443161 68 78 27
12.070082295912552 0.7818117831492204 2.39167390316548 60 69 21
11.761094870363003 1.115483733717878 2.5607393745858174 70 82 30
11.761094870363003 1.115483733717878 2.5607393745858174 70 82 30
12.819957614897785 0.7818117831492204 2.4448644695039254 64 74 24
12.041567150875524 0.9859278470603529 2.5261582415348496 66 77 26
12.399950664413067 0.6877503909898738 2.486388554796549 74 86 35
12.181758592233527 1.0364957201985325 2.666424683808328 72 86 32
11.216695855431281 0.7799327168114558 2.639483617148587 74 88 36
10.072520991457418 -0.04208590177854671 2.6400922425944247 71 87 37
10.10189169864971 0.16312404625592536 2.6348145036869277 71 86 36
10.617165478159109 0.13555770907811499 2.5532840840641624 72 85 36
10.706502340982047 0.43774018193370584 2.734663005275945 73 89 37
10.78234878427996 -0.5212241853485534 2.718638748882716 75 90 43
10.655474145002572 -0.20333963739117372 2.547916411300679 73 86 37
10.959931831039114 -0.04208590177854671 2.6839698900920808 72 87 37
11.023954325609607 -0.24385649410711488 2.672315281032476 75 88 41
12.227201168286376 -0.4011494823726987 2.8867222241215 76 92 44
10.81418478143039 -0.3609440189967815 2.5265084075796054 74 87 40
11.160129242855275 -1.1417514246621336 2.4839049037743526 81 93 49
10.567784480185875 -0.5849056927716224 2.560325842163047 75 87 42
11.063362276934745 -0.9769691017261105 2.665338329898535 75 91 44
11.063362276934745 -0.9769691017261105 2.665338329898535 75 91 44
11.480655386466623 -1.0715096806413247 2.599083006330698 79 95 50
15.667829907508494 -0.6060126349919397 1.1661874116389326 69 69 44
10.775582023391792 -1.2716944327676605 2.0358167423872082 77 88 58
11.054561873782704 -1.211029855563739 1.7373074413892267 57 65 45
11.701914995163268 -1.3227068006874525 1.7280170337701075 48 56 40
9.936237983971854 -1.0379619068193924 1.8598432294905725 70 78 42
11.046925271137217 -1.2377435976594264 2.237592964570543 71 85 40
10.682917589522813 -1.1757177585840162 1.9376963156676117 77 87 59
14.34890007425081 1.5845291752333905 0.9652305074913221 24 27 2
14.667920668124934 1.5834561031013585 1.060230549753507 4 5 0
9.241515861326617 1.811805699583515 1.7703776256704233 47 54 11
10.100318441104639 1.6888619231170243 1.3544878678886048 44 50 9
9.90115311608318 1.4854619574195225 1.452576634259674 45 51 0
9.242403141583722 1.5892118899532544 1.8822439050208724 48 55 3
9.631325420137994 1.4758160488676162 1.9800127202413993 51 58 5
11.169409527885458 1.4758160488676162 2.228991112975397 65 73 22
11.139107787531858 1.5892118899532544 2.2310962100762968 65 73 23
8.610289875950068 1.9561033353729977 1.7852293308639473 61 71 24
9.24477933664381 1.9561033353729977 1.9982196258634528 65 75 27
11.494505272256504 1.9561033353729977 2.3204531148096414 74 85 33
10.932278548849263 2.220372223960659 2.245873867015088 77 88 37
10.07245673614659 2.061152688916545 2.0711606760862344 76 87 36
11.026631585366683 2.2983792787974275 2.3607202418020403 75 90 35
9.814766463540256 2.3929050506538068 2.3407691511780673 74 87 33
11.17385912684912 2.1202805995853806 2.347512002913505 74 87 34
9.366808632930262 2.507485022578917 2.388250632272679 75 87 36
11.101153090353645 -1.9844148539849908 2.353969195244419 86 100 57
10.674246930483227 -1.454989138901696 2.3946192493736924 78 92 45
10.674246930483227 -1.454989138901696 2.3946192493736924 78 92 45
10.85871018283635 -1.8623660896647596 2.3764505586190117 82 96 51
11.101153090353645 -1.9844148539849908 2.353969195244419 86 100 57
9.550730707533098 2.8067196710271514 2.5323196988437733 76 96 44
9.788206874382729 2.6451427155227507 2.498372174625561 78 92 40
9.616058459611903 2.7155898961365077 2.361005372014472 73 88 35
9.270549781207087 3.030867867468172 2.2512065032729645 73 92 38
9.99739633007277 3.013082544643121 2.4709546401580713 74 95 42
10.126226846582595 2.8579456485681165 2.455075370176566 74 94 42
10.350507568054221 2.7155898961365077 2.4290445511410144 76 90 38
9.561255471589696 -2.9951682931981156 2.100636310922317 77 94 38
9.487367546422007 -3.116636863743668 2.1052039032782495 75 91 37
9.561255471589696 -2.9951682931981156 2.100636310922317 77 94 38
9.737816460845126 -2.8778819784878245 2.090049293532097 82 98 46
9.737816460845126 -2.8778819784878245 2.090049293532097 82 98 46
9.278924141681683 -2.948674777475722 2.398404750839093 84 103 51
9.967717723363501 -3.108542148390457 2.4747168770925025 78 99 46
9.278924141681683 -2.948674777475722 2.398404750839093 84 103 51
10.038070523997987 -2.948674777475722 2.4658631441121854 95 114 66
9.238536490047608 -3.1131541581562976 2.2540142145672917 75 94 39
10.530762521056237 -2.7675531751825995 2.15774901253143 88 104 53
10.818847402630903 -2.574015615525866 2.033811345372567 86 100 53
10.818847402630903 -2.574015615525866 2.033811345372567 86 100 53
11.30096835404327 -2.574015615525866 2.1130653717462673 84 100 52
11.827240850542323 -2.1925593687180616 2.2945714543650757 84 101 55
11.333795584600766 -2.491675093420223 2.0112549638380046 88 102 57
11.685170628608615 -2.278411778862086 2.1952953579660868 87 103 59
11.096654873771424 -2.352820255122878 2.2340706640073877 87 104 61
10.011619881777806 -2.7675531751825995 2.0744862561705535 79 95 43
11.242451368503524 -2.44030815594143 2.3415333870333113 86 104 60
11.738831969377069 -2.352820255122878 2.3012471440571347 85 103 61
10.266836217821755 -3.02368793340374 1.651943754712383 73 86 28
9.93326378608068 -3.1193597458202564 1.9668667739918158 72 87 32
10.172740825759135 -2.905547198970734 1.9570426585964589 73 88 33
10.172740825759135 -2.905547198970734 1.9570426585964589 73 88 33
11.81067422584625 1.4637209430461438 2.4155629347520535 67 77 24
11.953573884804486 1.5946293872285244 2.5366476239613522 73 85 32
11.78202184557911 1.591573348538667 2.4183064119395277 69 79 28
12.286570655364182 1.5987391983579238 2.6501019765598572 74 87 33
12.314049105335815 1.4272165253246962 2.645949468090631 74 88 34
12.422229762324774 1.2637267268257582 2.6300744118398103 73 86 32
11.847669884891232 1.604561113687376 2.724549441961335 74 89 36
12.89897988671057 1.2048445400937169 2.7320383149750938 73 88 35
12.340333527497977 1.7686485169588988 2.6420241425124518 72 86 33
12.008827658023668 1.7401360269707848 2.5300247437474677 75 87 33
12.146437947840866 1.878789985648337 2.5140503047902287 74 87 33
12.474287341188075 1.9278121847161538 2.6226887747060132 73 87 34
12.840419320948529 1.7401360269707848 2.574754076347019 75 88 34
12.969208975046346 1.878789985648337 2.55933894930084 74 87 33
11.838076358527927 1.7187536302257964 2.4129594456477523 72 83 31
11.903415257899432 1.8084894453037392 2.714101750588353 71 86 34
11.536843503926686 1.8678324984830745 2.7902849033419432 72 87 35
13.021074362794469 -1.644178966627655 2.971067236329 93 111 65
12.175217646616444 -0.875642984153842 2.903661486146365 85 102 55
12.889566103221668 -1.704579362182 3.0472225772548223 95 113 67
12.034469722857676 -0.5798234622440076 2.957996830023207 84 101 54
11.34830826140514 -2.777846342115886 2.8388497083126096 85 105 61
12.228326833423212 -2.346637390390956 2.8863691388570567 84 104 60
12.091648524679492 -2.056037156383 2.9340696304040255 89 108 63
13.856060568675005 1.7715139140105054 3.0829144701536983 72 92 43
13.903755880459952 2.5408327759462024 3.040103973528769 71 90 44
13.903755880459952 2.5408327759462024 3.040103973528769 71 90 44
13.996676903869801 2.144989406724673 2.9881438201034474 73 89 39
13.834662182897445 -2.2426010809174817 3.122776954877474 78 96 50
11.649482292773598 -1.3740305233282735 2.7647877997059744 83 99 53
12.286879224409153 -1.3149601798188055 2.8687019082603005 81 99 55
12.259339875207463 -1.6213213677684706 2.8768470149440932 82 100 56
11.39859584559603 -1.5932817905431147 2.4572756707097714 83 97 54
11.65594001083466 -1.4365300790845308 2.5746310670528914 81 95 51
12.018398979164505 -1.6019190385566875 2.6935633120708022 83 100 56
11.626906322698689 -1.5969047641118712 2.57856525296577 84 100 56
11.428209577646214 -1.454989138901696 2.4541055563143845 82 96 53
10.813630298951729 -2.3496399529004215 2.7122572462333334 85 105 61
11.501087503338391 -2.1644361326729142 2.798867987459047 82 102 60
11.677262688272215 -1.8404846641003014 2.758820772997638 81 99 54
11.677262688272215 -1.8404846641003014 2.758820772997638 81 99 54
11.15087725134257 -2.215697815972893 2.650341789909803 83 103 61
12.313221644902121 -1.9187436862073606 2.861159424083196 85 104 62
12.313221644902121 -1.9187436862073606 2.861159424083196 85 104 62
12.313221644902121 -1.9187436862073606 2.861159424083196 85 104 62
11.825099443052459 -1.9061350930146217 2.5525444054109867 86 102 56
12.073356083666912 -1.7904945276631798 2.684183869574585 83 101 57
10.72777237309487 -2.116816098280818 2.5380032476649204 83 103 61
11.827934162529917 -1.9844148539849908 2.4139207674809233 85 99 56
11.246891273638237 -2.0421692529345568 2.473981117116478 84 102 58
11.565013043944724 -2.116816098280818 2.5871021470023505 85 103 61
10.232097054352764 -3.1021456033844057 2.6123447069674732 82 103 53
11.666538196762163 -2.8600557412636958 2.7611104021983226 82 102 60
11.811671208115003 -2.6546340481521655 2.731483006881625 85 105 63
10.15624966868937 2.550006148080882 2.625255477834842 77 93 41
12.038398562961575 -2.485566816281299 2.690119085420358 86 106 64
11.147134759346962 -2.485566816281299 2.6509697066963716 86 106 64
11.060093266247984 -2.4581567461267113 2.495705168712143 86 107 61
11.060093266247984 -2.4581567461267113 2.495705168712143 86 107 61
11.477505229369594 -2.3521692254489786 2.4488914528538266 85 104 60
11.980956546766519 -1.8458698383349155 1.8094481963599593 78 90 53
11.55659465661053 -1.7614251565297374 1.7300108003994412 82 93 57
11.383445908655945 -1.4961394174435432 1.7324536982827334 77 86 66
10.653066710677086 -1.684188373348667 1.8398911731374272 79 91 53
10.59074205339276 -1.5866721794072647 1.841514477010941 80 92 54
11.500383804667623 -1.4081928211619061 1.730795691369483 58 67 49
10.396403572618159 -1.58839677715101 2.0542012320064433 80 92 52
11.10844993973914 -1.8015186664094813 2.123540748171715 79 92 53
11.049959622602827 -1.3736883835420333 2.1268093964829067 78 89 52
11.053516076701888 -1.3925779198704527 1.9248429921768453 81 91 65
11.134569437113255 -1.938684092498384 2.2314127782799473 80 95 51
10.8928703035179 -1.8284768094658943 2.248773475534722 81 94 51
10.677387192005042 -1.5905416698968975 2.265134381734313 81 93 50
10.83321609895808 -1.3503923993231415 2.253216019947626 78 91 47
12.00101852818503 -2.2320796867340995 1.8090415138609237 84 98 53
12.251852751535516 -2.1140766037425336 1.8040724276429323 88 103 59
12.47104323459358 -2.0025456029712916 1.7182474609379939 78 93 52
12.032818575852778 -1.9580864117554755 1.9840444614515336 74 88 49
11.85861133316905 -2.1324292578224826 2.1847938151891007 86 101 56
12.032818575852778 -1.9580864117554755 1.9840444614515336 74 88 49
11.720275561217836 -2.160766024582372 1.9038950273795163 86 102 55
11.606260067218885 -2.0819392333136038 2.000218411302109 85 101 54
11.663862407665796 -1.9954854042238344 2.094423030485541 79 93 53
11.85861133316905 -2.1324292578224826 2.1847938151891007 86 101 56
11.85861133316905 -2.1324292578224826 2.1847938151891007 86 101 56
20.26904289996223 -2.4948433896839974 1.6118662141580236 18 20 0
10.37150459220821 0.850786415619601 1.5546179594907699 51 58 11
11.439716781073873 1.015401644149401 2.210847178836706 58 66 17
11.138777042741808 1.112072086695773 1.3749301522476969 51 58 10
10.200452609787906 1.288814288813333 1.5543466392385736 49 56 8
10.9461617885266 0.4536179469043361 1.555467368061568 57 64 20
11.248844115702775 0.4057094577349236 2.1158596412166886 56 65 17
11.055578409874908 0.850786415619601 1.9247740430671307 53 60 14
16.085539392360054 -0.5466653407450884 1.038199712778537 57 57 32
10.280546148009305 -0.5019004825148946 2.4369575700956343 77 88 43
10.427644176529283 0.11592556253870359 2.420524440081791 73 85 36
10.104180175452834 0.08985346106992956 2.069444804034375 58 68 22
11.225163105254563 0.2252842403569187 2.3430300992383035 66 78 28
9.577631758080983 -0.34776288664297955 1.763284077560563 54 60 20
9.914319247983602 -0.3117675478532761 2.3310783146510663 73 85 38
10.015252689404779 -0.27408420934804756 2.192392014692906 68 79 30
9.755803520479779 -0.7280189404005706 2.211575063888348 79 86 47
9.707984181308948 -0.1353667179215483 1.976590556970814 57 65 17
9.956831490263546 -0.4439730110594471 1.7558666936793048 57 64 24
10.64439202647823 -1.08127105021836 2.267718204198375 74 86 43
10.399193541059203 -0.029785252996335224 2.4236425765422385 72 84 35
11.786748898626291 1.0567215248894144 2.4178522886184677 63 71 22
12.396585269678505 0.875267467525675 2.4867419160571753 65 77 26
12.11792059174346 1.2216870048486 2.3874452010467895 66 74 23
12.181758592233527 1.0364957201985325 2.666424683808328 72 86 32
12.819957614897785 0.7818117831492204 2.4448644695039254 64 74 24
12.609035616071237 1.115483733717878 2.6042725082905935 72 84 33
12.452759906896981 0.895930968093758 2.625723819823915 73 86 34
12.156082294948877 0.6116747240252015 2.384109200114475 57 68 20
12.399950664413067 0.6877503909898738 2.486388554796549 74 86 35
10.22940627109636 0.3555086201985327 2.6127945990733377 71 87 35
12.365755603352595 -0.6602530510194159 2.8467684534933606 78 94 46
11.030254237231611 -0.6955686282593397 2.67119013072955 77 90 44
10.584736917352098 0.204567796517876 2.762240758395194 73 89 39
10.070329305463078 -0.9523098363110022 1.5541340657981684 56 61 27
10.265558514280047 -1.1332101318999075 2.060904052820676 71 83 41
10.366306073373574 -1.1757177585840162 1.8475282335686407 72 83 45
10.775582023391792 -1.2716944327676605 2.0358167423872082 77 88 58
10.963201080870434 -1.2995198244010635 1.832097909636865 67 75 53
10.681175928699707 -0.8759465249424876 1.5550870459450694 56 62 29
14.712984395663614 1.661356184158366 1.061945237253886 5 6 0
15.203928999048179 1.5054023728110446 1.003664014067918 8 10 0
11.198380927745193 1.7021380519381433 2.226992263435238 65 75 24
10.837860713086256 1.9561033353729977 2.2528677952849 69 81 29
9.42199499205385 1.3648085607761955 1.8761137423535654 49 56 4
10.773268857958 1.811805699583515 2.142849731480638 66 76 27
10.59540424046066 2.193533494222093 2.40269074170351 77 90 35
10.53537219805302 2.3929050506538068 2.4089666841548287 77 90 36
10.59540424046066 2.193533494222093 2.40269074170351 77 90 35
10.270807954721983 -2.8778819784878245 2.174680159876443 86 102 51
9.374222289383587 2.8579456485681165 2.3874077540092014 74 91 41
9.234906970992098 3.013082544643121 2.403606260455086 74 94 40
10.350507568054221 2.7155898961365077 2.4290445511410144 76 90 38
9.31439851574129 -2.9750770932180797 2.2474022778792415 78 97 44
10.70455854924431 -1.7307249217198293 2.3915661996247883 80 94 51
10.038070523997987 -2.948674777475722 2.4658631441121854 95 114 66
10.033671789458513 -3.116636863743668 2.1910776624989268 75 93 39
9.202769691510312 -3.108542148390457 2.407454434107294 78 98 43
11.333795584600766 -2.491675093420223 2.0112549638380046 88 102 57
11.182678536742756 -2.5132531709515353 2.228073964194269 86 103 58
11.242451368503524 -2.44030815594143 2.3415333870333113 86 104 60
10.395785325854444 -3.02368793340374 1.7479675447617626 71 86 29
10.551270820466238 -3.1215469740412303 1.8425528437812964 70 85 28
12.092969131615732 1.3066729770916865 2.52017176163346 70 81 29
11.977648557666576 1.8413116383335026 2.399996358119656 73 84 33
12.042230188076768 1.9942891275299137 2.689463311957683 72 87 35
12.840419320948529 1.7401360269707848 2.574754076347019 75 88 34
11.387488502105624 2.153656405714589 2.6128112238094836 74 89 36
11.78202184557911 1.591573348538667 2.4183064119395277 69 79 28
11.923422854551227 1.3392709198656505 2.404974672951612 67 76 24
12.340333527497977 1.7686485169588988 2.6420241425124518 72 86 33
12.422229762324774 1.2637267268257582 2.6300744118398103 73 86 32
11.444272748888318 1.4272165253246962 2.604379807077855 73 86 32
12.915761736292854 -0.9626501543806881 3.027788394858351 92 110 64
12.091648524679492 -2.056037156383 2.9340696304040255 89 108 63
12.064822329529553 -1.2074211657833493 2.9449090971340794 89 107 61
14.112954616896687 1.628668328079604 2.941798968693473 72 88 37
13.9492993103843 1.66074358122442 3.011935783064386 74 91 41
11.428209577646214 -1.454989138901696 2.4541055563143845 82 96 53
11.818734153518678 -2.045823531466647 2.730110612431181 84 102 58
10.948629951636317 -1.2827629965554521 2.5093356598310823 81 93 48
11.35565941100789 -1.9187436862073606 2.836783966876115 83 101 58
11.456526539570074 -1.7307249217198293 2.451100907298525 83 99 53
11.15087725134257 -2.215697815972893 2.650341789909803 83 103 61
12.286879224409153 -1.3149601798188055 2.8687019082603005 81 99 55
12.39529701034158 -1.0499366162475257 2.839019118615938 83 99 54
12.259339875207463 -1.6213213677684706 2.8768470149440932 82 100 56
11.626906322698689 -1.5969047641118712 2.57856525296577 84 100 56
12.073356083666912 -1.7904945276631798 2.684183869574585 83 101 57
11.60069021448758 -1.8623660896647596 2.4361928391578758 85 101 57
10.15624966868937 2.550006148080882 2.625255477834842 77 93 41
10.464737769953878 -2.738102153118203 2.575489751720283 85 105 59
10.826878459765279 2.734155919698875 2.7095922363329445 77 96 45
11.147134759346962 -2.485566816281299 2.6509697066963716 86 106 64
11.063865201166 -2.2454225726768033 2.495252992029295 82 102 60
11.474583939086578 -2.3512069183939976 2.5999613517359483 84 104 62
11.383445908655945 -1.4961394174435432 1.7324536982827334 77 86 66
11.980956546766519 -1.8458698383349155 1.8094481963599593 78 90 53
11.724534522903383 -1.8712991485341832 1.9956038593773684 77 91 54
10.739209018760542 -1.7115039641312437 2.260350588415514 80 92 49
10.8928703035179 -1.8284768094658943 2.248773475534722 81 94 51
10.931799063216518 -1.4888540470846459 1.9289615807155691 78 89 59
10.232015658170704 -1.3503923993231415 2.1772979455475 75 89 46
12.363757225917542 -2.0025456029712916 1.6381579710680008 82 96 55
12.060195245614725 -2.03914800664261 1.8941594309658998 79 95 51
11.45873682613101 -2.0402914425574568 2.2096117675503977 84 98 57
11.341156141084195 -2.2150153823235956 2.0109490795429954 83 99 52
11.80195955060539 -2.2150153823235956 2.087679976553791 84 100 54
10.465500777036116 1.1133389733798325 2.1619025737266884 54 62 12
12.480309624865681 0.4911063546830486 1.396214285562905 57 64 20
10.323912318608098 -0.8157614014657586 2.1711360008861713 75 82 43
10.466646527733218 -0.1742505061744968 2.4162951058935023 73 85 36
10.257538853070852 -0.5321368695543774 1.5544381948136872 54 60 23
9.875231677220834 -0.02070569585739674 1.6551691847894556 57 66 21
12.041567150875524 0.9859278470603529 2.5261582415348496 66 77 26
11.960870013856717 -0.9769691017261105 2.703677169607015 81 97 49
11.79736411210877 0.5068060201401393 2.416834669216871 61 72 23
10.94609557716799 -0.935313289748803 2.5096517797293023 76 90 47
10.507594641610146 -0.8308469081868755 2.569103607116455 74 88 42
15.8579965278059 -0.6479291564285139 1.029721107734471 64 67 39
10.588617063583841 2.061152688916545 2.1541191049524864 70 82 30
10.034561251548771 1.5873323971896907 1.3530476253738033 43 49 1
11.169409527885458 1.4758160488676162 2.228991112975397 65 73 22
9.059889751786002 1.7021380519381433 1.774434347228751 49 56 11
10.932278548849263 2.220372223960659 2.245873867015088 77 88 37
9.737816460845126 -2.8778819784878245 2.090049293532097 82 98 46
11.426268552598556 -2.094700115824264 2.3260271950794604 86 102 56
9.49555069188438 -2.8430889653063547 2.2321742930238093 97 114 65
11.126335239896173 -2.4277683909767442 2.1225494199916115 87 103 58
9.31439851574129 -2.9750770932180797 2.2474022778792415 78 97 44
11.713359855423969 -2.3532900137275754 2.0919848629295026 87 103 59
11.24892761488773 -2.3532900137275754 2.014814006460477 87 103 58
11.426268552598556 -2.094700115824264 2.3260271950794604 86 102 56
10.64253544196894 -1.5932817905431147 2.3978428194655135 81 95 52
11.30096835404327 -2.574015615525866 2.1130653717462673 84 100 52
10.003858889246903 -3.0109579062309604 1.9639176592397019 73 88 33
11.560595384767748 1.2637267268257582 2.5877194905497305 71 84 31
11.903415257899432 1.8084894453037392 2.714101750588353 71 86 34
12.034469722857676 -0.5798234622440076 2.957996830023207 84 101 54
11.497459007449365 -2.532922744365777 2.7997535773309177 86 106 64
12.175217646616444 -0.875642984153842 2.903661486146365 85 102 55
13.856060568675005 1.7715139140105054 3.0829144701536983 72 92 43
12.447467227396928 -2.1644361326729142 2.8258690933148514 83 103 61
11.332498118507552 -1.9645693638800221 2.6211761904857283 84 102 58
11.730261159074034 -2.3496399529004215 2.7477512586432775 84 104 62
12.048111467724475 -2.0421692529345568 2.5253904092679345 86 102 58
12.39529701034158 -1.0499366162475257 2.839019118615938 83 99 54
11.6837050517995 -1.7559584778898174 2.5709095227288508 85 101 55
11.155871741108982 -1.4111300903134432 2.6495056135116015 82 98 53
10.300644317798614 -2.9124960492910286 2.601075734954806 87 108 59
10.232097054352764 -3.1021456033844057 2.6123447069674732 82 103 53
10.261011007575819 2.988543377008285 2.6075467714906315 76 97 45
11.312039432988703 -2.1324292578224826 2.1124757926381212 85 101 53
11.914102388224057 -2.2885027563186124 1.988418017079463 83 99 54
12.520875467114209 -2.1140766037425336 1.8818542099277136 86 101 58
11.345557419727111 -1.901719801282975 2.1106991054769324 77 92 52
10.951892857925673 0.3064264559655655 2.132383377039093 57 68 19
10.419769924552869 -0.9084619621129827 2.2859019085420753 73 83 43
10.390487842259994 0.27692831577131 1.7480588315856826 58 67 18
10.740177857167252 0.20051275358815912 2.144834793724982 58 69 20
11.177434061770578 -0.42742268665352484 2.6459190309217515 74 88 41
10.589224051965088 -0.03488338486950897 2.5572512669828384 72 85 36
10.507594641610146 -0.8308469081868755 2.569103607116455 74 88 42
10.655474145002572 -0.20333963739117372 2.547916411300679 73 86 37
12.396585269678505 0.875267467525675 2.4867419160571753 65 77 26
11.28856483796696 1.3648085607761955 2.2208550072563487 61 71 18
10.841176812783516 2.006264697092608 2.3781362168686364 73 86 33
9.05962262899528 1.811805699583515 1.5522749941372114 44 50 9
10.119364139293086 2.507485022578917 2.4559033389565617 78 91 40
9.242403141583722 1.5892118899532544 1.8822439050208724 48 55 3
9.374222289383587 2.8579456485681165 2.3874077540092014 74 91 41
12.296651545740877 -2.278411778862086 2.2613170541403593 85 102 56
11.24616214113218 -2.2647950031469173 2.341213013846456 85 103 59
17.93436488807878 -2.8471913993283047 1.5614405932656492 37 39 8
11.544694064806146 -1.3209815492815906 2.441907914348806 77 91 48
11.275170118603068 -1.2312675215917486 2.6301176593481266 81 97 51
10.719990663522129 -2.5861370203498613 2.5390569776421037 86 106 60
12.286570655364182 1.5987391983579238 2.6501019765598572 74 87 33
11.763775949456502 -1.158613354364294 2.740950957356104 83 99 51
11.62043247001935 -1.6093160113444203 2.7711565363159893 83 99 53
11.876163884046237 1.3978244900283925 2.7191665576278594 73 88 36
10.928202997830304 -1.4799973676534528 2.133747844656924 78 91 52
11.663862407665796 -1.9954854042238344 2.094423030485541 79 93 53
12.09143937910073 -1.9264808808998721 1.722912081216283 79 92 52
20.28559209994032 -2.4948433896839974 1.5131971867020109 16 18 1
15.601570567120516 -0.5466653407450884 1.093446066063188 66 66 40
9.294293756353085 -0.3880213779894497 1.9957943003874044 61 71 29
9.996514353829815 -0.7368031740263069 1.9642223687148734 78 85 48
11.267234361752273 0.8611005408275914 2.222295146466933 58 65 20
10.85871018283635 -1.8623660896647596 2.3764505586190117 82 96 51
10.777023818802064 -2.9280394601434803 1.836720493337743 74 89 34
9.968613070290335 1.3853307216985897 1.5539640339473983 46 52 1
11.953573884804486 1.5946293872285244 2.5366476239613522 73 85 32
11.730261159074034 -2.3496399529004215 2.7477512586432775 84 104 62
10.605348670995562 2.6451427155227507 2.5549564198580006 77 93 43
11.353715420774392 -1.5852553718523623 1.7328807505924466 80 90 56
10.622608160939924 -1.4888540470846459 1.8406820235939219 78 90 55
11.111987673699282 -1.7795921741971918 1.9228987323904296 79 92 55
10.006296189350932 1.1593762029222234 1.8577618263757298 47 56 4
9.77044199672384 1.1593762029222234 1.7594393286689147 49 56 7
10.777023818802064 -2.9280394601434803 1.836720493337743 74 89 34
11.949916351685538 -2.3385590896916977 3.0011226711250973 82 102 58
11.490126094364612 -1.3503923993231415 2.3208079841749356 75 90 40
10.396403572618159 -1.58839677715101 2.0542012320064433 80 92 52
9.94353258043443 1.015401644149401 1.9664349653869944 51 59 9
10.753828968822503 0.7143340483301618 1.8373080239719215 56 64 18
10.91263176560814 -0.7153645653718789 2.5138525559820657 75 87 42
10.95781214308112 -1.6963856901652337 2.13204354689808 80 92 54
11.359823087346502 0.6367531283950232 2.109946677186481 56 64 16
11.567911497832025 -2.1617154177988627 2.439526894947409 85 103 57
11.981816035929002 1.448113562096142 2.5332469368807318 71 84 30
10.708995477978265 -1.4690015571754313 2.2626792529898676 81 93 50
