14.358264293093772 1.197605904373522 1.6776325949520026 11 14 11
13.809291887103347 1.1702929679658196 1.829370350616155 0 2 0
10.30964984258082 0.4821191255581785 2.025835667391107 32 45 16
10.513036361659152 0.2442104383306731 2.0163915678536806 37 51 24
11.295310083217363 -0.16566600218515265 1.9835637518928442 38 53 28
10.775500554814416 0.34362476534467445 2.0047894867678697 37 49 28
12.780964404937816 0.8555295395077593 2.107143534688694 41 50 29
12.17539435003538 0.717992959624417 2.2376898717257 40 52 28
12.911271367554871 0.7907763288451382 2.013507206094851 57 65 52
11.802748481064926 0.7063142616600082 2.378646810032483 38 52 25
10.660922063920157 0.6053230691256586 2.3552208341798484 42 55 26
12.155886329472203 0.7915181915869035 2.1380004306398592 39 51 28
12.300037289830668 0.8555295395077593 2.037202104127305 49 58 42
10.762138789985718 -0.07657569155149922 2.1105649426111652 33 52 20
10.873644865898326 -0.18328202019466952 2.1044324177487326 33 54 21
11.296129073537976 -0.23253223419978078 2.4267865978937153 36 57 26
10.267212756834066 0.4287806143366266 2.2602413289259635 37 51 25
10.428975740716389 0.38173894482829035 2.1298164245552487 32 44 20
11.241217373654184 0.1776678631583756 2.432433225517585 37 54 22
11.170384477559688 0.04074622205672744 2.439855405212638 37 55 23
10.74295629704196 0.03190000142449065 2.111635058611957 35 50 20
10.67194044763746 0.3082087494668263 2.3541909089052915 36 53 23
10.816588587229884 0.13963275090091073 2.107551762568235 35 50 20
10.67194044763746 0.3082087494668263 2.3541909089052915 36 53 23
12.22668172315016 0.047303778379238576 2.6086554138339086 39 58 27
10.643651408552177 -0.47262441399623617 1.8108972122682914 39 55 33
10.488163418324605 -0.5207695398998636 2.017524595698473 34 54 25
11.122042826816326 -0.5549295930952332 1.8003799818134234 34 53 25
10.61068047843192 -0.28594206319063226 2.0120007613144226 32 53 21
10.973335555984981 -0.6076731009651993 1.9964498707666785 35 55 27
11.621435161169602 -1.0019950236223205 1.7029255251164874 41 52 28
11.794909452570275 -1.0019950236223205 1.7870681216500983 40 52 30
11.839742921366565 -0.8794713786632511 1.8736429375615902 38 52 30
12.228139255438846 -0.8150297977099226 1.7792906693627333 36 49 29
11.79733029565186 -0.7540630341315843 1.8747664539382813 39 53 29
11.334956889728149 -0.8928986368048523 2.080553619158847 39 57 31
11.489780388710294 -0.3593039651107982 2.4075788570927905 36 57 24
11.23079962185669 -0.8242017597952314 2.191406648484014 38 57 29
10.56651240210237 -0.42427278923807754 2.1216941781995224 34 54 25
11.290648225529443 -0.7495616478130485 2.082748847341194 38 57 29
10.768143739369807 -0.3593039651107982 2.3453315441031135 34 57 26
10.833649028182304 -0.6488948065488539 2.339432030338897 38 60 31
10.406887485575522 -0.4751017738324354 2.2492264893440743 36 56 28
11.862733714255295 1.099786382597468 2.50385720435189 38 55 23
12.171050167128001 0.9817846877601925 2.470420477007881 40 56 27
12.691705421848207 1.426514930846097 2.4203233703691267 39 55 22
11.7050281611484 0.9509834995014296 2.2697334929489954 39 53 24
11.672608793731802 1.156776565799496 2.3903804679615455 38 54 22
11.652259048256726 1.2020368270158297 2.273545826480555 37 54 24
11.770005485531977 1.0103421023377928 2.159027936692533 39 53 23
11.245927944833648 1.0103421023377928 2.0849847908106622 38 51 25
12.866780546772196 1.4070643700481542 2.529538371025361 39 56 22
12.507263874435122 0.6897554365475417 2.5717688795605467 43 57 26
12.465013997945388 1.2338105975023577 2.5770810323990245 42 55 27
12.76124419987014 1.7839366570860096 2.414147908911935 40 60 24
12.587368782737974 2.050558417551874 2.4298012301602236 39 61 25
13.111597830055887 1.9367406022036837 2.503422432428655 39 60 25
13.160876671855302 1.696446008335872 2.6386386740847603 46 60 33
12.811870692579523 1.542696674651152 2.5356705687334125 39 58 23
11.777622355053621 -1.1965456902268947 1.7873906187226964 39 52 23
12.417106471426367 -1.1182781304622085 1.8591467645232729 39 53 24
12.610279309551142 -1.4682207639922464 1.938330468396205 41 54 27
12.389400289063603 -1.010740829280501 2.4485286250898 38 62 36
12.267629322053418 -0.83130511768375 2.4605682574871017 38 62 36
13.393710244533528 -1.3930098124865578 2.6078942119590187 46 74 47
13.133593912154184 -1.3846165393018743 2.0054969312622832 42 55 26
12.469513972486217 -1.279928565717284 2.030371232000764 39 53 22
11.553517128188284 -1.0319619536352704 2.07000902710533 37 55 28
11.7208358329606 -1.322745537889307 2.2686005017602686 39 59 31
12.248678108957652 -1.433263319927079 2.341288905656834 44 64 36
12.598844808483708 -1.4587165267387545 2.115758997722281 41 58 28
11.934723125105636 -1.1766617716303467 2.3671495960905107 41 64 37
11.966432395442817 -0.9767543559357865 2.2515120466550225 37 59 30
12.965039498818385 -1.433263319927079 2.3966635561928245 42 65 38
11.566567912707988 -1.0712905447031602 2.279837644217754 39 59 31
11.936761217796246 -1.1619787782648532 2.0525840329890346 37 54 25
12.344249793428423 -1.4472810582499067 2.226966773558445 42 63 32
12.190984555048912 -1.5472537717021608 2.34589266608575 44 64 36
11.650663012959562 -1.774120204396801 2.27366186343311 42 65 36
12.91054755657186 -1.5472537717021608 2.4012519466989946 43 66 39
12.933376481610914 -1.6618567660760684 2.3993221794807646 44 68 41
12.94879403877206 -1.553285650250359 2.012133828623576 44 57 28
10.216708752715949 -2.0283905635851567 2.142867517416797 42 66 38
12.566259129805589 -1.6449154043679057 2.1173316793626906 43 60 30
12.287005003951952 -1.5496785113013165 2.2305590951610865 43 64 33
13.051124498096106 -1.54420013872101 2.5096962097949236 45 69 43
13.051124498096106 -1.54420013872101 2.5096962097949236 45 69 43
15.30281256207885 -1.2922944551874354 1.5401479394518565 35 48 21
9.227064264725119 2.5780487812664643 2.0841055542824547 42 59 29
9.574266037712109 2.6381102143069377 1.9485227292984848 40 57 27
8.371353796154807 -2.926099597912053 1.8779519131313709 73 94 69
9.30342660633562 2.855412057284373 2.079484624148588 43 62 34
8.586569561512691 -3.0512349849846037 1.9946008757327336 58 78 53
9.757092227422563 2.5780487812664643 2.1735057258833903 43 59 32
9.562474736074314 3.1039274040632567 2.187579131823297 59 79 53
8.926140080852434 -2.895573766544177 2.2390907662617145 89 111 88
9.64512321037413 2.9771213792318902 2.1815162071878995 51 70 44
9.584020263585698 -3.0512349849846037 2.1859860087384986 69 89 64
10.225589485053664 2.9534485949367224 2.3986663075385186 51 70 44
9.699898205291424 2.8160401619883895 2.30947684804352 45 65 37
9.578001385052248 -2.895573766544177 2.3211288366378784 80 104 82
9.654545836886507 -2.85524733100412 2.465548407322403 65 91 70
9.451221571696488 -3.038026162388568 2.3337077998661524 69 92 68
8.630879776428197 -2.8074329217022016 1.8684282960277618 69 91 68
10.517639430818406 -2.1915204144058458 2.2407672380885737 39 67 40
9.910005946614985 -2.269634447353597 2.290334817293783 40 68 45
10.455910389920492 -2.4430652659555756 2.128205714215156 42 67 43
9.918955869030034 -2.4595019437919983 2.2895444447024538 48 73 51
9.666711383996285 -2.483568566845803 2.4639810104245274 46 72 52
9.880423910506288 -2.7046920561841077 2.437533678552912 71 95 73
9.169978084911765 -2.762576232260873 2.218267384695232 86 110 86
9.513202374202065 -2.6422572707854237 2.19125643262553 73 97 73
13.85576724113503 1.1033727603368246 1.6815227786216609 3 6 1
11.188007353468716 -0.06909710308664595 1.987767719673015 41 56 31
11.188007353468716 -0.06909710308664595 1.987767719673015 41 56 31
11.141156429332694 0.035784734042762584 2.3130739976710397 35 52 20
11.611641425029285 0.7924974637975797 2.2765123692111375 40 54 28
11.742270067402114 0.9284768362574962 2.0612645646615886 41 52 30
11.601920940112812 0.3540804018843466 2.53484642857653 40 56 26
10.630293338348404 0.5374276657512579 2.2323995097830203 37 50 21
11.188834198041732 -0.09771145275100572 2.4379068471832785 36 55 24
12.182680134054838 0.8658784029724649 2.237219172178923 37 51 23
11.212173975108461 0.15638927243380102 2.3072793758426147 35 52 20
12.22668172315016 0.047303778379238576 2.6086554138339086 39 58 27
11.051240399919092 0.487998325217675 2.452708163088819 42 56 27
10.53266005152903 -0.38277616934386177 1.9126661562605136 34 52 26
11.148309511644817 -0.3483684649833214 1.7998293834597239 41 53 38
10.599620721289122 -0.6076731009651993 1.910419102153714 35 55 27
11.341745567289436 -0.4321054541780071 1.7062036709555488 40 51 38
11.132583591499822 -0.259222820886804 1.8935540154008657 39 53 29
10.643651408552177 -0.47262441399623617 1.8108972122682914 39 55 33
11.611702512452464 -0.9515935519053058 1.9716620183896558 38 54 30
10.830549238061936 -0.31859465473624815 2.2180811711025648 32 54 23
11.290648225529443 -0.7495616478130485 2.082748847341194 38 57 29
11.46136687254825 -0.31859465473624815 2.2877386147343897 34 55 22
11.840312239774713 -0.8242017597952314 2.2601687817837983 37 59 33
12.202537393720629 1.2772171990512604 2.46717790824935 38 55 22
11.295914007191264 1.0478185323580067 2.300578329332711 39 55 23
11.810264153570035 0.8797995783235429 2.377981436430318 40 54 26
11.348217356503579 0.5641902777976933 2.567846426643409 42 58 29
12.939835490967495 1.8958437139381918 2.3987781590837303 39 60 23
12.587368782737974 2.050558417551874 2.4298012301602236 39 61 25
13.258908845616512 1.848623394819439 2.625359021812738 45 59 33
12.834875131763487 1.6793645739565837 2.5330885304995263 40 60 25
12.811870692579523 1.542696674651152 2.5356705687334125 39 58 23
13.406398073629484 1.5460832567242295 2.4743411018515595 40 58 24
12.582786614732365 1.988725673509256 2.562468550947979 45 59 34
13.428384054427363 1.666359132233003 2.4722655192572964 40 60 25
11.909414157591435 -1.0785691323489104 1.961090994128732 38 53 27
12.17055460255103 -1.1182781304622085 1.7802918080838082 40 52 27
12.035161682711374 -0.9107736532963512 2.3586560535697707 38 62 36
11.363686483075853 -0.9767543559357865 2.183072153588608 37 56 29
12.24122653447556 -1.0712905447031602 2.3418799213027497 39 62 34
12.453503076105793 -1.2921107951590698 2.44235362806958 42 66 40
12.344249793428423 -1.4472810582499067 2.226966773558445 42 63 32
11.705879081791078 -1.2921107951590698 2.3873419349637537 40 63 35
11.34574236573209 -1.218065290466496 2.1841833446422076 38 59 28
11.667728177541045 -1.1208520026689544 2.164886201549555 37 56 27
12.91054755657186 -1.5472537717021608 2.4012519466989946 43 66 39
10.790888356705633 -2.0283905635851567 2.2208624431705988 43 68 41
12.54276203684179 -1.5516504779980675 2.1184717295528017 43 60 30
8.586569561512691 -3.0512349849846037 1.9946008757327336 58 78 53
9.169465169553197 2.7418028815435083 1.9661013790353816 42 59 29
8.343491053146625 -2.895573766544177 2.144880573669678 81 103 80
10.147669764611075 3.098390769544877 2.407064993970847 61 81 55
9.829337740078728 2.855412057284373 2.1684567888771804 46 65 37
10.1095676996484 2.7418028815435083 2.1497066144817767 45 61 33
9.983762009295596 2.690235303253987 2.2838796297912065 43 60 30
9.360201390418453 2.690235303253987 2.202986713745566 43 60 30
9.945528681135334 -2.5358456952634474 2.1605255893715962 55 79 57
9.485418504051554 -2.572589957602554 2.3302668409100242 58 83 61
9.14115106877913 -2.7046920561841077 2.3666608675294576 67 91 69
10.628787642172806 -2.1273945095944 2.1180986483241293 41 62 31
14.286273822143725 1.197605904373522 1.6079781200522412 11 14 9
11.802748481064926 0.7063142616600082 2.378646810032483 38 52 25
11.446269734520058 0.20555445142306128 2.5547241874146556 40 57 27
10.734905221951204 0.2725947659321372 2.2248335011763056 35 50 20
11.389354373362968 0.6053230691256586 2.4174062121812305 42 56 27
10.428975740716389 0.38173894482829035 2.1298164245552487 32 44 20
11.159654471246991 -0.08586515897065891 2.3115545975872926 34 53 21
12.341668794321846 -0.26834885391672353 2.593065800535104 39 60 29
10.599620721289122 -0.6076731009651993 1.910419102153714 35 55 27
12.350299591092877 -0.9322382571411941 1.7771984426743908 40 52 33
11.961592599198429 -0.5384331338947808 2.4927866886440198 38 61 31
11.27512083336369 -0.6698349780197572 2.188599543024046 38 58 31
11.295914007191264 1.0478185323580067 2.300578329332711 39 55 23
12.955275614811452 -1.303559492242506 1.9280972058583556 39 53 24
12.733455992136392 -1.3676816342582534 2.1093629822699893 40 55 25
12.215158346334436 -1.6618567660760684 2.3439558630569217 43 65 36
13.003125703228287 -1.4682207639922464 2.010160827581617 43 56 27
13.07370795411107 -1.6735948414464314 2.507340245129181 47 71 45
13.105031921373623 -1.4156852947274967 2.5040982419616964 44 68 42
12.733455992136392 -1.3676816342582534 2.1093629822699893 40 55 25
13.34096934705665 -1.5402365728892862 2.614622928017054 47 75 48
11.904972917605166 -1.3474140529017846 2.151485046597766 38 57 26
11.934723125105636 -1.1766617716303467 2.3671495960905107 41 64 37
12.94879403877206 -1.553285650250359 2.012133828623576 44 57 28
14.867726604718316 -1.207864409990537 1.4039635953129452 35 48 22
9.108582104489988 2.9771213792318902 2.091453455424236 46 65 37
8.343491053146625 -2.895573766544177 2.144880573669678 81 103 80
9.179162927534103 -3.061462028605833 1.850156300455427 46 65 39
9.574266037712109 2.6381102143069377 1.9485227292984848 40 57 27
8.60385752373315 -2.762576232260873 2.1254301171525256 91 115 91
9.835449815715831 -2.3639094806941023 2.1680338353159003 42 68 45
12.245123115953966 0.9284768362574962 2.1333648712568043 38 49 23
11.181125333352458 -0.5384331338947808 2.438719687999934 38 61 32
12.519157717813902 -0.41126965929408144 2.570287803538898 39 60 28
12.691705421848207 1.426514930846097 2.4203233703691267 39 55 22
12.081266262313962 0.7938498139109234 2.4798342560940387 42 56 29
12.21470860475818 1.026391407156304 2.6103195218929143 41 58 28
12.744769721745111 -1.3846165393018743 1.9342705742084594 39 53 24
12.310990251467306 -1.652519238954543 2.2290486507873357 42 63 32
11.622231170273082 -1.2518685830575185 2.0667879908661075 38 56 25
12.248678108957652 -1.433263319927079 2.341288905656834 44 64 36
14.734701496186183 -1.207864409990537 1.4709383676271162 37 47 27
10.092464035915368 -2.3655333884399816 2.413142359206657 43 69 49
9.699898205291424 2.8160401619883895 2.30947684804352 45 65 37
9.021019304324597 3.1039274040632567 2.097028457234982 51 71 45
9.927668679385086 -2.1915204144058458 2.1617299087422523 43 66 37
13.335923034772465 1.656129462113127 2.3669788438783224 37 56 24
12.744769721745111 -1.3846165393018743 1.9342705742084594 39 53 24
12.935378179726465 1.8121017258362369 2.522024037832473 40 61 26
11.993440139912304 -0.7435509192171621 2.3621580883510505 37 59 33
12.362712320376293 -1.1965456902268947 1.9460523453905012 39 53 22
10.873644865898326 -0.18328202019466952 2.1044324177487326 33 54 21
12.035546277897327 2.1134036056563987 2.484726539766461 43 58 32
11.481686500612636 -0.8190013786758696 1.9764661013872813 38 54 29
9.565256043084025 2.9955405763795704 1.9488965028875374 41 58 30
11.363230972484699 1.1015567716874333 2.183100306992247 37 51 22
12.911271367554871 0.7907763288451382 2.013507206094851 57 65 52
10.230038840743845 -0.5786167333910849 2.1420287273512684 36 56 28
12.514356447479463 0.8995188560506036 2.5708849297100462 43 57 30
11.26722722112165 -0.2050314517560937 2.302858150476287 33 54 21
