22.19987719792647 0.4080875913687888 1.3488127258233766 17 22 0
12.440425949696168 0.293841176190139 1.4993847460961074 43 49 1
12.26101169247901 1.0643230827842396 1.4162272677285372 50 57 23
13.797975621251329 0.7708690684585676 1.5064210149810149 23 27 9
11.40808972680943 1.0211932544271638 1.4045671874280017 41 47 19
11.67339518824261 1.0211932544271638 1.8406810385156742 29 36 0
13.227679537064832 0.7160532821052967 1.4276040345441166 12 16 1
12.600936847199561 0.6554642127298789 1.4204291147931025 17 22 0
11.84053932517078 0.3996321918609986 1.4957601240994067 40 46 5
11.797896546374284 0.6388928132445696 1.9268387417303623 46 53 4
11.545853438162467 0.515323673864195 1.7547870396494638 42 48 5
11.32888184723215 0.4353582053366888 1.8491034402991762 44 51 5
11.545853438162467 0.515323673864195 1.7547870396494638 42 48 5
11.143387232687008 0.7671133014109679 1.761512514941704 34 40 0
11.876243956795424 0.5886593748905096 1.5802577421605544 43 49 5
11.438268292003116 0.8959345795021251 1.8463720827898338 29 38 0
11.062753902960308 0.8959345795021251 1.6715169425859502 38 45 16
11.682437426426118 0.7076650004643696 1.580414707706767 38 44 4
12.284605283929398 -0.034175161116366114 1.82694302036043 56 63 11
12.292250546182265 0.049967229836771036 1.8267801332165592 49 56 5
12.168097271023935 0.13340903899669457 1.7452788888465185 41 47 0
12.741579080217248 -0.27928508706738664 1.8175614339002089 64 73 22
11.73704928814522 0.1455091478617656 1.9287673947396344 65 72 21
11.64347153920076 0.054552404910608 1.9317756122610317 70 77 24
11.914118620381547 0.23411025729538848 1.9232133832832112 55 63 12
11.400434538500878 -0.1285570575916607 1.8473106157399775 72 79 26
11.914118620381547 0.23411025729538848 1.9232133832832112 55 63 12
11.87462588714532 -0.2177025063774277 1.9244367915803482 70 79 27
11.960433667616858 -0.5753846668642439 1.7483403037267065 69 77 34
12.11688257975168 -0.30347379792345225 1.9170660283303502 70 79 27
12.141096249603141 -0.38488216610439624 1.8300399638571356 69 77 27
10.805586962614537 1.1867652281038419 1.8629683597906324 53 62 19
11.696299146190086 1.139373631871582 1.494832995471117 63 70 34
14.469523255507875 1.2263456571371603 1.5094125991904181 63 76 39
11.567458190865036 -0.7546016260607991 1.934257586891701 70 82 38
10.730300326767834 -1.8913779460442997 1.9641063940287353 88 100 80
10.226119440123695 -2.0268122375114523 1.9846527929660465 78 92 69
11.87629019935771 -1.6689485692877553 1.8359580797494823 78 87 77
12.585204265212699 -1.580721688654892 1.739439638871519 79 89 86
12.457294489078171 -1.6610817151792354 1.5798164173456513 74 83 80
12.544275499600788 0.31912756889661587 1.9905610457013934 55 62 13
11.449696179988885 0.8349116855126272 2.033653596900924 44 52 6
12.471768127111424 0.8349116855126272 2.1776395344602495 71 80 24
11.564386429856379 0.5279903721867651 2.2332115458666353 67 78 26
11.226722527247043 0.4775647202044274 2.043589264798987 68 77 29
10.812383923348264 0.7643993094494165 2.063290263857458 53 62 9
11.361167677523921 0.38469501333895517 2.1388648675934694 69 78 29
11.671640639257548 0.5623097633201193 2.02418674323782 60 68 20
11.432331398539331 0.6175220794576508 2.134896936339771 69 78 27
12.158530084016922 0.348982228688524 2.097541424799723 70 78 26
11.889369357045828 0.7643993094494165 2.2120644065433615 66 75 21
11.564386429856379 0.5279903721867651 2.2332115458666353 67 78 26
12.100386988399341 -0.1285570575916607 2.006993679263501 72 81 29
10.70549645976373 -0.17664356923920838 2.297441126553509 72 83 29
10.727472229937193 -0.20168152936856917 2.428318017484608 77 90 37
10.642676211942453 -0.058977608400647044 2.437576176870338 74 87 34
10.629367218529893 0.07526175212461761 2.30382568367374 70 81 29
11.390222573483284 0.06681013136176887 2.2451942601781827 71 81 29
10.629367218529893 0.07526175212461761 2.30382568367374 70 81 29
10.629367218529893 0.07526175212461761 2.30382568367374 70 81 29
12.025275954305423 -0.03731437372295538 2.009907238311361 72 79 26
12.025275954305423 -0.03731437372295538 2.009907238311361 72 79 26
10.620524985055392 -0.05150435146297337 2.304575564607533 71 82 30
9.362900104148798 0.2648526958120394 2.433544372038127 72 83 32
10.894968470834144 0.177668789934545 2.1664214630017216 72 81 28
11.394401399424364 -0.17664356923920838 2.363082546981062 74 87 34
11.626413064611624 -0.26468797139739325 2.229057078738602 72 83 32
12.256894743810603 -0.2177025063774277 2.001049714534084 70 79 27
11.383029104955106 -0.7436946885163481 2.3640959835679096 75 89 42
11.511514710043912 -0.5698144368772391 2.352821039780181 76 88 39
11.809173986137205 -0.40813214172018725 2.3280860779943726 75 87 38
11.491038461579416 -0.5100058664935837 2.238199942879935 72 84 35
11.211142684884214 -0.7499682364984719 2.147429256569275 71 85 38
11.367440974413409 -0.682782994136003 2.0372677356998024 72 84 37
11.211142684884214 -0.7499682364984719 2.147429256569275 71 85 38
11.106834379334261 -0.3885928952751452 2.532956544241393 77 91 44
11.303134761631817 -0.3663761691524228 2.1421452152875027 71 82 31
12.491740161109655 -0.30347379792345225 1.9924387550803813 69 80 29
11.560470870299003 -0.29645674585833853 2.3486234643070274 72 84 33
12.104320643751132 -0.332080955285516 2.1001478999185768 70 81 30
11.58276019013064 -0.5470144257839822 2.027929032546188 71 83 34
11.151153757806737 -0.4607252991532857 2.0470585610657124 71 83 34
11.383029104955106 -0.7436946885163481 2.3640959835679096 75 89 42
11.910334521638145 -0.6014859962893063 2.2107509941090364 72 86 39
11.167043808803182 -0.4598738062554224 2.3839468526051117 77 89 40
12.018107006105236 1.1867652281038419 2.104349992296108 53 61 12
13.111871945134078 1.1470153171187536 2.339175220859219 64 75 21
12.784763584499098 1.0546347382064387 2.2582014885965394 63 72 20
12.174787518077844 1.0546347382064387 2.194675516246857 52 60 10
12.85174941782106 1.2477674196198472 2.3589278110298224 63 76 21
13.818770237305118 1.4385922456156681 2.639371171856398 75 90 36
14.796515214054631 1.2934957723230742 2.659829217622678 75 90 35
13.554030433997942 0.9999213728014126 2.4129487187564953 65 76 22
12.969359868223334 1.208666787970131 2.465001911903932 68 81 26
14.256280032228519 1.592805595936544 2.7382663585261806 73 89 38
14.256280032228519 1.592805595936544 2.7382663585261806 73 89 38
14.412982853769623 1.9335431112026922 2.713503420347006 73 89 39
14.87876652629346 2.068211208325523 2.521923191022615 73 90 44
15.245147609550024 2.1296051020098137 2.606263661202377 74 90 42
17.5076659024801 1.33148891996501 2.928687751353633 72 86 41
17.48612714541828 1.6050456915593299 2.934462743380684 73 87 43
9.484039637525637 0.12119219162727334 2.597061295451758 73 87 38
10.430529403199216 -0.2806985473522078 2.633397854898303 75 89 42
9.005446799649167 0.4888320621326588 2.4812542959148214 72 82 36
9.598692846129076 0.3158942651459926 2.5776477322122253 73 86 39
10.352378308743726 0.12119219162727334 2.6471206814706267 73 87 40
9.598692846129076 0.3158942651459926 2.5776477322122253 73 86 39
10.430529403199216 -0.2806985473522078 2.633397854898303 75 89 42
10.34329928693816 -0.08306927246969646 2.6487512191600384 75 89 43
10.34329928693816 -0.08306927246969646 2.6487512191600384 75 89 43
11.234258717884577 -0.08306927246969646 2.690878702870288 76 92 46
11.564512770502839 -0.4546031697555714 2.861038264892216 83 101 57
11.314622063162055 -0.2806985473522078 2.676417506264038 77 91 46
10.882102306753929 -0.6096584627473275 2.5632535195418065 76 90 43
11.429423970128708 -0.9201088586167028 2.359980666350359 73 89 45
10.900441678992866 -0.8368158791654914 2.4101678050973554 74 90 44
11.79418239145947 -1.0265713347647254 2.4537464304436987 73 90 48
11.235312817473622 -0.7347237055425505 2.5167356712856948 77 93 47
11.282315134367801 -0.9486636110275464 2.5109826129579362 75 91 47
10.611693885654224 -0.45832207444858314 2.6035428057548264 76 90 43
11.728173732979537 -0.6965136558240688 2.816099555916505 89 107 65
11.692016938943725 -0.8492008454947527 2.61573703645604 76 94 50
11.77320855993169 -1.0671571078788826 2.804949491859809 76 96 57
11.82208276004041 -1.0817562694029117 2.5970788829858478 73 91 49
11.77320855993169 -1.0671571078788826 2.804949491859809 76 96 57
12.116931190278434 -1.2857899249285787 2.5581386944722198 71 91 52
11.39954110012402 -0.9923612390236247 2.661788227740261 77 92 51
12.499305851898521 -1.2366378842801928 2.666037129738351 71 91 52
11.189093550698669 -1.168101382051998 2.699293005064468 73 93 51
11.97339394669611 -0.8694267406520035 2.7600413196924243 87 105 63
12.612670049981833 -1.3188256122348063 2.8589905872800534 75 95 56
12.245317194413238 -2.2447983869549484 2.9940993033622605 81 101 62
11.935740277385882 -2.812944682878661 2.767982910818744 84 101 67
11.935740277385882 -2.812944682878661 2.767982910818744 84 101 67
12.808685248172273 2.9985243855849735 2.8103434848620483 99 116 79
12.245317194413238 -2.2447983869549484 2.9940993033622605 81 101 62
12.808685248172273 2.9985243855849735 2.8103434848620483 99 116 79
12.808685248172273 2.9985243855849735 2.8103434848620483 99 116 79
12.801348416419806 -3.0434279622817595 2.8120139989065405 90 110 73
12.51512061810449 -3.0123038808371128 2.8872083983090944 84 101 63
12.303737923608189 -2.9526238601609713 2.964988090145705 84 101 63
11.877413684214707 -2.142681744175201 2.4452622678612435 76 92 65
12.034941867744841 -2.312891067525045 2.7474906787548576 82 99 65
12.332319447405968 -2.4511489742480466 2.6930420498439784 82 99 65
12.39999583401625 -2.0075308001553203 2.925785672937316 79 99 62
12.530210448212358 -2.2938111434561805 2.8826173905360117 81 101 64
12.349640459979012 -1.6219304117766566 2.9452509239642115 81 101 64
12.355238939487393 -2.1874234523986256 2.689202869687635 80 100 65
12.827209542876894 -1.5900161892548557 2.618567175329805 74 93 61
12.875697334503549 -1.7443569510693517 2.612072440977628 76 96 61
12.006638783026913 -1.8203890845187025 2.7531983658135775 81 101 66
12.332319447405968 -2.4511489742480466 2.6930420498439784 82 99 65
12.760026542618085 -2.1282032216556037 2.8216163897596607 79 99 62
12.371394724698229 -2.024417781287998 2.527677533550831 78 95 67
12.632181132941701 -1.889316576985119 2.8537192166562617 79 99 62
12.094378837337597 -2.613357608484364 2.735836160651702 79 96 62
11.954626622074661 -1.5987366594670709 2.7639734350087126 74 96 55
12.185465979408956 -2.222369337493352 2.5496727057764987 79 96 68
12.538650467685256 -1.945022982638762 2.659979476712631 81 101 66
12.632181132941701 -1.889316576985119 2.8537192166562617 79 99 62
12.408524423069567 -1.7756381411475632 2.6804458236669033 80 100 65
12.349640459979012 -1.6219304117766566 2.9452509239642115 81 101 64
11.325947862826782 -0.8224318124901631 2.039113316165652 69 84 34
12.042890453351236 -1.0450922452796492 2.202581339195873 68 86 38
12.675841820043106 -1.2141680031147608 2.0739671653674367 73 90 52
12.138198727528962 -1.273979247765577 2.1968468890585537 74 91 54
12.452034032073453 -1.477841869905259 2.280341916716809 77 96 64
12.452034032073453 -1.477841869905259 2.280341916716809 77 96 64
12.308623662517197 -1.1386685593174284 2.2903907905478245 71 89 45
12.428426161235288 -1.4668591167786849 2.3937935539191666 73 91 50
12.428426161235288 -1.4668591167786849 2.3937935539191666 73 91 50
12.413282851692214 -1.1798456062147116 2.1809141339120934 72 88 44
12.413282851692214 -1.1798456062147116 2.1809141339120934 72 88 44
13.086800240600889 -1.2431518291848722 1.9721344102658804 77 90 70
13.086800240600889 -1.2431518291848722 1.9721344102658804 77 90 70
12.21349746110807 -1.3923522968948887 2.094926106037157 79 92 75
12.100239560660071 -1.4867303589827476 2.1003452315868705 79 92 76
11.891484186617753 -1.3225989309906205 2.44384816088046 70 90 50
12.018478929580922 -0.9884711292030777 2.3117487508007355 72 87 46
11.367458246221554 -0.9884711292030777 2.246796230271398 70 86 42
12.428426161235288 -1.4668591167786849 2.3937935539191666 73 91 50
12.674072942892915 -1.3225989309906205 2.4945632265765267 70 90 51
11.065062210191968 -2.0787884770651535 2.2689138129718227 72 88 60
12.577941342838542 -1.8181948191309216 2.3810642011895773 78 95 59
11.873494836091725 -1.8181948191309216 2.3229774981000504 78 93 63
11.78685285403963 -1.7720631154015023 2.0194296100464895 89 101 83
12.448226027471435 -1.7036203871955586 2.392080216059064 81 98 66
11.932833063948358 -1.849985054791485 2.4397254492038907 76 94 65
12.584552297971491 -1.7213010064037513 2.5040380985184645 76 95 62
12.534938346378485 -1.5874215483519614 2.5094008436644843 73 91 56
9.788431216145927 2.7250488586533943 2.004379358913129 79 95 55
9.964684124773086 -2.78427627406285 1.7844020889705974 77 90 61
10.314740797872831 3.0829874978664504 1.3867554548948349 79 92 56
10.170088987827016 -3.1015028943912957 1.4834060957082607 78 91 57
10.258792010375696 -3.0035807885179797 1.4841636229621364 73 88 50
9.935167588715705 -2.88373330589221 1.8894280274361894 78 93 59
9.485402002717494 2.864576695333661 1.5826426384976062 77 91 54
10.015391995993038 -3.097114107452699 1.993913186448923 73 86 52
11.028276387422292 -2.402338417029848 1.4902219240000925 72 87 62
10.490509486582472 -2.3367248986721134 1.7735420422631287 71 85 60
11.37831374523971 2.6743151786147963 2.3645170913637474 78 93 52
11.103068367660304 2.7923609686127446 2.390057619891018 78 93 54
11.581323886403696 3.0584021551368625 2.476428425023843 76 91 53
11.651234696178797 -2.9467058807429263 2.46881588747914 84 98 65
10.81313472367168 3.068604465147011 2.2886271406311303 75 90 55
11.56601998688919 -2.970198716705 2.3481510070466114 79 96 63
11.675399756323417 2.9214487788980525 2.4662224850887267 73 89 51
10.804442884485166 -3.09164717426344 2.2893298486565685 76 92 55
11.828677781642929 -3.075375289902327 2.5961589050699625 91 106 68
12.44893564713991 -2.9467058807429263 2.518894113977501 81 98 65
11.928680190124862 2.8869290386765365 2.582497477278547 76 93 54
12.102946235791078 2.740882558129969 2.559891471753632 77 92 51
11.629059738155087 2.6729017248308535 2.6251416382781136 75 90 51
11.351618271296628 3.026173471948293 2.669965521030634 93 111 71
11.060680116343585 -2.8158457052074795 2.3941677606132714 80 94 63
11.768905196619295 -2.3293315420197307 2.456364378058035 75 91 64
11.768905196619295 -2.3293315420197307 2.456364378058035 75 91 64
11.320368727559462 -2.695563281990789 2.3697355287247546 76 92 62
11.829678914833424 -2.5178501712777797 2.450102858762632 76 91 62
10.9880900441589 -2.5876415020326093 2.2748061820746055 75 89 59
12.701668400085762 -2.5548578595057845 2.635972746361834 78 95 62
12.162226557517128 -2.4313045290578748 2.552520736998439 76 93 63
12.470776906588831 -2.7025233236028434 2.6704987551758803 79 96 63
10.355308846476177 -2.175964102150534 2.0871299109212442 71 88 59
21.832238801708893 0.3649368294617718 1.3450104148456528 34 41 0
21.737266019593772 0.4080875913687888 1.4838481284985061 13 18 0
12.661392472055647 0.9950321667826437 1.5006330878671605 13 19 1
12.26101169247901 1.0643230827842396 1.4162272677285372 50 57 23
11.83342243900645 0.7076650004643696 1.4105946540755947 35 41 5
12.024795753730684 0.5886593748905096 1.4131657526573134 32 35 0
12.024795753730684 0.5886593748905096 1.4131657526573134 32 35 0
10.977289857430263 0.7671133014109679 1.4898468600876298 39 46 10
11.062753902960308 0.8959345795021251 1.6715169425859502 38 45 16
11.257926332880755 0.6388928132445696 1.7595486504815225 39 46 0
11.351531791487337 0.515323673864195 1.5806950997268314 42 48 6
11.0651091323954 0.6969741003756139 1.9515836347631121 37 45 0
12.20761069595857 0.2150270115996057 1.6620434616690583 40 46 0
11.400434538500878 -0.1285570575916607 1.8473106157399775 72 79 26
12.141096249603141 -0.38488216610439624 1.8300399638571356 69 77 27
11.5705325778975 -0.41960459227536917 1.9341565240962968 69 79 31
11.681806316953946 -0.5008026193157172 1.8404818621033392 70 78 30
12.176892145315774 -0.5753846668642439 1.8292604123859633 71 80 36
11.693917577643214 -0.6251136668873452 1.9301475341506593 71 83 38
11.616860530903423 -1.8623697635572833 1.9326405502527306 89 101 85
12.457294489078171 -1.6610817151792354 1.5798164173456513 74 83 80
12.729478062206686 -1.2431518291848722 1.899755690796702 68 82 72
12.927472328826642 -1.4206489579855157 1.8139408442755796 77 90 84
11.602515231132395 -1.7548315088365811 1.5804809645531832 79 86 78
11.949530426309737 0.9121816925462989 2.2083112447357047 58 67 13
11.365263182174367 0.6828854915446724 2.246951149459573 66 77 24
11.432331398539331 0.6175220794576508 2.134896936339771 69 78 27
12.983973837430309 0.31912756889661587 2.060950850665881 66 74 23
10.977718556141626 0.5279903721867651 2.1613214973351753 69 77 27
11.564386429856379 0.5279903721867651 2.2332115458666353 67 78 26
11.598694595302264 0.9710004506846005 2.027253391287609 33 42 1
10.143403135114948 0.2648526958120394 2.497704183224085 72 85 34
10.629367218529893 0.07526175212461761 2.30382568367374 70 81 29
12.033085983461111 0.054552404910608 2.009602406461353 71 78 25
11.235182774944525 0.16000253471376752 2.043204147834767 70 79 26
10.933877008551615 -0.2348377441160851 2.5560395251273924 76 90 43
10.727472229937193 -0.20168152936856917 2.428318017484608 77 90 37
11.128950488256562 -0.04108827677792339 2.0480880406702617 70 79 25
10.034975368843098 0.10072354486190452 2.5122404757565944 72 87 37
10.869068426316662 -0.15709007501861524 2.1680373283308354 70 81 29
12.295159669630666 0.23411025729538848 1.9996219095358776 72 79 29
10.785385712348257 -0.04571085155725486 2.173323636715237 72 81 29
12.123656824305957 0.1455091478617656 2.006099162028252 73 81 30
10.850694122787985 -0.06898366569892382 2.5677028122252294 74 87 38
11.232129196857235 -0.8284549916253884 2.2564977387933456 69 85 39
11.145934749211012 -0.40813214172018725 2.2628410940391843 72 84 35
10.90370413831472 -0.3365647341962175 2.4098344843455735 77 89 38
11.86180739832307 -0.2389507395300329 2.112151539026226 72 81 29
11.211142684884214 -0.7499682364984719 2.147429256569275 71 85 38
11.962522850025305 -0.41960459227536917 2.0123725974050473 71 82 33
10.882084264599388 -0.29645674585833853 2.283107530206508 71 82 30
11.560470870299003 -0.29645674585833853 2.3486234643070274 72 84 33
11.341575711343427 -0.6014859962893063 2.139967793501322 73 85 38
12.104320643751132 -0.332080955285516 2.1001478999185768 70 81 30
11.273967607288709 -0.6662212493236666 2.2534653450290563 73 88 39
13.111871945134078 1.1470153171187536 2.339175220859219 64 75 21
14.282690333562785 1.415309790893411 2.733954807527334 73 89 37
13.579108656301933 1.2477674196198472 2.410881790134461 64 77 24
15.703579914947447 2.068211208325523 2.5589146659736657 76 92 44
13.791471569934064 1.5894686427397147 2.6429872760794977 75 90 37
14.055112174397081 2.003716276592828 2.773248703214591 72 88 41
17.5076659024801 1.33148891996501 2.928687751353633 72 86 41
9.814418009362635 0.4888320621326588 2.5437933212766377 73 84 37
10.4575156301829 0.3158942651459926 2.6287839156290036 72 87 38
10.837658701640102 -0.10435675145582299 2.7736698418399315 76 90 45
10.920940876365155 -0.3479241697664039 2.7543686977273003 78 94 48
10.838751371784337 -0.8492008454947527 2.5694094857052527 76 92 48
10.611693885654224 -0.45832207444858314 2.6035428057548264 76 90 43
10.900441678992866 -0.8368158791654914 2.4101678050973554 74 90 44
11.429423970128708 -0.9201088586167028 2.359980666350359 73 89 45
10.900441678992866 -0.8368158791654914 2.4101678050973554 74 90 44
11.39954110012402 -0.9923612390236247 2.661788227740261 77 92 51
11.523729270675396 -0.9083335880988286 2.8735940452758886 93 112 72
12.388661104904532 -1.4099967522388468 2.6836832180675776 71 91 53
12.856555816547536 -1.4347615513239251 2.6146218578516427 70 91 52
12.10043566519308 -1.168101382051998 2.734672578625529 73 93 53
12.116931190278434 -1.2857899249285787 2.5581386944722198 71 91 52
13.36009248093257 -1.2213157602071922 2.948719736566218 79 99 60
12.801348416419806 -3.0434279622817595 2.8120139989065405 90 110 73
12.522625147862417 2.953660150007495 2.884913760439759 81 97 59
12.522625147862417 2.953660150007495 2.884913760439759 81 97 59
12.632181132941701 -1.889316576985119 2.8537192166562617 79 99 62
12.141072936893007 -2.019833999991675 2.7269749128312784 81 101 64
12.094378837337597 -2.613357608484364 2.735836160651702 79 96 62
12.408524423069567 -1.7756381411475632 2.6804458236669033 80 100 65
11.814971373944497 -2.1282032216556037 2.794990747842344 79 99 64
12.332319447405968 -2.4511489742480466 2.6930420498439784 82 99 65
12.006638783026913 -1.8203890845187025 2.7531983658135775 81 101 66
12.746137954049198 -2.094666029338877 2.6297062824973736 79 98 68
12.358203800109631 -1.593570305422163 2.688709483465875 73 93 58
12.632181132941701 -1.889316576985119 2.8537192166562617 79 99 62
12.332319447405968 -2.4511489742480466 2.6930420498439784 82 99 65
12.875697334503549 -1.7443569510693517 2.612072440977628 76 96 61
12.645086256910046 -2.3230366582827666 2.644115183899311 82 99 68
11.325947862826782 -0.8224318124901631 2.039113316165652 69 84 34
11.25824591068833 -0.9000181828414667 2.144710596269938 69 85 40
11.325947862826782 -0.8224318124901631 2.039113316165652 69 84 34
12.100239560660071 -1.4867303589827476 2.1003452315868705 79 92 76
12.60126910729728 -1.7927964347154521 2.2702158450674585 82 97 68
12.761007560660962 -1.0924732727824646 2.1619885805322494 69 85 39
12.398066544350675 -1.5854440821611742 2.3964374917045133 79 96 62
12.562120614890055 -1.3738453796434602 2.2728405558572824 74 91 56
12.726870096749561 -1.2410540460538875 2.3688434468154203 72 90 48
12.534938346378485 -1.5874215483519614 2.5094008436644843 73 91 56
12.53872001650918 -1.351124346913616 2.3843575110567072 71 89 49
12.564967256409385 -1.4529469989001609 2.506145319883079 71 89 49
12.584552297971491 -1.7213010064037513 2.5040380985184645 76 95 62
12.584552297971491 -1.7213010064037513 2.5040380985184645 76 95 62
12.564967256409385 -1.4529469989001609 2.506145319883079 71 89 49
10.024767994401342 3.07658089998327 1.9934920531191833 78 91 58
9.820800919278458 -2.5543893887209723 1.684306081095986 74 88 58
9.770319393374786 2.9686236280882294 1.8949988810051426 81 94 58
9.806158659808087 2.7663232953425996 1.5822551317681228 74 89 52
10.771268332253165 -2.6066580724757307 1.3946393857889758 75 89 60
9.837507478025213 2.626897952846207 1.8927045450638667 79 96 54
11.65203057739855 -2.0282834946750024 1.6664072137959116 93 103 86
10.400344128184154 -2.2003427674332143 1.5816004487808228 72 88 61
12.355938009500594 2.6108274014561164 2.529454776789711 75 90 48
11.675399756323417 2.9214487788980525 2.4662224850887267 73 89 51
11.447582010425064 2.839958851588183 2.6537849246234493 80 98 58
12.162226557517128 -2.4313045290578748 2.552520736998439 76 93 63
10.830694766149682 -2.4183119745205817 2.2872122154420014 75 90 61
11.836617530785778 3.04489455544646 2.5950545466434587 87 102 63
12.694185553359588 -3.075375289902327 2.6370385245643013 83 100 65
10.552009719784163 -2.9886765042731667 2.076578705647224 75 92 56
12.302598446564726 -2.6339566730364563 2.5356574001483434 77 94 63
12.064071661159382 -2.7671836296229335 2.5648100229387056 80 96 64
11.905029254636924 -2.9158764133400243 2.585680690177069 82 97 63
12.316987178773932 -2.873736691044882 2.695635551615606 80 97 63
11.573208995503913 -3.084649668306339 2.4773228249570125 79 95 57
9.94234469158247 2.832499110697685 2.1108722174638963 79 93 55
12.243205040766632 -3.062499599438988 2.7084120285835116 87 105 69
11.251398527174976 1.0211932544271638 1.5807831980421745 42 49 13
11.859503746502044 0.3996321918609986 1.6647295913468694 40 47 3
11.987048328425779 -0.5008026193157172 1.9209767728524754 70 81 32
13.486171860960761 -0.2585873291263081 1.7280758344983873 60 68 20
12.820523312464601 -1.500233539433011 1.8160106318757177 78 88 85
11.700015865933004 -0.14140801032647368 2.1204871220300276 69 80 28
11.365468464686769 -0.5252618693923328 2.501028639658461 76 90 43
11.394401399424364 -0.17664356923920838 2.363082546981062 74 87 34
10.794092897149717 0.06681013136176887 2.1727688772842724 69 80 28
11.128950488256562 -0.04108827677792339 2.0480880406702617 70 79 25
11.626413064611624 -0.26468797139739325 2.229057078738602 72 83 32
14.299922991057937 1.7689393108990519 2.731173083379791 75 90 40
13.227169697203262 1.0987682907589758 2.4410843088622007 67 79 25
13.441536694616595 1.0546347382064387 2.3157337250546153 66 75 21
12.784763584499098 1.0546347382064387 2.2582014885965394 63 72 20
11.914860050211912 1.1005094569291372 2.0142644080602183 40 48 3
12.556258392187775 1.1867652281038419 2.1729756360795673 55 66 14
13.791471569934064 1.5894686427397147 2.6429872760794977 75 90 37
18.48629476542161 1.33148891996501 2.940118094989848 71 86 42
10.900441678992866 -0.8368158791654914 2.4101678050973554 74 90 44
13.001148373994182 -1.890830212984548 2.5958109080352636 80 97 66
11.353024117331872 -0.7208422037775615 2.669722781626939 80 96 52
10.882102306753929 -0.6096584627473275 2.5632535195418065 76 90 43
12.58275498380933 -1.6069334729665627 2.867297098536273 77 97 60
11.77320855993169 -1.0671571078788826 2.804949491859809 76 96 57
11.986109480575692 -1.3743500229593335 2.7574058490407167 73 93 53
13.216654932593313 -1.0131800454422353 3.01588472889704 84 104 64
11.235312817473622 -0.7347237055425505 2.5167356712856948 77 93 47
11.981955362683278 -1.7927964347154521 2.206308317531267 84 97 74
12.53872001650918 -1.351124346913616 2.3843575110567072 71 89 49
11.845715559663958 -1.6896396000570086 2.2148183020909906 87 100 80
13.01655440790242 -1.1325366142534927 2.05961575291579 67 85 45
12.675841820043106 -1.2141680031147608 2.0739671653674367 73 90 52
11.648609915936337 -1.0885478501125685 2.3411977792129424 71 89 47
12.031146813930418 -1.2410540460538875 2.3107859202063836 74 91 49
12.499977972335413 -1.5815918076078836 1.9921431725075212 77 88 76
12.65922348616251 -1.0450922452796492 2.266370569538931 69 87 41
12.57799506490179 -1.1325366142534927 1.9893649325399216 67 83 59
12.42173211467649 -1.5838870013699038 2.282438637199827 83 98 74
10.170088987827016 -3.1015028943912957 1.4834060957082607 78 91 57
10.452462374846771 -2.2616516195552787 1.9751612574476534 71 87 60
10.81313472367168 3.068604465147011 2.2886271406311303 75 90 55
12.243205040766632 -3.062499599438988 2.7084120285835116 87 105 69
12.102946235791078 2.740882558129969 2.559891471753632 77 92 51
10.290143354650418 2.947831255182618 2.2068206672555246 79 93 57
11.3629244743301 -2.333618004929475 2.247116293535127 73 89 61
11.536659144555255 -2.2453751680017326 2.3506584915484443 74 90 63
11.061654172308856 -2.8536282127198294 2.2691723557698875 83 98 64
11.643379780361727 0.4353582053366888 1.9317785874225188 57 65 17
10.707291207941985 0.8349116855126272 1.865730748509656 33 41 0
12.931638827734734 -1.8174149314454013 1.4243025883749436 88 95 88
11.47437880292481 0.6969741003756139 2.0325804545481785 60 69 17
11.491038461579416 -0.5100058664935837 2.238199942879935 72 84 35
10.933877008551615 -0.2348377441160851 2.5560395251273924 76 90 43
12.034941867744841 -2.312891067525045 2.7474906787548576 82 99 65
12.39999583401625 -2.0075308001553203 2.925785672937316 79 99 62
10.837658701640102 -0.10435675145582299 2.7736698418399315 76 90 45
11.791001749985867 -2.4851657288737043 2.8006637170694155 81 99 64
11.504304215200605 -1.1487036206953263 2.485010336411235 72 90 50
13.188109978314289 -1.6581510207134234 3.0343641015749294 82 102 63
11.619290769152585 -1.2366378842801928 2.6266241430047645 71 91 51
11.094099923693278 -0.5554423371663201 2.71773298183976 80 97 53
12.406580634470703 -1.301072885551363 2.0859529536182886 80 93 75
12.08971128553988 -1.200288603442633 2.424514089040001 69 89 49
11.445585525187274 -1.9265253323732066 2.2413332837589097 79 93 68
13.417081029215025 -1.1667526710762877 1.9617107624969532 64 80 68
11.629059738155087 2.6729017248308535 2.6251416382781136 75 90 51
10.56101048238441 -2.644597256794016 2.0761067544615344 76 90 59
10.72136034831381 -2.7445577805025154 2.1774371618744084 80 94 63
10.230669333281652 -2.333618004929475 2.0940598910890427 72 89 60
22.151673311846178 0.4496870689994909 1.485478727314259 20 22 3
12.380925651916753 0.13340903899669457 1.8249060506314845 42 49 0
11.870526113340734 0.31912756889661587 1.8360899442912166 39 46 0
11.635399992093355 -0.03731437372295538 1.9320375140087833 71 78 25
12.072952796143468 0.515323673864195 1.9183792057069082 44 50 5
13.918050642189804 1.2934957723230742 2.626532295854989 74 89 34
12.158530084016922 0.348982228688524 2.097541424799723 70 78 26
9.598692846129076 0.3158942651459926 2.5776477322122253 73 86 39
11.628225091403324 -2.718568492892285 2.8426118779683325 84 102 66
11.314604710699177 -0.05150435146297337 2.3702590878549703 73 84 32
12.491740161109655 -0.30347379792345225 1.9924387550803813 69 80 29
12.37715922110814 -2.5566529273643117 2.934370312789886 82 102 65
11.41989725539327 -1.9698692812429726 2.3608215844650164 75 91 64
9.94234469158247 2.832499110697685 2.1108722174638963 79 93 55
9.327898125846739 2.9686236280882294 1.6903321395758557 80 93 56
9.468437627486976 -2.4923929450995286 1.9057330337666731 75 88 61
14.703167674777431 1.4385922456156681 2.6721164914412117 75 90 36
11.953497300547669 0.6969741003756139 2.1075458031164236 67 76 22
11.630398285502874 0.06006299195282726 2.1241586569281417 71 80 26
12.380118832138924 -1.2213157602071922 2.9332362836214463 84 104 66
10.465792164695015 -3.097114107452699 2.0811470080420778 75 90 52
10.943548241426413 -0.6433274635205725 2.405789555376588 74 90 42
10.967666279230295 1.1005094569291372 1.7646066405602434 54 61 21
