12.6633674704902 0.46040855064178554 1.5520654096472204 28 34 14
11.936269915695695 0.8655585439810978 1.8915083061530025 28 34 14
12.128840767917183 0.8020613731882581 1.7166539117057296 15 20 4
11.58845033655112 0.6168485373708349 1.7235076664516578 24 30 10
11.466280304960874 0.42054288388141914 1.7251477385745768 29 35 15
11.635435546275307 0.7405125497759714 1.810534768913411 26 32 12
11.250189473104388 0.5419821474519625 1.8189139165160073 26 32 10
12.306585832044748 0.5697358521112686 1.6328205719266782 26 32 12
11.083381485755412 0.4597138093053153 1.9171824997632654 29 35 13
11.002891123426666 0.8769759485500206 2.0184700030670966 30 38 16
11.458546392734691 0.6537465362310813 2.2021010924883684 34 41 15
11.00214672901908 0.5621468920784861 2.232778592309141 32 41 15
10.832275617432304 0.8071996186648905 2.1317622297351226 31 39 17
10.832275617432304 0.8071996186648905 2.1317622297351226 31 39 17
11.208441348250501 1.0162254735728122 2.0096823015872514 27 35 13
10.404717230582287 1.201075476128804 2.0462654460419154 28 36 14
10.975103798656422 0.8111733581000595 2.35648408076445 33 42 14
10.28043484407359 1.3964963926266432 2.288735307834946 30 38 16
10.458147493109866 1.2727241207697815 2.2739878109734235 30 38 15
11.245856295471622 1.1043709835871385 2.1088191899064843 29 37 13
11.25733029493759 0.7135709361921034 2.4629251664845966 34 44 14
10.498487082947273 1.0531035909387894 2.1518665721171106 28 38 12
10.460055382511383 1.4163637172035648 2.1542812932361493 29 37 14
11.282421271717778 0.9133801999473589 2.4601722538274156 33 43 13
10.415988335671646 0.9905937715478266 2.2774241629943375 32 41 13
10.458147493109866 1.2727241207697815 2.2739878109734235 30 38 15
10.964167790984748 1.3964963926266432 2.357482589212382 30 40 14
11.067409693641254 1.3708407601035524 2.4844938680432764 32 41 15
12.92465714476949 1.7782349300321056 1.629850964454047 8 11 6
12.211068795066845 1.8755818828570037 1.6333063664689387 24 28 10
10.466901004994263 1.7412966822885287 1.9385249097489319 32 38 16
10.759514850511277 1.6389720481036516 2.0293603950721604 30 38 16
10.671012521965858 1.840149962438026 1.9311662975603467 30 38 15
9.991526341174653 1.7606158714752829 2.0676769108818256 30 38 15
10.509975348096273 1.9718218819635718 2.0411158375462035 29 37 15
10.658227777041766 2.262306017432699 2.3866930691034414 36 45 19
10.394312954515549 1.6468471287371171 2.1584624909881738 30 38 15
10.165961172447822 2.3596114953607605 2.4396802685234555 39 49 23
10.21353630112738 1.6567740644730984 2.2944706478509778 30 38 16
10.5509827679353 2.1834824453843478 2.26655197655662 33 41 16
10.90146588950641 1.6567740644730984 2.3632659191263152 30 40 16
10.533057816496177 1.9061049668263792 2.267973907734779 32 40 18
10.533057816496177 1.9061049668263792 2.267973907734779 32 40 18
11.302456534281086 1.952217746790903 2.4579894711182217 34 44 18
10.326219800587676 1.7847972378312094 2.2848691729679746 30 38 16
10.746835391022106 2.0120844098787356 2.524191690903117 37 47 21
10.622500281064143 2.2090820637157487 2.0357379839141445 29 37 14
10.530952047617635 2.3585824964952073 2.0401034751872675 30 38 15
11.593443581333696 0.1423405058614044 1.7234413785925726 34 40 17
12.473625651861987 -0.030330245905198356 1.7125946091407176 39 45 23
12.483684940368263 0.050636322156995345 1.7124795777543107 38 44 22
11.775355063060964 0.2274656793664019 1.7210651871849851 33 39 17
12.472682458570823 0.13094524514216432 1.6319935657711004 37 43 21
11.023730875381155 0.06040609391659951 1.919136267591517 34 40 17
10.611965961199033 0.17226349431411736 2.0362359944824653 35 41 20
10.493412980840457 -0.04006027078296698 2.041918388155554 39 45 23
11.302661899303661 0.3371538558875442 1.817737975022901 32 37 14
10.768289255868366 0.409950101957458 2.1355000310301624 32 40 17
10.155501004151816 0.25088125299350733 2.4408992713938398 37 44 22
10.983503573636966 -0.04006027078296698 2.123134722680737 39 45 23
10.031554967708278 -0.058971135322970075 2.4556777512002403 39 45 22
10.620554592829759 0.45863966439191484 2.2610941867135317 37 43 20
10.158882573161586 0.07483837232505838 2.173981965824992 37 44 23
11.408853622784784 0.5192762970549613 2.446620730005465 35 44 15
10.36268562839366 0.39246646343087155 2.417517657209632 37 43 20
10.474015500774385 0.3048946049417372 2.153401664200667 36 42 21
10.620554592829759 0.45863966439191484 2.2610941867135317 37 43 20
10.044060327265093 0.0983027505599494 2.4541580089613877 36 43 22
10.965575647654932 -0.22566799246993155 1.8254948843088257 34 38 18
9.784502441479768 -0.5372914334317984 2.0791863841807103 46 53 31
11.091462339910631 -0.132118292735719 1.9169195449732246 31 37 15
9.84681676858621 -0.6318437681453408 1.9629023083501929 37 45 22
10.181996327798853 -0.3843620977052965 2.0575606922833645 38 46 24
9.12547489557189 -0.7029481596991688 1.9958197149409114 46 54 32
8.982495115282477 -0.5372914334317984 1.8834428566189285 35 43 21
10.577283994834813 -0.48893446359360165 2.3948628638846006 45 53 31
11.074999966618586 -0.35820947613746 2.4836060034373695 43 51 29
10.827115235635725 -0.16328380105645063 2.245439351196416 40 46 23
10.946026580425176 -0.31276273124234744 2.359145584402353 45 51 31
10.998880467490647 -0.2772831120287043 2.2330100323820767 41 47 26
10.773418709349528 -0.18504628348835453 2.3753955958265816 43 49 29
10.251938799767377 -0.6037664669023396 2.2911656493748955 45 53 31
11.13543246564788 -0.06997555555051684 2.6398265139495223 40 48 25
8.764251029728783 -0.8732231529375913 1.8915028456252223 38 48 25
8.582087302826116 -0.9727499707634203 2.0246698226373754 42 52 29
10.945786505200578 -0.500357481542444 2.672380250474893 46 54 34
11.379619968251529 -0.41821122923530646 2.6020061753056978 44 52 32
9.26254129023965 -1.0143798144521377 2.389301890529121 45 54 32
10.945786505200578 -0.500357481542444 2.672380250474893 46 54 34
11.213688216167634 -0.25179925982764045 2.6272495714429516 42 50 27
9.485622249015863 -1.1920885173135227 2.748685671400915 46 56 35
10.71365959309097 -0.789036850456613 2.528566622036496 46 55 33
9.213351740936062 -1.0791139468844606 2.5728182399599544 44 54 31
9.885644979637737 -1.2729736540233372 2.660345616404009 44 54 31
8.55973342971435 -1.0143798144521377 2.3093880776230904 47 55 33
10.34570223156544 -0.6605804235029541 2.581113951299159 46 54 32
10.803659707183298 -0.56332997986547 2.5168217297725315 45 53 31
8.220920142135649 -1.1597263166571816 2.3475869410683816 45 54 31
11.379619968251529 -0.41821122923530646 2.6020061753056978 44 52 32
14.836948783194158 0.43595899066503585 3.0415869446315926 36 46 22
14.912615531244498 0.8803761789027703 2.9997341010655756 44 54 30
14.912615531244498 0.8803761789027703 2.9997341010655756 44 54 30
15.054472915725166 1.0980522495066407 2.944431668735735 44 54 28
11.687041104173634 -0.3065231401402058 2.741227998818986 46 54 31
9.751703121615668 2.480118287274543 2.4915324213485683 41 54 23
9.758841930958488 -2.2378408742197577 2.685854048642806 46 54 32
9.156443077646959 -2.8546135369751804 2.582616189812059 49 59 38
10.392866947413815 -2.412333365868842 2.7916043731315785 48 60 41
9.535224393680066 -2.0273086020515185 2.7363185332881645 47 55 33
10.392866947413815 -2.412333365868842 2.7916043731315785 48 60 41
9.156443077646959 -2.8546135369751804 2.582616189812059 49 59 38
7.656235808181544 -3.085401338799776 2.0845742724440375 47 57 36
9.199647700565386 2.7070754308157317 2.3966355674609914 44 56 32
9.533339949991605 2.5716666098520267 2.3594229335803445 44 54 30
8.965626861905978 2.8617949675980316 2.4253912323086784 46 58 35
8.824984954760778 -3.075495453245021 2.443899438062374 47 59 39
8.83919748842292 3.031469151019945 2.441983699468394 47 59 36
8.191683093146434 -2.9032525772881117 2.3511012119448607 49 59 38
19.96283415579803 -2.556411496267792 1.9164060432546344 34 44 16
20.50033401543274 -2.5133235072317546 1.9069814230443884 33 43 15
20.323394950094375 -2.556411496267792 1.9627174730802008 33 43 15
20.93286136370892 -2.434663317837627 1.7515352156139457 28 42 11
14.99838812559219 1.4409835978547076 2.9641232633482533 42 54 30
14.780038592328804 1.0695320449332673 3.0933144372137082 50 60 38
11.904899698003407 0.4981554887414296 1.719417802784861 27 33 13
11.132498565353647 0.5932692136893671 2.0128869712102295 32 38 15
12.083774212748049 0.6845393279918024 1.6339657411581001 20 25 8
11.144824192675182 0.5062428748648051 2.114237701082562 32 39 15
11.44655858572419 0.7340963246209502 2.0983882207123954 34 40 18
10.458147493109866 1.2727241207697815 2.2739878109734235 30 38 15
11.643350537132637 0.8169179778997114 2.565300087910584 34 44 14
10.870985300939633 0.8921715383422687 2.2422157344299167 32 41 15
10.634766899636453 1.3055871969489365 2.143474290972664 29 37 14
10.471266922664 1.2309222711002907 2.4058680049156767 32 41 15
12.52593541208929 1.9518242799841783 1.5518598733351523 17 21 8
10.671012521965858 1.840149962438026 1.9311662975603467 30 38 15
10.866538152234819 1.7412966822885287 2.0245041795404974 30 38 16
10.962891946906817 1.9339021002179226 1.9211523107845583 26 34 11
12.211068795066845 1.8755818828570037 1.6333063664689387 24 28 10
10.20515018125599 1.8696381185250983 2.056360314396113 30 38 16
10.708441762815642 1.8696381185250983 2.1390446525796536 30 38 16
11.109951940207079 1.8158977483385752 2.4795461783046635 34 43 17
10.233971066776983 2.0179957743202395 2.168936687524086 31 39 17
10.990998540738081 1.5191100292994033 2.4935588618008913 33 42 16
10.841327434373083 2.0751685701660167 2.3689082549925207 32 42 16
11.576705303641027 2.0120844098787356 2.574219694674789 37 47 21
10.379173868897638 1.5310800301600023 2.1594344986220824 30 38 15
9.841800719972788 2.35900579577437 2.19634855241215 36 45 19
11.680387975748776 -0.03300235871363416 1.8095941419506985 35 41 19
10.505368569167812 0.06685332826332824 2.0413387779722307 35 42 20
11.023730875381155 0.06040609391659951 1.919136267591517 34 40 17
11.095761674478362 0.3701689661087531 2.014454722351096 34 38 16
10.810405836472324 0.27395683839318996 2.0270377667257486 35 41 19
11.012338063519653 -0.03619056344342676 1.9195119883043241 32 38 16
10.768289255868366 0.409950101957458 2.1355000310301624 32 40 17
10.660033124737675 0.5192762970549613 2.386513070998981 34 43 19
10.114053306370366 0.21786458772762643 2.303195479451171 38 44 23
10.322069902480283 0.34340002885908766 2.2852176487954496 37 43 21
10.36268562839366 0.39246646343087155 2.417517657209632 37 43 20
10.002150843519276 0.08498442505158287 2.3133022145715936 38 44 24
9.450897172714416 -0.48293265172418576 1.6515979757932306 30 36 14
10.310542570226705 -0.3466052629335289 1.8420717408197353 30 36 16
10.752190958650942 -0.24888198481451063 2.0296966823100258 35 40 18
10.93745326480533 -0.6037664669023396 2.3599343869128306 46 54 32
11.074999966618586 -0.35820947613746 2.4836060034373695 43 51 29
11.13543246564788 -0.06997555555051684 2.6398265139495223 40 48 25
8.950372212874536 -1.1597263166571816 2.427351643107433 42 52 29
11.213688216167634 -0.25179925982764045 2.6272495714429516 42 50 27
9.01112323175151 -1.2729736540233372 2.608954826345983 44 54 31
9.485622249015863 -1.1920885173135227 2.748685671400915 46 56 35
14.836948783194158 0.43595899066503585 3.0415869446315926 36 46 22
10.392866947413815 -2.412333365868842 2.7916043731315785 48 60 41
9.787775039130382 -2.5657435518868645 2.6798597964260074 47 56 38
9.787775039130382 -2.5657435518868645 2.6798597964260074 47 56 38
8.209423506172298 3.047905982087423 2.1897271617856373 43 55 32
7.234871441321142 3.047905982087423 1.9626206533127806 42 53 32
8.084226907140168 -3.075495453245021 2.364345782149833 49 59 38
9.522259575966366 2.642905887238034 2.2208062648817903 33 46 19
19.96283415579803 -2.556411496267792 1.9164060432546344 34 44 16
20.772265336045937 -2.4727726841612654 1.8519127808707905 30 43 14
15.008868643622241 1.816084756787623 2.960271314872768 43 55 31
14.855995206593088 1.3629831279991103 3.0295334170583854 48 58 34
12.27336374718465 0.38720869084384696 1.6329886784033028 30 36 16
11.718134060573352 0.9367393402644631 1.989359898807395 28 36 15
11.669771938439457 0.6711730952753084 1.9912042166044717 31 37 16
10.73931745364085 1.103534010849703 2.378700987709088 32 41 14
11.130969578310111 1.2727241207697815 2.3425694883281487 30 40 14
10.950056595068746 0.9596404872684512 2.1250183904821407 29 38 14
11.608148925577202 0.804287344277893 1.9935787515850172 28 36 14
10.844942463197093 0.7255423590060611 2.244125242434195 32 41 13
10.936522360792393 1.0346437211718524 2.5001669068261787 32 43 11
10.49992564962098 2.0658812569039773 1.9373134862846666 29 37 15
11.007109072580047 1.7847972378312094 2.3535789233457862 31 39 16
10.546084057302417 1.952217746790903 2.3980649693907656 34 44 18
11.593443581333696 0.1423405058614044 1.7234413785925726 34 40 17
11.074999966618586 -0.35820947613746 2.4836060034373695 43 51 29
10.576420150451808 -0.1460687450169907 2.0379246740326926 37 43 22
10.269077267353389 0.19243192454880653 2.1666090401857927 37 43 23
10.577283994834813 -0.48893446359360165 2.3948628638846006 45 53 31
11.022663617401317 0.2486005539524066 1.8241467153142685 33 39 17
10.5374954494017 -0.43077973876955833 2.2676212757315173 44 52 30
9.581227835477966 -0.7029481596991688 2.091048375333098 47 55 33
11.704788223088732 0.5962101682156637 2.5572728299510956 35 45 15
9.163622086864715 -0.7878923656488371 1.7643742804526255 30 38 16
10.38953201618836 -0.6860802511866307 2.4146004089238673 47 55 33
10.827115235635725 -0.16328380105645063 2.245439351196416 40 46 23
9.413076683116374 -1.7631578982946925 2.7677189935930158 47 55 33
9.533339949991605 2.5716666098520267 2.3594229335803445 44 54 30
9.758841930958488 -2.2378408742197577 2.685854048642806 46 54 32
9.188164922578132 2.7659350398989138 2.24874935373552 39 49 25
8.653633916753433 2.699388041760124 1.7759405264013999 32 42 18
7.337660335370419 -2.9379906566236595 1.9568394072238635 47 57 35
9.45970658218433 -2.412333365868842 2.755349345180216 50 58 39
10.125844292028836 1.1576611473814913 2.1762311820265983 30 40 14
11.040260821560896 0.6300958160451616 2.35059620627065 33 42 15
11.040260821560896 0.6300958160451616 2.35059620627065 33 42 15
11.936269915695695 0.8655585439810978 1.8915083061530025 28 34 14
10.898796970950553 1.201075476128804 2.1279319935198697 28 38 12
10.844942463197093 0.7255423590060611 2.244125242434195 32 41 13
11.461543522772612 0.4597138093053153 1.9993411348139092 30 37 15
10.767713269435331 1.1043709835871385 2.028984561371205 28 36 14
10.125365209492722 2.1190785204304743 2.0605230505702714 31 39 16
11.074999966618586 -0.35820947613746 2.4836060034373695 43 51 29
10.74604471949206 -0.04485598030513094 2.2514881843620924 38 44 21
7.817931460793016 2.902104748073775 2.0729403676336418 38 48 25
20.192524853982068 -2.5133235072317546 1.8602134110081758 34 44 16
8.194118715036186 -3.085401338799776 2.1910582039375406 44 56 35
20.323394950094375 -2.556411496267792 1.9627174730802008 33 43 15
9.522259575966366 2.642905887238034 2.2208062648817903 33 46 19
14.866576107965109 1.9550281411398271 3.02337706571492 46 58 35
11.208441348250501 1.0162254735728122 2.0096823015872514 27 35 13
9.306448765456613 2.456194569916104 2.2385559834424376 37 47 21
10.634766899636453 1.3055871969489365 2.143474290972664 29 37 14
8.63089501932195 -1.0878222299342615 2.155357583472931 45 55 32
10.828114352683698 0.15589051158935008 1.8288014544292996 34 40 18
9.989593020184827 -0.05095492030366713 2.314456452141347 39 45 22
10.773418709349528 -0.18504628348835453 2.3753955958265816 43 49 29
9.816859319582376 -0.48293265172418576 1.856086571219701 37 43 22
15.035677915781262 0.606588352561085 2.9507906943945965 44 54 28
9.396356796473139 -1.469570845904304 2.772281046595133 47 55 33
7.672613605419555 3.047905982087423 2.083370076164657 41 51 27
12.852138843921953 0.6353117709515451 1.552340559605 24 29 12
11.002891123426666 0.8769759485500206 2.0184700030670966 30 38 16
11.036709768646064 2.147253224679983 2.48810796639851 36 46 20
10.904433825201089 -0.2134002954807856 2.504117988174941 41 47 24
10.887032053983747 1.5258782927511916 2.364611504335536 31 41 15
10.198128856748408 1.5258782927511916 2.295806373493025 30 38 16
10.445673467960065 2.2775247715233964 2.155190495205054 32 40 17
15.054472915725166 1.0980522495066407 2.944431668735735 44 54 28
9.26868550242485 -0.6318437681453408 1.7621526711385846 22 30 7
