13.544583997453993 1.8425762358821307 1.8320210536564125 68 86 50
14.123639561229258 1.9145893598335324 1.8949204424311086 61 77 39
10.150627925882763 0.2679506376736428 1.8194515596338725 26 33 30
10.837637177504806 0.45186707903984646 1.8033880066781052 0 4 0
12.386094914185477 0.3812445926292697 1.5302621566648615 4 10 6
10.303345576187901 0.8645268000967553 1.8156898576639355 52 67 37
9.819516762066781 1.090100353002919 1.7239556343596767 54 69 33
10.020931305306245 1.090100353002919 1.822739185662038 55 70 34
10.314922463801333 1.0031092522697092 1.71654579726825 53 69 37
9.9096825199003 1.0377099375077234 2.041941867483638 53 68 32
10.858298260495454 0.6613004007538941 1.7092039387674114 49 59 41
9.693655527621083 0.877545661058756 2.0533274890029016 51 65 38
9.19986705227967 0.07113669263525586 1.9608426918807214 17 29 11
11.111621301726416 0.49710244932644143 2.0884058808403836 5 11 4
10.73585403227049 0.40163669377117867 2.1084509907921367 15 25 14
10.378189790366276 0.642582840939898 2.0190766064454433 47 59 40
9.738751188706843 0.18687310383407957 2.0509034001651507 20 30 23
9.17890928475556 1.2546860072739698 2.0829375514539152 51 67 30
10.023070478078736 1.2893998304383103 2.0361874929515213 52 68 31
10.27204218988078 0.6172786873158989 2.255699977712735 51 63 45
9.429082197639337 0.2845167549793387 2.490146137612827 58 73 48
9.311177419589717 0.10977085558096472 2.5069389106846725 63 79 50
9.629094647499878 0.1339676175654172 2.652036553894436 62 78 44
9.629094647499878 0.1339676175654172 2.652036553894436 62 78 44
9.311177419589717 0.10977085558096472 2.5069389106846725 63 79 50
9.201988162763742 0.09295619632501932 2.3548566539118445 0 9 0
8.343619524870444 1.0755327435830233 2.4635595282373544 55 72 34
8.343619524870444 1.0755327435830233 2.4635595282373544 55 72 34
8.07578437464184 1.051965572533255 2.7610528831258896 58 75 37
9.632832944388605 0.38619650268975436 2.9741296385304636 58 77 40
8.595121926948753 1.4840605459481273 2.428006184531759 51 71 32
8.713592195625722 1.8344001609247633 2.412441736607059 54 71 33
8.812644868228254 1.4653515313229335 2.588362418916349 54 71 33
7.980716684272828 1.6816679396948422 2.5221846542994237 54 71 33
8.845329856457079 -0.18423003289773077 2.10426800988135 45 60 31
9.29761158607139 -0.052735622459532186 2.203519519577926 35 50 24
8.346360274383095 -0.6753329906309523 2.139958887888343 61 79 47
8.114792492056008 -0.4821596720671847 2.0164792175627952 55 72 39
7.8671935766190035 -0.6477233463099126 2.3446006145041514 62 81 49
9.476451571733907 -0.38053417939870143 1.8375579021808757 50 64 33
9.12319540409909 -0.7782459052777854 1.625418104464854 52 66 35
9.003666242896825 -1.0253977166207522 1.8519363894526641 55 72 39
8.453165613773477 -0.7769315209699624 1.997441047369089 58 75 43
7.85547278192158 -0.9000658193634642 2.3460595070750623 59 76 44
8.561142770730502 -1.0715631518223017 2.1239887601632264 55 72 40
8.563871107071945 -1.3422851132133764 2.2679113064079757 53 70 36
8.094700147814384 -1.1388076290715692 2.317494858318669 59 76 43
8.563871107071945 -1.3422851132133764 2.2679113064079757 53 70 36
8.792872359602665 -1.1998603260199021 2.2462968233654212 55 72 39
9.595276259013723 -0.41156851745663214 2.4677573515490008 63 80 48
9.489356548015202 -0.35368751086515915 2.325091706672711 57 74 42
9.710835773968553 -0.3014463305089955 2.636465341745932 61 79 47
9.618206567741677 -0.0878467386139402 2.6541654135597517 58 75 44
9.710835773968553 -0.3014463305089955 2.636465341745932 61 79 47
8.364263049494511 -1.1579037737241282 2.682470980039138 69 88 54
8.118754434236122 -0.7720113758727921 2.498722827917478 59 77 45
9.714542615737246 -0.7534441943891897 2.9300939866098155 61 81 45
8.863434187283357 -0.15757302204833756 2.8534710588702437 59 79 43
9.97035856565277 -1.8030549574237924 2.421943285838031 64 80 45
7.985708235861478 2.2224548093208 2.330200768025337 55 73 35
7.861339914380164 2.3460887931574583 2.179954111555827 56 73 35
9.045557143750743 2.4456870212722923 2.224109644061402 55 72 34
7.9893550722538045 2.4456870212722923 2.0239935917939884 56 73 35
8.47501913010843 2.4456870212722923 2.1302761421505285 54 71 33
8.22468919328038 2.6360620752852273 2.0101053875652215 53 70 32
8.248830573854274 2.3479066931590586 1.8784677052435306 56 72 34
8.601226783376166 2.130633122650877 2.264280074237215 52 72 35
8.672870896932121 2.8999952292314815 2.257433117220122 54 72 32
8.544537637818122 3.0489952774487423 2.2698075016139705 55 72 30
8.686842359659723 2.8078428853535353 1.9852466745338475 52 69 31
8.79116820830892 2.955261818379646 1.7420391138173663 56 71 33
8.892200352060001 3.070666540200175 1.8555583326363914 54 71 30
8.309157471131181 3.061263831411347 2.00533349115471 54 72 31
8.664587255952807 3.070666540200175 1.7445660979759212 54 71 28
9.21983070502093 3.0489952774487423 2.352928442544379 56 74 33
9.21983070502093 3.0489952774487423 2.352928442544379 56 74 33
9.252496564455168 2.5624722188032747 2.3494270205754395 56 73 35
8.671191404514797 2.8583120026747086 2.4179319977096374 56 73 35
8.94158671366255 1.9922382695515712 2.384339029141511 52 72 35
8.910618750933796 2.70017721081591 2.3880229631270615 56 73 35
9.030740802827676 2.343249369690697 2.5504129427892166 57 74 36
9.130717239262866 2.61809227381751 2.5342941001022306 56 73 35
8.704463844112519 2.2224548093208 2.413616350504416 55 72 34
8.35119193930932 2.070300721136629 2.4624344987482423 54 72 34
9.150877640551272 2.070300721136629 2.5311309182312027 56 73 35
13.96074889490206 2.971091026866087 2.8834238403682946 58 75 36
10.087206081939657 -2.449759786950202 2.1472504833324795 60 72 35
9.413568672339107 -2.9579687857891677 2.1945163446064715 56 72 31
8.40374711533681 -2.9579687857891677 2.0001157676076615 58 72 30
9.612788825210018 -2.8329560690214923 2.17968286071166 58 73 34
9.317984830402223 -3.089034187117478 2.2019171548378664 54 72 29
10.68335336821896 -2.589566473572466 2.4905467065576783 59 75 38
11.397163849763361 -2.3693759155522156 2.555977089975495 65 80 45
10.578241301520615 -2.3693759155522156 2.503703345827403 63 78 42
10.763121099653137 -2.0901292824860533 2.65187345246191 75 91 57
9.80647814590947 -2.6610292787005645 2.2951227215875503 59 74 35
10.029072774333608 -2.93055058850312 2.4152888073654246 56 71 31
9.208458724373209 -3.080982405203039 2.3541561003509286 55 72 30
13.953241327940523 -3.0295511249674743 2.8854693632288946 60 78 38
13.800655542354088 -2.6347056302070455 2.931804664989371 64 82 44
10.462247270077295 -2.073071841268959 2.369825581620984 64 79 42
10.462247270077295 -2.073071841268959 2.369825581620984 64 79 42
11.200659477253831 -2.073071841268959 2.432130320235863 69 84 48
11.291996544136651 -2.2822127491874453 2.296974675631481 66 80 42
11.474340663467945 -2.147920528348991 2.5459118757145927 72 87 52
11.031301957721713 -2.267350716090811 2.450202409390823 64 79 43
11.120602095068405 0.5336001375784474 1.705919029201715 53 62 49
10.73503461688079 0.3631089739557096 1.902713524412619 23 31 25
9.705711097158622 -0.1460140342532104 1.7257659546147903 37 51 19
9.797709271334298 -0.2472964310760349 1.6216543549004128 42 56 24
9.406969279723112 1.3996351349214453 1.9518084377731824 51 66 29
10.184707267089035 0.7125398749510021 2.1410392684069897 48 62 39
10.009014379737106 0.9457422503295497 1.9278259245959344 52 67 33
9.201988162763742 0.09295619632501932 2.3548566539118445 0 9 0
10.27204218988078 0.6172786873158989 2.255699977712735 51 63 45
9.629094647499878 0.1339676175654172 2.652036553894436 62 78 44
9.205691051560873 0.17171372351298247 2.746947414524479 59 76 40
8.333855255687377 1.436413547119396 2.689907722287223 56 73 35
8.59659263577101 1.6620076306223432 2.427808605342027 51 71 32
8.101930065242257 1.25837185250696 2.5015004097720843 56 73 35
8.928229252548574 1.8881848612145054 2.5677420926702994 55 72 34
7.429458558621612 0.8084541371531823 2.6354822988577435 61 78 39
8.875248263742545 0.23851444531115912 2.8490131115613506 58 77 40
8.106609821676866 1.8881848612145054 2.5007256193182283 54 72 34
8.792872359602665 -1.1998603260199021 2.2462968233654212 55 72 39
8.604309346694428 -0.30961357577598575 1.9894704686459819 49 63 32
8.856174842656568 -0.04653175249928389 1.85674926746703 40 54 25
8.335313292571293 -0.8770056593349641 2.140807043408616 56 73 41
8.581392138713092 -0.5954685199240611 1.9906591421001385 61 76 44
8.810374422337409 -0.5308195198945674 1.7416621324154826 52 67 34
8.893112200175663 -1.1301507724318294 1.97506535662904 58 72 39
9.156536832200318 -0.4821596720671847 2.2148648140979685 57 74 42
9.154825220674915 -0.38053417939870143 1.625229199914947 51 65 33
7.865830914821518 -0.5540809917651957 2.179555834112202 64 78 47
9.291157916818793 -0.38057403985155736 2.7254162382927722 60 79 47
9.395684788111723 -0.24898425780735942 2.494822260026516 59 77 46
8.229817216618127 -1.0558097800340247 2.4809162967044855 65 82 50
9.29991713878762 -0.07189902124987965 2.508585256153694 61 79 50
8.575873674119716 -1.301797243736184 2.43060248824368 66 83 49
9.62194909484231 -0.25971595325803776 2.980958996217619 59 79 44
8.617451039408476 2.2663075626048617 1.6286272478274197 56 70 32
8.000879740068099 2.2486643196970775 2.023292218026119 56 72 34
8.473300421593876 2.3460887931574583 2.2768958142119766 55 72 34
8.902124399039426 2.931144488850304 2.1005042866200436 53 71 31
8.078088217249213 2.931144488850304 1.885191305692879 56 72 32
8.777143764642993 3.061263831411347 2.1088623150000885 54 72 29
9.153850272958326 2.3460887931574583 2.3601151739661503 56 73 35
9.474378375314041 2.2224548093208 2.4839015309020698 55 72 34
8.94158671366255 1.9922382695515712 2.384339029141511 52 72 35
9.338888819340792 2.8999952292314815 2.3403411792962867 55 73 33
8.35119193930932 2.070300721136629 2.4624344987482423 54 72 34
9.612788825210018 -2.8329560690214923 2.17968286071166 58 73 34
9.506659759187857 -2.7891671671976477 2.3233828035451056 59 74 35
11.208711328918989 -2.006643026318284 2.5818344624627865 76 91 57
10.17021798851739 -1.9451618235636305 2.399799510078924 65 81 45
10.838999121068188 -2.1852892721154387 2.33473145852541 63 78 41
10.292148378949724 -2.4685016137597366 2.3869611612919432 62 77 41
9.939409784471174 -3.080982405203039 2.425503210007876 57 72 31
14.1932401245945 1.8425762358821307 1.9685766822997783 65 82 44
11.465020242526695 0.45186707903984646 1.973960216103598 0 5 0
10.68387484485872 0.793178551118951 1.523799574402017 51 64 39
10.652322430710779 0.49710244932644143 2.0067362491621785 37 46 36
9.896742832707405 0.7943670500952368 1.9320608779028192 48 60 37
8.814079281455717 1.6816679396948422 2.5880989516995068 53 70 32
9.629094647499878 0.1339676175654172 2.652036553894436 62 78 44
7.979132458378765 1.4653515313229335 2.522463168407217 53 70 32
9.321274177836724 0.242502615242498 2.3421735447487273 6 18 5
8.789214296964454 -0.8616525610150096 1.8589899245688875 55 72 41
8.893112200175663 -1.1301507724318294 1.97506535662904 58 72 39
9.329767790360403 -0.9324255746919624 1.7320640743919897 53 68 37
8.229817216618127 -1.0558097800340247 2.4809162967044855 65 82 50
9.194301582285966 -0.11284699658652726 2.7499323444986077 59 78 44
8.332592691381093 2.761122509699109 2.1410163393622472 54 71 33
9.055737749368886 2.2486643196970775 2.223249400800843 54 71 35
7.9759879077730655 2.5624722188032747 2.169960433436091 55 72 34
8.777143764642993 3.061263831411347 2.1088623150000885 54 72 29
9.44381888638741 2.8583120026747086 2.488102343687944 57 75 35
8.693871903184307 2.4675723966816028 2.4149843371566937 57 74 36
10.654249441778516 -2.2822127491874453 2.2267367250164187 63 77 39
9.305167700139712 -2.93055058850312 2.3438579723160182 56 72 31
11.553356946432201 -2.1852892721154387 2.397275220973274 65 80 44
10.928379967731674 -1.9451618235636305 2.4616606556731115 71 87 53
14.017252848007905 -2.763503499048697 2.868575284003434 60 78 40
11.031301957721713 -2.267350716090811 2.450202409390823 64 79 43
9.82279114176875 1.3996351349214453 2.0464532350235216 51 68 30
9.49879422092587 1.1408349398353812 2.064104178900388 53 68 32
8.884417543998943 0.34344983142735935 2.5754164155434442 54 71 35
7.3242826267778725 1.25837185250696 2.4198632853135615 53 70 32
9.917008330474363 -0.5111908826960542 2.8498924677141195 62 82 47
8.799691477685393 -0.6937445253031672 1.8586369846950686 58 72 40
8.559890580457076 -0.9589476975015803 1.9917807538063574 55 72 40
10.217703785541891 1.0031092522697092 1.6195621621873197 53 68 34
9.92171875317478 1.185745379900897 1.9311098945735317 55 70 34
9.618206567741677 -0.0878467386139402 2.6541654135597517 58 75 44
8.455701418377371 -0.9969704357244185 2.2786720440752584 57 74 42
9.743152974333949 0.34344983142735935 2.6304992244200487 59 76 42
7.742057709014175 -0.9385203056545426 2.5668307170315714 60 78 46
8.209931287126388 2.70017721081591 2.30458244138222 55 72 34
8.544537637818122 3.0489952774487423 2.2698075016139705 55 72 30
8.732503489936805 2.2663075626048617 1.7432010134839317 53 68 29
10.757265084748807 -2.366959255625766 2.3420357613912337 63 78 41
8.296537333688883 -3.089034187117478 2.006039601279389 56 72 28
9.506659759187857 -2.7891671671976477 2.3233828035451056 59 74 35
11.039477334189137 -2.245047140736246 2.6067990293007757 70 86 52
10.838999121068188 -2.1852892721154387 2.33473145852541 63 78 41
9.836980559512218 0.23851444531115912 2.8783376020209284 59 78 42
9.19986705227967 0.07113669263525586 1.9608426918807214 17 29 11
8.309157471131181 3.061263831411347 2.00533349115471 54 72 31
13.735634661327822 -2.9855795132165537 2.955339895027321 60 78 38
