11.911384839290195 0.7372658835679461 2.249634852023531 17 17 19
12.34279516643328 0.9081783561263976 2.4464792504108637 13 15 13
11.419999229562256 0.6513791317147111 2.284855375392592 17 17 19
11.89065721365342 0.8115846313652156 2.1470475198324905 16 16 16
11.869283303302648 0.8219521915497717 2.4957931086261587 7 10 3
11.64808955815667 0.4937782359926096 2.2680077748049223 20 20 20
11.869283303302648 0.8219521915497717 2.4957931086261587 7 10 3
12.314059304647365 0.4937782359926096 2.3303050018842772 18 18 20
11.46364600585648 0.7161557026009463 2.5443291905909 60 64 47
11.767484406804682 0.17766737645176123 2.507361580387297 25 28 21
12.327540376614825 0.13815646579021423 2.3292671467093173 15 15 18
12.007137467852301 0.3900178191120374 2.3548650098849206 17 18 18
11.777378476784756 0.27662183595378914 2.3745155237409197 16 17 17
11.2034291945132 0.24673680476136103 2.187449539088187 19 19 21
11.589328048943285 -0.09731738555301592 2.391497816076909 15 16 13
11.6224254250391 -0.08639538869290087 2.2698586134697156 21 22 23
11.698197221775406 -0.2211251699351289 2.381562687420954 19 22 17
10.98123002871405 0.02620962054572059 2.2018672792242175 16 16 18
11.566210745637196 0.029541009417988567 2.393645333790758 7 7 7
10.911045626995959 0.03384222105827061 2.4608498861530586 23 25 19
11.605032860755937 0.5038400432997703 2.5266449898237786 43 47 33
12.318088212706842 0.029541009417988567 2.4488877906337816 6 6 4
12.267988643237285 0.02620962054572059 2.333876839540798 16 16 17
11.145387432159376 1.589714996945347 2.4352890342738633 61 67 41
11.177923570638773 1.452011519812475 2.4318839423059577 59 64 43
12.262001069596558 1.1938451356137987 2.4544178671691035 26 30 15
11.98408436979743 1.015905126797664 2.4831865766422205 37 41 26
11.70008392466983 1.1401510420889458 2.5152349062845984 75 79 60
10.524017988699299 1.5927496471983558 2.5076256520736053 57 64 27
10.524017988699299 1.5927496471983558 2.5076256520736053 57 64 27
12.533275093481864 1.0802038644098166 2.4284495418508514 12 14 12
11.818814128304325 1.5874173616506542 2.370885567908392 57 63 41
11.495806704879538 0.9348116597766356 2.540228189525048 39 43 26
10.828126081807996 1.5969435762189503 2.637076484474812 59 66 34
11.963987465540797 1.3482245747397539 2.3584685733029214 19 22 12
10.828126081807996 1.5969435762189503 2.637076484474812 59 66 34
11.618051764031433 0.24818172985994394 2.695086491524823 59 67 41
11.766215754361452 0.43034093564083736 2.669466821997589 65 70 47
12.032291068490657 -0.1301866957676522 2.627845703003922 66 72 57
11.686958870138314 -0.34863043135067096 2.6829251863121475 61 71 48
11.618051764031433 0.24818172985994394 2.695086491524823 59 67 41
12.468860678056277 0.0477419553930303 2.7404515733252426 60 68 43
11.658499786632575 0.9760217164480562 2.6878937171754123 59 65 41
11.30228624042918 1.6031176312006248 2.757557817299355 61 68 34
12.057583657656354 1.0701033835217377 2.624140522104875 60 66 41
11.94348908874695 0.8309716199123259 2.6411798432542217 59 64 41
11.74447508342413 1.4073034038700651 2.673104905061907 59 66 38
12.057583657656354 1.0701033835217377 2.624140522104875 60 66 41
12.333354693654409 0.9348116597766356 2.586117302245521 73 77 55
11.89472842561092 0.40645042677160914 2.8764385883411756 62 71 43
12.805386528180264 0.08097533957982281 2.91534221164144 62 72 44
12.805386528180264 0.08097533957982281 2.91534221164144 62 72 44
13.508640259605079 0.26295662556612476 3.0753730019110583 63 73 43
11.956644529957583 1.309848431033004 2.8579940640022246 60 69 36
12.070114446593713 1.0479038611156328 2.827345489535691 62 70 41
11.626789119380627 0.6967294251274931 2.6935193851660197 59 64 41
11.962041847428354 -0.5530986718277572 2.856450043127012 62 72 48
13.085852363821644 -0.19615458063756502 2.8358638292598126 61 71 46
13.721525543050573 -0.7590986601599753 2.953312488783804 65 75 49
12.315664214471417 0.5239788918732508 2.7708753645855966 61 67 44
12.039487975221629 0.6622287870865053 2.8352689312547126 62 70 43
11.725896214332396 1.2018443402877284 2.9360343808121496 61 70 39
13.62882862226461 -0.3908201645710503 2.993192711953726 64 74 47
13.50156809184947 -1.7472060273974328 3.083808068146885 64 74 45
11.89472842561092 0.40645042677160914 2.8764385883411756 62 71 43
11.694368301919123 0.5843703731531473 2.9493929120948867 62 71 43
12.066174504417434 1.9236775497929524 1.4444079854867793 29 39 42
11.461222127243316 2.0360583862493877 1.525325917329113 53 61 60
11.755555287597465 1.8431266146947984 1.6969463218965881 28 38 41
11.714683574924829 2.0360583862493877 1.7840260637097132 55 62 56
13.275808511216379 1.9683725101749696 1.6068873198250417 39 47 47
11.4754188281392 2.078536699728492 1.9717705060286215 39 47 30
12.54902281494889 1.6716642971208426 2.0226237876448203 1 5 9
12.885082263373269 1.8431266146947984 2.010004562840255 61 71 75
13.076108511061067 1.6634675051184813 1.920410804305102 37 44 50
13.572632967058082 1.743739051262421 1.986334544510944 28 37 44
11.762585174798884 2.228871525337889 1.6968705264561703 41 49 26
12.484592511465257 2.1798277720741472 1.609175690976581 38 45 33
12.484592511465257 2.1798277720741472 1.609175690976581 38 45 33
11.180339299760377 1.7080229270487444 2.3035850065216734 19 25 9
10.719370850772048 2.0364502127395774 2.1072997751707185 36 42 16
11.14354508665334 2.12866349137265 2.0848117534242383 45 53 22
10.886780979951094 1.784742902257308 2.627403893290031 59 66 29
10.737892062702766 1.9010988534713187 2.4810129107152887 56 63 26
10.577884054503045 2.156790167875154 2.3561061958499905 56 63 26
11.036108270913223 1.9585148184198364 2.6039354589055472 57 64 27
11.202381294833279 1.7267090817351352 2.4293461231454154 55 62 26
10.998831574664132 2.435583448106435 2.318537587805099 54 61 22
11.638396915390457 2.2113818141818027 2.060962097734826 51 60 25
12.227241078227292 1.9348504138367548 2.3370687152079697 59 66 29
12.050698246953518 2.3495477052517306 2.1384414024321474 54 61 22
11.358492854357442 1.8332100476861306 2.7454920803342766 59 69 32
9.944542084595444 -0.8702757093578399 2.280378018300294 55 62 54
11.116577612463717 -0.7771865027350879 2.3087589580051904 62 65 61
11.357863813408452 -0.6827100701043222 2.4136339698486236 3 7 3
10.704181447898891 -0.5450589380038222 2.108143856854802 18 20 20
10.975690264871862 -0.571153337492797 2.453609841890809 27 31 24
11.322247735503844 -0.30267004534055025 2.1800299367838987 21 23 24
11.254190220312537 -0.38331481801258993 2.424030865925931 10 13 6
10.632168367760137 -0.6827100701043222 2.351014369207448 4 7 4
9.973522180367688 -0.947703103160432 2.1523919168347025 88 94 91
11.197646051262474 -0.947703103160432 2.302194936016656 67 74 68
11.300333121454038 -0.6591430395134903 2.5659226786583678 61 70 56
10.677379748600144 -1.0114217898273177 2.1096401395583424 38 40 40
11.425486068843929 -1.0643742066839827 2.0709322963004477 25 31 27
11.291877962998704 -0.8898148640464552 2.5670774589555045 57 64 53
11.79510349603194 -1.3021479327987169 2.504185283812686 52 64 46
11.647825453958928 -1.591013721382317 2.5214624750448897 56 68 44
11.096690686522864 -1.5945178144318752 2.594848174624044 57 69 45
12.197719410997289 -1.586402763040595 2.339400743440517 56 69 53
12.338435375104552 -1.3614074174582316 2.3284307833978595 36 47 37
11.56604875377823 -1.155774276037156 2.1653956380576105 25 30 26
11.721924758156506 -1.5848052157097225 2.1564302135288673 2 5 6
12.332392329857257 -1.4826562830395036 2.222390032999577 72 78 77
12.442436052302128 -1.3823127314490085 2.215661559596162 57 64 60
11.454093432689408 -1.1092794243424693 2.2822786982251406 36 40 35
12.28549737526037 -1.4601282578995236 2.4520905174938985 49 60 48
12.082304803818293 -1.6071008723503866 2.8242558905312274 62 75 45
12.224349391627433 -1.111546485378732 2.7905951028068103 59 71 48
11.786826567030644 -0.7728823950089571 2.6660538507301417 53 62 47
12.50424801207706 -1.44393952458148 2.5644733149630454 51 63 42
11.786826567030644 -0.7728823950089571 2.6660538507301417 53 62 47
12.423850172602013 -0.6216619441928212 2.7490812746955955 61 71 48
11.992536209409703 -1.4222438069056202 2.6337512362400677 57 67 45
11.863315716808854 -1.029980701541596 2.6536815475627114 53 62 46
12.299331421268972 -1.1100193290668827 2.5905903870535685 53 62 48
11.513440701300674 -1.5994908330762914 2.714458053948792 59 72 45
11.299730771843722 -1.9256052475542522 2.5660048206385033 59 72 45
11.80668536762929 -2.307350849173086 2.2568097168222425 58 70 45
11.610706879856062 -2.11945961730853 2.3895237787424826 56 68 45
11.293131921129875 -2.0048246553231817 2.4200887856438125 57 69 46
11.580154501895924 -1.6997403034316554 2.2729313372481807 55 67 46
11.344129909694933 -1.9143805856438403 2.178684592846797 52 64 41
12.40697839861591 -2.2394417480424473 2.217812809192206 56 68 45
12.134843761160386 -1.6759861365154127 2.0392560147959555 0 3 7
11.944012195314752 -2.1550831148772556 2.247433035081442 56 68 45
11.229962421933516 -1.9546038270086512 2.299615364992934 55 67 44
11.401439608932602 -1.7861706450190877 2.072085223562081 60 73 55
11.776128637959793 -1.6866636216835764 2.1533804432671633 59 70 59
12.134843761160386 -1.6759861365154127 2.0392560147959555 0 3 7
10.842724965351202 -1.7161207097213977 2.3319736134584046 55 67 44
12.13489905331993 -1.8638470035031998 2.811314238454944 64 77 47
11.568621458249089 -1.8048747043250992 2.704096221295804 62 76 51
11.376715816485625 0.8115846313652156 2.0732764726176556 18 15 16
11.943589783823121 0.6702135887554961 2.144170264791005 17 17 19
11.56062862774472 0.7286071147501549 2.3941659279438134 18 18 18
12.159409225100724 0.9788232882010943 2.3424518260892455 13 15 18
12.345213837473375 0.44550411010641805 2.2215981231238047 18 18 18
11.809948853403414 0.24673680476136103 2.256583515641996 18 18 22
11.050859871586832 -0.2520773838030724 2.445375375655347 15 18 12
10.935548010407064 -0.11138742519933899 2.4580880233918703 21 23 19
11.134645456741188 0.31447266759664033 2.4364206134634827 15 18 12
11.59937408427994 0.02620962054572059 2.2715304788747672 13 13 15
11.730987442416158 -0.19685473354066294 2.2621038511456915 25 27 28
12.377398902939866 0.15546037383356523 2.4431336491697864 9 10 9
11.145387432159376 1.589714996945347 2.4352890342738633 61 67 41
11.277363604676555 1.3482245747397539 2.295869020573439 1 4 1
10.828126081807996 1.5969435762189503 2.637076484474812 59 66 34
11.377140904819015 1.4331755912384765 2.5556022561691796 58 64 41
11.98408436979743 1.015905126797664 2.4831865766422205 37 41 26
13.065383211915611 0.06007356362914183 2.8408672250761056 60 69 42
13.60917616909741 0.1240688448243518 3.0031862130161993 63 73 45
12.174189034886147 0.3087969925578789 2.8020263229620257 58 66 39
12.333354693654409 0.9348116597766356 2.586117302245521 73 77 55
12.333354693654409 0.9348116597766356 2.586117302245521 73 77 55
12.92472480802439 -0.5530986718277572 2.878215807744366 65 75 50
11.85997509791972 1.2287117925646558 2.6542125602748228 60 66 41
11.45400816032563 1.1561070020818596 2.7260047785343535 60 66 39
11.626789119380627 0.6967294251274931 2.6935193851660197 59 64 41
12.706482921439306 1.2018443402877284 2.9520988175185505 61 71 42
12.264337613258041 0.8458927770781562 2.7817960422479966 62 69 44
10.967085660015837 1.613106420061545 2.842141116974882 60 69 35
12.490307451072143 -0.156557715953764 2.736422326305169 59 69 44
12.194964776695269 2.111031192867015 1.362572980048663 38 46 44
13.152644381353351 1.9997255107494765 1.2199095972473328 42 51 51
11.941162611548343 2.111031192867015 1.6109232135472937 48 55 46
11.755555287597465 1.8431266146947984 1.6969463218965881 28 38 41
12.223945025448575 1.9236775497929524 1.7750142479598439 54 62 62
13.141907223669477 1.7587898975003005 2.0863372547445187 41 49 54
10.841409057548852 2.2113818141818027 1.897478345853785 43 52 20
11.180339299760377 1.7080229270487444 2.3035850065216734 19 25 9
9.89613888680711 2.156790167875154 2.2845861357739805 55 62 24
10.228291421768128 2.0370931837252444 2.3908909844409187 56 63 26
10.886780979951094 1.784742902257308 2.627403893290031 59 66 29
10.584358284202247 1.7512225358253808 2.4999119213260803 54 61 24
11.57759551887261 1.9800327437587173 2.392586035965654 53 60 23
10.445635702324662 2.1108547195067513 2.517904082016175 56 63 26
11.347556227519862 1.858079205180652 2.414653745472065 53 60 24
11.358492854357442 1.8332100476861306 2.7454920803342766 59 69 32
11.02500129415046 1.9089914855035324 2.8255701109177194 59 70 34
10.497497750435192 -0.8568859574223782 2.119916624391892 47 49 49
11.99378092263697 -1.1705654477525893 2.4821421508718258 53 62 50
11.647825453958928 -1.591013721382317 2.5214624750448897 56 68 44
11.752864943237805 -1.4826562830395036 2.1546851720124787 2 6 7
11.291877962998704 -0.8898148640464552 2.5670774589555045 57 64 53
11.890463063021729 -0.3384345651363893 2.364699780466883 20 23 17
12.395957409399045 -1.3353825804279382 2.441352498746095 63 72 58
10.875419811015458 -0.7754813141340655 2.464904805189253 55 62 53
11.096690686522864 -1.5945178144318752 2.594848174624044 57 69 45
11.749119181657235 -0.9806291438566878 2.5094895686019445 54 62 50
12.585152936446216 -1.217648097433226 2.423697139649875 40 47 38
11.487399151378018 -0.44683047039393653 2.2797818462150836 20 23 20
11.223390953689103 -1.0114217898273177 2.18618931849517 49 53 50
12.459682874134739 -1.3916916626117424 2.742191839827722 57 69 45
12.150133282114949 -0.7684376717151283 2.807676295632379 62 73 51
12.150133282114949 -0.7684376717151283 2.807676295632379 62 73 51
11.786826567030644 -0.7728823950089571 2.6660538507301417 53 62 47
11.497954869591101 -0.9209686800797401 2.717426789665731 61 70 51
11.109257299484105 -1.809854857592695 2.1934714249834713 52 64 41
11.530724226085985 -2.0689200564391976 2.53582888210807 59 72 45
10.908137204135906 -1.737224512230884 2.4611791688440796 56 68 45
11.153933380393553 -1.7654084930626057 2.586473602474916 59 72 46
11.709256513808022 -1.992149487288502 2.6790836745322344 62 76 51
11.568621458249089 -1.8048747043250992 2.704096221295804 62 76 51
12.13489905331993 -1.8638470035031998 2.811314238454944 64 77 47
11.922310769548616 0.6252440939249649 2.489913983303299 20 23 13
11.700843654210011 0.5525920498739214 2.3813247661432677 18 18 17
12.345213837473375 0.44550411010641805 2.2215981231238047 18 18 18
11.155833251441942 1.4663286441122223 2.30556369688626 33 38 23
11.377391433619435 0.44015652477220346 2.411710258802799 11 14 7
11.705083633956725 0.03384222105827061 2.5146448083925987 32 33 28
11.496332002261056 1.2803038228882226 2.540161599219959 70 76 55
11.133304691829803 0.5866131054763813 2.5894685334460137 67 71 52
11.148213692776789 0.03960863834498274 2.587301441238302 66 70 54
11.155833251441942 1.4663286441122223 2.30556369688626 33 38 23
11.367149216613434 0.3637956726773955 2.55692784121716 60 64 49
10.828126081807996 1.5969435762189503 2.637076484474812 59 66 34
11.942339839329492 0.8895742709949704 2.2475455049008177 16 16 18
12.533275093481864 1.0802038644098166 2.4284495418508514 12 14 12
11.285089976020412 -0.29281750724360106 2.568007289899753 63 67 55
13.182367985353267 -0.4291274221117185 2.8134599738499784 61 71 48
12.039487975221629 0.6622287870865053 2.8352689312547126 62 70 43
12.862450408945037 0.40645042677160914 2.896813872764112 64 73 45
12.82627060955876 -0.2619512870084707 2.908374262452352 61 71 46
13.621818853974077 -1.1165454927386154 2.9966754394397217 66 77 51
12.82627060955876 -0.2619512870084707 2.908374262452352 61 71 46
11.89472842561092 0.40645042677160914 2.8764385883411756 62 71 43
11.359700283723955 2.1574434925060655 1.7907972279880302 41 49 29
11.667761709162974 2.12866349137265 2.159512251518546 52 59 24
12.197719410997289 -1.586402763040595 2.339400743440517 56 69 53
11.51603355998854 -1.052103639009665 2.398353678323312 64 72 64
11.874562545214168 -1.2551546830136175 2.2521390424393077 6 13 6
11.786826567030644 -0.7728823950089571 2.6660538507301417 53 62 47
11.610706879856062 -2.11945961730853 2.3895237787424826 56 68 45
11.057176082804697 -1.876633707469352 2.4446922343338704 57 69 46
11.660315993571079 -2.011655428725439 2.159938671673368 51 63 40
10.99265074202508 -1.839251099569479 2.3190591550203914 54 66 43
11.549274507947812 -2.0601618991006823 2.27519536065253 53 65 42
11.549274507947812 -2.0601618991006823 2.27519536065253 53 65 42
12.067740297697885 1.318664258605554 2.474276288268566 62 66 48
10.861612623438395 1.4073034038700651 2.631521056618443 61 67 42
11.66234048266191 0.13815646579021423 2.2669847806920833 17 17 18
11.6224254250391 -0.08639538869290087 2.2698586134697156 21 22 23
12.039086273736656 0.34970609275689235 2.241106779866931 18 18 22
10.98639809581566 1.2287117925646558 2.6115730545336913 60 66 43
12.889528249507114 2.070836115456784 1.4525205575703863 13 21 19
11.951381797304203 1.7587898975003005 1.8661715216798622 37 47 52
12.28549737526037 -1.4601282578995236 2.4520905174938985 49 60 48
11.061037290801496 -0.698881450024067 2.1966048427003892 23 27 24
10.115171272019747 -0.7754813141340655 2.402956784180295 14 21 12
11.214692083980948 -0.607141530354148 2.3008316855603343 15 17 16
12.065755801034577 -1.2856572649804692 2.1376458424358233 9 12 10
12.302909665579781 -1.5848052157097225 2.2242190955143957 24 31 29
12.302909665579781 -1.5848052157097225 2.2242190955143957 24 31 29
11.54088779637462 -0.5020497753622982 2.396013378636489 11 14 11
11.484274003192654 -0.4410307655277331 2.541693324834808 59 63 52
11.87940660327084 -0.5173927062291273 2.651135364963617 62 72 50
12.268990128354798 -1.7667013555921107 2.0337308964908742 88 95 98
12.268990128354798 -1.7667013555921107 2.0337308964908742 88 95 98
11.94348908874695 0.8309716199123259 2.6411798432542217 59 64 41
12.3128469686001 0.7286071147501549 2.449400873786216 10 11 5
11.25118539837357 -1.2583418832130921 2.5726887310370987 55 64 47
11.66241593575612 -1.1982531901966884 2.68720557502572 58 68 46
12.112324455300737 -1.3455855906752863 2.816794399492037 61 73 48
11.700843654210011 0.5525920498739214 2.3813247661432677 18 18 17
12.174189034886147 0.3087969925578789 2.8020263229620257 58 66 39
11.841577444217494 0.8753016826229203 2.893505032586837 61 71 42
11.334371998425869 1.3696126832163131 2.750612144037711 61 68 37
13.528438759773922 -0.7268985602142822 3.0561033537817197 65 75 47
12.070850886736178 0.207170272688887 2.6222127513770257 68 73 55
12.010026425589155 0.03960863834498274 2.63114059540194 68 73 57
10.354093418975424 2.260133292441918 2.2468839400628142 54 61 22
12.003424507690761 -2.220051244120353 2.3551735610466302 57 69 45
11.660315993571079 -2.011655428725439 2.159938671673368 51 63 40
11.453585924843551 0.5871435385806837 2.172050641906937 17 17 19
10.958272461535717 -0.9806291438566878 2.455545896862664 53 60 51
12.133613518715908 -1.8815386729749448 2.1340900247330783 56 67 61
11.906038466713147 1.9585148184198364 2.646962633146245 58 65 26
12.04627912075345 0.8159120830223136 2.351629579283828 16 17 18
