21.129095585300753 1.6345717164613076 1.2913630128358906 48 52 12
20.753719547813834 1.6835167308237924 1.3853030610837287 20 25 0
19.995890819425917 1.6893134912270882 1.3269556697021556 48 51 9
19.545356379494823 1.6415316941519156 1.2139481545193385 49 51 10
19.635648521408395 1.3706663719661272 1.8905626766326655 63 70 22
17.41865416260631 1.5299562402237905 1.6958366687222255 61 64 22
19.062829005078346 1.4777004426844824 1.8455734283800356 62 66 24
17.794096921740106 0.7645476399326623 0.9856785351190313 9 12 5
16.976470887442687 0.810996619727985 1.156897116142107 18 19 9
16.976470887442687 0.810996619727985 1.156897116142107 18 19 9
16.9578836962979 0.953652122452666 1.091006455350883 60 65 38
17.068268931796563 0.9014949419873998 1.1592584399638066 59 64 39
13.59900669669228 0.5734427505048375 2.1263551642296896 57 59 58
12.652420270261144 -0.5822548131634961 2.1735059926624594 74 84 86
12.632022589142153 -0.3670675847365444 2.174617569876518 71 81 87
13.485787014138838 0.6240379129959012 2.221816515490037 39 41 40
13.738311790564847 0.497301278393516 2.2078869946939905 42 48 47
14.558601372568093 0.5996945035631567 2.4455824021871693 55 59 54
14.019609073467944 0.4143145859780474 2.283990033948471 70 72 72
14.227310887196259 0.505842594002205 2.4739378191583543 39 46 38
13.74819769018675 0.3248111807337966 2.3011973537523835 52 59 61
14.792823712510028 0.4558463765713154 2.426840365798438 34 39 36
13.74819769018675 0.3248111807337966 2.3011973537523835 52 59 61
14.434599623507273 0.3248111807337966 2.3528259377331517 6 9 7
14.972170651213133 0.22958392732215716 2.4131449029303806 65 72 75
14.344149877235045 0.25488292128807377 2.463673458500415 65 72 75
13.414169450235804 0.12993531813192238 2.323729064243645 64 71 76
13.631099682259977 0.16312492177288027 2.5315490434118466 64 73 60
13.356775179482177 0.027631505900215816 2.327763389101274 65 74 79
14.166214667714359 0.03080358332563044 2.4794269833030103 65 75 79
13.374114712788385 -0.07525208037652549 2.3265392995948107 69 79 84
13.40896761890553 -0.08385775534544077 2.4319947241493596 68 78 83
13.465899357503545 -0.17656931502705708 2.32013523330801 72 82 88
13.591684253943338 -0.09467919466507196 2.535710274107871 65 76 65
12.763980068847987 -0.19635984717102256 2.3726022218244154 68 79 86
12.87837937987474 -0.22106541036871086 2.481408228681607 66 77 70
12.978798869676115 -0.2743624473971894 2.251924976957911 71 81 88
13.050523231180216 -0.3406901996030759 2.464599982633147 68 78 73
12.880156534617804 -0.5506966518682574 2.3633257938361387 74 84 83
9.95828035760656 0.8256387127982059 1.6887974657726734 54 57 34
9.062303517164045 1.1494604566489464 1.5898172826451467 59 63 29
10.12115208566881 1.2545477118982966 2.1071963232486697 59 65 28
10.028498543309938 1.0533919728710979 1.8926597280871966 55 61 25
16.918558784460153 1.6553694362494844 2.008581605241998 57 57 22
11.960065525709316 1.8812527328659432 2.0180261568466062 66 68 43
11.430644024526513 1.9499539746880392 2.2490934397335867 53 60 9
15.291167726285986 0.7455628078586899 2.6088868900922018 77 87 54
15.291167726285986 0.7455628078586899 2.6088868900922018 77 87 54
14.45953368754623 0.7516985919702992 2.453823558119531 39 47 29
11.629192762326236 1.6063838555953485 2.35004562118677 54 61 11
11.706679803489651 1.6112751315616682 2.471099527798778 59 68 14
11.724231758622746 1.4740158431350618 2.4692140521371604 57 66 6
11.826616956609525 1.340298545189863 2.4584130674228746 59 67 17
11.06906238467667 1.340298545189863 2.4013526893987165 55 66 10
11.952178869960244 1.617724058163303 2.5888516016631415 58 69 17
11.849709181511985 1.841477601369754 2.33182656813654 59 66 15
11.587755531233256 2.0546859377650546 2.4841482119995395 58 71 18
11.174932162747165 1.8765668738055612 2.3910401004621433 65 74 16
11.919912162835704 2.129629694649046 2.5932554583060936 60 71 20
11.925763514530255 1.8765668738055612 2.448262038683301 59 68 10
11.422252428200634 1.996353865673606 2.36810350248477 61 70 13
12.166842775452992 1.9216802846237628 2.560881212216206 59 70 16
12.15781958642401 1.996353865673606 2.425599088501485 60 69 10
15.137967864051603 0.4535079504287974 2.6263110729146724 69 78 52
14.722323619068877 0.5201879330789801 2.6786011109022145 62 72 33
14.953981817852084 0.32617842388482665 2.648472040638377 65 76 37
13.899778701739605 0.03998229860897807 2.6377286864979603 65 76 39
14.976091332153452 0.6422691940835048 2.6457318854867116 85 95 59
14.823377612600764 0.5492757242079659 2.8441254507507088 63 75 29
15.008964744117494 0.7227633450345224 2.8061354066099975 58 69 19
15.75444353013448 0.8793012447828542 2.8689139599971885 61 73 26
15.25796583868801 0.8558393405856086 2.7620930112093043 65 76 26
15.25796583868801 0.8558393405856086 2.7620930112093043 65 76 26
15.782181421091748 0.5492757242079659 2.862698069520571 55 65 20
13.013612509824492 -0.7881660245621702 2.6031602728795615 58 70 37
12.742385940423418 -0.5078276506413818 2.4952787313405866 62 73 50
13.088233941549742 -0.5792150689670643 2.5936899105394966 58 71 38
12.684266214498534 -0.6704824034801702 2.6483557247949236 60 74 37
11.815165072266016 -0.9064199661641376 2.607946726533343 61 75 37
12.725984252834184 -0.7072550568601761 2.375692468885343 71 82 75
13.46313822273469 -0.127554331579073 2.7001242925931663 64 76 35
12.431073724297876 -1.0513679999453516 2.687694797517729 66 81 44
13.792817040243083 -0.43717148686494367 2.8405106242384814 69 82 42
13.013860937427893 -0.6352517928169957 2.78001065375836 66 80 43
13.333110470073265 -0.5259789685325761 2.7212336786372786 63 75 37
12.48618830144367 -0.3868536662452275 2.522989435527918 61 71 45
13.554320047868556 -0.2946794876060758 2.686096954849227 63 74 36
13.013612509824492 -0.7881660245621702 2.6031602728795615 58 70 37
13.070762506296031 -0.15426977050329999 2.768670037665395 63 77 34
12.249964360784338 -0.9968790514669404 2.550620500512948 61 74 41
12.228631031105563 -0.7876820237534327 2.4189684466672867 62 71 55
12.586526220599005 -0.692360731974075 2.511876428275458 60 73 47
12.228631031105563 -0.7876820237534327 2.4189684466672867 62 71 55
13.150865731770022 -2.294024190500583 2.753398374554568 71 85 44
11.79996229754803 -1.2815652280335934 2.610131404054152 63 76 41
10.838963296948155 -1.4483038306534632 2.579684352934513 63 78 42
11.34793413216535 -1.2248294035641751 2.682390963564388 66 79 42
11.451225953324842 -2.0222817150382046 2.66447206131275 65 79 40
12.57235236891389 -2.178985348590512 2.6651792165720725 68 82 43
11.692703602060334 -2.178985348590512 2.6259485459764313 65 79 38
10.89314503417896 -1.7928955902178163 2.571833220103985 63 76 39
20.2143352881682 1.7988658867281213 3.0771400734640992 67 80 35
12.234093659166287 2.254702181873817 2.552556708943319 60 71 20
13.070980492844495 2.444707325135466 2.462654977672055 59 71 20
12.466006529260666 2.104453139540697 2.3976288610180414 61 70 10
12.166410665621099 2.720360782351587 2.4247878258955273 61 72 23
12.366245254451536 3.090969031127382 2.698561425284804 61 74 27
12.029319833917784 2.942765325724699 2.5785421647484146 62 74 25
12.036269307643432 2.854427275294824 2.760408526489506 62 74 27
12.70094611436144 2.545712399852877 2.499616129760457 60 72 21
12.236228606412137 2.46309092338157 2.552295628667786 62 73 25
12.472291182014121 2.6121691140688026 2.3970815468924576 59 72 19
12.407448429670625 2.4910542463486456 2.6916134617210528 61 73 24
12.400706969987821 2.6626767517842045 2.5327406176534435 61 73 24
12.166410665621099 2.720360782351587 2.4247878258955273 61 72 23
12.70752829543749 2.3592451150844966 2.644961053505581 62 73 24
11.965284652789478 3.099001073929958 2.5870785813789765 61 75 26
11.972271296696833 3.079208348569136 2.7739761660081355 62 75 28
12.721233281511289 2.8401124060420346 2.4974860638313494 61 72 25
12.182293613705411 2.6556471660638064 2.731536672249411 61 73 26
11.837928400562507 2.3592451150844966 2.604701009789865 61 72 21
12.175427487817263 2.795717014415801 2.559807569772567 61 73 25
12.384971653130126 -3.0042498441483754 2.6953854078687196 82 96 53
12.093894422926558 -2.7582785758292943 2.748690895140591 81 95 52
12.277042944800908 -2.575034314721254 2.714130331132132 75 89 46
12.405514939280158 -2.4122511450448707 2.532184957387509 67 78 38
12.440721858990361 -2.213801253184525 2.5281424661327905 64 75 38
12.53751508968493 -2.426178659063243 2.6705919630295947 71 83 40
13.237882288009786 -2.4122511450448707 2.5754366169214395 67 81 40
12.870617148360406 -2.307775257038099 2.6220611476209514 67 81 40
11.984637582249661 -3.0258574204956292 2.5844767059446454 68 81 34
12.086978081119476 -2.873108492289504 2.571029414585512 85 100 53
12.514164662226925 -2.402943589394811 2.393457127044495 67 77 37
12.989843956581362 -1.7490913034283135 1.6611716018125282 55 54 61
12.850965112581974 -1.672113020614312 1.6621509880018954 40 41 46
12.736319565351868 -1.5939132112946004 1.5843299494497014 25 28 23
12.59097599543618 -1.7814183241260413 2.083139841000882 72 78 54
12.383666384983956 -1.598219350540545 2.0925806026532046 36 39 32
12.497108055526809 -1.4131816186278194 2.0873694650362147 94 97 94
11.827912534973311 -1.3238286063526834 1.9313107951581938 55 58 54
12.305035632803284 -1.8023296883111775 2.1930653029905582 64 74 33
12.158337066927542 -1.7030251823688893 2.201747641740938 65 73 42
11.990703318867544 -0.9350532833908252 2.2119998493293545 102 110 102
12.109817374756553 -1.4984150585954394 2.2046779254349085 64 69 54
11.837460323244475 -1.299623869863682 2.1193179574951095 67 72 63
11.837460323244475 -1.299623869863682 2.1193179574951095 67 72 63
11.427835928242487 -1.3778889453426533 2.2492914721153037 61 69 47
11.619238026277607 -1.2703174552931484 2.2360814112008343 54 62 44
12.53273512831398 -0.787342098240445 2.2811228843678775 76 84 79
13.07426427392929 -0.9607282970340122 2.462343769975722 51 63 43
11.694834035808816 -1.1886353671881802 2.472377775231563 60 73 42
12.852001225129378 -1.0765072336911796 2.259947822541024 57 64 54
12.2137771691797 -1.859265702267596 2.4203488251725505 63 74 36
12.065969130030169 -1.7366679691181584 2.4343934415527104 63 74 37
11.96317867242642 -1.6044962586870333 2.3228314282712805 63 73 38
12.177648678273934 -1.8277496018859531 2.3064815800479033 60 71 32
12.177648678273934 -1.8277496018859531 2.3064815800479033 60 71 32
11.504689687977097 -1.3226476534225484 2.4935580319154513 62 75 40
11.399413428250632 -1.4663566724614563 2.505856269392969 62 75 38
12.11698749575315 -1.3536731794707357 2.4294810985356556 61 72 37
11.37878110386777 -1.3536731794707357 2.372023862486745 61 71 44
12.555632305430487 -1.1238663469524266 2.3899054177398322 64 73 55
11.450943624490051 -1.760756455082135 2.499783034550221 61 74 37
12.635122470194656 -2.0259103096408766 2.5066171773061514 63 74 36
22.694507526683086 2.8274742531702577 2.0355808395148656 70 80 36
21.091466012613765 1.5853190487205375 1.2908510400599875 66 71 24
20.260575586589383 1.6893134912270882 1.279040480964245 54 59 20
20.142609017336827 1.5341913427471199 1.2772811354977238 59 64 17
18.0400579966912 1.5299562402237905 1.8615929007135457 55 56 20
19.35810363231265 1.4777004426844824 1.8953139772747256 60 64 24
17.402317717292945 1.58888916005565 1.9333748347665185 59 60 23
12.904329693099744 0.6240379129959012 2.16013406902284 24 26 24
12.906926417016892 -0.06824579614707389 2.1599995611239993 69 79 84
12.937646167427067 -0.30406083947048906 2.3588286098273974 70 80 88
12.547307727184592 -0.45099990615936025 2.390615452893675 72 81 79
13.699440831975856 0.5442008526319508 2.304389541049095 29 32 30
12.843868735790766 -0.4978604967028257 2.260469618999009 72 83 87
14.241529673688424 0.22958392732215716 2.366383436690424 67 74 77
12.978798869676115 -0.2743624473971894 2.251924976957911 71 81 88
14.052861161589085 0.4558463765713154 2.3801830904691847 78 81 79
14.06229603435126 0.027631505900215816 2.3794794289562935 65 74 79
14.408855133764087 0.034798085021484314 2.5769568008035324 65 75 59
13.57462263576044 0.034798085021484314 2.537526834837556 64 75 62
14.434599623507273 0.3248111807337966 2.3528259377331517 6 9 7
14.227310887196259 0.505842594002205 2.4739378191583543 39 46 38
14.535856856236256 0.3591370389764751 2.4474573196927496 69 75 76
10.278001497330855 0.9667693463267711 1.783762998884017 54 58 28
11.612553340990607 1.91231538382701 2.1311963470673936 19 23 2
9.975181767126042 1.1494604566489464 2.0023410569410145 56 62 25
11.757906467861444 2.0498281703266312 2.2268612470104645 57 64 11
14.862245529507842 0.6659268952551779 2.53048398367244 25 29 19
14.862245529507842 0.6659268952551779 2.53048398367244 25 29 19
17.320323790685887 1.5900738727437496 2.062169039872245 58 58 24
11.77434047889591 1.747034366186989 2.4638863199420733 59 68 12
11.706679803489651 1.6112751315616682 2.471099527798778 59 68 14
11.724231758622746 1.4740158431350618 2.4692140521371604 57 66 6
12.15781958642401 1.996353865673606 2.425599088501485 60 69 10
11.919912162835704 2.129629694649046 2.5932554583060936 60 71 20
11.174932162747165 1.8765668738055612 2.3910401004621433 65 74 16
13.445913492539963 0.046980276961889375 2.7028428741452055 64 76 32
13.899778701739605 0.03998229860897807 2.6377286864979603 65 76 39
15.10442922305306 0.4491676760165875 2.788454084002342 61 72 27
15.956620859463381 0.7227633450345224 2.826767865388695 59 71 21
15.782181421091748 0.5492757242079659 2.862698069520571 55 65 20
14.09443366063659 -0.3526344006119619 2.777870461467371 65 79 40
13.144813566803341 -0.25273122495649447 2.5866764588022333 61 71 43
12.228631031105563 -0.7876820237534327 2.4189684466672867 62 71 55
11.985423168667042 -1.1297639116832674 2.584371495627533 61 74 37
12.588601397651455 -0.8833954167598926 2.511650238319157 60 71 45
12.586526220599005 -0.692360731974075 2.511876428275458 60 73 47
12.431073724297876 -1.0513679999453516 2.687694797517729 66 81 44
12.30801259537022 -0.6145002246437691 2.4116837115878162 68 78 62
12.684266214498534 -0.6704824034801702 2.6483557247949236 60 74 37
12.231130075857385 -2.294024190500583 2.7224463602024747 71 83 41
11.79996229754803 -1.2815652280335934 2.610131404054152 63 76 41
11.899330947145392 -1.9515539430810307 2.59609367924974 63 76 39
10.819975371696716 -1.6221091737381192 2.5824778224478466 62 77 41
12.57235236891389 -2.178985348590512 2.6651792165720725 68 82 43
11.910701908080867 2.1714513962149478 2.449785238800926 59 72 19
11.689837159668304 2.7368232094849603 2.626381335420998 62 74 27
12.721233281511289 2.8401124060420346 2.4974860638313494 61 72 25
11.924294178858984 2.5885448974020115 2.5926541259752787 61 73 25
12.236228606412137 2.46309092338157 2.552295628667786 62 73 25
11.53758180795064 2.9064762650243106 2.6501903677673226 62 74 27
12.366245254451536 3.090969031127382 2.698561425284804 61 74 27
11.972271296696833 3.079208348569136 2.7739761660081355 62 75 28
12.791023812661484 2.766241470775752 2.3704198610163543 60 71 22
12.661537235265707 -2.665248725371341 2.651705596461313 79 92 49
11.984637582249661 -3.0258574204956292 2.5844767059446454 68 81 34
12.514164662226925 -2.402943589394811 2.393457127044495 67 77 37
12.012828943141118 -2.307775257038099 2.580720763915949 66 78 37
12.820308189130824 -2.3165476802889704 2.4872644835064346 64 75 37
12.880041391229144 -1.8445542436904083 1.900687643548843 57 60 60
12.59097599543618 -1.7814183241260413 2.083139841000882 72 78 54
12.752454445291328 -1.5154301783441422 1.5843128251631544 89 93 90
12.305035632803284 -1.8023296883111775 2.1930653029905582 64 74 33
11.62720940941346 -1.206970321477909 2.0318030169494983 61 65 60
12.02739337878368 -0.8677147545502664 2.3178488563175454 58 66 60
12.029396728013115 -1.7179618863934214 2.3176946356734813 64 73 39
11.980354846867604 -1.4901596792250098 2.321491182551877 63 74 39
12.53273512831398 -0.787342098240445 2.2811228843678775 76 84 79
11.965801328518623 -1.0675920677840476 2.4442450012280905 56 68 43
12.02739337878368 -0.8677147545502664 2.3178488563175454 58 66 60
12.297668245675842 -1.234177223913784 2.412624312475937 61 71 47
12.614344717170255 -0.9350532833908252 2.275571639093279 100 108 103
21.389371472737142 1.5853190487205375 1.2459037522651302 63 67 22
19.188230746499023 1.532189532753343 1.262213284930613 60 66 18
14.77242711266584 0.401140220430743 2.539217371716205 68 76 65
12.510054474167244 -0.40496618300607234 2.282683282177847 71 81 88
12.495438429380577 -0.7180448422287018 2.182176938335937 78 85 87
16.256608986556575 0.9710015898224093 0.9967689288792363 59 64 36
16.80608755544322 0.8597639336671259 1.086300821715113 40 44 25
12.478282098405217 -0.16037158683690345 2.088226645029989 71 81 88
17.301556793761584 0.9129996616057374 0.9666978122510211 48 53 31
11.183509338481791 1.841477601369754 2.267031807609759 57 64 15
11.587755531233256 2.0546859377650546 2.4841482119995395 58 71 18
12.018457531274901 1.7744305356389798 2.579975655128871 60 71 19
14.006768330292827 -0.15426977050329999 2.794684590621389 65 79 38
13.05077095617058 -0.10869472829981448 2.5984123104723067 62 73 42
12.228631031105563 -0.7876820237534327 2.4189684466672867 62 71 55
11.34793413216535 -1.2248294035641751 2.682390963564388 66 79 42
13.1646623067812 -0.3526344006119619 2.7508436621302343 63 76 35
12.131892625688142 -2.0924488948416675 2.565286307411862 64 75 38
15.384881211678804 0.5668386308874925 2.5986437551089687 61 69 47
15.445227109456338 0.3783889766796766 2.73276759616989 64 76 29
12.83893946372297 -0.44652930345811026 2.6263914920781666 60 72 36
12.848912256426829 2.5160992613870135 2.365795488642028 59 71 19
12.619896566643764 2.358667491175971 2.5082565704130966 60 71 20
11.78764398833465 2.9694466580571572 2.462485335847756 62 74 26
11.991612950612712 -2.9728160688771976 2.769810593107065 76 91 48
12.791023812661484 2.766241470775752 2.3704198610163543 60 71 22
12.70094611436144 2.545712399852877 2.499616129760457 60 72 21
11.513244042079487 -1.3238286063526834 1.8499480924164058 20 23 20
12.447647762774935 -1.6908278734059718 2.0896279249422385 72 77 59
12.092825085210237 -1.6010356051591754 2.2057112145160023 73 79 56
12.20896945521699 -1.3972941555958527 2.1987211903657613 70 75 66
11.272329000755454 -1.47978462153339 2.381821029452485 63 74 37
12.2137771691797 -1.859265702267596 2.4203488251725505 63 74 36
12.080569546396802 -1.3778889453426533 2.3137799841609548 60 68 45
11.504689687977097 -1.3226476534225484 2.4935580319154513 62 75 40
19.81141491944283 1.4237596535587052 1.9412430137991372 59 64 21
13.574654461765515 0.3793783408820312 2.127469196920793 83 86 86
13.520352053284338 0.6828967545927412 2.3163947345170697 45 48 44
12.610202494383243 -0.639546652594102 2.2758510410467894 73 83 83
14.583830222359847 0.28627692362768375 2.558289532876396 65 74 57
14.853598727737314 0.12993531813192238 2.4221383135546932 64 71 76
11.24071680340095 1.8812527328659432 1.8569044774703682 70 69 37
11.826616956609525 1.340298545189863 2.4584130674228746 59 67 17
11.013190598117639 1.747034366186989 2.4069230730906437 62 71 11
13.703222276166594 -0.19496168524103327 2.8623348361333916 67 80 37
13.333110470073265 -0.5259789685325761 2.7212336786372786 63 75 37
12.348252957070615 -0.7889103299263461 2.7016422569463985 65 78 43
12.686325403653921 -0.9064199661641376 2.6480538568283465 63 77 43
20.301621856070774 1.6998538692010765 3.028688476981769 65 77 31
13.5808421217484 2.5160992613870135 2.4173825741591126 60 72 21
12.166410665621099 2.720360782351587 2.4247878258955273 61 72 23
13.225081243283432 2.6121691140688026 2.4483409054265053 61 72 21
12.472291182014121 2.6121691140688026 2.3970815468924576 59 72 19
11.78764398833465 2.9694466580571572 2.462485335847756 62 74 26
12.810988182384074 -1.8686391502942172 2.0735066159463913 72 80 51
11.934057351988356 -1.5051392930505412 2.0190717166743273 40 43 39
12.12005530821509 -0.9920103157473583 2.105131008071961 59 67 61
14.220342360723029 0.14466385824183636 2.4745595913582488 65 72 77
15.10442922305306 0.4491676760165875 2.788454084002342 61 72 27
15.531155135502189 0.7366974942566492 2.720179648370801 62 73 26
12.914256707825333 -2.52761739019365 2.616183046988032 71 83 40
11.999952889711974 -1.6088509343592392 2.4408547484652305 63 74 37
12.88623920690732 -1.0240691887453381 2.3628471006991587 82 91 78
13.40896761890553 -0.08385775534544077 2.4319947241493596 68 78 83
11.597685003565513 -2.8254690555654864 2.6405930984840698 89 103 60
11.692703602060334 -2.178985348590512 2.6259485459764313 65 79 38
11.06906238467667 1.340298545189863 2.4013526893987165 55 66 10
12.520490293205825 -1.1694462019787617 2.281964349440956 51 59 43
11.381360560131425 -1.6144972074596027 2.5080088856089877 62 75 38
15.286604626228403 0.6070523783774028 2.7574229858129473 61 71 24
17.559697636648426 1.5878416177790793 1.752455417289182 55 56 18
13.954939870946857 0.1869241094949962 2.6306050685429243 65 76 38
