11.313378139932572 0.7063044401719655 1.9917901422464022 37 43 18
11.684049750162554 0.5244796346155591 1.7972563589773807 41 47 25
11.309375214803023 0.7755145650931419 1.804896617858986 37 43 17
12.002158409611813 1.3100575926671352 1.9662371807997778 35 42 12
13.033445136018681 1.3496721854594005 1.618646308343318 33 40 8
13.280223669483851 1.3496721854594005 1.769646985121763 36 41 10
13.84866687976159 1.2056748983042354 1.761382282506345 38 45 11
11.837714510644323 1.668310027709778 1.4542443119531279 30 35 6
11.708498022889932 1.5831608657395206 1.5386271442050925 31 36 7
11.90242380008925 1.752067171821907 1.539151452054654 33 38 9
10.443516674528079 2.1047488745174414 1.824716210551357 37 44 12
10.568211776870578 1.9745455895033166 1.629819961313092 35 42 12
9.94538955597488 2.1597267418042714 1.943710484811424 38 45 15
10.80769391726264 1.6882439489444583 2.012841515441596 37 44 14
10.276282518196087 1.788364143624245 1.8289419423411808 35 42 12
10.67398353285881 1.9745455895033166 1.723479425260544 35 42 12
10.067529890436257 1.788364143624245 1.7327557342754405 35 42 12
10.530496929216556 1.8842532264277538 1.8225731972142745 37 44 14
10.12785228630611 2.1047488745174414 1.6323894939721297 37 43 16
10.357125099554606 1.5857095034022037 1.9282044143928427 35 42 12
10.747877214909884 1.5857095034022037 2.015477183283662 36 43 13
10.084271891499444 1.8124522299008465 2.0470776445685117 38 45 15
10.296819006258405 2.015318429148108 1.9303925006763176 37 44 12
11.107315846209842 0.6937723342150925 2.209693838747097 34 42 17
11.093463836869343 0.8526888747052634 2.210621705725065 33 39 12
11.093463836869343 0.8526888747052634 2.210621705725065 33 39 12
11.114348042891047 0.7740565859548952 2.1012905460560187 35 44 16
11.190228192980681 0.9207502892758653 2.0973175998884415 35 41 14
11.621528775740337 0.4950970278067643 2.406875596879577 32 40 23
11.663970903218093 0.2675487062248744 2.0738671291434234 60 67 58
10.968794344590853 0.08907217470347603 2.3392289174379672 63 71 62
10.447011057608627 0.1192451891450496 2.5417828626633745 28 40 16
11.14691653621516 0.24329182061813187 2.4553213957243836 12 21 8
11.621528775740337 0.4950970278067643 2.406875596879577 32 40 23
11.274778587357801 0.3312421883423651 2.3133172547121568 69 78 66
11.342699840662004 0.3753932622279027 2.4345110985220364 30 39 24
11.661368535576646 0.3959292516865133 2.174844543658113 63 70 58
10.70072807704547 0.6765398169104146 2.3637369597862365 32 41 15
10.447011057608627 0.1192451891450496 2.5417828626633745 28 40 16
11.495380952086311 0.4880840712046611 2.0819558048678966 14 21 8
10.256741253750054 -0.0435087566591701 2.408724563579086 7 16 3
11.188446420416165 0.1898360183435652 2.2043180654818064 60 68 57
12.230617889985256 1.399134346102399 2.0485454885172856 37 44 14
11.20638234026754 1.21576140759492 2.3189329203110804 38 44 17
10.503000991033865 1.2561986497925564 2.5340314507109962 38 47 19
10.72490776814428 1.1065125235905855 2.5048800989637585 37 46 19
10.686349047796114 0.8653871174069961 2.3651039120470894 37 43 18
11.441751684224027 1.0618453407119617 2.0845866898920895 36 43 13
11.302179978540067 1.253728774552629 2.196946473336644 37 44 14
12.363372537251397 1.192540979157521 2.1361666985069885 36 43 11
12.219524254792008 1.1067747808409216 2.0490155940085435 36 43 11
11.571324011467476 1.284563445835051 2.078278498251856 36 43 13
10.599732217484775 0.943812175069 2.24575619936203 34 40 13
11.600209607208855 1.4728172177514116 2.2878660264610873 39 46 16
11.77799346417854 1.4828616063181883 2.1680272382221712 37 44 13
11.77799346417854 1.4828616063181883 2.1680272382221712 37 44 13
10.95470238802141 1.4438540866351215 2.477032584196188 41 48 18
10.994197939764273 1.3343997944097399 2.3369977868576806 39 45 18
11.501896451185926 1.1066776967355236 2.2953430583613885 36 42 15
10.857740582819085 1.0487468021440691 2.3491635624885303 36 42 16
11.077730869978074 1.3007130127931856 2.4629822192675914 39 45 18
11.921429371365138 1.8805259320988539 2.51025113922299 42 48 21
12.141246288536617 2.009541668111326 2.4858928509565503 43 49 22
11.681285045850302 2.1246846806182327 2.4012309446619664 41 47 20
10.580140069046385 1.8124522299008465 2.131174299225887 38 45 15
10.93651781028506 1.587423057567258 2.2213454919273214 39 45 17
10.381863838906243 1.8423907785676967 2.262667367812998 39 45 18
9.774265827704605 1.8423907785676967 2.183801851859579 39 45 18
10.3978381808695 2.0645066992730654 2.142214095092589 38 44 17
10.148957119231389 2.2255215465754605 2.158062963252237 38 44 17
10.633554436407698 1.958454082031611 2.2432130771081633 40 46 19
11.759113290018902 1.8423907785676967 2.3940161095971018 41 47 19
11.562784223645515 1.589581461197586 2.4125166745931006 41 47 19
11.547238288649622 2.3048987638372367 2.4140251226234293 39 48 20
10.912348002571015 0.3370761810192226 2.650637238041426 38 48 25
10.713160762430444 0.6112184158998875 2.6866345726965406 37 47 23
10.565921514485817 0.651371568404271 2.5255186863685752 41 49 27
10.228418999297725 1.025017185114439 2.573787924477405 38 47 20
10.956358375860162 0.7693102922100866 2.476839683856946 38 47 21
10.395248756241289 0.7577344035445192 2.7538132425314004 36 47 22
10.869993684754677 1.1949393305575675 2.6579759769417333 37 46 18
10.801677995534249 0.14349732995488967 2.670159370911787 35 47 24
11.383233123400968 0.8839734714917216 2.578114345572644 36 46 21
11.00794735323921 0.7650535217631607 2.634631630640858 36 46 22
10.565921514485817 0.651371568404271 2.5255186863685752 41 49 27
10.806998721455194 0.3615109789635582 2.957006281161136 39 52 25
11.323093879352085 0.17999925923452034 2.7882103242195453 37 50 24
10.661965725792976 -0.33573329147574604 3.056525941759221 45 52 24
10.917614793330136 0.7421950910650263 2.9089150846959537 36 49 20
11.42871586883791 0.41563850271515634 2.763951010589566 39 49 24
10.917614793330136 0.7421950910650263 2.9089150846959537 36 49 20
10.792761275873652 1.1050185517210511 2.964210587445411 40 53 22
11.305280341089016 -0.07725976635256737 2.79250705451649 35 46 20
12.187673619358696 -0.6777676373966294 2.8361112589543636 35 42 12
10.90281295436964 -1.2145500725900906 2.914715175810452 42 49 19
11.841953506262199 -0.6106313299043763 2.9491770383266016 42 49 17
12.039205939845816 -0.42679781207027845 2.8780123287354336 38 45 15
11.2773603172687 -1.0584234788930917 2.7993735476718076 36 43 11
11.532700497741198 -0.5376052780315099 2.7418357772753654 31 40 9
11.484314195590871 -0.857286253154709 2.75192852959667 35 42 10
11.841953506262199 -0.6106313299043763 2.9491770383266016 42 49 17
11.840421377396854 2.825455353940885 2.949842347471585 57 67 41
11.64546315220665 1.774191193283739 3.0800438891100974 44 57 28
11.683454275249797 -2.886541875430752 3.040167993499189 50 60 32
11.683454275249797 -2.886541875430752 3.040167993499189 50 60 32
13.792405275665503 2.412613328842148 2.7269087165779626 46 56 28
13.832720322328347 2.1603181668338007 2.7203371057232943 45 54 26
10.569337226373005 -2.5714729691866958 2.5250623750974346 52 55 26
10.647955077799477 -2.3323344804492363 2.699317654390087 52 55 26
10.345847332983903 -1.9554138751418377 2.556234651028775 48 53 22
11.045089323038923 -1.7835687629847898 2.628609319815897 44 51 19
10.986565203531612 -1.5980978060113953 2.6381470745635065 37 43 11
11.193005911566615 -1.9554138751418377 2.605615704654726 48 55 23
11.045089323038923 -1.7835687629847898 2.628609319815897 44 51 19
10.755764628624599 -2.0335994517122904 2.678603216697676 52 55 26
10.998902487467957 -2.2024083381167676 2.636114306430361 51 54 23
11.124640312855979 -1.6146347058711095 2.84026846223017 50 55 26
11.154907191805965 -2.7500122623034238 2.8316571820297045 51 57 30
11.461000422319751 -1.604444929106734 2.756912210513867 48 51 22
11.517113955452134 -1.831059233877977 2.74505113270232 51 54 25
11.476991663335006 -2.8379961707369548 2.7534851129587423 56 62 35
10.915244902215784 -2.5971922307467943 2.909833088629786 48 57 29
11.751596163579054 -2.293341032074851 2.993757042681821 48 58 32
11.751596163579054 -2.293341032074851 2.993757042681821 48 58 32
11.31498400563596 -2.5104281890695814 2.7901585527917665 52 57 28
11.07878512587643 -2.321601575977944 2.8538849660139007 48 53 26
11.90365158183988 -2.0328640443532238 2.924174780540936 51 56 29
11.328565154305021 -2.147319932875116 2.78690332270446 47 52 23
11.751596163579054 -2.293341032074851 2.993757042681821 48 58 32
10.200190659566086 2.3128739665274574 2.0412236461520576 37 43 18
10.83204840618597 2.388188357113801 2.011777669752653 38 44 17
11.288216416328103 2.4680654178587607 2.197841406915278 38 47 19
12.026142161030387 2.3935852109896296 2.370365068932839 39 48 20
11.248890527043516 2.3128739665274574 2.200376920784181 39 45 19
10.81761241919179 2.559580997980574 2.22973796147042 38 48 19
10.235912961377572 2.559580997980574 2.152419112441393 37 47 18
12.286375727964042 2.780090072578011 2.470686796120665 44 53 21
11.79454516459858 2.6635832484749975 2.390781368695546 42 51 20
11.457205713035247 2.559580997980574 2.298801010588186 40 49 21
12.105863749385959 2.9077926952896367 2.489701846245284 48 57 25
12.413005485345163 2.8813312973191905 2.1336318843284965 40 49 17
12.165425903444797 2.821318182894979 2.358656995651639 43 52 18
11.602870621110688 -3.112181386546599 2.076767288083423 48 53 23
11.620227969374799 3.0725486053514146 2.0759398367971165 45 52 16
11.41885417135824 2.957627240718993 2.1895762687538145 43 52 18
12.135753885078397 3.0725486053514146 2.1481121318305414 46 53 17
11.620227969374799 3.0725486053514146 2.0759398367971165 45 52 16
11.723173182643308 2.975411805319983 2.071090238113873 44 51 17
11.926188136856373 3.06502645645044 2.264274894466252 47 54 22
11.284842564397774 2.9356401569867083 2.312499123898296 45 54 20
11.159815808660555 -3.1049650155067274 2.3228126868886543 48 55 25
12.915059481769806 2.9077926952896367 2.5366945772251137 49 58 24
10.057660746828894 -2.783650493649993 2.4309927456379823 50 53 24
10.057660746828894 -2.783650493649993 2.4309927456379823 50 53 24
14.080105357034576 1.1388393079450918 1.6863516195449901 40 47 13
11.502175896092034 0.5720441112551771 1.9844524738608469 41 47 28
11.299778738080132 0.8434660631373514 1.9923290972655527 36 42 15
11.410937435493075 0.6478280304797653 1.8027746448665678 37 43 17
12.238487060582216 1.0277751156877135 1.9581899297779823 37 44 13
11.462001313995366 0.9784877146141111 1.9859916469570988 36 43 14
11.655096166082012 0.9035224462096488 1.8869219447136074 38 44 16
11.857806532077378 0.44512547753321846 1.971324211345324 2 7 0
12.278535063555372 1.2250131135756053 1.9568595094991763 35 42 12
11.792792235704619 1.1067747808409216 1.9736596811542977 37 44 14
12.131530971770253 1.752067171821907 1.373619417935258 30 35 6
11.837714510644323 1.668310027709778 1.4542443119531279 30 35 6
11.90242380008925 1.752067171821907 1.539151452054654 33 38 9
11.493049707140088 1.9403053282037461 1.6250654961487063 33 40 10
9.936553651301216 1.9175859507049062 1.944058393539422 38 45 14
9.630914095195868 2.2255215465754605 2.0715189053836336 38 44 17
10.871096943671144 1.9745455895033166 1.8145220567211175 36 43 13
10.80769391726264 1.6882439489444583 2.012841515441596 37 44 14
10.419185357324285 1.6882439489444583 1.9259809590774633 35 42 12
10.351695403123554 2.1597267418042714 2.0337952801140684 38 44 16
11.114348042891047 0.7740565859548952 2.1012905460560187 35 44 16
11.217676133052354 0.6278459473995445 2.095895948189 40 46 24
11.383515481279504 0.2961075205358449 2.191788540725878 63 68 59
11.584172268952395 0.43228044419308453 2.5512284657255693 33 41 19
11.077794942312984 0.21331540956345718 2.3297608733574453 74 83 71
10.950404465768441 -0.03797569660820973 2.3408535348507105 22 31 21
11.080534368545429 0.07905805968714148 2.211490450844427 63 71 63
11.935296755469682 0.3592869782707399 2.0613996497128535 71 76 68
11.299557102603652 0.5393292905907308 2.1971143622331577 43 51 32
11.782660780740088 1.7399737095030716 2.5265408307556996 42 48 21
11.364991735146539 2.009541668111326 2.432218643346311 42 48 21
11.72781786572139 1.592383751645142 2.533191492132095 42 48 20
10.041197919227107 1.958454082031611 2.1652231554116135 39 45 18
10.222216667001941 1.7183475313224381 2.275676869695511 39 45 18
11.20638234026754 1.21576140759492 2.3189329203110804 38 44 17
11.258659533549789 1.0082996857153121 2.199744979124625 35 41 14
11.091828318621271 1.3607260082333292 2.2107314550680583 39 46 16
11.218254645847106 1.4218932479510487 2.6018385122028116 40 49 21
11.365954538041253 1.3818393679270795 2.088354205505999 36 43 13
11.501896451185926 1.1066776967355236 2.2953430583613885 36 42 15
11.892508013862157 1.3818393679270795 2.1614931345830297 38 45 13
10.801677995534249 0.14349732995488967 2.670159370911787 35 47 24
10.869993684754677 1.1949393305575675 2.6579759769417333 37 46 18
11.112264860919328 0.5077517509002957 2.6179774074779516 39 49 26
10.166148724398676 0.969012935362672 2.8133593572063336 36 49 21
10.78300311180526 -0.061392441920443554 2.673568150669817 29 42 15
10.18126246072309 0.5374167662309227 2.809027891464269 37 47 20
11.42871586883791 0.41563850271515634 2.763951010589566 39 49 24
11.022787223886588 0.24092634818503758 2.871582663123661 36 49 22
10.788333048044418 -0.15949861357223596 2.966515094792948 42 51 23
11.018858007479487 -1.4107509460051801 2.6328515807719004 37 44 12
11.375687767366284 -0.3248641399929603 2.775882056393197 29 39 10
11.15653346286218 -1.3170785991835945 2.83120234310319 40 45 15
11.992863354281525 -0.8916815609002922 2.8927336528785763 40 47 16
11.375687767366284 -0.3248641399929603 2.775882056393197 29 39 10
12.039205939845816 -0.42679781207027845 2.8780123287354336 38 45 15
11.700692082601766 2.591764532534673 3.0265968706250783 47 61 34
14.713166470449544 2.412613328842148 2.754295822355051 47 59 31
11.193005911566615 -1.9554138751418377 2.605615704654726 48 55 23
10.301164051445888 -2.7214344535332686 2.56281129361831 51 58 28
10.488966336695459 -2.3379849613947257 2.535958542997114 51 54 23
10.59839328482704 -2.106430937009451 2.5212043530290886 49 54 23
10.569337226373005 -2.5714729691866958 2.5250623750974346 52 55 26
10.301164051445888 -2.7214344535332686 2.56281129361831 51 58 28
10.915244902215784 -2.5971922307467943 2.909833088629786 48 57 29
11.849368666700444 -1.6336650604472407 2.945991061064538 46 53 23
11.182441829621881 -1.9048306663478374 2.8240586912413197 50 55 26
11.696607594058593 -1.6817722104621282 3.029660772314117 49 56 24
11.476991663335006 -2.8379961707369548 2.7534851129587423 56 62 35
11.124640312855979 -1.6146347058711095 2.84026846223017 50 55 26
11.751596163579054 -2.293341032074851 2.993757042681821 48 58 32
10.683372439422044 2.3935852109896296 2.2395057738685074 38 47 19
11.610052626786509 2.8543408689140874 2.1778979599291226 41 50 18
11.909276723029272 -3.1089673439394923 2.2654557966316684 48 55 25
12.544246487482251 2.6635832484749975 2.4451942754847797 41 51 21
12.135753885078397 3.0725486053514146 2.1481121318305414 46 53 17
10.81761241919179 2.559580997980574 2.22973796147042 38 48 19
11.671482992329066 -3.014291334894497 2.07351297762185 48 53 24
10.89189908268541 -1.8989926154745236 2.484427494571231 44 49 18
11.502175896092034 0.5720441112551771 1.9844524738608469 41 47 28
10.575859619564623 1.788364143624245 1.9204916607548337 37 44 14
12.194681266865189 1.833334852588617 1.4576709137737756 33 38 9
10.296819006258405 2.015318429148108 1.9303925006763176 37 44 12
10.519593551555166 0.7720940557064833 2.2518683537468953 33 39 16
11.093463836869343 0.8526888747052634 2.210621705725065 33 39 12
10.27637253880887 0.10198110952514215 2.4066046931882887 6 12 5
11.279015834566971 0.601149434532169 2.312972543434695 34 42 22
11.663970903218093 0.2675487062248744 2.0738671291434234 60 67 58
11.705770636377235 0.07905805968714148 2.280030069419974 62 69 63
11.061162428416711 0.5637381008672103 2.4648419505263717 33 42 21
11.061162428416711 0.5637381008672103 2.4648419505263717 33 42 21
11.618406180928707 1.7183475313224381 2.407173131310061 41 48 18
10.96895795562302 1.4728172177514116 2.2190965842781303 39 45 16
11.218254645847106 1.4218932479510487 2.6018385122028116 40 49 21
10.857740582819085 1.0487468021440691 2.3491635624885303 36 42 16
10.870224078701128 1.4601928332535523 2.3480318180346256 39 45 18
11.379586073575243 2.2255215465754605 2.304897337119065 40 46 19
11.59525286851715 1.1537285227937617 2.1787848124247757 36 43 13
12.08893558909629 1.284563445835051 2.150636729445541 36 43 12
10.744586817977847 1.3908436070389272 2.680691655427088 39 48 19
11.084555901079202 1.025017185114439 2.6223233600349394 38 47 21
10.744586817977847 1.3908436070389272 2.680691655427088 39 48 19
10.792761275873652 1.1050185517210511 2.964210587445411 40 53 22
11.0044875743067 -0.10414791717251777 2.8776577302822965 39 48 21
11.491960124276307 -1.3743812867252445 2.750311577023626 36 41 11
14.713166470449544 2.412613328842148 2.754295822355051 47 59 31
11.628143472601119 -2.0222127357340067 3.113065014053367 49 56 26
14.093740975986911 2.293329304299595 2.680743174702828 45 54 26
10.301164051445888 -2.7214344535332686 2.56281129361831 51 58 28
10.59839328482704 -2.106430937009451 2.5212043530290886 49 54 23
10.755764628624599 -2.0335994517122904 2.678603216697676 52 55 26
11.90365158183988 -2.0328640443532238 2.924174780540936 51 56 29
11.154907191805965 -2.7500122623034238 2.8316571820297045 51 57 30
11.696607594058593 -1.6817722104621282 3.029660772314117 49 56 24
11.461000422319751 -1.604444929106734 2.756912210513867 48 51 22
10.47933552456448 2.6180670125462546 2.0277242284067314 37 47 17
10.497626236561818 2.2442259770121127 1.9232108082455892 38 45 15
10.732055048447348 2.4680654178587607 2.1223167123166027 37 46 18
12.1191349092742 -3.112181386546599 2.1490055731357085 48 53 24
11.865425115948653 -3.1049650155067274 2.3844012813824347 48 54 27
12.026514660769367 2.957627240718993 2.2573607355315524 43 52 18
11.753886783666816 2.7150248759184765 2.2765221945161467 41 50 18
11.983092088530356 2.9356401569867083 2.37406798633625 45 54 20
10.577881317838091 -2.983499665026357 2.2474106101272615 49 54 25
11.177861168096376 3.0556694005909604 2.321303705183386 49 56 24
12.234362009079275 2.975411805319983 2.1428713063962466 44 51 17
12.026514660769367 2.957627240718993 2.2573607355315524 43 52 18
10.780885002833593 1.4828616063181883 2.014018756408177 37 44 14
12.278535063555372 1.2250131135756053 1.9568595094991763 35 42 12
10.276282518196087 1.788364143624245 1.8289419423411808 35 42 12
11.100599427156977 2.0583860226381177 1.7175681678676606 36 43 13
11.473670982781032 0.1709672219812341 2.083017396990824 60 67 60
11.383515481279504 0.2961075205358449 2.191788540725878 63 68 59
11.555246583433382 0.4403562718596217 2.2912637336627353 62 69 58
11.392539477515925 0.282809698007991 2.576822733928898 34 42 20
11.593472120988123 1.4601928332535523 2.409558251591658 40 46 19
11.85774667447011 1.192540979157521 2.0648963696903797 35 42 12
11.709791314864328 1.3343997944097399 2.3985706413060086 40 46 19
10.42353014569364 1.7015956355965496 2.140630104123539 38 45 15
11.82338728894176 -3.0033211108355045 2.9574111254403848 54 64 36
10.301164051445888 -2.7214344535332686 2.56281129361831 51 58 28
10.986565203531612 -1.5980978060113953 2.6381470745635065 37 43 11
14.125148723842251 2.5179066436954516 2.676284824853862 46 56 26
12.105863749385959 2.9077926952896367 2.489701846245284 48 57 25
12.208199961325477 2.8543408689140874 2.245223670974237 42 51 17
10.528485849863047 -2.9618178094716465 2.38048848266604 49 54 25
10.690683504362772 2.3128739665274574 2.1246992003261194 39 45 19
10.326884393527617 1.8842532264277538 1.7286536264112664 35 42 12
13.530519484818843 1.2761035607887292 1.7659206512193149 36 43 10
11.131259119842834 0.5374167662309227 2.8383610650236077 36 48 20
11.726945298198178 -0.9883205089040259 3.0086138879349438 44 51 19
11.632637114182423 -2.635259999797142 2.721968044405241 52 57 28
10.476338639839765 1.1061689470113705 2.735282645726303 38 48 21
11.532700497741198 -0.5376052780315099 2.7418357772753654 31 40 9
10.698798442542177 0.9137501343789094 2.6893865223174593 37 47 22
10.680852238842695 0.6869524275158482 3.0378363667571353 39 52 24
11.214441088424074 1.5857095034022037 2.0960630830451414 37 44 14
11.88239894096272 3.0556694005909604 2.38289105510009 48 55 23
11.983092088530356 2.9356401569867083 2.37406798633625 45 54 20
12.286375727964042 2.780090072578011 2.470686796120665 44 53 21
11.804286919245582 1.399134346102399 1.9732447229962093 34 41 11
11.559661398059665 -2.3323344804492363 2.7363511368303777 53 56 27
11.379586073575243 2.2255215465754605 2.304897337119065 40 46 19
12.044993572715859 -3.0469687456283014 2.8762375993411786 56 66 38
11.726945298198178 -0.9883205089040259 3.0086138879349438 44 51 19
11.077730869978074 1.3007130127931856 2.4629822192675914 39 45 18
11.840421377396854 2.825455353940885 2.949842347471585 57 67 41
10.270707821459517 0.976231973779735 2.4072150512110984 37 43 18
10.56693928842914 2.7150248759184765 2.1319583687076924 40 48 17
10.861776077987924 2.4884725212288874 2.348797284862947 39 49 19
10.998931009113694 2.0583860226381177 1.6275060581884433 35 42 12
10.551358777083543 0.8839734714917216 2.527470784618815 36 45 19
11.018858007479487 -1.4107509460051801 2.6328515807719004 37 44 12
11.555246583433382 0.4403562718596217 2.2912637336627353 62 69 58
10.837488394624954 1.589581461197586 2.351007861951093 40 46 20
13.832720322328347 2.1603181668338007 2.7203371057232943 45 54 26
