10.714097717452503 0.7744068210805286 1.9693933222281639 70 73 71
10.717328374858713 1.0542033789840135 1.8699398483135699 74 77 72
8.410856771543939 0.26360149311777237 2.0879529556853074 81 90 75
7.381672800399736 -0.01346709681836109 1.867534100835761 10 20 0
12.166574581872245 1.0394282639046795 2.423029336048444 31 34 25
11.637248682197542 0.7744068210805286 2.128452226214459 72 75 70
11.225050215001003 1.001549563045141 2.1515229131563918 29 32 26
11.216138325688433 0.9168755405665888 2.04869042548025 74 77 73
9.410967164435075 0.12751125574687908 2.28416829350843 32 40 22
11.752978691471386 0.7725695070279094 2.3380449555200795 19 23 16
12.846768182752017 0.8795609075556768 2.6231213215515483 39 46 25
12.858709779585482 0.657412953081022 2.621495901456476 38 46 28
13.142927182724005 0.6212385592240292 2.7520741093484573 42 50 28
9.661601235801012 -0.2131932467696301 2.576271542979322 34 46 26
9.441744809690343 -0.17881974504455567 2.431293319244867 33 44 21
8.79165021646582 -0.6515337586953461 2.522196253107185 34 47 21
9.367840056092774 -0.01346709681836109 2.2881593145242425 32 42 23
9.349856826621258 -0.47654402998917617 2.6312379660301985 36 48 25
9.012204463392905 -0.39266465551152757 2.4886549761110826 33 45 22
10.016800662349397 1.6655731923409298 1.6867030543728014 23 32 15
10.292923820523116 1.239966647453979 1.986689730326113 21 27 12
9.972619295702605 1.564898321426326 1.6872188795716194 23 31 16
10.430899095492672 1.2713065338162568 1.682082158671783 18 24 12
9.361586484450019 2.2813447790744763 1.8034505040666613 31 41 17
9.645892739405477 1.7854707000297343 1.9043854926123598 27 35 15
9.792282390018842 2.358840789746465 1.5869747469678863 28 38 15
9.842908653606745 2.1294860420230792 1.897457398660538 32 41 15
9.645892739405477 1.7854707000297343 1.9043854926123598 27 35 15
9.380815043002562 2.0333413372752607 1.9141946527658766 30 38 16
10.185392772421894 2.077413491287125 1.5863502812937966 29 37 15
9.36549975946408 2.436714427657203 1.8033515003503287 30 41 17
8.984792787239531 2.6291704614379854 2.051979523917067 35 48 21
13.805210907299918 2.7201664724537125 1.0522941164296287 24 37 15
16.90977233278435 -3.0684338703126883 1.0885947309737187 52 61 49
16.874545208690453 -3.1352304823232777 1.0875017479365914 75 83 75
10.391435799363531 2.857306338043841 1.4897193710617884 31 44 18
9.75835473989869 2.729839808711614 1.5870310007051647 31 43 16
9.897579433606868 2.50223428254403 1.5868026153769244 31 43 19
10.049669330749332 3.0508172586742184 1.6863222689542965 35 48 22
9.672447281371284 2.9316881197301585 1.9034342650943712 36 49 22
9.646205397375274 2.8274695639345357 1.7964649848967253 32 45 18
10.123679954189033 2.952274187851489 1.5864451041738543 33 45 20
11.304945993312538 -3.1329047143787006 1.3167137709121461 35 49 22
11.357461347421541 -3.041842183021747 1.3179143793507246 37 50 27
10.329423144090548 -2.712122649160267 1.8815422700437625 41 53 30
10.413429672646494 -2.839778624309752 1.5860096488214017 38 50 26
10.002963003742051 -3.0318852065508772 1.5866339711828084 38 51 25
9.861709719917876 -3.1309615802810034 2.0060859150074215 37 50 21
10.16117085776503 -2.9338943616996067 1.5863873613760966 38 50 25
9.921866908318405 -3.019730952658132 2.0032681844229363 37 51 24
10.345406422931516 1.4524936783813518 2.0928012542014187 24 32 14
10.735972907528499 1.239966647453979 2.071997900783035 28 36 18
11.409121740536168 1.4376944204108149 2.367532608645619 30 38 16
10.705958396086174 1.6893506388456907 2.3031727140690306 33 39 17
9.636754540755094 1.8116447230666457 2.1356422571887865 32 40 17
9.708612455626302 1.9735230471301586 2.2579315411072303 35 44 18
10.133648376444317 1.8449055552265532 2.3551965000249826 35 45 18
11.508315972260089 1.7063236874897625 2.491138045323288 38 44 19
11.870496912449923 1.153835416770422 2.4520352421897593 32 38 16
11.544907925061667 1.316056683931494 2.3555741221979183 31 37 17
11.797541039364296 1.3934365176370553 2.608151227420891 35 43 20
11.280747263110245 1.558886432374938 2.6917354503765853 38 46 22
12.141484867636168 1.0928977276434066 2.56197121325709 36 42 20
13.516761746185711 1.2213933655183522 2.9108151291024593 44 54 28
12.36146320327073 1.173454987615435 2.6967483277453286 38 44 22
14.226732945134149 0.7073834911140667 3.0435538073903166 45 58 33
13.516761746185711 1.2213933655183522 2.9108151291024593 44 54 28
14.187427186928177 1.5063288050637604 3.0776317845303156 46 59 32
13.631569543193697 0.9543261685750424 2.8773474933495398 44 52 28
13.131244056682053 0.9063720166901372 2.7542473095177225 38 46 24
13.131244056682053 0.9063720166901372 2.7542473095177225 38 46 24
13.642824218803222 0.5570519648901142 2.8743155605720507 43 53 29
13.337652433978421 1.0636491807175132 2.977467519927885 45 56 32
13.295718571849882 1.540138239921123 2.9977552974372075 44 57 30
14.200821767676368 -1.5174982336404323 3.0642934492904046 49 64 39
14.3127028622749 -1.5429189109695414 2.99462948967635 50 66 42
14.158856399118182 -1.0197500245331055 3.133712111354685 47 61 36
11.446465768900724 1.9477130099156745 2.6626265969319673 41 50 22
10.797587924844402 2.1110085146807136 2.583356995651595 39 49 21
10.57944222625067 2.7736556959026113 2.6173044653270674 39 52 23
11.06156731310921 2.6913997881741305 2.734693371686764 38 51 22
9.723697484407879 2.7452543203865343 2.256659259328883 35 48 21
10.082027253896927 2.1593796084652666 2.3603195228311487 37 46 20
10.491946776084541 2.032967612420219 2.461617689871526 38 47 21
9.2720035961512 2.451478799994884 2.160774955349366 34 46 21
10.270877480269412 2.831335266229056 2.4886922934096294 39 52 23
10.270877480269412 2.831335266229056 2.4886922934096294 39 52 23
10.80437288657304 2.6101503611887003 2.5823522176405858 38 51 22
10.089293435404155 2.5601571074615976 2.359593634818769 38 51 22
11.068632289314754 1.888466908752164 2.5452956397284607 39 48 21
10.933818901413506 2.9159159938230133 2.7627200532492484 40 53 24
9.98601811469441 2.3599158007150485 2.370061527670541 37 47 21
10.30667335417009 2.4728433263724785 2.4841644701690058 39 49 23
10.1331657719178 2.9904482895198097 2.5066744762234126 38 51 22
11.273635741733921 2.2164045045227376 2.6930435746823376 40 50 22
10.1331657719178 2.9904482895198097 2.5066744762234126 38 51 22
9.535962882921476 -2.8025943122938544 2.4198807409499907 43 57 31
10.16439062597352 -2.5381375523660403 2.352182554245057 45 59 35
10.857035486304783 -2.5820371557518764 2.5746497150247905 44 60 35
10.778783976178348 -2.3370990061256576 2.586156788720115 46 62 39
11.34089315746293 -2.1937144681163896 2.6808743943045013 47 63 41
10.151911014882307 -2.9593330885742386 2.5041722241316937 40 54 27
10.463984463767094 -2.923515172797023 2.6367121011952257 41 57 32
10.031332097494248 -2.985128069144303 2.3654282502131116 37 51 23
11.116125903238213 -2.8025943122938544 2.539029538743523 42 57 32
10.615323603377346 -2.740598089633803 2.611488400649942 43 58 33
9.971835302679102 -3.12789890779753 2.3715249191997554 38 51 24
10.093125031803956 -3.1255945413206305 2.512079517439488 38 52 24
10.779517460888577 -2.6086087690714987 2.2970533587369313 45 58 34
10.896720612889382 -3.117479544269569 2.7713658769966405 42 58 30
11.327351550770892 -2.47592050949646 2.6832888395082484 45 61 36
10.857035486304783 -2.5820371557518764 2.5746497150247905 44 60 35
9.804321111169156 -2.6613528488881713 2.3893066842025443 44 58 34
14.62224016198202 -2.131058865690284 2.8890474582664396 47 63 39
15.425194212855558 -2.3181905443352373 2.9553401298883717 47 63 39
9.698826779395295 -2.8836598762583727 2.1315916479831087 38 52 26
9.962799066686854 -2.7699720248315605 2.115036064159553 40 54 28
10.05006595500183 -3.129623041254668 2.2303621076506515 37 50 23
11.536005109434155 -1.5655309652227511 1.8481253804062652 32 40 17
10.765087404946351 -2.6236624358280274 1.8685719364374536 43 54 31
10.840244682961083 -2.4869932564990163 1.9644975762023795 47 57 34
10.883178037246665 -2.5432859670345778 1.677439385471005 47 55 32
11.10784387884676 -2.4124321234862762 1.8591154354753594 48 57 34
17.494042298894303 -2.7764047658395037 1.3493982371260433 30 40 20
18.28720220942573 -2.6717281298434665 1.3591502910474373 31 40 18
9.024393719583188 -1.186843917002769 2.486891041365328 41 51 27
9.461129226722196 -1.3988588527011931 2.428914362125722 42 52 28
9.599099324295747 -1.5635797003541831 2.1381301726150257 41 49 26
9.657098319136638 -1.4407849905474903 2.134307815810172 35 43 19
9.395180519145319 -1.5625626098410785 2.2856233496136578 44 53 30
9.303575770306226 -1.0301772987978401 2.4487389569889695 32 40 17
9.657098319136638 -1.4407849905474903 2.134307815810172 35 43 19
9.401921406657276 -1.5612118035636497 2.4362324328747134 45 55 31
10.499320461824736 -1.9638212600029743 2.321014119782383 50 59 34
10.264140015991023 -1.8379091426676837 2.3425874967333487 49 57 34
10.919963333360949 -2.1448369948073873 2.4145002980580563 47 59 38
11.387680747448883 -2.020440990283368 2.505190164415364 46 62 42
11.685993012921124 -2.1448369948073873 2.4714110852741475 47 60 41
11.529216021188397 -1.934878781155063 2.648983932623732 48 63 43
11.529216021188397 -1.934878781155063 2.648983932623732 48 63 43
10.36722139329053 -1.8791830920364725 2.4766358328900777 49 59 36
10.354992086826314 -1.8061970522314894 2.2077251572904917 48 56 33
11.199368486952855 -1.9193404795627864 2.264228389421615 48 56 33
9.793315456072158 -1.8061970522314894 2.1255434172057415 49 55 32
11.121829233102824 -2.343443931692705 2.2700368681355414 48 59 37
11.116131356756627 -2.267944296343857 2.1579662770829566 49 58 32
10.586372728180747 -2.508415814272939 2.191651039004821 46 58 35
10.580386495319367 -2.42103718638352 2.0800722778926413 47 57 35
10.586372728180747 -2.508415814272939 2.191651039004821 46 58 35
10.606835585783323 -2.4327452725526246 2.311608051467862 46 60 36
11.225063471737624 -2.179157014425579 2.262327390475652 50 59 34
10.606835585783323 -2.4327452725526246 2.311608051467862 46 60 36
11.5868661959912 -2.340903493165696 2.4822802323006887 45 61 39
11.289006474931055 -2.2039628398046314 2.0453501343051848 48 56 33
11.30819794639737 -2.1188596713773222 2.1467054998831694 48 56 33
11.289006474931055 -2.2039628398046314 2.0453501343051848 48 56 33
11.779579817936167 -2.2039628398046314 2.1209338313668984 48 56 33
11.384277120338377 0.8419106403673843 1.9447268776518591 70 73 71
7.785615099771752 0.12751125574687908 1.9885117557754652 33 42 22
7.964023991383551 0.26360149311777237 1.978590705788291 67 75 58
8.567490496543725 0.3459846801323619 1.5892878298234059 30 37 27
10.811332583059196 1.0964837745058986 2.1768471383588746 22 25 18
9.441744809690343 -0.17881974504455567 2.431293319244867 33 44 21
8.889310203929318 -0.3329372046484955 2.3361457823995746 32 43 20
12.431109962461706 0.9686498303086164 2.527292393833462 35 40 23
12.499183056817381 0.7661269929975127 2.6741680341213745 41 49 27
10.013639123616587 2.2813447790744763 1.9990417108257617 33 43 18
10.121718093257495 2.2153391347606224 1.7856925955025824 31 39 15
9.8282124748991 1.564236009706453 2.0076714801257682 26 34 15
10.39724075385821 1.8594812492182002 1.6824439193194345 27 35 15
10.946658744415505 1.6569270720361258 1.5852685307619023 24 33 14
10.182672332574255 1.3658953028722955 1.684806687518924 25 32 19
9.352170488420636 2.359287551224508 2.0315767087421692 35 45 20
9.067499301741172 2.5264492043368727 1.9265775819640576 33 45 21
10.75312242530585 -2.750859151492393 1.5855290223518863 39 51 27
10.75312242530585 -2.750859151492393 1.5855290223518863 39 51 27
11.357461347421541 -3.041842183021747 1.3179143793507246 37 50 27
9.026790801399036 2.7909222608986903 1.928253898055967 33 46 19
10.009294580731693 -3.132030865964459 1.6867903659045949 37 50 22
10.863133199657744 1.8449055552265532 2.4203999632700386 36 45 19
10.664632449667671 1.5634061370641952 2.3066626631732654 31 39 17
11.928906684321971 1.2353754996395196 2.5897880007735807 34 41 19
11.928906684321971 1.2353754996395196 2.5897880007735807 34 41 19
11.31982414644294 1.7604548222217318 2.684638596693834 38 47 21
12.934942225165567 1.085678980006738 2.79332944690527 40 48 26
13.337652433978421 1.0636491807175132 2.977467519927885 45 56 32
13.475385263337474 1.5506884334249362 2.924268772992721 44 54 26
14.226732945134149 0.7073834911140667 3.0435538073903166 45 58 33
13.453988722954511 0.746692203061344 2.931592600337362 45 55 31
8.795817060817487 -0.9293106830307077 2.521532142375423 37 47 22
15.22705921265259 -2.28097623759965 3.0466051014117155 49 64 39
14.190009669590548 -3.040973321358187 3.074850662853968 47 61 35
11.276885521986335 2.506464675994405 2.6924451507000358 40 50 20
10.967451261973387 2.3624617489290576 2.7550902179678234 41 51 21
9.859695732853526 2.2676096860649184 2.245422151338835 35 44 18
9.406221798873107 2.5601571074615976 2.2846049680604272 36 49 22
9.863411386692462 2.451478799994884 2.2451208900830153 36 46 20
10.15171170841819 2.873761797489669 2.3534222793216775 36 49 22
9.745971802347393 2.686850910173562 2.39572598147039 37 50 23
10.57944222625067 2.7736556959026113 2.6173044653270674 39 52 23
10.933818901413506 2.9159159938230133 2.7627200532492484 40 53 24
10.307833021569074 -2.8025943122938544 2.484018752511223 41 55 28
11.29697658701618 -3.1223578237744603 2.6887694663081354 42 56 28
11.09588972585302 -2.6530415081341174 2.727574349501057 44 60 35
11.019334519948487 -2.33077486703481 2.743680604743591 46 62 40
10.031332097494248 -2.985128069144303 2.3654282502131116 37 51 23
10.307833021569074 -2.8025943122938544 2.484018752511223 41 55 28
10.951193745972605 -2.87060367776559 2.758754496486653 43 59 34
10.151911014882307 -2.9593330885742386 2.5041722241316937 40 54 27
9.512984172032033 3.028132692358081 2.143909143622219 36 49 22
11.352507233936203 -1.47568853906937 1.7620877061417528 36 44 21
10.214827518172404 -1.6865913352614088 2.217914775218603 46 55 32
10.122717539062563 -1.7027345666621891 2.356274759522487 49 57 34
8.905783113035026 -1.2451036212018358 2.3343703283321044 36 48 24
8.905783113035026 -1.2451036212018358 2.3343703283321044 36 48 24
11.73907926353045 -2.0943869222079368 2.616645412680908 47 63 41
10.506105462739598 -2.343443931692705 2.1971259564314822 47 58 35
11.699795290378447 -2.267944296343857 2.2291825668934986 50 59 33
10.621295853052828 -2.252058681411112 2.310363613832621 47 59 39
11.305830117241864 -2.4327452725526246 2.3769235487666602 45 60 38
10.97919371421824 -1.8061970522314894 2.2810134336130545 48 56 34
10.75349310392203 -2.5711680059570288 2.0711055084373546 46 56 34
8.833442417514132 -0.2131932467696301 2.5155912495323074 34 46 23
12.013846241337433 0.8624586304956886 2.4376893470128107 28 33 19
11.645838324467054 0.8506063919015239 2.23277140440623 52 55 50
12.362825702607493 0.7699947130701573 2.53516721254353 37 42 26
10.028458292519172 1.4643424657658815 1.686567712472924 26 33 20
9.902686214026051 3.0407304958900263 2.0041624820004658 36 49 22
9.975312433363294 -2.808358351113076 1.8929638826049933 39 52 27
9.477525109946782 2.089494839068818 2.1463256036848 34 43 17
11.544907925061667 1.316056683931494 2.3555741221979183 31 37 17
11.094363686567814 1.2016338547329504 2.2721206785086188 29 37 18
13.631569543193697 0.9543261685750424 2.8773474933495398 44 52 28
12.934942225165567 1.085678980006738 2.79332944690527 40 48 26
13.516761746185711 1.2213933655183522 2.9108151291024593 44 54 28
13.516761746185711 1.2213933655183522 2.9108151291024593 44 54 28
15.331453180050781 -1.9931746119388085 2.9912087242747476 48 64 40
11.446465768900724 1.9477130099156745 2.6626265969319673 41 50 22
10.012361108015236 3.0119589083496012 2.367360227875987 38 51 24
10.707996508844692 2.360864313679378 2.5969019805714293 40 50 22
10.502418762753857 2.686850910173562 2.4603855368646297 38 51 24
10.445799259273407 2.9604722917422555 2.6398712123162618 41 54 25
11.327351550770892 -2.47592050949646 2.6832888395082484 45 61 36
10.891816666354245 -2.5381375523660403 2.4174096541657724 47 61 37
10.440683518962759 -2.7221761475849426 2.326261289246235 43 57 32
11.183261773621435 -2.4495980566104105 2.5303572564410586 45 61 38
10.317339268902499 -2.665504919632 2.0943667999720033 44 56 32
11.034509399447805 -2.5432859670345778 1.7676717223105445 45 55 32
10.171506345364428 -1.5635797003541831 2.2211371459820444 42 52 29
10.36722139329053 -1.8791830920364725 2.4766358328900777 49 59 36
9.644991847063348 -1.6865913352614088 2.1351011205807486 46 53 30
10.822148125594795 -2.0778817710392117 2.2935599715056383 49 58 33
10.264140015991023 -1.8379091426676837 2.3425874967333487 49 57 34
9.454430553719474 -1.4227113711295125 2.280196698185777 41 51 27
12.217651835416508 0.95165314300898 1.665753974581521 67 69 70
8.810772847310481 -0.15391562542651133 2.1962523130855507 28 39 16
9.873040076085262 1.6761417290049974 2.005552300036311 26 34 14
10.661563754432072 1.9495263646530858 1.5856555520916666 27 35 15
10.009294580731693 -3.132030865964459 1.6867903659045949 37 50 22
9.405798025000989 2.5883125173053476 1.6942696846209564 32 45 19
9.711680276695233 -2.911438862166808 1.902038960073529 38 52 26
10.109102336327789 -3.0045670303053726 2.2258416834524275 37 51 24
10.256597255423818 1.888466908752164 2.490514959080823 39 48 20
10.556587798479722 -2.6613528488881713 2.4540802322476334 45 60 36
10.494964228781788 1.3436313362207237 2.084623162593351 26 34 16
10.917325973136524 -3.1255945413206305 2.566033849902499 40 55 26
9.863411386692462 2.451478799994884 2.2451208900830153 36 46 20
11.111753456901797 2.2477250594264957 2.5396017987260087 38 48 20
13.817978445442106 0.7596662932538205 2.8313773213973152 42 50 27
9.303575770306226 -1.0301772987978401 2.4487389569889695 32 40 17
9.793315456072158 -1.8061970522314894 2.1255434172057415 49 55 32
11.319397470456233 -2.252058681411112 2.37567501692433 47 60 41
11.502565557247483 -2.0239185250940848 2.2425149766924295 48 56 33
11.824785142569937 0.9385374861574891 2.332205348816835 17 20 13
8.742973968875953 -0.01346709681836109 2.2018639656577803 30 42 20
11.340708953379064 3.059074141726956 1.3175326335996402 37 49 24
9.403901555997571 1.927039064804507 2.028847730629147 32 40 18
16.509096965364908 -3.1347741509248213 1.005627662394542 22 32 17
9.513196860182475 -2.8484729774953785 2.2749055223809735 41 55 29
10.207050091718845 1.8116447230666457 2.2184906936066637 34 40 18
9.24624826170056 -0.7913527895601005 2.6516266859455917 37 50 27
10.05006595500183 -3.129623041254668 2.2303621076506515 37 50 23
10.606835585783323 -2.4327452725526246 2.311608051467862 46 60 36
9.024393719583188 -1.186843917002769 2.486891041365328 41 51 27
11.18636235497481 -2.345260528250412 2.050069568604626 47 55 32
11.289006474931055 -2.2039628398046314 2.0453501343051848 48 56 33
11.196977643613486 -2.229236036593028 2.528611381151113 46 62 41
10.984586205507906 0.9733845507940084 1.7685783141628126 71 74 70
10.633020308589128 1.14317149756728 1.972606722560436 24 27 21
9.711680276695233 -2.911438862166808 1.902038960073529 38 52 26
10.317339268902499 -2.665504919632 2.0943667999720033 44 56 32
12.36146320327073 1.173454987615435 2.6967483277453286 38 44 22
11.054940205404874 2.0322106386108008 2.736086669050545 41 51 21
11.469881282086284 1.562335908834498 2.4955546442399914 36 44 19
10.600115061154959 -2.020440990283368 2.4490947513643118 49 61 38
9.164600919558751 2.9061716625613414 2.041762762742357 35 48 21
17.08927513879 3.0767743091466833 0.9571010413547562 35 46 32
