18.229591474197655 2.072710746753747 0.8457205836824222 40 40 16
18.291396887898205 2.11037561757206 0.7732824708126168 10 11 0
9.889967815899611 0.3040838567894826 1.5617242133057156 51 54 23
10.53651261550048 0.09183929478874425 1.4671876839292068 54 57 28
10.058128842424745 1.11114885048576 1.462240857981756 45 48 17
10.1797655047988 1.11114885048576 1.759569956359675 43 46 14
10.448278687912698 0.8909489582642163 1.3694319645681048 31 34 3
9.036305498951835 0.9078194350478035 1.7838038152924756 39 42 10
9.640329473313647 0.971708478679611 1.5614892823368165 43 46 13
9.786943959267088 0.5316239249098113 1.5616287115666698 46 49 18
9.82877554441343 0.5316239249098113 1.6635428393106237 44 47 16
9.954824390753428 -0.31156737670047113 1.6623651602993756 55 60 32
9.840799452090616 -0.21280603597035203 1.7661548027268417 56 59 32
10.688842425720985 -0.19294199059091308 1.4686694335795234 56 58 32
10.264293616475111 -0.40443887862745226 1.562055070391949 56 60 29
10.697358313168214 -0.4904873377440576 1.5624089540411208 58 61 28
10.279404528285045 -0.7579800828607286 1.6594660770828071 55 60 27
10.37494760699569 -0.6212905361309368 1.5621483025877754 54 59 26
9.72702552835404 -0.830121124807123 1.7684699013237524 56 61 28
8.948615069486783 -1.1668915910949618 1.7859237860998685 59 62 29
9.2950252784856 1.74360441361717 1.7777874692444242 50 53 24
9.61113930914289 2.326852799159506 1.6656492572692285 53 56 27
9.274295678389219 1.411916455739761 1.7782568750230126 45 48 19
9.14204234769569 1.74360441361717 1.6705321587241775 50 53 22
10.236328908607016 2.0418788358800666 1.7585143766937064 51 54 25
9.705279391692418 1.9493488829893402 1.4582777244568568 49 52 23
10.7398916112763 1.8227427660760713 1.2789860041349752 40 45 19
9.898913702663549 2.1807942880055182 1.7649932144393548 52 55 26
10.375699210337793 2.2603144030174738 1.4655759425352064 51 54 25
10.064476917050461 1.4276375996212685 1.5618815199094322 44 46 16
9.070408309192814 2.4043024921708565 1.782990687515555 53 56 26
10.03642177462739 1.627371640140946 1.4620051413615243 45 46 16
10.361562162424422 -1.820872068613143 1.5621371304750846 66 68 45
10.095835974371424 -1.626934386012415 1.661082679283417 63 65 39
10.048733046921292 -1.5274079323421166 1.561867552249213 63 65 39
9.288899142590255 -2.0871728793603888 1.668950218087769 71 73 48
9.34944309367898 -1.4132605286740978 1.7765653410473328 61 66 37
9.40548871610707 -1.3075642720351468 1.6677296620769435 58 63 31
18.083408934567387 2.099072227145509 0.9788772618256757 22 21 1
18.083408934567387 2.099072227145509 0.9788772618256757 22 21 1
9.69221071304675 2.474165286219653 1.4581253629988116 53 56 27
9.818381660333499 2.474165286219653 1.7666066371183011 54 57 28
9.260787453870455 2.8087019991833695 1.7785639142868517 54 57 24
9.612745985784096 3.041436571002629 1.5614625752762328 56 59 25
10.409182217700446 2.7489362985795367 1.4659156513694196 52 55 23
8.991103141487244 2.9164817071843534 1.7848913243357754 56 59 25
8.827099587971077 3.0298338900719726 1.7889328116821657 58 61 28
9.51240703874792 -2.700920168233469 1.6666367755074252 64 69 41
8.803966615111694 -2.9078725664097336 1.560605098598788 64 67 34
9.604415574347108 1.0034499882574786 2.10743746474274 51 54 25
10.483917751214609 1.0479291576729697 2.425711865229459 54 57 28
9.51182432457297 1.1633674706557502 1.9944529770523127 51 54 24
9.751511409705051 1.0479291576729697 2.3583603903325874 54 57 28
10.000739726039496 0.8314550232890916 2.203074575966028 54 57 28
10.392989143577049 1.112301070911256 2.298153658751378 54 57 28
9.242554496112556 0.747123635553268 1.8911245816284237 45 48 17
9.604415574347108 1.0034499882574786 2.10743746474274 51 54 25
10.196444763695732 0.12854287596875677 2.315446323612226 57 60 31
9.400758135182963 0.5883651371696448 1.8855466904509028 48 51 20
9.758176135658204 0.3375804974889073 1.9830968764215555 51 54 23
10.618891237884844 0.43122029215149443 2.411218850013535 58 61 30
10.384536704019341 0.2957805470724791 2.43678514149801 59 62 31
9.593821692954588 0.8412389337106193 2.3750082787934836 55 58 29
10.338749169217753 0.2578673777188284 2.3028335028135514 56 59 30
10.29143696833348 0.48946936103289024 2.1825339976095695 55 58 27
10.048096086850622 0.6567173559051702 2.1996261575349814 53 56 25
10.29143696833348 0.48946936103289024 2.1825339976095695 55 58 27
10.240241356838478 0.5517231356553628 2.3115116215931444 56 59 28
9.808061021697867 0.11344420581621488 2.095130811734971 55 58 29
9.949386053889464 0.9650854825195796 2.4898894743061186 56 59 30
10.761544475118576 0.9650854825195796 2.5462812861024773 57 60 31
10.761544475118576 0.9650854825195796 2.5462812861024773 57 60 31
11.165086618461583 0.2957805470724791 2.4948457181701182 61 64 35
10.898940269621395 0.7113238002446879 2.712366928073176 61 63 36
11.033419184612407 0.41627197568386815 2.686466423312676 63 65 39
11.38338296652856 0.43122029215149443 2.4698596469703027 60 63 33
11.68347792087421 0.5517231356553628 2.438179937554795 58 61 31
11.472054191419861 0.346242728320739 2.6136842993021117 61 64 35
11.16386885716839 0.6297321209328492 2.4949901935099157 59 62 33
11.343975440998248 0.17500359995541825 2.6333806857036763 64 66 40
10.900187628590185 0.21337396041299664 2.7121169666648655 63 65 39
9.928954580508192 -0.10965720636102881 1.8682746775040868 57 59 31
9.928954580508192 -0.10965720636102881 1.8682746775040868 57 59 31
9.874532273819213 -0.004119980854223455 1.8699647702054472 54 57 28
9.920020317115622 -0.4411448021103185 2.341442810155902 59 66 34
10.250456422151016 -0.16003977373090494 2.452306341209293 61 63 35
9.760932969775295 -0.004608364174304229 2.0979253931354283 57 60 31
9.714946396340293 -0.26761820622948407 2.224801034815014 58 60 34
9.81598511997363 -0.12253321843168134 2.094664008017922 58 61 33
9.442021386714941 -0.5955657304869296 1.8841242081434122 56 61 26
9.972859916737155 -0.38796607933377447 2.2051241771570735 58 63 34
9.675374207728776 -0.6390111858431513 2.366295428134038 61 66 37
9.62621409934659 -0.5604377966655066 2.231886154592216 60 65 32
9.79518784401738 -0.4465243120717358 1.8724640888150463 58 63 32
9.98838311241133 -0.9723439504590637 2.4847888402170977 64 69 40
9.782050403934416 -0.34576248788293484 1.982029673540043 57 62 33
10.399500386918323 -0.30679753359159156 2.435095089019349 61 66 37
10.19775001788726 -0.006040426604395643 2.458601757044065 60 63 33
9.634258094278962 -0.848958795790165 2.370659958162866 62 67 38
10.685300939901587 -0.5355622732627173 2.758380356608171 64 69 38
10.797608709382317 -0.9723439504590637 2.5413675387432892 65 70 41
10.160058464553126 -0.43083864547595463 2.64035983644626 62 67 36
10.368731957468642 -0.8658999438918851 2.6047763342274237 64 69 40
10.920320856612186 -0.7241642816312279 2.7081089435047527 64 69 39
10.007449053981752 -0.23005390658996652 2.6689417402671824 62 67 39
10.007449053981752 -0.23005390658996652 2.6689417402671824 62 67 39
10.540299082149632 -0.29362421799836963 2.7940938555874384 65 68 41
10.48907646246995 -0.18883864853439522 2.5857984697160448 62 67 39
11.303253082235607 -0.007151613089183034 2.639886632187019 64 66 40
8.81431820022822 -1.0084720390376258 1.9072865921617852 59 64 31
9.017022735243765 -0.8379029085377284 2.019341574762821 62 66 34
9.543381152487418 -0.9372580483626349 2.238655495960176 64 67 36
9.19308228917263 -1.0084720390376258 2.0101449976227146 60 66 31
9.901444753617339 1.74360441361717 1.9767770715440256 53 56 27
9.45103053800931 1.2341918028164973 2.2463866547526594 53 56 25
9.731639401370913 1.3053856673245245 1.8744966642202234 50 53 23
9.881987331070555 1.411916455739761 1.9776236128275064 52 55 26
9.793380247720252 1.6336692635052539 1.9815252121048195 53 55 28
10.634444181250549 1.3673829569672993 2.4095873281496947 54 57 28
9.363775585716503 1.5161043556409928 2.1227958890407224 53 55 29
9.431936625280784 1.5221973974396856 1.884470653868036 48 51 22
9.483507593957981 1.7647994363495116 2.1150389326429657 53 56 27
9.197995081214012 1.273873915058984 2.009893986092222 53 56 26
9.818307284660008 1.5082667661234623 2.351550892174071 53 56 26
9.818307284660008 1.5082667661234623 2.351550892174071 53 56 26
10.546075790389182 1.5082667661234623 2.418961840975985 55 58 29
10.947029692943042 1.0194656437296656 2.7028672269413465 59 62 33
10.073463884548827 1.9493488829893402 1.8638796331201815 52 55 26
9.234245544967617 2.0440046295112295 2.1314578515754405 55 58 27
10.844567726476246 1.9237273950584584 2.388274569168413 56 59 30
9.731770507421944 2.245121612441867 1.984283917032131 54 57 28
10.203845698245383 2.224240645500938 2.3147780468846757 55 58 29
9.698722999300362 1.8823891175857086 2.101662986620406 53 56 27
9.975033545885 2.091356158429497 1.9736080121787274 53 56 27
9.51870081916907 2.3217648150521373 2.1128028127534817 55 58 27
9.731770507421944 2.245121612441867 1.984283917032131 54 57 28
10.43611058134228 2.0440046295112295 2.2944815201078996 56 59 30
9.716083647040852 2.5229244667715913 2.362029288242326 56 59 28
9.980398008290608 2.7178200879253502 2.335585705367411 60 63 34
10.869456593676718 2.4134255518409495 2.38583610141847 57 60 30
9.730678077040086 2.851271469293447 2.360513008396844 63 66 38
9.680394430402554 2.5986419818819724 2.2275399134966247 57 60 30
9.5818436771034 2.494396135119333 2.1088393889453623 56 59 28
11.191641339941384 -0.9572348489989104 2.916886119789436 69 74 41
10.975402980253417 -1.0281008425984246 2.6973897160192997 65 70 41
11.210063940341826 -1.2932003675103698 2.6552579247586428 66 71 42
11.416242259035254 -1.1293963436995722 2.8427584057034254 67 72 43
11.722130299228025 -1.2292249003985296 2.767232917096047 66 71 42
11.584570591285773 -0.8951042848870107 2.798723422833155 65 70 41
11.208825562001683 -2.225193349130878 2.9102742590727266 74 81 49
11.113480955438005 -1.8407418046755033 2.9500706958266756 73 80 46
11.339630081355415 -1.7543528481915356 2.865533535294068 67 74 44
12.03090658479964 -1.6822926414570747 2.7065550919809835 66 73 41
11.64202088490563 -1.4633000389543942 2.785156792280265 66 71 42
11.433088905211912 -2.04614673846593 2.8380117906206443 68 75 43
11.738537956218275 -1.9402850123582596 2.7636912120305066 67 72 43
11.647530288309104 -1.7095797673811486 2.7838885766308947 67 72 43
11.64202088490563 -1.4633000389543942 2.785156792280265 66 71 42
9.864574116919078 -1.6331298431450443 1.978384310986202 64 70 41
9.054029379679205 -1.3940476031254523 2.0173754351975637 59 64 33
9.429969044552497 -1.5166322934880472 2.1184786009802217 65 70 41
9.494909348028308 -1.1873962846963009 2.38588688826919 63 70 39
9.302623815582722 -1.3695693743501678 2.2592379922259 61 68 36
9.873584862012933 -1.5089556983843277 2.346019245104763 63 70 39
10.603610055094212 -1.6507739279264944 2.4128294378206783 66 73 43
9.993657206165441 -1.6408598972467696 2.203593876527351 67 72 43
11.618946081579331 -1.663946629158706 2.592390440251802 64 73 43
11.71017589872786 -1.8242409710730867 2.5797901715861142 64 73 43
9.746645657834186 -2.8404328819948748 2.358861907116044 67 71 42
10.4806893646219 -2.5137118528094824 2.4260660759001524 64 69 40
10.479392073016593 -2.8404328819948748 2.4262085137111935 69 72 39
10.331500703426663 -2.9846295991465057 2.442842236877285 68 71 38
9.712468677372799 -2.5900044975290113 2.224996599926591 64 69 40
9.622330414375725 -2.486900346662273 2.1063302954329455 64 69 40
10.003741950614048 -2.7080218690343503 2.333348836173996 65 70 41
11.657375070931733 -2.6219781162275178 2.7816360056490987 72 79 47
10.727247405730681 -2.6219781162275178 2.748794683769331 70 77 45
10.700930021644327 -2.790356158616617 2.554697195764359 67 72 43
11.365516138678398 -3.1346059539680753 2.629988456220666 66 69 40
10.960127599674987 -2.917789489402253 2.7003272352443917 70 75 42
11.25457267950781 -2.5137118528094824 2.484387880363829 64 69 40
12.167575617787438 -2.293837193991845 2.682981515753727 66 71 42
10.462281932290255 -2.5541810591074237 2.589935646896426 67 72 43
12.288178722543615 -2.04151836859331 2.663486366744138 67 72 42
11.675062792509841 -2.1864258647629895 2.584586390115912 65 70 41
10.961367995777398 -2.435578660135924 2.700087714869797 68 73 44
11.207802911406047 -2.306800315256344 2.4898149386465036 66 69 42
11.412830872910389 -2.9570093380528384 2.6226525303127017 67 72 39
9.382210867235264 -2.3978492465481707 1.8861903691076756 65 67 41
10.301932217760934 -1.8795641678597388 2.181819504191641 68 73 44
9.835948806930782 -1.8472149903461141 1.8711748561632626 68 73 48
10.948609084965735 -2.217996320185263 2.3781957311045643 64 70 42
9.787536835204795 -2.239711082494836 1.9817852304264185 62 69 39
10.894639473864812 -1.9201399594387616 2.383386528441758 67 74 44
9.720500111034236 -2.146060822274973 2.1003482376884635 68 73 46
9.43267303895697 -2.239711082494836 1.884445329172571 68 73 46
9.623772943632337 -1.9881188655304978 1.989213282165946 71 74 45
11.338619228262324 -2.103980170904014 2.474840690339134 65 71 43
9.391338274144847 2.6591885549742287 2.000246234583522 55 58 26
9.64736244607613 3.0152069213402077 2.2301821229650765 63 66 37
9.869310895245645 2.8087019991833695 1.978177093788553 55 58 25
9.64736244607613 3.0152069213402077 2.2301821229650765 63 66 37
9.869310895245645 2.8087019991833695 1.978177093788553 55 58 25
9.502574730234723 2.561099975359005 1.8820602636005985 54 57 28
9.471763472944406 -3.020877359763483 1.9963611596733202 63 68 37
9.27208164771408 -2.9078725664097336 1.8900682892705274 66 69 35
9.541973041094469 -2.8006155942170823 1.8807321747608916 66 69 39
9.872036694265855 -3.137053332774948 2.0913869814550377 61 66 35
15.501935428730155 -0.8134717799499689 1.370140547708823 52 55 22
15.501935428730155 -0.8134717799499689 1.370140547708823 52 55 22
15.605001281772317 -0.9060234439867241 1.371483706913366 55 57 31
9.311572217825995 1.06245112673941 1.7774143095947441 42 45 14
9.640329473313647 0.971708478679611 1.5614892823368165 43 46 13
10.397882834639411 0.7524365010080301 1.368442494933367 36 39 6
9.640299820263149 1.2046671725190632 1.6653614812462114 43 46 16
9.824984891381641 0.20492033803112442 1.7664733294467216 52 55 26
10.436302322773289 -0.00372519336728216 1.562199145325204 55 58 29
10.487809952865302 -0.09922189486962314 1.5622413687517238 55 58 29
10.633527591656396 -0.19294199059091308 1.5623586053005363 56 59 31
10.010139843881214 -0.5384445933669798 1.762808352365109 56 61 30
9.226529330616243 -1.0665729130104047 1.6696158830389258 59 62 29
9.89045441811688 -0.976226446182118 1.7651614333549914 58 63 30
9.767751156824927 -0.682093930791789 1.7676348861457285 55 60 27
9.97105847672857 1.5270696946137023 1.5617979952033227 43 46 15
10.056903909451144 2.0418788358800666 1.5618748067409014 54 55 27
9.667601507670598 -2.3213105471779345 1.6650936300123378 63 68 40
9.439502313249303 -2.0871728793603888 1.774574393235003 71 73 47
9.361765931072643 -1.3075642720351468 1.5612123386996501 56 61 28
18.67360467727405 2.174839872886512 0.7940332695796254 12 13 2
10.337368962700364 2.3976866598686652 1.4651843383042447 53 57 28
9.673678813530465 2.474165286219653 1.66503421346568 52 55 26
9.479655910951728 2.708373031797058 1.6669689161678165 53 56 24
9.679489778283337 -2.4678560384187502 1.5615269369206608 66 68 42
8.674827569786553 -3.020877359763483 1.6759231615495351 61 66 35
8.835903462926352 -3.020877359763483 1.7887119570425707 59 64 33
9.287404600535298 -2.55394660485966 1.7779597846579385 65 69 38
9.152432624962263 -2.8006155942170823 1.4514495952668844 65 68 37
9.751570039360637 0.48946936103289024 2.098484353321275 51 54 23
9.964763021824016 0.6757609465334135 1.867173182357707 47 50 19
11.472054191419861 0.346242728320739 2.6136842993021117 61 64 35
10.028783271455001 1.2046671725190632 1.8652243802289201 46 49 18
10.053155071660857 0.747123635553268 2.08108775729644 52 55 24
9.133687200913785 1.0034499882574786 2.013203447700898 48 51 20
9.494372364747639 0.9310633903028784 2.2427336289990496 53 56 27
10.196444763695732 0.12854287596875677 2.315446323612226 57 60 31
9.758176135658204 0.3375804974889073 1.9830968764215555 51 54 23
11.472054191419861 0.346242728320739 2.6136842993021117 61 64 35
11.033419184612407 0.41627197568386815 2.686466423312676 63 65 39
10.670738045508955 0.5186599327491533 2.761779979695337 64 66 40
9.95591831878163 0.22841792086187143 2.0865630170275713 53 56 26
11.254269743891683 0.5886102224410636 2.6478798078034487 61 63 36
9.949386053889464 0.9650854825195796 2.4898894743061186 56 59 30
10.095201986275802 0.739770395449548 2.3247292403063557 54 57 28
10.33869386939436 0.8562920361608979 2.6096786742470366 59 62 33
9.321725863417674 -0.49757895160195387 2.003668824487422 56 61 30
10.406946691428518 -0.600637221116522 2.598637602695048 63 68 37
9.927826259192258 -0.7385908863172649 2.49274140254813 63 68 39
10.857800963987499 -0.008763770824449305 2.7207217333266867 63 65 39
9.216682730770266 -0.9723439504590637 2.4184920724783994 63 68 37
9.555230612008685 -0.1388133410256851 2.2376777108644528 57 60 32
10.4890492088686 -0.011314266895934077 2.8078453468844136 65 67 41
9.98838311241133 -0.9723439504590637 2.4847888402170977 64 69 40
9.4799821125388 -0.7475185223015975 2.2439416152624756 62 67 37
9.121646526485842 -1.0535174296471246 2.275672943140333 63 69 36
8.958547157939567 -0.9372580483626349 2.1509004258829716 61 66 32
9.357558111087279 -0.9132001777449528 1.887050098023506 59 64 31
9.414742602866932 -0.38796607933377447 2.11946532153541 56 61 32
9.931221545851475 1.641541895428363 2.2082125105493047 52 54 27
9.53064095278035 1.411916455739761 1.8811129885430171 47 50 19
10.10655900249979 1.2341918028164973 2.323674616413772 53 56 27
9.463190882950704 1.3923576453390583 2.116338784585181 53 55 28
9.924759435889891 1.5161043556409928 2.2086947666621692 53 55 29
9.881987331070555 1.411916455739761 1.9776236128275064 52 55 26
10.48518721923716 1.1143856155153453 2.5863959618698487 56 59 30
10.174866773071408 2.245121612441867 2.074404584359678 53 56 27
9.374796028101228 2.245121612441867 1.886448449976617 53 56 27
10.107765318874169 1.8494915547348805 1.9680190858145425 53 56 27
9.48491095861633 1.9237273950584584 2.2435273207903292 55 58 27
9.764546231177896 1.8494915547348805 1.8734406865656794 52 55 26
9.48491095861633 1.9237273950584584 2.2435273207903292 55 58 27
10.07105862983008 2.3217648150521373 2.197968818691896 55 58 28
10.164867436479302 2.4134255518409495 2.318313244711883 55 58 28
11.406016204769383 2.9705455533110148 2.623699549898135 64 67 38
10.975402980253417 -1.0281008425984246 2.6973897160192997 65 70 41
11.584570591285773 -0.8951042848870107 2.798723422833155 65 70 41
11.647530288309104 -1.7095797673811486 2.7838885766308947 67 72 43
11.647530288309104 -1.7095797673811486 2.7838885766308947 67 72 43
11.738537956218275 -1.9402850123582596 2.7636912120305066 67 72 43
11.05328387615136 -0.6263436773509885 2.980559558040704 70 75 43
10.406919222746032 -0.6969161988913228 2.831409944856798 66 71 40
12.119035637569288 -1.8717829496994596 2.6911617991562156 66 73 41
11.132032905608497 -1.6822926414570747 2.668687327130941 65 71 44
11.113480955438005 -1.8407418046755033 2.9500706958266756 73 80 46
9.873584862012933 -1.5089556983843277 2.346019245104763 63 70 39
10.099578995524595 -1.7629691242407886 2.195923578431142 67 72 43
8.88968952410432 -1.2765821229404994 1.9043224022519367 59 63 30
9.971867129113232 -1.7421469845970123 1.9737433213791915 67 72 47
10.772698820329268 -1.4987481763634711 2.5447541950559107 64 73 44
10.905163959922655 -2.4056945747163105 2.382368017598989 66 68 42
10.203040936513535 -2.4056945747163105 2.3148506469688517 64 69 40
11.067190790369219 -3.1356702982376037 2.506653016619978 66 69 39
11.25336460178146 -2.8404328819948748 2.484527016306488 65 70 41
11.91308460819767 -2.136460779041734 2.7283491758216685 66 71 42
11.115775430689963 -2.9846295991465057 2.5007438225592638 69 73 40
11.675062792509841 -2.1864258647629895 2.584586390115912 65 70 41
11.91308460819767 -2.136460779041734 2.7283491758216685 66 71 42
10.301932217760934 -1.8795641678597388 2.181819504191641 68 73 44
12.14021592246798 -2.103980170904014 2.5258039207580536 65 73 43
9.84976097273649 2.6591885549742287 2.092684115360534 55 58 27
9.813503781588517 -2.8783055248379266 2.217125123527427 67 70 41
9.872036694265855 -3.137053332774948 2.0913869814550377 61 66 35
10.245482430890329 -3.13645323334696 2.3110439594227126 64 68 37
17.58233664666801 2.072710746753747 0.8883016939183385 31 30 9
9.680380750531071 0.20492033803112442 1.6649687769159198 51 54 24
10.863463869691168 0.4840537951880224 1.3772274141131415 46 49 18
9.868249239527406 -0.5384445933669798 1.6631707857060685 56 59 26
9.755405468362408 2.1807942880055182 1.6642424125015443 50 53 24
9.330792686426207 1.3053856673245245 1.6685081140543978 44 47 18
10.271329172151173 2.0418788358800666 1.3659140260320657 53 54 27
10.200696817076338 -1.7253633841755949 1.6601520650330126 65 69 44
10.160396592322876 -1.7253633841755949 1.5619656827378752 67 69 45
17.979623841706587 2.1346957641843165 0.9061333798822129 13 12 1
9.95715880528651 2.6165407836523444 1.4611356457282287 54 57 27
10.47417649841014 2.533519184019472 1.657813009451856 54 57 28
9.763561540345352 2.939346661408647 1.5616067557418387 56 59 24
9.897755710984166 2.6165407836523444 1.5617313517526732 54 57 26
9.260787453870455 2.8087019991833695 1.7785639142868517 54 57 24
8.774704472006821 -3.137053332774948 1.7902565934889627 59 62 30
10.242868445519656 0.14824369476785074 2.4532057188495187 59 62 32
8.96513701996431 0.8314550232890916 2.022128751363617 49 52 22
10.19879241858852 0.5883651371696448 2.073112444248051 51 54 23
10.804335231023328 0.739770395449548 2.392253679066019 56 59 30
10.849411011439821 0.49879620952244885 2.5344269341424255 61 63 36
9.185483659408492 1.112301070911256 2.134794459428969 53 56 25
10.344980311531483 0.11344420581621488 2.178907748174077 56 59 30
9.660696230442678 -0.30679753359159156 2.367847014855864 60 62 36
10.067555376808754 -0.5097602001704391 2.4746553395458584 64 67 36
10.48907646246995 -0.18883864853439522 2.5857984697160448 62 67 39
11.040489731123435 -0.16003977373090494 2.5099431733143294 63 66 38
9.78341094472347 -0.49757895160195387 2.096588579000652 57 62 31
9.535260493606426 -0.6642511914725727 2.111757383141446 59 65 29
9.104365968454024 2.5986419818819724 2.140440287997964 56 59 28
9.55892162898263 1.9917317846447375 1.9922321562116334 53 56 27
9.824839411843174 1.6516633600083148 2.350892394688496 54 57 25
10.947029692943042 1.0194656437296656 2.7028672269413465 59 62 33
10.844567726476246 1.9237273950584584 2.388274569168413 56 59 30
9.664346967967024 2.1511426864126015 2.1037525166097355 54 57 26
9.690893672759188 2.4043024921708565 1.9861354900522568 53 56 27
9.913165306979838 1.3673829569672993 2.3421144282723896 53 56 26
11.107706667642251 -1.3601990401262352 2.952770511347024 70 76 43
11.647530288309104 -1.7095797673811486 2.7838885766308947 67 72 43
11.36329724813119 -0.6969161988913228 2.8582744492269363 66 71 40
11.33397100973359 -1.4283449174946463 2.8673015494399157 68 73 44
11.339630081355415 -1.7543528481915356 2.865533535294068 67 74 44
8.921319503365112 -1.2376395242719824 2.1536374484209087 61 66 35
10.772698820329268 -1.4987481763634711 2.5447541950559107 64 73 44
10.137410819464764 -2.6417084338448698 2.4659506260819324 65 70 41
10.935614055151463 -2.6417084338448698 2.5231709913312974 66 71 42
11.391491649993933 -2.4698190768625548 2.849894058519934 73 80 48
11.115775430689963 -2.9846295991465057 2.5007438225592638 69 73 40
10.79523481290817 -2.4171763375281006 2.5416888891998526 65 70 41
11.612227755559175 -2.271670798481838 2.7921124942358766 68 75 43
11.25457267950781 -2.5137118528094824 2.484387880363829 64 69 40
10.117274294326677 -2.3153038541348745 2.194661924462851 66 68 42
10.117274294326677 -2.3153038541348745 2.194661924462851 66 68 42
10.488132539082802 -2.039513401799402 2.2901071897566747 67 73 46
11.885139086760658 -1.9723350156871673 2.5568203674073353 64 73 43
10.045700537830365 2.768463092534951 2.1997996098735975 58 61 31
9.874461477533448 2.708373031797058 1.8699669815034672 55 58 26
9.797645162530772 2.887912752431884 2.2183468150477914 61 64 34
16.19202552196667 -0.7677371094215671 1.378801454725594 54 57 25
15.333967479981956 -0.8134717799499689 1.4340903588006244 55 58 29
15.438154735742891 -0.9060234439867241 1.4350186758299148 55 57 31
9.573682092061617 0.6757609465334135 1.6660214948017829 41 44 13
10.538757390958725 0.6151699796771862 1.3711841827159885 42 45 14
9.523967077707852 0.8245869633718851 1.6665200890661895 35 38 5
9.935102713625067 2.1807942880055182 1.3588764643734792 59 59 31
9.758744139683763 -1.9463914400339395 1.6642103492996212 68 73 46
9.763561540345352 2.939346661408647 1.5616067557418387 56 59 24
9.153917974953087 -2.55394660485966 1.4514690533772987 63 69 41
9.921120712480011 0.10150876149517572 1.8685167631381159 54 57 28
9.756724178631137 1.112301070911256 2.2215228516036536 53 56 27
10.532919911922317 0.2727625187234568 2.7960333072913865 64 66 40
10.33740641151498 0.8412389337106193 2.442162523833235 56 59 30
8.355867212167363 -1.1166945686268883 1.9265442922947669 59 64 32
9.518968361645925 -0.23714417516031217 1.9941145507383464 58 61 34
10.399500386918323 -0.30679753359159156 2.435095089019349 61 66 37
10.540299082149632 -0.29362421799836963 2.7940938555874384 65 68 41
9.498667307236868 -0.005228103511645141 2.242374024691377 56 59 30
10.200041320834535 1.1828796891663564 2.4583257086425685 54 57 28
10.816178212282564 1.3344307579191785 2.5388638484928636 55 58 29
9.786827123431681 1.5221973974396856 1.981816834110082 52 55 27
10.546075790389182 1.5082667661234623 2.418961840975985 55 58 29
9.438736146106224 1.6336692635052539 1.884236981716133 49 52 23
10.208827501622233 2.1511426864126015 2.1882219579273516 53 56 27
11.347233480592495 1.1143856155153453 2.632865457309352 58 61 32
11.722130299228025 -1.2292249003985296 2.767232917096047 66 71 42
10.894639473864812 -1.9201399594387616 2.383386528441758 67 74 44
9.971867129113232 -1.7421469845970123 1.9737433213791915 67 72 47
10.961367995777398 -2.435578660135924 2.700087714869797 68 73 44
9.505837908099721 -1.522614790716128 1.8819498244694297 63 68 39
10.064869876095605 2.9164817071843534 2.0804363761759794 58 61 30
9.055312773149907 -2.651155886947256 1.8979923154905056 64 69 42
9.51640957849779 -2.7595812829169906 2.1129477996342563 64 70 43
9.813503781588517 -2.8783055248379266 2.217125123527427 67 70 41
18.229591474197655 2.072710746753747 0.8457205836824222 40 40 16
9.81895915123966 -2.1762384143173317 1.6636358287691075 67 72 47
9.365108105065335 1.8494915547348805 1.6681489432138592 50 53 23
10.141896941436249 1.7265505110535349 1.4631409783485338 42 46 17
11.126268245869827 -1.4845147489293427 2.6697010093174027 65 72 42
9.79518784401738 -0.4465243120717358 1.8724640888150463 58 63 32
9.513357628123327 2.4134255518409495 2.241147270351985 55 58 27
10.368731957468642 -0.8658999438918851 2.6047763342274237 64 69 40
10.242868445519656 0.14824369476785074 2.4532057188495187 59 62 32
10.79523481290817 -2.4171763375281006 2.5416888891998526 65 70 41
11.099646320322767 -2.7214740973375227 2.674422500498083 68 73 44
10.703497453309092 -1.7894600147212985 2.402435745045221 66 73 43
9.94944351751787 0.37897355227112656 2.2068569322966956 56 59 28
9.56691872069654 1.06245112673941 1.8798972188056746 48 51 21
9.972859916737155 -0.38796607933377447 2.2051241771570735 58 63 34
10.670738045508955 0.5186599327491533 2.761779979695337 64 66 40
9.054029379679205 -1.3940476031254523 2.0173754351975637 59 64 33
10.297944536497551 -3.005104635787738 2.306399814440999 65 70 37
9.918636854822045 3.0298338900719726 2.0886953348344983 59 62 31
10.08001395810391 2.6165407836523444 1.7614609089406095 54 57 27
10.939977133748048 0.5517231356553628 2.379020621108158 57 60 29
9.292891414128265 -0.7535870602134587 1.889328101437414 58 63 30
11.033445093571059 0.14824369476785074 2.5108163596092927 62 65 36
10.712622433025137 0.7289235968760998 2.5530580892679517 59 62 33
9.812131258295187 -0.35884068644811673 2.5084521383393272 61 66 37
11.412830872910389 -2.9570093380528384 2.6226525303127017 67 72 39
10.991572320098005 -0.006040426604395643 2.5160515127881977 63 66 36
9.513313659192674 0.43899939362224716 1.7729713421149846 48 51 20
9.698722999300362 1.8823891175857086 2.101662986620406 53 56 27
