7.428721110318947 0.6392086619164722 1.2779559243648941 41 60 21
7.763874523325235 0.5166552744872802 1.0076909454930716 41 61 21
8.109120944611828 0.283169841202521 1.429189846309083 48 68 31
12.188633305485807 -0.8186559687026891 0.085152703390714 39 47 26
12.465782310204146 -0.2725561429881426 0.2275391088540905 33 43 18
12.720542519102676 -0.20136932862825244 0.3021018898347944 46 58 27
11.802126876100983 -0.9086591253691986 0.5364157931127527 31 41 12
11.797995709221981 -0.6734958224752724 0.5358265720512286 48 61 31
11.518625496783676 -0.5297388727301402 0.49345527425889424 49 62 32
11.797995709221981 -0.6734958224752724 0.5358265720512286 48 61 31
12.064460219584715 -0.63931261016605 0.3930536406530669 42 55 25
12.220809078754309 -0.7896499547010564 0.7253452312048981 38 49 19
12.225125943939277 -0.3571675641152535 0.4236276725815093 47 61 26
12.494687264972052 -0.7197313994507889 0.9620972905928886 50 60 30
12.193059483743461 -1.0252694965415439 0.8393327712996485 33 42 15
12.520710667484947 -1.1702304142577105 0.8625802602571576 35 44 18
12.193059483743461 -1.0252694965415439 0.8393327712996485 33 42 15
11.959481477439907 -1.0688744922038584 0.7003433337424337 35 44 15
12.54361346819299 -0.7885502592958097 1.0588803617069584 39 49 20
12.02385976004966 -0.8693344144005495 0.8266295957807076 32 42 13
12.243191110330844 -1.0774804141725354 0.9477073826619088 34 43 17
12.746363080684837 -0.7276889035742856 1.1553449110966039 47 58 29
12.171721096644879 -0.9171058040407334 1.1344206275845816 33 43 16
12.171721096644879 -0.9171058040407334 1.1344206275845816 33 43 16
12.171721096644879 -0.9171058040407334 1.1344206275845816 33 43 16
11.782009577525653 -1.384470929736267 0.33047368901822055 37 44 22
12.068500173373119 -0.9462112020223006 0.3938602091347886 32 42 14
12.120777439160868 -1.632053257460752 0.40411240175411045 37 45 22
11.60681927317477 -1.0160872363539533 0.28320157923229944 35 44 20
11.502251095556943 -1.3193452843937383 0.25007158890330844 36 43 22
12.068500173373119 -0.9462112020223006 0.3938602091347886 32 42 14
11.527086597431493 -1.0532427581619448 0.4948183144941042 33 43 15
11.285891080046593 -1.7353538072413186 0.15847412571678485 37 45 28
11.410709190075611 -0.7994650299508395 0.2164425082655013 35 43 23
11.884116418977332 -1.1440549327490361 0.35466815290055287 36 45 18
11.33389836066057 -1.2260370691966767 0.4622402619648925 36 45 18
11.764322178094487 -1.648299674833554 0.3260626914190426 35 43 20
11.974460106591447 -1.1310863749283824 0.5601497010099837 34 44 14
11.788605577821732 -1.2823475555768529 0.5344835535298404 37 46 17
12.261799306952097 -1.2708605412025773 0.8443531967091837 34 42 16
11.552266619779013 -1.49833575276306 1.0099720572252884 30 39 13
12.392608733997402 -1.3000432903478523 0.9563446332985077 32 41 13
11.979932199063988 -1.4900952020814953 0.8232481194357651 34 43 17
12.261799306952097 -1.2708605412025773 0.8443531967091837 34 42 16
11.688144584763137 -1.189595739390315 0.6723319707800323 36 45 16
12.680998222689633 -1.4900952020814953 0.7653845909809731 37 46 19
12.726930862311496 -1.717252472450002 0.7691338063081693 36 45 16
12.789944758828312 -1.4797456820693857 0.6548163042367343 38 46 23
12.884066140344833 -1.3540369853325878 0.6642723490498199 37 46 20
10.238115424984564 -1.717252472450002 1.0443290360379387 35 41 17
20.03776359618342 -1.0456955848058822 1.3111500080149363 32 41 8
20.35089968692137 -1.0704688538759464 1.465225622354811 32 41 5
20.459992035878443 -0.9609381065885402 1.6126232880199969 34 43 9
13.837150554009401 -2.090211852679821 0.4998148308440629 37 45 26
13.257500580793305 -2.2114035290290275 0.5723763690131819 33 39 30
13.232846927974375 -1.8977902276077079 0.5694783550408768 40 46 22
13.442163681651124 -2.024122938290753 0.5933572036244367 39 45 23
13.77033794933393 -1.8580691154831541 0.627820114770578 38 45 19
13.187751644396336 -1.972125777507442 0.6931544637208991 37 43 25
10.232161075541109 -1.930357081329758 1.1537699319615426 18 24 11
9.30245735229912 -1.8267625384438884 1.3381768010861697 37 45 27
9.356353913628352 -1.930357081329758 1.5553548463242868 2 8 0
13.099515438742701 -0.6741374016360413 1.2488816362665296 48 61 32
7.5383950347389295 0.45031028900368497 1.418388165788149 42 62 24
7.74075254602657 0.32268087595238754 1.1524797013407064 43 63 26
11.782792755526952 -0.6947507657278834 0.6823596488948497 44 57 26
12.331470707486895 -0.7919280875505083 0.442364083078945 38 51 22
11.126826424473776 -0.4499420543926183 0.6061632534306864 47 61 31
11.41578887769186 -0.5820965421644783 0.6417706410691518 47 61 30
12.019804802265993 -0.7092333040548643 0.8263189272785576 47 59 28
11.41578887769186 -0.5820965421644783 0.6417706410691518 47 61 30
12.331470707486895 -0.7919280875505083 0.442364083078945 38 51 22
11.786929250846606 -0.8852773988936506 0.6827914213117786 31 42 12
12.243191110330844 -1.0774804141725354 0.9477073826619088 34 43 17
12.529552143003432 -0.7890184387701086 0.8631844446832007 40 50 20
12.243191110330844 -1.0774804141725354 0.9477073826619088 34 43 17
12.380562483171872 -0.849006977124 1.2294498218518577 31 41 15
11.764322178094487 -1.648299674833554 0.3260626914190426 35 43 20
11.782009577525653 -1.384470929736267 0.33047368901822055 37 44 22
12.835487531998114 -1.73581110617734 0.65942354997744 38 45 20
12.775922248462459 -1.3781443295563531 0.7730872191887482 34 42 16
11.962537444842953 -1.6041017891633604 0.8218992831909235 33 42 14
12.307932031381833 -1.3231742408171265 0.6019691475866725 37 46 18
12.21311908805643 -1.3974746491210768 0.9459369096258303 32 41 14
9.908441610880196 -1.7024245257726327 1.4550333796344959 32 40 16
20.2699328473838 -1.0704688538759464 1.5143048143122277 33 42 9
20.133319707690006 -1.0021706980889036 1.4139718948701798 35 44 10
13.721344360863482 -2.1366680448809654 0.6228836271357484 37 42 31
9.75319871540451 -2.0264894025382896 1.555983186748224 52 57 56
9.394275817080372 -1.930357081329758 1.6619919451808176 18 24 17
9.955581030292455 -1.8267625384438884 1.1414284221457494 33 41 19
12.744554423153803 -0.7943176061961971 0.3080901086642373 34 44 17
11.884116418977332 -1.1440549327490361 0.35466815290055287 36 45 18
11.959481477439907 -1.0688744922038584 0.7003433337424337 35 44 15
11.685664212810039 -1.4483892167800685 0.5194095365793815 37 45 21
12.619221164345591 -0.6598910173709798 1.0622436589491633 54 65 34
12.153463381871257 -0.7905483431272595 0.5832123583513973 35 47 16
11.226788439927242 -1.4229984574135637 0.44270770857824776 36 44 20
11.99159007468648 -0.9363911931940393 0.9325473182976113 32 42 15
11.884116418977332 -1.1440549327490361 0.35466815290055287 36 45 18
11.48413283144794 -1.6762308568868776 0.2438181534037384 40 46 27
12.551620079849991 -1.1248613425545682 0.7545950419877678 35 44 18
12.520710667484947 -1.1702304142577105 0.8625802602571576 35 44 18
11.410709190075611 -0.7994650299508395 0.2164425082655013 35 43 23
12.743855787984097 -0.7881893044132727 1.3214773804501163 33 43 17
12.293359721979712 -1.234892106113386 0.7319771577234259 36 45 18
13.581426802389613 -1.6083915845852765 0.6083940303993144 39 46 21
20.44260782135921 -0.9609381065885402 1.563729155194026 36 45 11
13.63389925256979 -1.9496498609851485 0.47179161233006073 38 46 24
14.108517359362121 -2.2114035290290275 0.5339765634495216 38 44 30
13.187751644396336 -1.972125777507442 0.6931544637208991 37 43 25
12.775922248462459 -1.3781443295563531 0.7730872191887482 34 42 16
7.203954254797213 0.6392086619164722 1.4112534085047495 44 60 20
11.60681927317477 -1.0160872363539533 0.28320157923229944 35 44 20
12.664566417724583 -1.6041017891633604 0.7640331756513394 35 45 17
12.306326445537215 -0.9622242581164429 0.7331491053458729 31 41 12
11.974460106591447 -1.1310863749283824 0.5601497010099837 34 44 14
13.096744297500095 -1.7596916264320053 0.5530347051087647 39 45 22
12.73622313049243 -2.0761521923200816 0.76988723415582 33 39 25
13.721344360863482 -2.1366680448809654 0.6228836271357484 37 42 31
9.985127242130828 -2.0264894025382896 1.3543436451061044 0 3 0
11.527086597431493 -1.0532427581619448 0.4948183144941042 33 43 15
12.188633305485807 -0.8186559687026891 0.085152703390714 39 47 26
12.498588156036652 -0.8577728754894681 0.9623148074160746 32 42 14
11.424326141596403 -0.9985599307045527 0.642769957732235 32 42 13
11.884116418977332 -1.1440549327490361 0.35466815290055287 36 45 18
12.818977002864319 -0.4424736707968615 0.3258400171493492 44 57 23
11.304327085040295 -1.187622280417977 0.16837259781591743 35 43 26
