8.919452446648291 0.9509819179075457 1.4322046639025898 25 34 0
9.72645263781911 1.1036250583361011 1.2320434436304903 27 36 0
9.45278756895912 0.8647383388236626 1.5462287999530406 26 35 0
9.474827721919603 0.7148967585122485 1.651920181226849 23 32 0
8.503973929448247 0.8786782190625677 1.9023054933640036 59 68 16
9.25737359797017 0.9509819179075457 1.8744224216620702 58 66 16
9.17846273430766 1.1600727858860722 2.117008509238225 63 72 20
9.17846273430766 1.1600727858860722 2.117008509238225 63 72 20
8.3170313918421 1.1600727858860722 1.9100527788729382 59 69 17
8.99591854767984 0.6291776576217478 1.7685939978746987 37 47 2
8.87992995968038 0.8786782190625677 2.008989696630614 67 75 26
8.802456334476144 1.2056213226083352 1.6581320256584557 44 54 8
8.328554590110674 1.0492925712457328 1.6631152815866492 34 42 0
9.341858681494669 0.7024958163220396 2.106409740492234 64 72 23
8.718219212962195 0.791134093198782 2.1494255171557812 62 70 22
8.873259836662259 0.7024958163220396 2.009341958750457 64 73 19
8.718219212962195 0.791134093198782 2.1494255171557812 62 70 22
9.458802684931921 1.556490586482324 1.3325563456485112 36 46 0
9.543863340248647 1.7713673997412227 1.7571003086838166 50 61 9
9.543863340248647 1.7713673997412227 1.7571003086838166 50 61 9
9.360089861579873 1.556490586482324 1.760802367054608 51 60 9
9.264286838655543 1.3162101343304076 1.989635980073642 60 69 17
9.517019595740972 1.6764378901497121 2.0955216485429764 58 69 17
9.47821920855768 1.5547442861069547 2.0978928933747154 59 70 18
9.291860744786842 1.4483003257194689 1.6535212176945624 44 52 3
9.085843850625125 1.0279621666808896 2.411139479012835 62 69 20
9.022104428652355 1.1024893523246686 2.264378214162657 63 71 21
9.219047104875091 1.552512418669234 2.24674619395583 61 71 20
9.287292764937472 1.4147215609817971 2.240866811321551 62 70 19
9.416526665275686 1.2392038593907455 2.372747663805201 62 70 23
9.939285205574578 1.4147215609817971 2.3198053326735244 61 70 19
10.190498913304356 1.7950841928771601 2.1724384249284343 56 68 15
14.739393930266676 1.7365813514615744 2.776473622207527 66 75 26
17.071828590117697 0.20782021769812808 1.1333428985575633 66 74 28
17.071828590117697 0.20782021769812808 1.1333428985575633 66 74 28
17.468911503638726 0.25416537721430005 1.2666116169388582 56 64 14
11.619474278859581 -0.07257626556336835 1.2889062285051873 57 64 9
10.135943417623555 0.018819954382503095 1.5478849352041844 59 67 17
10.20385918684328 0.11698771380397781 1.5480374573402949 59 68 16
10.04987288198966 0.43025367517585644 1.547688679456059 54 59 8
10.353255975639428 0.11698771380397781 1.742384505878159 60 67 16
9.789990232534091 0.23545586474961014 1.8574212932393217 62 70 21
9.557390755466594 0.4758650822483832 1.8646021017692485 55 63 13
10.316352195315648 -0.07971074902752262 1.7430044423436688 66 75 23
9.3170883089399 0.4758650822483832 1.7616900937613909 50 57 7
9.225861199338114 0.26316095876167334 1.9914909245404724 65 73 27
9.949778837217785 0.12966301089839463 1.9591670243744501 65 73 26
9.893396866029992 0.4758650822483832 1.9614998741577996 62 70 20
9.91137287313051 -0.08839678779493765 1.9607529769963778 67 74 24
9.421928770741445 0.23545586474961014 1.6523766573547831 57 64 11
9.513038852496729 0.3739269294514771 1.9780248842766026 64 72 22
9.833093033053176 0.3361552789552039 1.7515589520525885 56 65 9
10.294394702261359 -0.17671927459267356 1.5482376475585624 59 68 16
11.926835114050997 -0.24721218754952548 1.2963614414504023 57 64 13
11.926835114050997 -0.24721218754952548 1.2963614414504023 57 64 13
10.294394702261359 -0.17671927459267356 1.5482376475585624 59 68 16
10.893860294245261 -0.35963529730194155 1.457443398615485 59 68 16
9.946705085344295 -0.2984603659861994 1.8527806737672408 67 76 24
10.680138957531142 -0.6203388210459304 1.931342026513465 68 77 23
10.050868878811452 -0.3952124745708763 1.7476004997191081 66 75 21
10.148605872728869 -0.6203388210459304 1.7458800690341907 68 77 23
9.396412684391857 -0.43810141114969164 1.869789650768374 67 76 24
9.92392975201693 -0.3952124745708763 1.648241432489014 68 77 25
9.844347514982413 -0.5341030337404798 1.8557942194155261 68 77 23
9.598256352427102 -0.21893915485230372 2.0906293160030436 67 76 24
11.607473937756925 -0.6407400608812367 1.3772829828058213 66 74 24
10.677361908825882 -0.6971330981635241 1.455134809923542 71 79 31
11.276535260818363 -0.7651895376798541 1.5502027082289018 69 77 29
9.69922661291919 -0.7584227996911385 2.0846812676659807 68 76 25
9.152623357565409 0.42069768002740066 2.11872562485107 65 73 23
8.825470541866736 0.5995465429537421 2.1415077778977447 66 74 25
9.939939173476882 -0.6835795765604428 1.9595720819636184 67 75 25
9.248751991088643 -0.7584227996911385 1.9903838625027008 67 75 24
9.834600531194633 -0.5933207175344059 2.076928184362517 68 77 25
8.853763097451397 0.2980367549873281 2.139457675820966 66 74 26
10.299639503904476 -1.2617860204521967 1.5482491368788147 71 79 31
10.299639503904476 -1.2617860204521967 1.5482491368788147 71 79 31
11.570285478312627 -1.01214759538106 1.55072561692974 67 76 29
10.722333566015992 -0.8307337922305759 1.7364225909241489 65 75 26
10.075398222084944 -0.9894464801627768 1.9540710405573332 70 78 29
10.075398222084944 -0.9894464801627768 1.9540710405573332 70 78 29
10.116011818799185 -1.132261761541541 1.8479354217958464 70 78 30
10.56393262463553 -1.043337974901611 1.8358944025155113 69 77 29
10.760505698404957 -0.9627436418824465 1.6422097682880945 62 73 24
9.768860024043029 -0.9249954119056863 2.0806622148448746 71 79 29
9.90747293980692 -0.8377284846735635 1.9609147682472912 67 75 27
10.447666768354413 -1.2617860204521967 1.7408187547816008 70 78 30
11.097031682661434 -1.088820576325723 1.6400405785095982 69 77 29
9.815463506868653 -1.3334000287296937 1.9647723337171066 71 79 31
9.421031304457065 -1.7798052792629215 1.868984288335128 71 79 31
9.582138023174265 -1.5558713183678403 1.9749164622556017 71 79 31
10.031340196756807 -1.4559553357705093 1.7479483389791672 71 79 30
10.015152046160495 -1.759024972194654 1.647534634954652 71 79 30
9.815463506868653 -1.3334000287296937 1.9647723337171066 71 79 31
9.338543310999166 -1.8056484443335499 2.1066204518680753 72 80 32
10.031340196756807 -1.4559553357705093 1.7479483389791672 71 79 30
9.394695348462546 -1.3043442100646996 2.1030752314943113 71 79 31
9.219399292289584 -1.426907800879331 2.114311456120124 72 80 32
10.357640424505052 -0.332646455098522 2.1614011405439326 67 76 24
10.002174855633184 -0.09920039356211767 2.185423247571901 67 76 24
9.971203296609717 0.0234473328209652 2.1876173220632027 67 74 23
9.971203296609717 0.0234473328209652 2.1876173220632027 67 74 23
10.132231171020575 -0.21893915485230372 2.176391966688745 68 77 25
10.002174855633184 -0.09920039356211767 2.185423247571901 67 76 24
9.002395261361919 0.4798174122700245 2.266199746039074 65 74 25
9.429989633180192 0.2980367549873281 2.228932637123555 68 76 28
9.39134232142698 0.3431511165559336 2.3755235878818817 67 75 27
9.563990627063847 0.4034894370102709 2.518695139228749 66 74 25
9.248962706283669 0.1654372503083417 2.244154879239524 68 76 26
8.69837496904633 0.3431511165559336 2.295733511072349 66 74 26
9.833488765370108 0.026733722251713384 2.3298554095130948 67 76 23
9.897985017921563 0.03109118015811334 2.4731457305260554 70 79 26
8.968508377541761 0.7925125183981925 2.4258670423201165 64 72 26
9.92918496531009 -0.1312327362722766 2.4691768031129864 69 76 25
9.344824059102761 -0.15642471826806267 2.5521309054948067 71 80 28
9.897985017921563 0.03109118015811334 2.4731457305260554 70 79 26
9.209555757937824 0.19180642696729827 2.3962657840510273 68 76 26
9.385548645385914 0.22800244595577493 2.5456739525858376 66 74 24
9.169766934079915 -0.9526031090123659 2.2510637084515737 72 80 32
9.452895415780553 -1.076401047417757 2.368778899668632 74 81 32
10.32121878561864 -0.6651322309001028 2.2859273348160034 70 78 29
9.273704894005355 -0.8610648991511469 2.3888007552306414 73 81 35
10.02682332332592 -0.8610648991511469 2.45703869563752 75 83 36
9.82955793112992 -0.9526031090123659 2.33023484723318 73 81 33
10.02682332332592 -0.8610648991511469 2.45703869563752 75 83 36
10.091360469857664 -0.5971586206408358 2.623653639794491 71 79 29
9.724348308049557 -0.5008938022450605 2.4960911808318773 69 77 27
9.724843379348162 -0.7312185109967287 2.6942203189134286 74 82 34
9.235798429833348 -0.5971586206408358 2.5700223329348577 73 82 33
10.287172954510895 -0.4296325704850011 2.426595171059215 69 79 28
10.225131846567104 -0.375262204183905 2.294117874939827 67 77 26
10.287172954510895 -0.4296325704850011 2.426595171059215 69 79 28
9.894895176820565 -0.5559117882201562 2.3239844530974794 67 75 25
9.894895176820565 -0.5559117882201562 2.3239844530974794 67 75 25
9.587417759587426 -0.7448469515143842 2.5153012920716966 74 82 33
9.309765691980997 -0.28694049110828723 2.3846751835991884 67 76 24
9.483899164158487 -0.3389788702237619 2.5305502896375387 71 80 28
9.859865590983768 -0.41277140178676636 2.6664784670118338 70 78 28
15.351446217466622 1.5394302851487964 2.8649596944045803 68 78 32
15.375432468324789 1.7751508027200402 2.859517050698887 70 80 33
15.375432468324789 1.7751508027200402 2.859517050698887 70 80 33
15.464182688013679 1.9902115107867926 2.840346525313674 64 75 27
9.112757257982587 -1.8819873156202582 2.4078483606104255 72 83 34
9.177270784847854 -1.7494605333884785 2.58001554264411 74 82 34
9.205881479680814 -1.339727744693691 2.575094960906793 74 82 34
10.224813675259716 -1.1536107044132176 2.60118956885787 75 83 35
9.765595756443663 -1.3784328622498667 2.4905036177721613 74 82 34
9.794294667480546 -1.0606520377834916 2.6796621577984614 74 82 34
10.545179664177253 -1.2820637941753734 2.7552152542725814 74 84 35
8.99062161266821 -1.3784328622498667 2.4230429943038017 75 82 33
9.112757257982587 -1.8819873156202582 2.4078483606104255 72 83 34
10.485124547186999 -1.5362922472121472 2.7695470325741307 74 85 37
9.709270282931117 -1.5539604759161818 2.2068804628698833 73 81 33
9.833780162566459 -1.0254343904164487 2.197562228439031 71 79 29
9.174817574544866 -1.2674323667302407 2.2506183855962343 73 81 33
9.117311446208296 -1.8386098918297489 2.255727617819238 73 81 33
9.601401265584249 -1.5514885732844539 2.3530438268242326 73 81 33
9.666948000404105 -1.4061328243046491 2.346328276645738 73 81 33
10.403135504543433 2.0579375990890467 1.5484734859335774 43 55 6
10.428845181609798 2.0579375990890467 1.6444849306586669 41 53 3
10.348669295804536 1.969202713152267 1.8415460045106578 46 58 6
10.428845181609798 2.0579375990890467 1.6444849306586669 41 53 3
9.171400932680225 2.417407538274903 2.1174766514527015 68 76 30
9.465979908649057 2.1659577650357154 1.9801702327012525 55 66 15
9.92222684050882 2.1070845057384595 1.8534954508068364 50 62 11
10.105267987667224 2.1925005828146693 1.6468489758373668 49 61 10
9.761892710098557 2.2372041142262136 2.202905466275203 64 73 27
10.424775423151097 2.1659577650357154 2.157089811929239 59 69 19
10.282873182079857 1.950371154219675 2.2891705723719675 58 69 18
8.947899920340229 2.6522136087507353 1.656708895863368 63 71 25
8.508763562137938 2.593756641320138 1.9021117408971722 66 74 26
9.519480907876636 -2.690729597300534 1.977733004657498 73 81 33
8.452527615525343 -2.158279448371354 2.1700992121190774 73 81 33
9.076545864788903 -2.361264571748495 1.9988632807433568 70 78 30
8.961063646206851 -2.4550681044224927 2.1318238055945002 72 80 32
9.885887345730936 2.7001561034728723 1.445828146995179 66 74 26
9.505228838530048 2.7962334761177865 1.4407956837124631 64 72 28
9.366371900468117 3.008129606285985 1.8707783998233836 74 84 42
9.669628710279053 -3.0505888835747434 1.9710502012203717 73 83 41
9.637588533150433 3.1200932969518007 1.9724571921207334 75 85 45
10.036878634084076 -2.8348198591595177 1.9556189843774288 72 82 38
8.69069883585118 -2.0874458319488154 2.019217132951678 72 80 34
9.370843534275004 -2.1282619223974755 1.7605816646110108 72 80 32
9.746911895362386 -2.2821225136142895 1.9676978752754564 70 78 30
9.651875936203503 -1.9845818779601379 1.650428910799879 72 80 31
9.405674244830246 -2.2821225136142895 1.8694861541278014 70 78 30
9.143919806063016 -2.030734799403058 1.8783122635997294 72 80 33
9.519685630575612 2.7067134552418985 2.2216684832729583 68 76 32
10.446733170805498 2.9914078361495378 2.275539358387265 74 84 42
9.999002139492415 2.870056082760669 2.1856472269327716 73 83 41
10.3804065721121 3.117361977686123 2.2809858960490335 75 85 45
11.167165783430905 -3.0243053872836954 2.4737189398418473 77 87 47
10.410160770261347 -3.0390996342481102 2.278530847959239 75 85 44
10.597838843722599 2.832844450380184 2.3934593119978804 71 81 38
11.84494463416042 -2.976866733384444 2.711824144256041 76 87 47
8.674317492867461 -2.02945466806734 2.298192997085968 71 82 33
10.04348734071602 -2.753341560912844 2.310201843973216 75 83 37
9.47706496014559 -2.363905904065085 2.53158054091299 76 86 40
9.922422608765201 -2.915579098461353 2.1911078330700704 75 85 41
8.949816900206278 -2.3623123219007947 2.2711121235146554 73 81 33
9.054325297188758 -2.158279448371354 2.261423292151752 71 82 33
8.784119808086633 -2.108601803015961 2.4503549602455763 75 83 35
9.649785536687165 0.5681383497945395 1.5467304377505349 47 55 5
9.901878302214651 0.5681383497945395 1.343409067776503 51 61 10
9.244573219602078 0.6291776576217478 1.8748562770522321 50 59 13
9.108873259011503 1.0492925712457328 1.9972445276882609 64 72 23
9.08647529293577 1.433521996960943 1.9983647245221867 62 71 20
8.994589067434978 0.7902031166234795 1.3200032080397568 24 33 0
9.009072229497411 0.9509819179075457 1.7683013861283228 41 51 3
9.523717413272442 0.7148967585122485 1.4410494836298642 30 40 1
8.890723619390933 0.7902031166234795 1.7709659098008153 47 55 9
9.427314548512978 1.4483003257194689 1.7594311004801468 49 58 8
8.887136815944734 1.2826243021683217 2.1370595787546547 61 70 18
9.497682393759078 1.6650154944147189 1.333550365027965 38 49 0
8.479410655024754 1.0492925712457328 1.780817386711692 51 59 11
9.406671300509691 0.9509819179075457 1.2200401101339888 26 35 2
9.659745576668339 1.7950841928771601 2.0869898608839517 58 69 16
14.831950514070224 1.9163281170928537 2.7604824631451246 66 75 25
9.30284524978014 0.791134093198782 2.2395428240942463 63 71 21
9.939285205574578 1.4147215609817971 2.3198053326735244 61 70 19
9.461330999463767 1.2826243021683217 2.2263741371263897 60 69 18
10.122468150014473 0.43025367517585644 1.4487636474862282 56 63 10
10.275366602162293 0.11698771380397781 1.4505883703574907 58 66 10
9.163095803985602 0.3739269294514771 1.8776476981473673 60 68 17
9.677401426289304 0.26316095876167334 2.085954760665669 67 75 27
9.501089675710176 0.14539702461331547 2.096492450873866 66 74 25
10.353255975639428 0.11698771380397781 1.742384505878159 60 67 16
9.880116677949058 0.020880380136833607 1.9620535554451886 66 73 25
9.91137287313051 -0.08839678779493765 1.9607529769963778 67 74 24
10.076483932416354 0.43025367517585644 1.647066646232859 54 61 8
9.225861199338114 0.26316095876167334 1.9914909245404724 65 73 27
9.555538983072548 0.23545586474961014 1.7568700033004387 59 67 14
11.731614943281237 -0.16113010138205186 1.291673381648034 56 63 12
10.892677726411435 -0.5666010621477208 1.4574310394223229 66 74 24
10.585725551429775 -0.27048871693278753 1.4541290271552658 60 69 17
10.825248798413527 -0.5666010621477208 1.5493440657348836 69 77 27
10.661347754316733 -0.27048871693278753 1.7373788542424335 67 76 24
9.737974883490608 -0.43810141114969164 1.9680825766145684 65 76 24
10.442496314489855 -0.17671927459267356 1.7409037602737176 66 75 23
10.17087810819863 -0.5341030337404798 1.9502887060030596 67 76 23
10.050868878811452 -0.3952124745708763 1.7476004997191081 66 75 21
11.493001370237991 -0.7651895376798541 1.3753307519089908 70 79 34
11.341281408746813 -0.7651895376798541 1.4619333665131768 67 78 30
8.722427453004363 0.5312763383851047 1.8936973384060884 53 60 10
9.089352241442617 0.5312763383851047 1.998220497697781 64 72 22
10.005090273633748 -1.6591055984332335 1.7484180687502915 71 79 30
9.968189843864069 -1.5573926414370955 1.7490826351283784 71 79 30
10.192681861160144 -1.3568299279465432 1.7451151776686542 71 79 30
10.789657931664529 -1.1721651511894684 1.7353796665001422 71 79 31
10.789657931664529 -1.1721651511894684 1.7353796665001422 71 79 31
11.781355569605076 -1.01214759538106 1.3801744341185251 64 73 26
9.670743408351704 -1.1894328052724048 2.086344581597584 72 79 31
10.60343593392347 -0.8307337922305759 1.6432694651398105 66 76 27
10.040896201566648 -1.3568299279465432 1.5476680172622903 71 79 30
10.2413580123276 -0.7622912971577364 1.844455577049703 68 76 26
10.877686628208192 -0.9627436418824465 1.7340357521800949 68 76 28
10.079995100912718 -1.229252192552241 1.9538871653631782 71 79 31
9.647815632303312 -1.4430532705295696 1.9720069794111013 71 79 31
9.620519305911085 -1.669068981174647 1.973210930622194 71 79 31
9.620519305911085 -1.669068981174647 1.973210930622194 71 79 31
9.394695348462546 -1.3043442100646996 2.1030752314943113 71 79 31
10.002174855633184 -0.09920039356211767 2.185423247571901 67 76 24
10.002174855633184 -0.09920039356211767 2.185423247571901 67 76 24
9.403430957977587 0.5995465429537421 2.231118062754353 65 73 25
9.39134232142698 0.3431511165559336 2.3755235878818817 67 75 27
9.072801472430173 0.5562860279704581 2.412745776951511 62 73 24
9.002395261361919 0.4798174122700245 2.266199746039074 65 74 25
8.784163955761365 0.6848190137923674 2.2871148941587736 65 73 26
8.771221877165766 0.4034894370102709 2.4521340663011024 64 74 28
9.3116663404165 0.03714496295598288 2.557476766108201 70 79 27
9.833488765370108 0.026733722251713384 2.3298554095130948 67 76 23
9.864892698808251 -0.1129996534716765 2.3268397442333875 68 75 24
10.091360469857664 -0.5971586206408358 2.623653639794491 71 79 29
9.661656328244112 -0.847272060740305 2.210524679030801 72 80 30
10.287172954510895 -0.4296325704850011 2.426595171059215 69 79 28
10.227931383464284 -0.7584227996911385 2.1699279301580408 70 78 28
10.225131846567104 -0.375262204183905 2.294117874939827 67 77 26
10.058904347721302 -0.6385799050291404 2.453140577883886 72 80 30
10.059382953898911 -0.8827461535525224 2.629259899791685 75 83 35
9.235798429833348 -0.5971586206408358 2.5700223329348577 73 82 33
9.760357567264276 -0.7529990730234903 2.3369876166304704 72 80 33
9.931583179127449 -0.49059495804350167 2.190449067649746 68 77 25
9.657857349196998 -0.9936261162563288 2.50528885264397 74 82 34
15.375432468324789 1.7751508027200402 2.859517050698887 70 80 33
15.351446217466622 1.5394302851487964 2.8649596944045803 68 78 32
15.375432468324789 1.7751508027200402 2.859517050698887 70 80 33
9.639705850440079 -1.6976590823137445 2.3491028680643673 73 81 33
9.666948000404105 -1.4061328243046491 2.346328276645738 73 81 33
9.973568588181369 2.333282176885901 1.64785521852596 57 68 18
10.01707533420776 2.255292873741581 1.9564198116093257 58 69 19
10.348669295804536 1.969202713152267 1.8415460045106578 46 58 6
10.017880692725466 1.8733261479554204 1.850722980331776 48 59 6
9.630741564666783 1.8733261479554204 1.5466828402859818 40 52 0
10.00118938935465 1.969202713152267 1.6476419805144138 41 53 2
9.53515958606411 -2.361264571748495 2.0944207701736905 71 79 31
8.954453959425132 -2.268314253308524 2.132287710209563 72 80 32
9.957715614111578 -2.690729597300534 2.0700879589799164 74 82 36
9.138028530774964 2.8994209751326 1.545382393249471 67 77 32
9.121038267751373 3.008129606285985 1.7658454731137125 71 81 39
9.669628710279053 -3.0505888835747434 1.9710502012203717 73 83 41
8.816444032580094 -2.1915049654368506 1.8901312300877193 71 79 32
8.79356623511263 -1.969497917558196 2.143838692273113 73 81 33
9.370843534275004 -2.1282619223974755 1.7605816646110108 72 80 32
10.775562585469187 2.7843160087784646 2.5212403199100977 73 83 41
11.423841407796148 -3.004550977991118 2.5964159235773607 77 88 48
11.457178500389936 2.9414141665800595 2.591637094028767 74 84 42
10.742775314564513 -2.753341560912844 2.3790344345359165 77 87 43
8.674317492867461 -2.02945466806734 2.298192997085968 71 82 33
10.152491176419463 -2.798667822394119 2.1750109276764635 75 85 41
9.166035096101883 -2.4776529859736147 2.401424887946666 75 86 39
8.674317492867461 -2.02945466806734 2.298192997085968 71 82 33
10.52561707449385 -2.884023813893338 2.400882022352614 78 88 45
8.949816900206278 -2.3623123219007947 2.2711121235146554 73 81 33
8.771981191513435 1.2056213226083352 1.5443216484722113 34 44 1
9.399377896281019 1.6650154944147189 1.7599985339285342 51 61 10
9.43748218457503 1.3429069959971054 1.546188949144684 38 47 0
8.904573382975322 1.3162101343304076 1.8868605063907982 55 64 12
9.497682393759078 1.6650154944147189 1.333550365027965 38 49 0
8.393188743810457 1.2826243021683217 2.036342193533289 61 69 18
9.016709813971948 1.5547442861069547 2.0018933359898505 61 70 19
8.21411971845854 0.791134093198782 2.047324561396323 63 71 18
8.790901680806286 0.8985352435026593 2.2864478413239713 64 71 21
9.835910312078258 -0.332646455098522 2.0768543747001327 67 76 24
10.166795873213333 -0.43810141114969164 2.058906013573996 67 76 24
9.675668018513834 0.3361552789552039 1.5467948265587925 55 64 8
9.92392975201693 -0.3952124745708763 1.648241432489014 68 77 25
10.286326650338 0.018819954382503095 1.7435121648861804 64 71 24
9.677401426289304 0.26316095876167334 2.085954760665669 67 75 27
10.63377751903026 -0.6971330981635241 1.6430623147327736 68 76 26
10.2413580123276 -0.7622912971577364 1.844455577049703 68 76 26
10.646386771583296 -1.1721651511894684 1.5489836055523611 70 78 30
10.039235800096144 -1.0841820296622662 2.0656646829006413 72 80 31
10.017476251061092 -0.7622912971577364 1.7481961159554325 68 76 28
10.040233489415485 0.14539702461331547 2.1827502441538664 68 76 26
9.897985017921563 0.03109118015811334 2.4731457305260554 70 79 26
9.897985017921563 0.03109118015811334 2.4731457305260554 70 79 26
9.92918496531009 -0.1312327362722766 2.4691768031129864 69 76 25
9.996735198020431 -0.2484638552563274 2.3144753728418515 68 77 25
9.657857349196998 -0.9936261162563288 2.50528885264397 74 82 34
9.554598050149817 -0.4296325704850011 2.357923408090463 67 78 27
9.724348308049557 -0.5008938022450605 2.4960911808318773 69 77 27
10.06018492552101 -0.28694049110828723 2.4529858751090075 71 80 28
9.859865590983768 -0.41277140178676636 2.6664784670118338 70 78 28
9.69494578244321 -0.6651322309001028 2.2079720162764556 68 76 25
9.452895415780553 -1.076401047417757 2.368778899668632 74 81 32
8.920106479320893 -1.548166032731153 2.432129944902294 73 81 33
9.137027768272135 -1.5434626502008164 2.587055539980692 75 83 35
9.170291945294371 -1.2191374781092732 2.400916816642183 74 81 31
9.325198211226816 -1.9413672876964632 2.555285296858571 75 83 35
9.381430125395827 -1.1536107044132176 2.5463216112515736 74 82 34
9.709270282931117 -1.5539604759161818 2.2068804628698833 73 81 33
9.4572858107351 -1.1397534481742122 2.226703123563066 72 79 30
10.236441268646798 2.01204392076888 2.0552969688054197 52 65 13
9.99694553365623 2.0643708231557074 2.1857925088571175 57 68 17
8.930547947184003 2.7563522342003393 1.8859094936337764 66 74 30
8.994936175059076 2.870056082760669 2.003007000441441 70 80 36
9.192502422927184 -2.5307352373228484 1.9931151118175043 72 80 32
9.80409741154142 -2.9403401644953884 1.9652543237513713 72 82 38
9.431716172771111 -1.8855915567915476 1.759342009305372 71 79 31
9.179611586320572 -2.1915049654368506 1.993746228390131 72 80 32
8.79356623511263 -1.969497917558196 2.143838692273113 73 81 33
9.159573321015875 -2.2482027923664045 2.4021975697521083 75 83 35
11.537883652161607 -2.842532256085609 2.5803311643704854 80 90 48
9.74446823214943 -2.635221632503065 2.204215640030483 74 82 34
9.114698987820358 -2.216232413630629 2.591023528038278 76 86 40
10.323148981159445 -0.4847571654858944 1.548300493512951 68 77 25
10.042605184441316 -0.1956054235118188 1.9553880449343801 67 76 24
10.34905736689613 -0.4847571654858944 1.6450540879759974 68 77 23
10.854048184528114 0.30509596907690056 1.3636615736672042 55 64 10
9.089352241442617 0.5312763383851047 1.998220497697781 64 72 22
10.870842920915637 -1.4664988606590228 1.5494340538020765 70 79 30
10.307329587107072 -0.9051749576482637 1.8426594110918826 67 75 27
10.43404421181828 -1.132261761541541 1.9402495419265768 70 78 30
9.39134232142698 0.3431511165559336 2.3755235878818817 67 75 27
9.325198211226816 -1.9413672876964632 2.555285296858571 75 83 35
9.967522297675561 0.19180642696729827 2.4643605872845606 67 75 25
10.698775235022541 -1.0606520377834916 2.721331049032595 75 83 35
9.4572858107351 -1.1397534481742122 2.226703123563066 72 79 30
9.587417759587426 -0.7448469515143842 2.5153012920716966 74 82 33
9.457605739513804 2.558442836960797 1.6520682308487622 68 76 28
9.1328982418266 -1.9228166806935483 1.9960496944447823 72 80 32
8.83887788156216 0.9823065722837153 2.14053429918274 64 72 23
9.695096853151266 1.3429069959971054 1.338471055148394 34 43 1
9.022104428652355 1.1024893523246686 2.264378214162657 63 71 21
11.40089002108924 -0.8902649598566661 1.4625047888941027 62 73 24
10.316352195315648 -0.07971074902752262 1.7430044423436688 66 75 23
10.1664131150375 -0.07971074902752262 1.5479536147660085 59 68 15
10.227931383464284 -0.7584227996911385 2.1699279301580408 70 78 28
10.289955612207141 -0.847272060740305 2.2885690340775233 72 80 31
9.747150970783984 -1.6815561232465237 2.2040135334987156 72 80 32
9.448313672767538 2.255292873741581 1.7590068274353623 54 65 14
9.65203833579653 2.408051154001066 1.8616365126145706 63 72 26
10.08744430822578 2.4749719463329907 1.4483378201974615 61 71 25
9.728832333022368 2.417407538274903 2.205396402326812 65 73 25
10.420330643616984 1.9076633743506362 2.1573731526266027 54 67 14
11.139433781583772 3.113835882818746 2.4768813913868497 76 86 48
10.410160770261347 -3.0390996342481102 2.278530847959239 75 85 44
14.739393930266676 1.7365813514615744 2.776473622207527 66 75 26
9.477105879839927 0.8985352435026593 2.3661626601022547 63 71 22
10.36040415565503 -0.6835795765604428 2.0490095823212844 66 75 23
10.438608726669088 0.21294820522871213 1.4524771116737276 57 64 11
9.768860024043029 -0.9249954119056863 2.0806622148448746 71 79 29
11.396733999270914 3.10910918679353 2.6003504932076265 75 85 45
9.835910312078258 -0.332646455098522 2.0768543747001327 67 76 24
8.88451691722516 2.593756641320138 2.0087477911323455 64 72 26
8.961323686971053 -1.719200686338751 2.426789571299742 73 82 34
