10.864832319290096 0.6898898173997993 1.374724073798955 38 58 19
10.031966568226451 0.6753092096217536 1.9682759771838376 37 57 15
10.693201989523256 0.6898898173997993 1.6534973706126739 43 63 23
10.455285303609134 0.613065213496222 1.8501946827639095 39 58 18
10.37131605269496 0.8965500614419265 1.8525183115406283 42 63 27
10.692560925819999 0.8965500614419265 1.9424757050294001 42 64 29
10.615545186536565 1.034558425838229 1.8458660629570927 47 71 46
10.143547659031142 0.9800101734521859 1.9636622630283136 50 74 47
10.797952337076095 0.9545944088052852 1.6526932849317462 39 62 33
10.417898955932007 0.828656583723741 2.058665074763417 37 58 17
10.385565998160969 0.914880313659688 2.173037958559419 40 61 19
10.829458225449388 1.2042809733758328 2.5327198442628864 58 79 32
9.93088317142324 0.9403922809481993 2.33661005182181 54 75 30
10.293192071005251 1.0627498856570414 2.4432023382869223 55 76 28
9.452000924381636 1.2929609325636713 2.113724420615393 44 64 27
10.025492654691286 1.2042809733758328 2.4756399669502476 58 79 31
10.931653152525936 0.7489874308987674 2.251924350388293 54 76 30
9.920719785419845 1.0142546212514805 2.2056189653291716 38 61 24
9.915076573866305 1.254518372760741 2.3381441309309574 52 73 32
11.082797620333878 0.8365076118791805 2.362159945387484 54 76 27
9.63434802396433 1.6594169192360635 1.9856669300412022 50 66 24
9.694887484732508 1.685346911113433 2.360288842656666 57 73 26
10.748021459385333 1.869474419612397 2.5436730601382718 59 79 34
10.601818965351207 1.5328289582052201 2.564232315855977 60 80 33
8.981285035866247 1.5384225928729223 2.285065820601638 58 75 30
9.807782769069652 1.7049373336735854 2.5044236892447564 60 79 34
9.268280392455488 1.4153427976089035 2.125729423810888 44 63 24
11.357645118534796 2.356012742492682 2.337964010447166 57 78 30
11.065243138092274 2.079281958953996 2.3637667465820904 58 77 29
10.376557387573861 2.079281958953996 2.296088409373984 48 65 15
10.482113466341136 2.1498119972235092 2.4220005016459893 60 81 34
10.438815091859224 -0.021284061196092195 1.3666114233646556 47 63 15
10.587665771534526 0.17267716091013902 1.3695217307979672 45 63 17
11.3022000528524 0.06962665268048103 1.4718338654036478 43 61 15
10.516925265581026 -0.2136762091551228 1.4644175485942383 46 60 15
11.058712511289805 0.3544815602549996 1.7419334179141635 38 56 10
10.26006081777693 -0.021284061196092195 1.6569971938115884 43 61 15
10.555601610039533 0.4785141674944547 1.7501768555262542 30 50 10
10.59230354779076 0.2658215908948651 1.559781620231766 43 61 13
10.695286220620288 0.38931959709098374 1.9423763818663329 35 53 9
10.934753561326149 -0.021284061196092195 1.9338565193927928 41 59 13
12.055864120656794 0.4825926405013215 2.3991914463127317 55 76 29
12.000687365713338 0.43128056223458117 2.287504967886048 52 71 27
13.152373141023363 0.32640423554932113 2.421051079637188 62 83 36
12.445517036550962 0.2931034859450856 2.256770823191294 37 55 9
11.926104409638537 0.17267716091013902 2.086693464550404 28 48 2
11.818082052759314 0.07641435330344423 2.0918849121362775 29 49 2
13.538626714491885 0.08466492974213613 2.389132731562834 65 86 37
11.926104409638537 0.17267716091013902 2.086693464550404 28 48 2
12.977673761382077 0.2135461169097696 2.436519528313348 60 81 30
9.916269231422334 -0.5655907454618455 1.7618804194074587 36 52 4
9.765663136936304 -0.33577310044333963 1.5588492086019092 43 61 13
10.62570960003472 -0.2136762091551228 1.7489805797158833 44 61 13
9.67801430776922 -0.474077040349143 1.873315487439083 41 59 11
9.736481422725783 -0.5655907454618455 1.5588133995620064 42 58 10
9.944923402373977 -0.33577310044333963 1.7613230811319736 38 56 10
10.292583859903642 -0.11857906109601152 1.5594608588113665 45 61 13
10.176931561514658 -0.42903380781507394 1.6577030878501822 43 59 11
10.503870472794063 -0.1313003952303726 2.054326789183639 32 50 4
11.834786705414514 -0.3731104937530332 2.2997843495557095 60 81 34
10.666132941482918 -0.23604052740592527 2.0463550144916143 33 51 3
11.159437907568263 -0.23604052740592527 2.126106360482445 59 77 29
11.400357513210873 -0.33577310044333963 2.1130474600216425 56 74 26
11.453906858812498 -0.14705723392062212 2.329892037265393 61 82 35
12.163825254328364 -0.14705723392062212 2.389568121942125 62 83 36
10.830111303674919 -0.5287031743027522 2.2595473965606745 61 82 35
12.304216425030429 -0.26351259198646865 2.377448155833235 61 81 35
10.158399622537514 -0.6257905428958851 2.072270311407259 62 80 34
10.935760721393752 0.8478357983919266 2.518914537099956 56 77 30
10.76050273147266 0.7126856724355709 2.7350217426111842 58 79 31
11.061343590083371 0.8656018263029063 2.6758802382784803 57 78 30
11.201737586659936 1.1362592418459396 2.6515300788691105 58 79 32
11.679538099021556 -0.03496335866482434 2.579626507959649 64 85 38
10.793633895762932 -1.0179118551449895 2.537496439430085 65 86 39
10.352544142847904 -0.8907476502958924 2.436400991743799 62 83 36
10.025988496767706 -0.698003604021888 2.197907558000779 60 80 34
11.740813737669468 -0.19331375610744944 2.571392030391647 64 85 38
10.288902634384188 -0.710959291619208 1.9578148108772113 56 74 27
9.712270200363502 -0.710959291619208 1.765945181903623 29 47 3
9.954639869545929 -0.710959291619208 1.864654299699151 44 62 14
9.803551440192209 -1.2347490875461564 1.6610218813008062 40 61 12
9.915633433850815 -1.0049076419540457 1.7618928232080395 43 64 17
9.677145696983596 -1.0964130252451396 1.8733435012176305 52 74 29
9.909775263553017 -1.3344884562799169 1.866024634512915 54 75 28
9.712053820880756 -0.8595259677001817 1.7659495857666718 37 55 9
10.749172891745987 -1.265535585265545 1.6530657698611644 37 57 13
9.682219621526103 -1.0417493215680858 2.09943778822797 58 78 28
10.086682991661862 -1.1973773099405765 2.0761723413895297 55 76 27
10.223112993944143 -1.0417493215680858 2.1840033318094885 59 77 30
10.94692645028335 -1.3069810627552514 2.250794007416616 59 80 31
10.543764375422567 -1.0929845346888294 2.415353478947003 66 82 36
9.682219621526103 -1.0417493215680858 2.09943778822797 58 78 28
10.94692645028335 -1.3069810627552514 2.250794007416616 59 80 31
11.162708641749193 -1.1512017398591583 2.3549415754478664 62 80 35
10.190368234675429 -0.9745311955087446 2.312403979191338 63 80 32
10.223112993944143 -1.0417493215680858 2.1840033318094885 59 77 30
10.58090460941173 -0.7852291934668534 2.1604015169341046 59 80 32
15.554855847931302 -1.3622963116468136 1.5632957847562416 68 90 47
10.420542970602055 2.571507360290534 2.8190952481160068 62 83 34
10.652451451905593 1.258872891846165 2.759265035758302 59 80 31
10.420744638812923 2.14000268750274 2.819037339629388 62 83 34
10.9818179222621 1.524900247742325 2.69050215369131 61 79 33
10.244757796432264 1.9271689958376301 2.6201670274729243 58 79 32
10.9818179222621 1.524900247742325 2.69050215369131 61 79 33
10.044760319480224 -3.0200012033259407 2.962069926055883 64 84 38
10.611131977905687 1.7742498424401485 2.769068446210117 60 81 32
10.731114658375253 2.0107195990953954 2.7414299886167623 60 81 33
10.331763281764477 -1.7192584454555648 2.605689584275013 67 85 41
10.284328072757528 -2.2472702354576324 2.861424455870287 67 91 46
10.773898922012826 -1.7537518223731963 2.732143510853869 69 89 45
10.670835601195614 -2.060404038462421 2.5543776839622536 66 84 38
10.331763281764477 -1.7192584454555648 2.605689584275013 67 85 41
10.374195515464782 -1.3411605437522647 2.5988417428792934 65 87 42
10.75933087524146 -2.2834312255737137 2.735274778794417 70 93 49
10.747846203918513 -1.5187633139873356 2.7377654991701785 69 90 45
10.33890743021815 -2.7288364883032816 2.843627167430747 65 87 41
9.993544689094465 -1.970232789968201 2.6657498109201856 68 88 44
11.587485304333919 2.842480293056948 2.592371778474626 61 82 33
10.610537817517994 2.9374960087802866 2.7692117721448657 62 83 33
11.476276081303839 3.0070464245429425 2.608415799067124 62 83 32
11.476276081303839 3.0070464245429425 2.608415799067124 62 83 32
11.00655317234433 2.9793505463634924 2.6858847616730603 62 83 32
10.754354053911191 2.7981407401658216 2.2653605054578554 59 80 29
11.218640319598121 2.9163824746644527 2.3499807046415104 61 82 31
10.386072390276597 2.3559747311013837 2.4326168842689886 59 80 33
11.325812054918575 2.6144686299094153 2.63137402729601 61 82 32
11.516455884219829 2.75217880200565 2.4517714477890777 60 81 31
10.754354053911191 2.7981407401658216 2.2653605054578554 59 80 29
10.780780914475 2.5272918357120377 2.2633202161753756 61 82 34
11.237358307383605 2.355916615314088 2.645620813755025 61 82 33
11.06467336298478 2.632738814592539 2.3638190287792185 60 81 31
11.45163786147897 -3.1039745370580585 2.6120725598123777 64 84 35
10.593463543977785 -2.3124932889849434 2.4100868517136607 66 84 38
10.176307697495355 -2.43644611792078 2.6319983274318064 69 92 47
10.588575839685276 -2.549164543931195 2.5661551660017627 71 94 47
10.588575839685276 -2.549164543931195 2.5661551660017627 71 94 47
11.142853389907309 -2.9863614467996626 2.3567205775175304 62 82 31
11.514126398759512 -2.9339916140168274 2.6028719404251914 65 85 37
11.046013161677255 -2.8921966790696576 2.6786493404750633 66 87 40
11.295940805666469 -2.863935812476557 2.3432443736183908 61 82 35
10.622222752213228 -2.863935812476557 2.2757680892674363 65 83 38
10.88451541147374 -2.6985195548598773 2.3807718538864595 65 87 41
11.393166426149572 -2.825503048886108 2.4649940125376157 64 85 37
9.928766807243152 -2.5112527266774642 2.3368150371229364 66 86 40
10.535289999342936 -2.301584665659518 2.5739999710782495 68 87 42
10.811512559555933 -2.6110853072756797 2.7241994890762737 70 92 47
10.391991157623352 -1.5493023065933667 1.7530324337797885 56 77 28
10.461012391803118 -1.4519903125578764 1.7518166953651337 51 72 25
10.22057509366048 -1.5493023065933667 1.5593809916424568 47 65 19
10.757670014362274 -1.4033938239151715 2.3932392881519946 64 82 36
10.131283310934275 -1.812638070872739 2.317759432263771 62 80 34
10.716756228226725 -1.678496395635959 2.39736005928431 63 81 35
10.04256277453224 -1.5354835805687983 2.4734795090654913 66 84 38
10.047925241084585 -1.4033938239151715 2.3254686658136365 64 82 36
10.196787091910265 -1.8496769284473717 2.454540598619125 63 84 38
10.113968910460281 -1.3770933540917434 2.464583433199522 66 84 38
11.044014848440009 -1.9384974719347583 2.3657201709299414 63 81 34
10.418021259164878 -1.9913008744650136 2.42904901863386 63 84 37
11.074235797617412 -1.8970487809408196 2.2415322360953445 62 80 34
10.108903804951149 -1.5440733044144879 2.1919761364893806 61 82 33
10.433521489239544 -1.5469712871177626 2.057870672966422 60 79 32
10.502269788372407 -1.4392422652751473 2.0544068240166644 60 78 32
10.314056009630503 -2.3249714856498933 1.8541254428400968 61 79 33
10.929346016341393 -2.3197710138007275 2.25209546125898 64 82 34
10.049758154117837 -2.0532801941540564 2.196194563247885 61 79 33
10.687692615508226 -2.0976696236620573 2.045316454685202 61 79 33
10.45716866011544 -2.2460702249110223 2.0566733674527233 62 80 34
10.919919496777279 -2.3994668811912496 2.1397734068719094 64 82 34
11.060063354357696 -2.1557858988296967 2.242549382595291 62 80 34
13.18132689462684 0.24204843760562625 2.542172350818201 61 82 32
13.083672103777477 0.10795667300640827 2.5531848029004918 62 84 35
13.083672103777477 0.10795667300640827 2.5531848029004918 62 84 35
13.062066174052136 -0.030123717841891228 2.55566839646189 61 82 35
11.523249206739218 -3.084108866358233 2.806765824370325 64 85 35
11.134332779153384 -1.9091606497330509 2.9288569712949926 66 91 47
11.055902422340806 1.9834551147726036 2.9646760624590596 62 83 35
11.260083272596185 2.8672658710714196 2.8821804407695466 63 84 34
11.03013473912667 -3.0200012033259407 2.9782590112939835 63 84 35
11.23553209231791 1.4920185099681278 2.8905459986031548 61 82 34
11.35111287471048 -1.502635812472819 2.853507947239291 69 93 51
17.56856878801569 -1.7308977227864208 1.450022501358199 38 54 4
11.087831869738839 2.9777324973286103 1.741479548024487 59 80 26
14.184040976796242 2.942356976547394 1.7039677894214127 29 50 1
11.280257357845793 2.864421489344108 2.01851430064913 60 81 28
10.571445484724938 -3.1168209749857514 2.1610002307911778 63 82 33
10.959671532100689 3.0617602810334956 2.0326102808337283 61 82 31
14.211242741638904 -2.4341842677666268 1.6329936339211522 34 43 16
10.67412042073194 0.822895421461133 1.465989967799297 41 61 23
10.962375572884838 0.6753092096217536 2.137298547702003 34 54 10
10.615545186536565 1.034558425838229 1.8458660629570927 47 71 46
9.853594197787563 0.914880313659688 2.089308970544261 39 61 26
10.110337361195432 1.0739608376935093 2.0748782829642813 56 78 49
10.629467721606229 1.0739608376935093 2.1573482267997584 42 64 33
9.452000924381636 1.2929609325636713 2.113724420615393 44 64 27
10.652237874327422 0.822895421461133 1.6538161359981183 40 61 25
9.276529488951184 1.6594169192360635 1.8868520093085692 51 68 30
10.628229642454292 1.7049373336735854 2.560428633091466 58 79 32
9.012445886336213 1.685346911113433 2.282072087905164 58 75 28
9.35858543312853 1.7956911382244085 2.1197586267124975 43 59 13
9.740094631177662 1.392873518501407 2.3556203041206625 56 75 32
9.190305837774845 1.542580060264524 2.1309976650390166 49 67 25
9.852471919672364 1.3629206123192708 2.4983205761085054 59 78 30
10.748021459385333 1.869474419612397 2.5436730601382718 59 79 34
10.954229089484306 0.3544815602549996 1.468679431567167 42 60 12
11.277181520701387 -0.019387525448140954 1.4716135943095527 44 62 16
10.28755320609956 0.07641435330344423 1.6567662612161125 43 61 15
10.977107174068868 0.2658215908948651 1.836582251471989 39 57 10
10.96055374653958 0.07641435330344423 1.9329624182097986 38 56 10
12.551717778829174 0.3678569631319116 2.4773901825688536 54 75 28
12.260750031023074 0.1909756802794301 2.269170063534773 48 69 20
12.111529003533935 0.38931959709098374 2.175269694450526 27 45 1
10.79772692952673 0.2931034859450856 2.0400889375789393 35 53 7
9.643418813507902 -0.3731104937530332 1.9852526867255644 46 64 17
10.246937563872562 -0.23604052740592527 1.9594845484334544 36 54 6
10.847689477107764 -0.2136762091551228 1.8398314763297536 42 60 12
9.736481422725783 -0.5655907454618455 1.5588133995620064 42 58 10
10.481685000276544 -0.5655907454618455 1.9503299339428377 50 66 20
11.890733316696839 -0.4192434622045056 2.41445503878069 61 82 35
10.948078226749185 -0.26351259198646865 2.2507089367157445 62 80 33
10.607961698068443 -0.3731104937530332 2.1586961517463124 59 79 30
11.659950334055978 -0.2980076280371268 2.436986916422145 63 84 37
11.193547868087741 -0.3731104937530332 2.2331029096094284 61 79 32
10.590163479108428 0.9782693570792493 2.565924092504062 57 78 31
12.112675231135038 -0.47740730002912896 2.5251659990513105 62 84 39
11.886202263077983 -0.34248839169640743 2.5525917726692673 62 84 37
9.98678477730836 -1.0179118551449895 2.4805887164948333 65 86 39
10.246786177799185 -0.7852526010452252 1.657109144397332 40 58 12
10.344120552213264 -0.6476004233845692 1.656294978184003 40 58 10
10.344120552213264 -0.6476004233845692 1.656294978184003 40 58 10
10.28869838194577 -0.8595259677001817 1.9578229020946798 53 71 23
10.245501855039205 -1.3344884562799169 1.9595419357361354 57 76 30
9.775127820495014 -1.0049076419540457 1.6612849519492667 36 57 10
9.716893245956602 -0.9446763626041136 1.9819285006926268 53 74 25
10.493112875372605 -1.3568810792059054 1.6550780741972106 43 63 19
10.138158530736572 -1.141487770247056 1.5592881883929683 37 57 13
10.713452075272578 -1.265535585265545 1.5599061803200942 37 57 15
10.025778888053235 -0.8724280234970091 2.19792270935985 62 80 33
10.217636795842822 -1.2724409472760179 2.3099619995286913 62 80 34
9.818569382397088 -1.0929845346888294 2.3476684893869955 64 82 34
9.852549885466864 -1.1512017398591583 2.2107246273304764 58 76 30
10.91635306222942 -1.2724409472760179 2.377713249816003 63 81 35
10.297146151661863 1.844226083792787 2.8571302404647603 61 82 33
10.584678639140119 1.5127906611969566 2.7755173086277316 60 80 32
11.047154607366258 1.3210928260445487 2.678442369299083 59 79 33
10.464977891339437 2.097400926622485 2.584626747025192 58 79 32
10.244757796432264 1.9271689958376301 2.6201670274729243 58 79 32
10.454952533085946 -1.8996311120031328 2.586168502745711 67 85 40
10.304592789225255 -1.528722851381145 2.610146210985354 64 86 41
10.423137769673634 -1.8087315343147192 2.818351093555834 68 92 50
10.980861066045554 -3.0961151237067823 2.690682076473733 65 85 37
11.07827083315879 -3.113638661840523 2.3625735550387628 63 82 30
10.94135817641829 2.507092374669766 2.698197262455787 63 84 34
11.476276081303839 3.0070464245429425 2.608415799067124 62 83 32
11.25313108243061 2.5621558843054695 2.4806431789667673 61 82 32
11.200424268039992 -2.707249412746652 2.651749923733855 68 91 44
10.39305091533595 -2.4073234369620806 2.29468247057768 65 83 36
10.65146500765428 -2.830010435595091 2.7594954122919555 67 88 40
11.241403124067286 -2.9639161000158167 2.4819859611974153 63 84 35
10.291354419314585 -2.6336692200071603 2.4434150562056067 67 89 43
10.383137521960522 -2.485721494243162 2.1731987487035425 64 82 36
11.060013600425078 -2.43644611792078 2.676119563043657 73 95 50
10.290746099602758 -1.4519903125578764 1.5594588343939546 37 58 9
10.290746099602758 -1.4519903125578764 1.5594588343939546 37 58 9
10.418933735214246 -1.647021854771117 1.7525559188745683 61 79 32
10.032567375183802 -1.655254103544235 1.9682508357876098 62 83 34
10.070440260439671 -1.6956511423152438 2.469979543030621 66 83 39
10.69056425529414 -1.5403729429846358 2.400024421359046 64 82 36
10.835569390387375 -1.812638070872739 2.385528598751456 63 81 33
10.136598842630567 -1.6654738261472108 2.1900221014712193 61 82 35
10.418021259164878 -1.9913008744650136 2.42904901863386 63 84 37
11.060063354357696 -2.1557858988296967 2.242549382595291 62 80 34
10.415276248310077 -2.3994668811912496 2.058798705278331 64 82 35
10.93929044264176 2.3548497823940924 3.0404017502121867 62 83 35
11.234970953320373 -3.063506740289663 2.8907408254230154 64 86 38
11.171109091356366 2.3556046419042964 2.9141183813674836 62 83 34
13.18132689462684 0.24204843760562625 2.542172350818201 61 82 32
12.537075922797172 -0.03496335866482434 2.6221413301135827 62 83 34
17.438288600105672 -1.6738333576389617 1.449115746070748 37 53 4
11.076068936016345 2.9613228967662595 2.0273866578323125 60 81 28
10.940093275254267 0.5601709774806989 1.4685470237502418 37 55 15
10.316908147423657 0.754184525009066 1.8540449511917911 41 61 21
10.050522539520603 0.613065213496222 1.5591878381653486 36 53 15
10.544540935873181 1.0142546212514805 2.282052963269229 42 63 25
10.18567835281327 1.127590349615106 2.3128258419692247 53 75 30
9.937469637886855 1.869474419612397 2.486996085926049 59 80 33
9.740094631177662 1.392873518501407 2.3556203041206625 56 75 32
10.882803070896475 2.261606782018364 2.3809371426424923 60 81 34
10.507328753692823 -0.11857906109601152 1.367961451407864 47 63 16
11.511704685948995 -0.16707166067527468 2.45227185388092 63 84 37
11.476964442409093 0.4785141674944547 2.0102993751305553 32 52 10
13.10181501909429 0.2931034859450856 2.315865895633052 71 92 45
12.15570188592104 0.08466492974213613 2.276447322654409 62 83 36
13.633023006589598 0.1909756802794301 2.3817657122689564 70 91 41
10.643641661799915 -0.698003604021888 2.2740571655456074 58 79 32
11.076941880078218 0.17267716091013902 1.9289844433006635 38 56 10
10.812678760443317 1.0401181143682956 2.7239563376140326 58 79 31
11.569987894730225 -0.1313003952303726 2.2079747060063144 61 79 33
10.223729669866215 -0.5287031743027522 2.1839608864058437 59 80 32
15.41906540361969 -1.4259565336702327 1.498311570829254 67 88 44
9.852549885466864 -1.1512017398591583 2.2107246273304764 58 76 30
10.347392725727033 -1.3069810627552514 2.1755762305885646 56 77 28
9.642329142214352 -1.1973773099405765 1.9853024044758762 55 76 27
10.282590488932913 -1.2279011997511997 2.4444313177520707 68 84 38
11.055362232904177 2.6890827378110953 2.2428875369199037 59 80 29
10.503718573284992 -2.468329729779747 2.7961817584175983 68 91 46
11.476276081303839 3.0070464245429425 2.608415799067124 62 83 32
10.827905672625628 -2.775272551846242 2.532925519597309 66 88 41
11.45163786147897 -3.1039745370580585 2.6120725598123777 64 84 35
11.103737552584025 3.041362005798759 2.3602533031530255 61 82 31
10.730722984069034 2.701000308329402 2.7415162895448906 62 83 34
11.00655317234433 2.9793505463634924 2.6858847616730603 62 83 32
10.115943203278501 -2.5417665490781536 2.9267287017047368 66 87 42
10.138361447563128 -2.4186612147534414 2.461595472335979 67 86 40
10.219179781743334 -2.1536353406880964 2.624540753550981 68 88 44
9.848682063882439 -2.2834312255737137 2.695133789777281 68 91 47
10.637321974351055 2.35581671066829 2.762817796346147 63 84 36
17.153626066426348 -1.7998092686401732 1.3284425761675458 42 57 12
10.35391720485918 -1.9384974719347583 2.298028470662337 62 80 34
10.467011938223893 -2.1557858988296967 2.1676986788691446 61 79 33
11.044014848440009 -1.9384974719347583 2.3657201709299414 63 81 34
10.79040017665749 -2.001962955360998 2.1474687803650077 61 79 33
11.674025034690052 -1.5187633139873356 2.771431244994529 67 92 48
11.234970953320373 -3.063506740289663 2.8907408254230154 64 86 38
12.537075922797172 -0.03496335866482434 2.6221413301135827 62 83 34
10.819540179637862 0.9545944088052852 1.4674036908605848 40 61 31
10.931653152525936 0.7489874308987674 2.251924350388293 54 76 30
10.958132379656268 2.0189869847434574 2.516076588123652 58 79 32
10.764706486775875 1.959836109015889 2.3925355769361936 57 77 31
10.669482902906633 1.3629206123192708 2.554568209143599 59 79 32
11.48012959165826 0.4376938199864887 1.3853586439914087 41 59 13
12.878474803835154 0.09490681702852284 2.4456196768253564 64 85 36
10.536885667583682 0.7308169651903057 2.5737624968272037 57 78 30
12.352384394659992 0.5269531944726462 2.2629584209512137 48 70 25
12.15570188592104 0.08466492974213613 2.276447322654409 62 83 36
10.00445700068408 0.38931959709098374 1.6592052229088696 37 55 12
10.449750519335604 -0.474077040349143 2.057048298527346 62 81 32
9.954639869545929 -0.710959291619208 1.864654299699151 44 62 14
10.157985865357439 -0.9446763626041136 2.072292641669734 58 77 26
9.94365543087547 -1.2347490875461564 1.7613476746366419 50 68 24
11.12245996708871 2.784690247131111 2.6650632057819585 61 82 33
10.88451541147374 -2.6985195548598773 2.3807718538864595 65 87 41
10.973943338035209 -2.1978063789799 2.514084548152101 66 84 38
11.316530084320616 2.8845242880336808 2.4734717891617546 61 82 32
10.545259642335063 -2.076188724514261 2.785395699675618 69 93 49
10.047430481589572 2.204670706197565 2.655445613655038 62 83 34
10.773683641155534 2.472209951680446 2.540184735515334 62 83 32
10.307967438653073 -1.647021854771117 1.462252669204508 55 73 30
9.976046391686852 -1.5403729429846358 2.3322658850163194 64 82 36
11.120097430946297 -2.226251457376423 2.358771219274466 64 82 35
13.35336218661281 0.3678569631319116 2.5235696007157156 56 77 29
11.055712340104408 2.727510558617091 2.9647722543891053 63 84 35
12.66128266257714 0.2791034471618446 2.6052351514919487 60 81 32
10.639795872565466 0.754184525009066 1.944409520109126 41 63 22
10.648431952730967 0.9403922809481993 2.404354319046336 56 77 28
10.025492654691286 1.2042809733758328 2.4756399669502476 58 79 31
10.18567835281327 1.127590349615106 2.3128258419692247 53 75 30
10.395274917278224 0.8365076118791805 2.2944933673499124 49 70 25
10.935760721393752 0.8478357983919266 2.518914537099956 56 77 30
10.538654213628325 -1.1685699026454563 2.573499481371017 66 87 40
10.091967488228764 -0.7851968150607265 2.3213727187106237 61 79 32
10.059268356395803 -0.7852291934668534 2.0776808959281117 58 77 29
10.542348422968997 -2.585135385550915 2.2822321898905225 66 85 39
10.882609965202711 2.450387824859298 2.3809557878079106 59 80 33
10.584678639140119 1.5127906611969566 2.7755173086277316 60 80 32
10.892088777659346 -1.970232789968201 2.7078191493755654 67 91 48
10.773878699191242 2.2396947861078496 2.5401583522161064 59 80 32
10.262131165361458 -1.7841511528285887 2.181330256992791 60 81 34
9.954428758455656 -0.8595259677001817 1.8646607175788532 42 63 16
11.076038925149655 -2.6336692200071603 2.5014849305150166 69 91 44
10.411467425496623 0.17267716091013902 1.6557405893120654 43 61 15
10.418933735214246 -1.647021854771117 1.7525559188745683 61 79 32
11.794157893716019 -0.021284061196092195 2.093049663240478 31 49 3
10.22263104572384 -0.021284061196092195 1.5593832875681273 45 61 13
10.004109234097347 -1.678496395635959 2.329595282617461 62 80 34
11.523249206739218 -3.084108866358233 2.806765824370325 64 85 35
10.78869309353903 -1.4234517933122213 2.262711968801468 60 81 32
10.728274181576218 -2.1170868758446137 2.3961949482350313 64 82 36
12.680029958051213 0.43128056223458117 2.3470014306620253 64 85 39
10.773898922012826 -1.7537518223731963 2.732143510853869 69 89 45
11.782814547551975 2.6929648116772738 2.565857100969112 61 82 32
10.688183661202798 -0.11857906109601152 1.843948545296225 42 60 13
