9.892533272006673 0.7091536477984437 1.73431789855422 77 92 55
9.892533272006673 0.7091536477984437 1.73431789855422 77 92 55
9.548770121702145 1.085425758700836 1.424755677914473 40 52 15
9.137983631634235 0.9368970991929029 1.528152895675624 72 85 48
9.495546511045136 0.9368970991929029 1.8492948774176607 27 41 3
9.304377482320819 1.030994375966066 1.969297117435614 36 47 8
9.79407843054728 1.3189463623175126 1.7359767344861567 41 50 10
9.415611669387832 1.2902856725230316 1.9643283623336614 44 53 11
9.466825407603602 1.085425758700836 1.635323442988917 30 41 3
10.469013243319921 1.4357196220609405 1.6291389374229661 46 55 15
9.150061807577256 0.9368970991929029 1.6375605594971365 37 49 12
9.814785229122883 1.4214857094277662 1.8400068486977148 45 55 13
8.836453100397005 0.35235409077769575 2.2587016317634134 41 55 15
9.646749706445666 1.403929730984583 2.0690896603127955 46 57 15
10.460365652526368 1.1370056550984644 2.2548649198516406 49 60 20
10.178624668597516 1.2545094292996863 2.2776488843156955 51 62 22
10.174580943163617 0.9644951807564719 2.277988370348702 47 59 17
10.055648192876033 0.8658618061293106 2.162697139111392 35 49 10
10.484661852395885 1.0786908354436138 2.383086626634496 54 66 23
9.910405264324401 1.0041919627885718 2.4463909386868825 50 64 21
9.767490033280934 0.29847201667813267 2.649912773215194 51 65 22
8.859398409915487 0.41089642876917126 2.413057310125137 51 65 18
10.302127436988691 0.6781215287483131 2.401973626606563 54 68 27
9.767490033280934 0.29847201667813267 2.649912773215194 51 65 22
9.413127994011713 0.6507842252447819 2.5123822982768003 57 71 28
10.302127436988691 0.6781215287483131 2.401973626606563 54 68 27
10.080919856512256 0.7806205486198559 2.2859561481146127 48 62 21
9.654747764173644 -0.9869674986094761 2.6721821727204746 54 68 30
10.187968770993585 -0.11853702874552251 2.577656983161908 46 60 18
9.6943209271392 -0.14509013407351548 2.6641970309403007 48 62 19
9.282510910200834 -0.18679545020748356 2.7587285976937146 55 69 29
9.455120567684183 -1.2022160107202104 2.715686056577679 53 68 31
9.342688216151092 0.06574068789283916 2.5228151307668143 46 60 18
9.323419761318947 -0.8321971888968444 2.7479770828042898 56 70 31
9.323419761318947 -0.8321971888968444 2.7479770828042898 56 70 31
9.679455557742166 0.08059800257636396 2.667174383633956 51 65 23
9.811618448677688 -0.3570220195411265 2.6415794437083537 49 63 20
9.404945887247882 -0.44953003255994023 2.7276021597413664 55 69 28
9.676589118127753 -1.223165699434727 2.3228469295722087 50 61 23
9.01933360160301 -1.1676170150871945 2.393399423768257 50 61 24
9.234785677177925 -1.0925414551352675 2.5394185778790224 54 66 28
9.775953398389023 -1.1676170150871945 2.4630464382483046 53 63 25
10.600781867304038 1.7233838104558938 1.7233042179700284 46 57 18
10.036734821838522 1.5272769339619392 1.9387671973552918 47 57 15
11.079118977491806 1.904713562459474 1.7166715468589633 47 59 22
11.269582921241055 1.8160998741186483 1.8969170153890043 48 59 21
10.798030488409951 1.7233838104558938 1.8149671047559246 48 59 21
10.696369097455564 1.6279544734537037 1.817335721661101 46 57 18
10.808544004250285 2.5047107175203767 1.7203504320852998 49 64 30
11.879275164616569 2.065954622629073 1.7067825105255519 52 66 28
10.683395882664845 2.1606118515916104 1.9155331698341107 49 64 26
11.030040738004931 2.027112877692791 1.9042709177822161 51 66 27
10.517038389652859 2.3015176098105483 1.9212188245691628 53 68 33
10.69499186679809 2.5047107175203767 1.5343640339781102 45 60 24
10.749622983938348 2.584195903057179 1.9133218265667686 50 65 31
11.103953007623302 2.632362384500876 1.7163429703125521 49 64 30
10.853877508523793 2.715333329381436 1.8136853868214782 49 65 29
9.906078486714218 2.769242057681125 1.9438571737947214 51 68 33
12.013060639984364 1.641593937475984 2.369936555930731 52 66 25
11.332099263789406 1.51546614433211 2.4338444011194684 51 65 23
12.117033899204607 1.6511794650275708 2.4867355279675936 52 67 26
10.447108818903112 1.634048224793883 2.0278574725239937 47 58 17
12.377108371252575 1.909646395708618 2.4598395325665963 54 69 28
10.073024207699829 1.522076571838594 2.1615378490273276 49 61 18
12.834315826332105 1.7591282416163903 2.4170586661081055 52 67 26
11.213084768418051 1.8411165656219841 2.0947968382976687 52 63 23
11.243989734871224 1.9768433714779088 2.199267865533997 52 66 25
13.008787311066733 1.7840059129519974 2.5246249876059763 53 68 27
12.470627315762192 1.816304305279165 2.5883682778062624 55 70 31
11.006438476118388 2.6596893734243228 2.872533716153294 64 87 60
10.739546884968323 2.374462764014446 2.1204707831633316 53 68 26
10.904148479435763 2.1289140204174197 2.222110333739958 53 68 28
10.326850059929807 2.22084035783607 2.0335926545210765 51 66 28
11.366101135962703 2.74288306008662 2.5783638421245905 62 81 52
11.153088008006447 2.479856872835632 2.452814575534817 56 73 41
11.09741048002156 2.798365638681167 2.458931424425841 64 83 55
10.031912856453365 2.8739793663467683 2.0483159412505816 59 75 50
9.845165001336323 2.985072712658264 2.058156629509164 62 79 55
10.157947420854603 2.9648603360870567 2.2793887013713134 66 85 59
10.181434147964442 2.377798910826774 2.277413234555381 51 69 29
10.613370566769083 2.6707252145876814 2.370374085035922 58 77 47
11.167591778411351 2.510529146305405 2.6071750297378458 56 77 44
10.019331958082399 2.725402315845012 2.16513601452272 54 71 38
10.400504116814169 2.479856872835632 2.3916645980328735 53 70 34
11.640961689131883 2.8544907266789017 2.7176514606662465 65 85 57
11.640961689131883 2.8544907266789017 2.7176514606662465 65 85 57
10.299164775571066 -2.346374666228707 2.773814219511119 68 87 60
10.59518502122508 -2.5071365160494343 2.7070379424198174 65 85 60
10.390858833124861 -2.7124281163559836 2.751553075733463 64 84 59
10.85451668206101 -2.3403074570084983 2.929127704242136 61 80 52
10.744776930298915 -1.3278654093881044 2.9832993720687533 57 74 41
10.928389006282792 3.0051305504979617 2.8997838398434594 63 85 62
11.207802497915061 3.0428216145855633 2.8136328057532958 64 86 62
10.942496498786149 -1.4179047766341826 2.894610746782248 57 72 40
11.05027288102896 -2.11293153604202 2.8585043420397507 61 78 49
11.331219223422844 -1.9828210383834102 2.7829959363624903 61 76 47
10.748606144848615 -2.7573195909797756 2.98108300260499 62 83 59
10.85451668206101 -2.3403074570084983 2.929127704242136 61 80 52
11.220643260363213 -2.9642181679337005 2.8102858588161403 62 84 59
10.744776930298915 -1.3278654093881044 2.9832993720687533 57 74 41
10.110499985814352 -2.6192237013124315 2.589890817019358 67 86 61
9.703130351668552 -2.760175309313281 2.3202912636942608 66 83 58
9.77257747944033 -3.066784186548557 2.0620974389016693 67 84 61
9.896171563745684 -2.7978362960002294 2.6261572682968737 66 85 60
9.479595997583871 -2.897205780712189 2.342467255570799 66 83 59
9.606733163607002 -2.4708556796134835 2.4852000887762378 74 89 62
10.850277233795412 3.0876447833245404 2.487448444099199 73 92 67
10.073325873261025 3.0947389483867394 2.286611101554539 70 89 64
10.863540601216638 -3.0442160825286426 2.4858578093113146 66 85 61
10.670852801228875 -3.0022749116419076 2.6920031802903983 65 85 61
9.779638454835144 0.7091536477984437 1.633256735668785 76 94 61
9.395118483971146 0.7813691812269788 1.8523526282412652 71 84 47
10.435085648572716 1.1305512271406086 1.4372376113523635 31 42 3
9.719495488402874 1.183599589076314 1.9513817262437136 40 50 9
9.39402503289272 1.183599589076314 1.8523862955356265 38 49 9
10.007240305607747 1.3189463623175126 1.8347045474551598 45 53 12
10.639276361609875 1.3423864937441006 1.5341731611064628 41 51 13
9.964790478637546 1.2215305078594954 1.5316930280545433 40 50 10
9.502830611243398 0.35235409077769575 2.3400912012573922 53 67 23
9.559472470472057 1.2545094292996863 2.1980196028190675 49 57 15
10.162709585995179 1.403929730984583 2.1556312374725684 48 60 17
10.85473566581198 1.2545094292996863 2.347759578239718 53 65 22
11.389575874026908 1.403929730984583 2.3025746271252014 50 62 19
11.411893934170081 1.3817508922435526 2.425710849424298 51 65 22
9.767490033280934 0.29847201667813267 2.649912773215194 51 65 22
9.81422336650148 0.7795302180704825 2.4582243838878277 55 69 26
9.920777594121263 0.555449444662981 2.4451384413558577 50 64 19
10.297134647246308 0.8822502632331735 2.4025052111751455 51 65 23
9.81422336650148 0.7795302180704825 2.4582243838878277 55 69 26
9.811618448677688 -0.3570220195411265 2.6415794437083537 49 63 20
10.202837678038543 0.10410029528612533 2.799152961046374 53 68 27
9.6943209271392 -0.14509013407351548 2.6641970309403007 48 62 19
10.042860346144323 -0.5991481970375888 2.847076905528591 56 72 33
9.928295200491107 -0.2613853008855905 2.8878720687277815 54 72 32
9.11654027607958 -1.0816367824581328 2.8068224377354607 58 72 34
9.023053293126429 -1.223165699434727 2.241822335514433 46 57 19
11.442553381000568 1.9882066179575197 1.7120067437841897 49 62 25
10.24013472385276 2.4446157110829576 1.8285641206458845 49 64 29
10.036734821838522 1.5272769339619392 1.9387671973552918 47 57 15
10.217005934174807 2.3015176098105483 1.8291609674457083 47 62 26
11.540738701589104 1.904713562459474 1.8889814825213078 48 61 23
10.696369097455564 1.6279544734537037 1.817335721661101 46 57 18
10.03347656608758 3.001163679258193 1.8339980483076062 58 74 50
10.551172126054606 1.7393999663177506 2.023012797794582 49 60 20
11.024886369668415 1.7393999663177506 2.104689982361129 50 61 21
11.031660543766229 1.9374219479314303 2.0019600429044133 51 65 24
11.595819972245591 1.871643819528305 2.286712823257849 52 66 25
11.413934039983815 1.7591282416163903 2.3006596083887745 51 65 24
12.524738624770857 1.9768433714779088 2.3288024935606844 54 68 27
12.275338164759392 1.871643819528305 2.348215643753634 53 68 27
12.470627315762192 1.816304305279165 2.5883682778062624 55 70 31
10.794904148236443 2.390227809011479 2.6687469725817867 56 77 46
11.283919464805114 2.7806798417256435 2.794352232718433 65 85 57
11.44721975608682 2.5611528585086742 2.7568667070112327 61 82 51
11.06307233489184 2.073343158380295 2.1026507290274488 50 65 26
10.741210498136283 2.2923886238262186 2.2337253602116354 54 70 27
10.33904722209853 2.840710339428614 2.2644707449623995 64 80 55
10.377732747579149 2.279607417687504 2.394023294756465 53 71 29
10.928884559100974 2.938735755498786 2.4781245134407666 69 88 62
10.019331958082399 2.725402315845012 2.16513601452272 54 71 38
10.801822552625115 2.6011132467258524 2.4933212505686893 57 76 44
10.179679053805977 2.4593187314804137 2.154527922027346 52 68 32
9.893337571907631 2.620721995562926 2.0555777060656713 51 68 32
11.20161833740982 2.9037187273053795 2.6020647528155876 71 91 68
10.735200776558122 2.9216703572576 2.9889889707260906 61 85 59
11.741220893586025 -1.9167479486404249 2.992199986068477 58 77 48
10.85451668206101 -2.3403074570084983 2.929127704242136 61 80 52
10.950953391626484 -1.791273801798697 2.891566207078797 57 74 45
10.941557686943204 -2.8981191772409414 2.894951287552936 62 83 60
11.643378793456721 -2.314632674711864 3.06635916208692 59 78 50
11.05027288102896 -2.11293153604202 2.8585043420397507 61 78 49
11.23438376278997 -1.7320019695868067 2.8067484389073667 58 74 43
9.77257747944033 -3.066784186548557 2.0620974389016693 67 84 61
10.073325873261025 3.0947389483867394 2.286611101554539 70 89 64
9.757831329122316 3.100185121073688 2.062906203885587 67 84 61
10.398046075043002 -2.8556853684234467 2.546475452048547 65 84 59
10.087610841669761 -3.0569755911733085 2.28538020013065 68 85 61
9.807470330942213 -2.6999657551240452 2.4590704637221004 67 84 60
10.64965200037914 1.3423864937441006 1.628148237714993 44 53 14
9.326171622033122 1.1370056550984644 2.0878894284193064 42 52 11
10.227764956448645 0.9368970991929029 2.038432139099857 29 43 4
9.533896073926035 0.8658618061293106 2.0755414567015222 22 36 0
9.630213158914197 -0.6599047717481553 2.6772300787302985 54 67 25
9.630213158914197 -0.6599047717481553 2.6772300787302985 54 67 25
10.312675560464946 2.769242057681125 2.0342785467384963 52 69 40
10.68673109770751 2.38262543926358 2.507675361519619 54 71 33
12.377108371252575 1.909646395708618 2.4598395325665963 54 69 28
11.283919464805114 2.7806798417256435 2.794352232718433 65 85 57
9.697270719306724 -2.5071365160494343 2.663609340573476 70 87 62
11.04561826973797 -2.5764632835682946 2.859956566472105 62 82 58
10.753389318792111 -1.9167479486404249 2.978358550557219 58 77 47
9.033610483970357 -2.9283572150123454 2.106406082364373 68 84 60
11.04561826973797 -2.5764632835682946 2.859956566472105 62 82 58
10.748606144848615 -2.7573195909797756 2.98108300260499 62 83 59
11.12825383484727 2.834771737189429 1.6256791221374973 48 65 31
9.767490033280934 0.29847201667813267 2.649912773215194 51 65 22
9.679455557742166 0.08059800257636396 2.667174383633956 51 65 23
10.484661852395885 1.0786908354436138 2.383086626634496 54 66 23
10.24759546403234 1.030994375966066 2.1501566257808316 40 52 12
10.589173166855579 2.372019054512187 1.6284761592037462 41 56 21
11.20830330653164 2.1095618034085586 1.8058576388377268 52 67 29
10.390887325347382 1.6279544734537037 1.6295781017861126 46 56 16
10.600781867304038 1.7233838104558938 1.7233042179700284 46 57 18
11.20161833740982 2.9037187273053795 2.6020647528155876 71 91 68
11.3615845999231 2.22084035783607 2.191765953425179 54 69 33
10.68673109770751 2.38262543926358 2.507675361519619 54 71 33
10.302172111405838 2.5577019677676707 2.2674507892176843 56 73 41
11.12493827942696 3.0780224506757397 2.6136888036289783 69 89 66
10.85451668206101 -2.3403074570084983 2.929127704242136 61 80 52
9.045798962331563 0.7813691812269788 1.638331256538514 72 87 49
10.539508783293641 2.4446157110829576 1.9204396681598677 51 66 29
10.850277233795412 3.0876447833245404 2.487448444099199 73 92 67
11.567194447743132 3.0642307558801045 2.7320110533824136 66 87 64
11.625528551748358 1.9882066179575197 1.7972714262841045 50 64 25
11.79932162049043 2.6675975402785133 2.6888295043199646 61 81 50
9.11654027607958 -1.0816367824581328 2.8068224377354607 58 72 34
8.963847059329488 1.030994375966066 1.866297210328506 29 40 3
10.796375630635985 1.8160998741186483 1.7205202616610478 47 58 21
10.302172111405838 2.5577019677676707 2.2674507892176843 56 73 41
9.606733163607002 -2.4708556796134835 2.4852000887762378 74 89 62
10.216782940738504 2.900753109341996 1.8291667354835486 54 70 46
9.464163074739302 -2.952549410529279 1.9621993672627005 68 82 58
11.137874575749299 -3.026945093954284 2.6117003224052797 65 85 61
10.48838763008429 1.5314747083436167 1.7249515010537035 45 55 15
