15.3902502466 0.15994069814144302 1.2426662046028008 39 46 10
14.610092552885357 0.31225326857802477 1.2963265710731409 39 46 10
21.365900547602553 0.3006723189310866 1.6194973763381262 44 51 21
9.956871965889663 0.6244141714306362 1.9886098439681548 20 27 4
15.145351875277504 0.29179615264227776 1.4410283990283606 40 48 12
15.680144855363814 0.14970346734706685 1.445478048262404 42 52 15
15.737471638632272 0.21257699403671648 1.5733463265328194 41 52 15
10.00750381342967 0.34010401588630723 1.6749194282630746 33 40 6
10.053072701575019 0.2700179030543585 2.0959572382642104 21 28 0
9.951359547993189 0.13978881697761328 1.8812587778868772 31 38 2
9.928696363769635 0.5294295774854452 2.103231187856437 16 26 1
10.100431853279606 0.4226110719732707 2.2118086979895066 9 18 2
9.880514086035197 0.37710859539738506 1.9920433900618806 27 34 1
10.221020936885322 0.03411958366895529 1.9771652918602987 28 35 0
11.476416879782715 -0.2781831351701405 2.1250490505062416 23 32 2
10.782784068122142 -0.17713826008039824 2.0571707717961156 25 32 0
11.268865715639885 -0.37373122786573343 2.03449756698574 17 26 0
11.476416879782715 -0.2781831351701405 2.1250490505062416 23 32 2
11.459231186260109 -0.2525719402076411 1.9311076486719083 23 32 1
11.519349093755665 -0.4623613001564534 2.343351614147171 45 53 17
12.184488522119203 -0.4136197774956035 2.291436823547964 45 52 15
11.905500857343927 -0.5091383924698057 2.20350869610152 46 54 19
11.239926708618778 -0.3481647766117746 2.3678764902214073 44 54 17
11.044297229178238 -0.223699455629781 2.386180922512096 42 53 14
10.936957993781746 -0.09180529317148667 2.396660761086303 38 49 13
10.920512764017026 0.04335175858028448 2.3982952016642227 40 47 11
13.494387506250234 -0.8027760499621911 2.034879530839913 42 50 11
14.158317177458983 -0.8570548129941029 2.0115415503553606 42 50 9
13.946062497610132 -0.8659404025476704 2.185254842414507 45 55 17
13.372333530475524 -0.7416324945502251 2.1252393642294614 43 52 13
13.372333530475524 -0.7416324945502251 2.1252393642294614 43 52 13
10.890992855274952 0.6948269367516509 2.2736762451096735 0 6 0
12.941098721831885 2.0296989596255464 2.458830493001689 27 34 0
12.807510452441019 1.9808540081160328 2.354413115295088 32 38 2
13.139455810770913 1.762727415099673 2.440473492952954 38 45 12
13.847684509656556 1.9633438876705647 2.6249224249284104 36 43 6
13.245347479871693 1.844515729865526 2.3219927121782447 35 40 7
12.823590069504798 1.8212404720473938 2.6078785799639177 41 49 14
12.763982791966043 1.8191239188368085 2.1550322557268857 39 44 13
13.344849611067726 1.7881753371328168 2.545072060048658 32 41 5
14.176192557229188 1.865825547425248 2.73852298496859 44 54 9
14.097190940803966 1.686218922880313 2.751874653557687 44 55 17
11.071201517330396 0.05013271625489697 2.52619622933511 42 52 14
11.396727909607167 0.05942536437990537 2.6486963026343155 42 53 14
11.468476617098336 0.2405118477846216 2.637171940529713 40 50 12
11.14504607027944 0.2039604126267518 2.516885489528561 45 55 19
11.62611305588603 0.4069612095824162 2.6131324282556845 40 52 6
11.396727909607167 0.05942536437990537 2.6486963026343155 42 53 14
10.789480462058895 0.47964526613460257 2.411604585292066 12 19 4
13.011881245445768 1.066705108507018 2.752670211600225 47 55 14
12.01476594303821 0.7760146084455098 2.736029092801107 42 51 16
11.447300845951013 0.6482862782752914 2.640533010168453 45 55 16
11.776300162997845 0.7781708054209566 2.5916813372493337 43 53 15
11.515394448432684 -0.3024587211980469 2.6298402329352837 43 56 15
11.38638908624687 -0.39746692343386036 2.4880614819942553 41 52 15
11.556680083766464 -0.6983729189257155 2.6235153061455607 46 57 19
11.282220422888924 -0.632619236842135 2.3640466591183413 45 55 18
11.083142364739654 -0.8181074688592125 2.524673941355397 45 56 19
10.699373511958502 -0.6983729189257155 2.577214680793944 46 56 19
11.916845856859599 -0.10608721954121028 2.572732944370732 43 54 16
11.662302840866786 -0.5229400451507098 2.4577619043002557 44 54 17
12.640777860581814 2.791584961560232 2.832084034475498 45 56 18
12.797513021751255 1.4823347095847503 2.795832183648089 45 55 14
12.893549764832128 1.928900934168959 2.7757156948781176 43 55 11
13.293265645977 2.267796958184606 2.7038989070458133 44 54 12
12.866339671551428 1.2609483691863963 2.7812759787971615 46 55 14
12.575719305441856 3.0532716719765194 2.848693677517903 45 59 20
13.552982611846572 2.0239529131906053 2.865615758064302 43 55 9
13.933794302820939 2.3989164920271815 2.7814982734180513 45 55 15
13.708281463231284 2.238259968146023 2.828090339461477 44 55 14
13.933794302820939 2.3989164920271815 2.7814982734180513 45 55 15
13.461651149866642 1.4558989419290194 2.890684333019127 43 54 14
13.552982611846572 2.0239529131906053 2.865615758064302 43 55 9
13.461651149866642 1.4558989419290194 2.890684333019127 43 54 14
13.831987801770499 1.928900934168959 2.801583867564474 43 53 13
13.343267546058694 2.179387155313802 2.928028157687552 45 56 17
12.590002667908799 -2.9558249867583086 2.8449548977733503 46 60 21
12.68335989817518 -2.7068116708525354 2.8217521174076126 46 64 24
11.0026356034734 2.2973325752811604 2.265110521635294 37 46 18
12.2647699278759 2.285521791791615 2.5297925656754883 43 52 16
11.957628077713244 2.2016858474972456 2.4279977301296265 33 40 6
14.237290708494895 2.069215141793189 2.1708943225698674 29 34 1
12.402080727438983 2.464385319314598 2.3875400691320103 43 53 13
12.67510253930452 2.383301724796214 2.485061597171306 43 53 9
14.237290708494895 2.069215141793189 2.1708943225698674 29 34 1
13.146339979200594 2.030719050503104 2.2288612262448906 27 33 0
9.23447050634043 2.7738010299557203 1.575142069341728 48 62 21
9.994139268779257 2.8458981371586884 2.219767751864889 43 54 16
10.069540845563557 2.9895544868681463 2.095009866161485 43 57 16
11.825502315398982 3.0995691033626387 2.441000523221644 44 58 15
13.694438603298408 2.6077203793090318 2.6449737902319974 45 56 18
13.118610312098488 2.4859370141862067 2.5709657289138734 47 57 14
11.28048806057008 2.9446461446715384 2.500420721470509 45 56 18
12.962365058843629 2.8630561967016614 2.762100563524391 45 56 18
12.007125280374197 2.5631653975237167 2.4232494431947638 49 59 19
13.2896953330606 3.084633748358506 2.704473345424148 44 58 20
12.02867918865064 3.093227336846421 2.558352729504984 42 56 17
13.486923288437485 2.749849681683289 2.674155981710721 42 55 17
14.026536201078574 2.675891426063903 2.764327972303779 44 56 18
12.043611341792989 -3.039224834831457 2.556476306954646 47 61 22
12.912854455003568 -2.9954147688939847 2.7718332657236324 46 60 21
12.673361606989301 -2.696440998299774 2.628292742194482 53 71 32
12.889097530948005 -3.039224834831457 2.5993393180957773 46 60 20
12.000795501574288 -2.349428203219023 2.5618836379711016 52 70 31
11.791805058094475 -2.634065379825799 2.4443960538294665 50 64 21
11.626369797087794 -2.4469551506674456 2.4615629072144927 54 65 27
11.416035066811283 -2.5260196321075843 2.3522103592386876 51 62 24
12.405450099215873 -3.0211622194293595 2.668014207871735 48 63 25
12.000795501574288 -2.349428203219023 2.5618836379711016 52 70 31
12.500185730333081 -2.851005179612711 2.6534326564455752 49 66 27
12.141170671761945 -2.8929873066664245 2.5444562349082402 48 63 24
12.121091468905334 -2.803300245458271 2.4125585631807343 45 60 21
11.791805058094475 -2.634065379825799 2.4443960538294665 50 64 21
12.519580765826117 -2.4686679185822107 2.650523301169621 54 69 30
11.005443539721915 -2.691552059395938 2.264898106466619 48 59 22
12.334830402616191 -1.155842341888606 2.393363197573123 48 58 21
11.199515114679269 -1.0335750014165999 2.5101715472187416 46 57 20
12.757003378072266 -1.302831400204156 2.35836599443443 49 60 25
12.098829863233037 -1.2698980187865903 2.4146209795799987 50 60 23
10.77567792742755 -0.9135364317764935 2.413037068490568 46 56 19
11.738338465584345 -1.101974461044073 2.4498524566721405 47 57 20
11.942165928239918 -1.392598970490318 2.429494467010139 50 60 23
12.13820979135935 -1.3666109151240893 2.5448150820766884 50 61 24
12.655547165731292 -1.6509424505991044 2.4870695080963245 53 62 28
12.492275486094979 -1.3319171261588933 2.654626425433765 50 62 25
12.07490881685496 -1.662877531983733 2.552575447712805 54 64 27
11.847438675616198 -1.641741689750326 2.3167039452437628 51 61 24
12.608520063286653 -1.4127676871519437 2.3702650597951007 50 61 25
12.598462378448179 -1.6344333203805876 2.262932800913548 50 60 23
12.547591967489689 -1.641741689750326 2.375272341056053 52 62 25
11.911948504597255 -1.4127676871519437 2.311711565659291 50 60 23
12.547591967489689 -1.641741689750326 2.375272341056053 52 62 25
11.807797886130205 -2.067061283315265 2.442780396713779 52 62 25
11.971476769892632 -1.7782971877982456 2.426662643566423 53 63 26
12.089040524422876 -2.137832596211782 2.5508281276604268 51 64 29
12.520298551350686 -1.848126017160051 2.6504161059232443 51 66 28
12.167048365709594 -1.808277895805187 2.541335375736266 53 63 26
12.688243330465763 -2.002537633214075 2.626215891061322 51 64 27
12.802708704759374 -1.8636164738987095 2.3547869082247033 51 61 24
12.686800120571341 -1.7363001992360863 2.2571746711675122 50 60 23
13.0928294610309 -1.9283821890197823 2.2320243933258053 49 59 22
13.043887195812308 -1.965613871115833 2.3365145641100447 51 61 24
13.077007967813598 -2.054974555896267 1.9664584506933265 49 59 21
12.717269646889536 -2.0965795928340456 2.0657091952151925 49 59 20
13.311914456557234 -2.01905039858543 1.8012062735413938 53 64 28
12.921819666770723 -1.9472315392288588 1.8082937974192177 48 59 22
13.936075722057424 -1.9472315392288588 2.019077171069122 50 60 23
12.565483552812866 -2.269969583578289 2.3737942156579175 51 61 24
11.866385966497356 -2.269969583578289 2.3152296097171714 49 60 23
13.096946902360898 -2.1451440740451817 2.2317798041377435 48 58 21
13.403575131053413 -2.0158409146767644 2.214109572308475 49 59 22
13.355771642822855 -2.059643849620334 2.314299429639088 50 60 23
13.096946902360898 -2.1451440740451817 2.2317798041377435 48 58 21
12.45674785144875 -2.2022757673278393 2.272400486515181 48 59 21
13.599081454729065 -1.9788319733882116 2.114946998405331 49 59 22
12.06366137569034 -2.3506261147621754 2.4179045185348484 52 63 28
11.86108375214308 -2.432255526786856 2.315641511632765 48 59 22
17.689605653168694 2.769117524309739 0.972742529907777 29 40 3
21.263505220419898 0.3151994391963333 1.8588231692333166 44 51 20
15.055260660132532 0.22687009822140503 1.3729069396999165 41 50 13
15.978377966742038 0.2737912358382553 1.5733078800536848 41 51 15
10.374495622769873 0.43149161204301306 1.4781417729188069 32 39 7
10.337477158893916 0.038185844446240846 2.1948067145013344 28 35 1
9.515476740248737 0.37710859539738506 1.8959909780125672 33 40 8
10.67281505185305 -0.07231454673348074 2.0626266241243543 23 33 0
10.995369384444121 0.17695163300185685 2.3909179185043112 22 29 3
10.995369384444121 0.17695163300185685 2.3909179185043112 22 29 3
11.519349093755665 -0.4623613001564534 2.343351614147171 45 53 17
11.270405866997057 -0.3093900289870421 2.245487703084664 40 49 12
12.29422045261002 -0.37373122786573343 2.18051567968771 27 35 6
14.063137960846795 -0.9191871325380773 2.0950982175115347 45 53 16
13.0332942418542 -0.5443142823817467 2.141429590710209 26 32 5
10.916541255116977 1.644795713046023 2.271695116948038 40 46 19
13.612166627053625 1.6680823376134468 2.656244159282985 39 48 13
12.402882215714481 2.0905667510602326 2.5140959627311954 35 42 6
13.299584279268144 1.875512631169721 2.4263294087663327 34 41 6
12.829365216197294 1.940967022571094 2.248104237782316 34 39 6
11.951563074561058 0.2925701221175264 2.7485277247917566 42 53 15
11.882731632663385 0.07293936684598998 2.7627418529193064 43 56 14
11.1379278823515 0.5950001760779318 2.37729633847075 0 9 0
11.882731632663385 0.07293936684598998 2.7627418529193064 43 56 14
11.373976504316467 0.6762943991213448 2.489487891368758 20 30 6
12.102909104695602 0.48685791895426855 2.719389020823437 40 51 12
13.011881245445768 1.066705108507018 2.752670211600225 47 55 14
11.897846955755764 -0.1538504661065778 2.7595631636328077 44 58 11
11.146432189281212 -0.5996069933588847 2.5167130432628433 47 57 19
11.146432189281212 -0.5996069933588847 2.5167130432628433 47 57 19
13.470326450344873 1.754476619168566 2.888183823365153 45 55 15
13.500978920206418 2.4161874918423947 2.879560498588072 45 56 17
14.322117504609032 2.179387155313802 2.9428271210243464 43 54 17
13.708281463231284 2.238259968146023 2.828090339461477 44 55 14
13.751008819362056 1.7126115912190294 2.8186433913625026 44 54 13
13.365473539405393 2.6743247260830123 2.920497865334835 45 56 18
11.65270138948265 -2.2287745597579436 2.6092373366051858 52 67 29
12.524604212611914 -2.2287745597579436 2.649773799441264 52 70 30
12.67510253930452 2.383301724796214 2.485061597171306 43 53 9
9.153983760167453 2.8785588638864232 1.7955518587126913 48 59 22
9.423510954714827 2.8458981371586884 2.135122226621846 45 59 19
11.445260127033986 -2.8400861246413807 2.233325851649568 48 62 22
11.93990817673578 -2.9245383851510014 2.42971355930921 47 62 21
12.319394319914435 -2.7567946911875274 2.5235008863125827 49 64 26
11.153599996086184 2.969961350836438 2.3758317509723197 41 55 14
12.390954000215135 3.084633748358506 2.670302143823752 45 58 21
12.722589890527082 2.3893639115431013 2.6214697521955324 45 55 15
12.673361606989301 -2.696440998299774 2.628292742194482 53 71 32
12.262970742171555 -2.6156897748129895 2.691212979486256 51 69 29
13.303212137459898 -3.0211622194293595 2.7023039109303206 46 60 22
11.131739576068558 3.1044412432206148 2.255492361739273 44 58 14
13.599432140080966 2.3893639115431013 2.658022563647602 45 55 14
13.118610312098488 2.4859370141862067 2.5709657289138734 47 57 14
13.351275254330016 2.9107264703577083 2.6947045109123144 45 56 18
12.023289884420976 -2.590656872057416 2.30327283861401 47 58 20
13.637469102907751 -1.8710978452922147 2.029634777226345 48 58 21
11.738338465584345 -1.101974461044073 2.4498524566721405 47 57 20
12.757003378072266 -1.302831400204156 2.35836599443443 49 60 25
11.199515114679269 -1.0335750014165999 2.5101715472187416 46 57 20
11.847438675616198 -1.641741689750326 2.3167039452437628 51 61 24
11.941333517268552 -1.7549612442043911 2.309462829442865 51 61 24
12.520298551350686 -1.848126017160051 2.6504161059232443 51 66 28
13.621600178619673 -1.8110891043651334 2.2021631092480387 49 59 22
12.598462378448179 -1.6344333203805876 2.262932800913548 50 60 23
12.636285339480372 -1.7549612442043911 2.3680076925625606 52 62 25
12.589186284387857 -1.531231306471025 2.2635437395336475 50 60 23
12.430777643285204 -1.6789729561471363 2.664053730306505 51 66 28
12.538278238436762 -1.526678587954352 2.3760443721174926 51 61 24
13.647439819215364 -1.9199860491444922 1.7208469106277509 47 58 23
13.532699121786205 -1.9472315392288588 1.9524340748651832 50 59 25
13.221543339634112 -2.0965795928340456 2.13231723971771 49 59 22
12.50798773396966 -2.1451440740451817 2.1686270540687866 49 59 19
11.835975077045736 -2.2022757673278393 2.2078228822717145 49 59 20
12.15144986896032 -2.175571053134262 2.409765799829928 52 62 25
14.346227919999174 0.243183143640536 1.291143843020596 38 45 9
15.3902502466 0.15994069814144302 1.2426662046028008 39 46 10
9.92897841202526 0.5654992278286127 1.574838093496232 34 39 8
10.518335982227887 0.1264764050534668 1.6698455679732405 31 38 2
16.012146122809167 0.2737912358382553 1.6358009418919917 42 49 15
9.878757245454628 0.2424172357647577 1.7788101202312452 32 39 5
10.416524510697691 0.15620785135533174 2.1893537102705665 23 30 0
10.968279087872734 -0.08090509326564604 2.267721406080293 29 39 5
11.876651660821626 -0.5649281944718927 2.3144336086871427 44 54 17
11.075314771064253 -0.19774993767118895 2.2596590251770783 31 41 4
10.462238563594228 0.3044920117138231 2.308930141556503 5 16 1
13.005612208324232 -0.6186567122306328 2.0537814771743257 33 40 5
12.332899164142415 -0.59547513670635 2.178326696475452 46 53 17
13.394491337005766 -0.8659404025476704 2.1242153204638354 44 54 16
11.598495234089633 1.7261977464460037 2.0203353241982653 47 54 22
12.777761908710751 2.1678489292627723 2.6139795881658396 42 52 13
14.176192557229188 1.865825547425248 2.73852298496859 44 54 9
12.414722141645512 1.742560561037588 2.2752645250515813 42 47 16
13.502542506512219 1.914115580993604 2.5280848223967705 29 36 1
12.590002667908799 -2.9558249867583086 2.8449548977733503 46 60 21
10.905459483303044 -0.5229400451507098 2.3997981846916945 45 55 18
11.515311618837417 -0.7156061426061049 2.4735780922192445 45 55 18
13.729897115492632 2.5711997107943985 2.8232699559714267 45 56 18
13.98418855516768 2.115401761875324 2.7720455886164084 44 54 13
13.52709904904045 1.1760742880073483 2.872454872907403 43 54 16
13.552982611846572 2.0239529131906053 2.865615758064302 43 55 9
13.211355899299079 2.069215141793189 2.0456320196622846 33 39 4
11.147873210532072 -3.0628721051112744 2.2543113212488572 48 62 19
11.261128874582141 -2.561622383813756 2.5027276003835084 53 70 32
12.078629249218343 -2.561622383813756 2.5521145941240784 56 71 32
11.670477647300135 -2.691552059395938 2.3308067509217496 45 59 18
12.898928600756648 3.0723324157561827 2.7746288290051546 44 58 19
11.840690695233716 -3.052588369981905 2.4394808130589514 48 62 21
12.405450099215873 -3.0211622194293595 2.668014207871735 48 63 25
12.500185730333081 -2.851005179612711 2.6534326564455752 49 66 27
12.908530515142264 -1.8992017153206924 2.4619388418594013 52 62 25
12.334830402616191 -1.155842341888606 2.393363197573123 48 58 21
13.192940707464272 -1.9472315392288588 1.882031043027574 48 58 21
13.109338480725514 -1.9788319733882116 2.0496366226909455 50 60 23
13.355771642822855 -2.059643849620334 2.314299429639088 50 60 23
11.333651872948883 -2.3506261147621754 2.359447613448562 50 61 25
12.45674785144875 -2.2022757673278393 2.272400486515181 48 59 21
11.63177900362486 -2.2533296668679306 2.4609880764500573 53 64 29
16.54671634214136 0.14068975259102073 1.5732216143005417 38 48 11
11.267410006362093 -0.1603842425595663 1.937529555633315 25 34 0
9.649071740608099 0.4758523839562743 1.783837022385911 33 40 8
11.270405866997057 -0.3093900289870421 2.245487703084664 40 49 12
13.420797942286063 2.027909441998316 2.6840139226623916 41 51 9
15.991017310810603 1.3633032444769115 2.332832292106472 51 61 33
13.693966674445623 1.8212404720473938 2.6450373873292623 41 48 12
11.412486940816477 -0.1256037268285021 2.646131539070359 40 53 9
11.071201517330396 0.05013271625489697 2.52619622933511 42 52 14
11.996591737292485 -0.3659584745063093 2.7395720467333406 45 59 18
11.30719243578898 0.34864904519664064 2.4972631133653302 42 53 19
12.015434503372711 -0.25731518018970556 2.560025494844682 40 51 11
11.032986569801972 0.5526715150354893 2.5311126195303757 46 55 21
11.667829756769068 2.2973325752811604 2.3310224724458983 42 49 15
11.626369797087794 -2.4469551506674456 2.4615629072144927 54 65 27
13.694438603298408 2.6077203793090318 2.6449737902319974 45 56 18
14.22618243491486 2.5181171693034914 2.7303603992342125 47 57 20
12.08391494072463 -2.7926530491831976 2.722901853137604 49 67 26
12.167048365709594 -1.808277895805187 2.541335375736266 53 63 26
12.339801818978753 -1.9441755284846107 2.521178768896757 53 63 26
13.043887195812308 -1.965613871115833 2.3365145641100447 51 61 24
12.065230206556642 -1.5134947176489482 2.553777172970195 52 63 26
12.421376325457835 -1.5034341377791012 2.665518384129825 49 64 26
11.778923669512825 -1.1735135460491912 2.5913180925230415 49 60 23
12.743489202812713 -1.7782971877982456 2.478128458573509 53 62 27
11.86798087526978 -1.5209428524148394 2.436766797005478 51 61 25
13.647439819215364 -1.9199860491444922 1.7208469106277509 47 58 23
11.790160744962527 0.7795212429830856 2.44456259412764 13 22 4
11.64864138531224 1.654859822128212 2.4592021584525785 35 44 13
11.703151730695538 -0.46188297997300093 2.6019643264196883 45 56 18
12.714893026458025 0.9482464365110898 2.814347139132293 43 52 17
12.893549764832128 1.928900934168959 2.7757156948781176 43 55 11
12.01476594303821 0.7760146084455098 2.736029092801107 42 51 16
12.078629249218343 -2.561622383813756 2.5521145941240784 56 71 32
13.303212137459898 -3.0211622194293595 2.7023039109303206 46 60 22
12.912854455003568 -2.9954147688939847 2.7718332657236324 46 60 21
11.904402095733811 -2.9490713847565924 2.3122916078121967 49 65 21
12.85256940449978 -1.8348254645266502 2.2466531379285577 50 60 23
12.802708704759374 -1.8636164738987095 2.3547869082247033 51 61 24
12.292375439307781 -1.2280960906698013 2.526598948837706 50 60 23
12.866339671551428 1.2609483691863963 2.7812759787971615 46 55 14
10.948710757040912 -0.1603842425595663 1.852164397864597 28 35 0
13.905667496346517 -2.01905039858543 1.9416932723511275 52 61 26
13.29290688353007 -1.897335349796016 2.128943622147215 49 59 22
13.470326450344873 1.754476619168566 2.888183823365153 45 55 15
12.456977559053392 2.9107264703577083 2.6600052346971506 47 58 20
11.83757408316128 -1.526678587954352 2.3174741998124255 51 61 24
12.371126016011647 -2.351463668296466 2.2782636140854766 47 58 21
11.261128874582141 -2.561622383813756 2.5027276003835084 53 70 32
