16.270703029322483 1.0784393339957814 1.5653063734895394 5 9 10
16.511990830418508 0.9424491696959842 1.6259766724205664 10 14 15
14.106195651763796 1.0234456632333833 2.2545214411890906 46 59 34
15.460235350569961 0.9167832593483151 1.963096315051127 10 13 10
15.344640714925353 0.9747446416793063 2.037969402743221 12 15 8
14.599063778209464 1.1784877194544412 2.1434470596998985 24 33 15
16.043724804967756 0.8635476030103882 1.9480948989239661 11 13 18
15.460235350569961 0.9167832593483151 1.963096315051127 10 13 10
15.055553507077061 1.013366777482208 1.8335592924920716 10 13 6
15.206307628617239 1.2545908415196394 1.6967794888761958 48 49 42
15.243663754241632 1.1386082690259618 2.041313569075026 11 14 7
14.431849163243067 1.144803807148918 2.2362693280850467 48 60 36
14.967300991221741 1.2325955008869254 1.9050810371024525 4 9 1
17.74415476069743 1.813194874632942 2.5686599098781144 37 58 23
17.74415476069743 1.813194874632942 2.5686599098781144 37 58 23
17.74415476069743 1.813194874632942 2.5686599098781144 37 58 23
15.866066684493639 -1.2005464824404373 1.4387276109946228 23 27 27
15.432796039989988 -1.2611408264674822 1.500152515335338 40 49 27
12.36189756861461 0.33170049437682636 2.1640121250942554 52 59 48
12.734657864960155 0.03159250659742288 2.1444050580914364 70 75 67
12.619791854787257 -0.1698579260301556 2.2482957931299765 43 54 32
12.800283354866634 0.12449150066608773 2.1410962578578516 53 58 50
12.234980778374084 0.4094610786665144 2.386626850259476 36 51 18
13.960434856552977 1.0019786304293257 2.467931087529525 39 55 21
13.774909593666571 1.0583101577962841 2.3738394998937506 39 53 21
11.855342575261641 0.5135363900377058 2.301329271903535 34 48 17
13.465103517558102 0.9718698399805467 2.2939610258386187 40 54 24
13.27372772706009 0.5135363900377058 2.4137907073218527 38 53 19
13.533702571882086 0.7582927355584527 2.3924836420187376 40 54 24
12.869858962369065 0.9111233318397208 2.3355617099601744 41 55 23
13.829393323134184 0.8257255189319775 2.17976148815392 48 60 39
13.465103517558102 0.9718698399805467 2.2939610258386187 40 54 24
13.413593249089347 0.7533805291265585 2.5207771440109017 40 57 25
12.924636965955827 0.6067086620187041 2.331502723427032 38 53 19
12.76089188566204 0.29509542287930124 2.4601176264530005 38 53 20
12.557797101135474 -0.1889628868029147 2.359688506331444 38 56 25
13.198309026471044 -0.07603765097203481 2.420227563998056 40 57 26
12.76089188566204 0.29509542287930124 2.4601176264530005 38 53 20
12.557797101135474 -0.1889628868029147 2.359688506331444 38 56 25
12.664961118867422 0.26277544566395855 2.351203858346829 36 52 24
14.284234262095792 0.9336149455991606 2.5568128173301967 40 57 21
13.894966387954572 0.6512750791407447 2.6005914812117137 40 57 25
11.885738258871125 -0.5287654199220286 1.906064557088173 41 54 44
12.393346236231299 -0.6022514301869718 1.8918286813172285 33 43 35
11.788569345188266 -0.6346045614692591 2.197179354259918 37 56 25
13.759305011506349 -0.9319456408768486 2.3750150731931123 40 61 30
13.688551638119808 -0.7832274749791895 2.380397253343277 37 58 25
13.057454740568986 -0.9319456408768486 2.321865290963543 39 59 26
12.88859861570235 -0.713830477000134 2.231627289034266 36 55 22
12.049945016818377 -0.2972307698560474 2.2869532351530513 37 55 23
12.042771224104579 -0.4923610208435664 2.181988545346775 35 55 29
12.444095089796466 -0.6540059700532487 2.0657356917023875 36 55 25
12.327390374941224 -0.4443866845553924 2.3786932024634226 38 56 24
15.139855920631666 -1.0846601877129793 1.9011252083430288 45 57 42
13.66826182346253 -0.9895081927295094 2.2809159993902473 36 56 24
14.740153674575206 -1.2159908771324788 1.98339514872874 36 49 18
14.080707247861309 -1.1563069179428123 2.1673678258980473 38 54 23
14.344658360345619 -1.1883500974199355 2.0734577685555724 39 52 20
13.955766181937646 -1.1188032239137917 2.2633364010141155 36 55 24
17.086361291666112 1.6078255072096423 2.6314304787898815 37 58 21
17.52396499824506 1.6128662222447399 2.709134030150563 40 60 25
17.672716039552864 1.875641747295191 2.691245322759868 41 61 26
17.401064812872015 1.9485843885622627 2.5999886642234316 40 61 26
18.2652239712364 1.9485843885622627 2.6282160514748005 39 60 25
16.717288602693667 -1.5951859457587096 2.281883918867644 43 56 24
14.188636153713373 -1.2695741656784607 2.448029093541664 38 61 26
14.049448208115113 -1.264267548153176 2.085046693965329 39 52 22
14.567372620008221 -1.264267548153176 2.1448502645560295 39 54 19
13.816821931312369 -2.410168954225977 2.4810608127418288 45 69 40
13.338305065926233 -2.2596349743184887 2.302383513783354 37 60 25
14.026108944727675 -2.2596349743184887 2.355460565921429 36 63 29
15.550350816949475 -1.6064405583339172 2.5503519506583787 42 67 33
15.429866313429605 -1.3975263809324616 2.452657531287733 39 62 27
16.128783819709312 -1.602754148176591 2.4988822664955643 42 65 30
16.67227732946799 -1.5972763591185604 2.3665626038921155 41 61 22
16.03927510380229 -1.6929454411819302 2.4077320684626606 42 62 25
16.00071257477307 -1.5060673402098046 2.4104082524725676 42 62 23
14.97126400809626 -1.2695741656784607 2.4907426510988397 40 63 32
13.84860606447665 -2.420967489783827 2.606189664428064 45 69 42
14.643510640365271 -2.2436290672868004 2.520727821195874 41 65 37
14.216474489189476 -2.3240077891845363 2.5640520537019906 44 68 40
17.09369944030619 -1.805360019478202 2.521439763786118 42 67 31
15.843530933078773 -1.2005464824404373 1.6916871154345277 39 47 35
14.965082262637122 -1.240043458537146 1.8351857781225744 40 50 23
17.15121447580309 -1.035717818880689 1.6824297805014365 12 14 21
15.239849585293646 -1.3241761962783547 1.6965007363726974 36 49 20
15.14700185794927 -1.3241761962783547 1.6309550690659533 37 50 21
12.632462083330834 2.759601710255662 2.353754190254673 43 59 27
12.758631466853018 2.713191930294315 2.460336083887603 43 60 29
12.632462083330834 2.759601710255662 2.353754190254673 43 59 27
13.301525639615921 2.570557977773172 2.3048686980250643 41 57 25
11.984268443330173 -3.083110018365415 1.9032013865952935 38 54 28
12.08085042927505 -2.9956620127731672 1.9004428342099107 38 55 26
12.534230486140252 2.832010339826976 2.4827295172172983 45 62 31
11.592197076167817 -2.944156435720267 2.3218560735673344 67 87 61
11.901580518554518 -3.077451848690367 2.090507446876728 42 58 33
12.188185640403516 3.100951166926987 2.390716227889016 55 71 45
12.23407322021057 -3.070583592990925 2.2739284178209305 50 66 42
12.256737422014991 2.9819459744112295 2.3847421942583145 48 64 37
11.712192554450807 -2.964901759616985 2.2019060799166925 52 71 44
12.289183602340797 2.9988502639063923 2.2701332286197053 42 57 30
12.566702764714304 -3.0073697038004097 1.7234309707855484 36 53 23
13.547685774852974 -3.0173473186688318 1.7123014125208222 29 43 16
12.46087895901596 3.114150145752129 1.724737510680141 36 50 22
13.553633817593482 -2.4824756223022124 2.3909036381352218 39 62 32
12.470951853129964 -2.831531109175383 2.3667261389075143 62 81 55
13.16725987776872 -2.5737910632579175 2.4229128429080684 48 70 42
14.899230051578355 1.207456470489055 2.053107187614993 4 10 0
15.956591063001305 0.9049738213508496 1.7542354678318475 9 11 15
15.229253529876255 1.073866092510986 1.9693798035931236 10 13 6
13.947961650030017 0.9490447042032133 2.173845398303743 42 54 34
15.937259762618913 1.1341630070452557 1.6909726900683362 5 8 7
13.947961650030017 0.9490447042032133 2.173845398303743 42 54 34
14.95041443314372 1.1055850277357122 2.128368299489269 4 11 2
15.358942679926786 1.0376464171161988 2.1118662282812606 6 9 2
16.153502736464922 -1.142671371695325 1.5033092747693715 7 9 16
12.581191340251031 0.13718425246152707 2.2507666526174877 43 53 32
12.51441698652891 0.03484993673299941 2.2550888077311084 44 54 34
12.619791854787257 -0.1698579260301556 2.2482957931299765 43 54 32
12.256626395713283 0.6067086620187041 2.272369690606098 34 48 19
13.342244872351722 0.8314670418893677 2.3021184415726603 39 53 25
13.86746957359344 0.6733706911381512 2.4763742061331118 41 55 24
13.917300070814026 0.8945348678241509 2.265631567264475 36 50 24
12.981375302518588 0.4094610786665144 2.4394396229071122 39 54 18
13.06823923800155 0.8391130084017304 2.431618553971249 38 55 20
11.920990982367178 0.46293991283981895 2.1891646777191838 40 51 30
13.829393323134184 0.8257255189319775 2.17976148815392 48 60 39
13.368694166934782 0.6892351971187008 2.3003445864491883 37 51 22
12.519005436341152 0.15273666312506068 2.3628137805430787 39 55 25
11.822346090490385 -0.4483912715057074 1.999148365611478 44 56 44
11.927487589944239 -0.361297743353496 2.0892650895658758 43 55 37
12.001422936728806 -0.6540059700532487 1.9923453964491393 39 55 33
12.982877025213488 -0.7832274749791895 2.327241672974274 37 58 24
11.788569345188266 -0.6346045614692591 2.197179354259918 37 56 25
11.93864505005408 -0.5774182803798836 2.088731971911759 37 54 30
11.977790294175843 -0.5449444654519446 2.2922079468316374 36 55 25
11.692052077518536 -0.39878746457725056 2.203165547451313 37 53 25
15.607609228194118 -1.0249454814379102 1.8908667342090888 13 21 17
14.70209005541586 -1.1167950283595014 2.0601404862094257 35 49 16
13.922183558078892 -1.080499831165005 2.09021858152649 38 52 25
13.973564428944211 -1.0744514088452346 2.359222404714825 37 58 25
13.723129677656724 -1.0384950605189338 2.1851718087794136 36 54 25
17.57006319673306 1.747313881172169 2.7034846926638694 41 61 26
17.830946797412203 1.9944255624263425 2.6732259547966066 41 62 27
18.110787813950925 1.8409424758201516 2.643549854498075 38 59 24
18.20633129669569 1.9201532178841225 2.762051822272496 44 61 31
14.453023968276273 -1.2871482682854254 1.9921078867873065 37 50 20
14.377254194563916 -1.2375204106787023 2.2392533856429333 39 55 20
16.717288602693667 -1.5951859457587096 2.281883918867644 43 56 24
13.505831153862909 -2.3289679793806712 2.394705443704413 41 65 35
13.60565914066254 -2.176723371329972 2.3868136913233577 39 64 29
17.29375269289431 -1.7207661980717481 2.610393198388238 44 69 35
15.352476866218858 -1.4993897808033583 2.458801378568666 41 64 29
16.178857777370826 -1.705442262936957 2.494760097390668 41 64 29
16.22959336982749 -1.142671371695325 1.6887978300963922 7 13 13
16.45178565140994 -1.004221724384996 1.7486540793297891 11 12 21
16.810808415127727 -1.0876970902820344 1.744816379662878 5 8 13
15.397219407413507 -1.3241761962783547 1.7609797414814832 37 50 19
15.02899819881054 -1.389274818886145 1.698273871427137 38 52 21
12.932704331039021 2.660440460344135 2.3309091642697077 41 58 26
12.700898112491267 2.510802061826749 2.348406346243567 43 60 28
11.539086866589397 -2.9817357866027154 2.0103866502762213 42 61 33
12.428554579567678 -3.077451848690367 2.1604005106014275 40 56 31
12.318906113170893 3.0953980407927824 2.5056452248400367 60 78 51
12.386734470892781 2.960549663256358 2.4982647974599206 51 70 42
12.405779107315547 2.8673139651539503 2.3721061999204096 45 61 32
12.453941877133596 -3.0073697038004097 1.6439850878894895 34 49 20
12.721984793883438 -2.7264589018718457 2.346775773700331 48 68 43
13.16725987776872 -2.5737910632579175 2.4229128429080684 48 70 42
13.553633817593482 -2.4824756223022124 2.3909036381352218 39 62 32
17.90175409419582 1.911342199682025 2.555154334981187 38 59 24
13.733263532143965 1.1052504327549573 2.2768538114871557 37 51 22
16.750505346093107 -0.9538283965133943 1.56546362950051 10 13 20
12.527365624321781 -0.06821724084748897 2.254245878462239 43 53 32
13.186019269874866 0.03885594512416189 2.4212879466815576 40 56 25
13.51410260976494 0.575181542514229 2.5104516369592638 40 55 21
13.240604390353951 0.42086736229920646 2.2111208848980524 50 58 47
11.920990982367178 0.46293991283981895 2.1891646777191838 40 51 30
12.217022266986811 0.3666861362031584 2.275112062440358 38 49 27
12.944532034876163 -0.9130775140620345 2.133965092688411 36 55 25
14.344658360345619 -1.1883500974199355 2.0734577685555724 39 52 20
13.376705344633232 -1.0214204002503282 2.405191730981753 39 60 27
12.196805046126395 -0.2680853052794199 2.173166599351825 43 55 34
14.725250720275062 -1.1483919506021432 1.910795894955728 40 53 27
13.833848613175979 -1.1218673234860406 2.479478297565795 39 60 27
14.496368618376472 -1.9902823101271538 2.323570612686437 35 60 22
14.261895435268585 -2.5051829505378045 2.559183042235882 54 78 52
16.720723753120485 -1.682562471325533 2.3636089525217 43 61 22
16.987548059624398 -1.705442262936957 2.5302442244007164 42 67 31
15.308034349648576 -1.1760949742296065 1.8291255026647608 43 52 35
15.512422244926787 -1.2611408264674822 1.6942805541997847 40 50 26
14.979746616769855 -1.3069248898273933 1.9047924881684186 39 50 19
14.979746616769855 -1.3069248898273933 1.9047924881684186 39 50 19
12.534230486140252 2.832010339826976 2.4827295172172983 45 62 31
12.29635649899473 -2.944156435720267 2.381336887583362 69 88 63
12.91960543617951 3.114150145752129 1.8783133446511993 39 53 28
12.220813826613908 3.1053129877927828 2.2748484711161367 48 62 35
12.201480491221309 -3.062071495565285 2.3895493949712105 59 77 53
11.895365122821941 -2.8630499985910327 2.1906981691430487 45 64 36
16.183519791955423 0.993288875742893 1.7516346246460157 9 12 12
15.106208226995841 0.9167832593483151 1.9018890697787971 9 12 14
15.432796039989988 -1.2611408264674822 1.500152515335338 40 49 27
14.70209005541586 -1.1167950283595014 2.0601404862094257 35 49 16
11.476493172285883 -0.5774182803798836 2.012953146772119 38 55 31
11.822346090490385 -0.4483912715057074 1.999148365611478 44 56 44
12.88859861570235 -0.713830477000134 2.231627289034266 36 55 22
17.133636907172438 1.7265063722940923 2.6265210306548648 37 58 23
14.350446360638069 -2.176723371329972 2.4345744509218945 39 65 32
13.513580855086252 -2.1206360189194604 2.29079898138776 35 61 25
16.648814154697934 1.215493329201179 1.3841563705077153 52 50 47
17.74415476069743 1.813194874632942 2.5686599098781144 37 58 23
13.99341157561673 -0.8638408681795162 2.4649842595715614 40 61 29
12.886349472479619 -0.8529464487742789 2.2317629876650273 37 57 24
12.473883172611583 -3.0878517261534753 1.7245757468157812 37 53 26
11.612544831337237 -3.070583592990925 2.208191718699356 51 70 44
17.12594164885792 1.2911870903624223 1.4484939893851412 50 44 37
15.019353427717705 1.1674965093766738 1.834207657786777 5 9 4
15.988764004074124 -1.5997585896812976 2.4112417127991734 43 63 24
13.193649657558861 1.0019786304293257 2.420629199798898 39 56 22
14.324892017046627 -1.205886474228526 2.3348442809885377 36 57 22
16.55715039725014 -1.0876970902820344 1.5654013534847788 11 12 22
14.411787690116265 -1.1679766233422926 2.4296069619901886 36 58 25
12.13015945771677 0.23671585930729103 2.1769494655918256 45 55 37
