11.393586405924783 0.05727653974837414 1.9165476773183148 31 46 6
11.381813390212296 0.23953565915035221 1.8249173414092013 35 50 12
11.65216446008152 0.32564602831962425 1.8188956677030401 35 52 14
11.99394371229752 -0.21939930730255588 1.9881199613283496 32 47 9
11.760493479616539 -0.03608774705307512 1.9969383019313902 29 44 4
12.232228955451673 -0.30646252789162554 1.9794995018113355 36 51 13
12.193338690179132 -0.3889894698078106 1.8930185686598282 34 47 12
11.835621924044894 -0.12882861995339462 1.9940586003411667 31 46 7
12.820231999866278 -0.35863686529740685 1.795880571388 32 45 10
12.052692261527259 -0.033006128815758214 1.8104864036820814 34 49 10
13.460355536539645 -0.4995836616315097 1.7095231085016107 26 39 8
13.015699432808995 -0.4313901997549035 1.7142946861439934 32 45 12
13.89409262754267 -0.6646884181195717 1.7782189603582392 39 52 23
21.776086768511977 -0.41639144488776497 2.1468218512218877 25 32 19
11.591823919743938 0.6498924231720791 1.9103941383706935 30 49 10
11.255644880208852 0.7095336251809721 2.0173961448450624 26 46 6
10.265824528044044 0.9280079652700922 1.9564169335665407 18 38 0
10.53888008080397 0.8490116915092181 1.8457497446987905 22 42 2
9.550873493591606 0.9280079652700922 1.6611021978180722 21 41 1
11.439658101585763 0.5729336188232989 2.0097073619286046 30 49 10
11.11323972778527 0.6972726028377206 2.236231160467283 29 48 8
11.105307804622967 0.8593074696090777 2.236791860184176 30 51 9
10.387903012639494 1.2968299006588133 1.8498521276655056 22 42 4
11.123501840167046 1.4118133621976825 1.8309537430696703 28 49 12
10.253125423246988 1.2668553370872997 2.0647734948295837 23 43 4
9.802283652894856 1.164905300006753 1.8670135083997992 20 40 1
9.762316157379804 1.1182494194815797 2.0920511713110344 22 42 3
11.276152962052917 1.0175769387770368 2.224941739345111 25 46 5
11.298098128377351 0.952780430617852 2.3403432022831074 34 55 13
17.99632978091415 1.933157957005745 1.7304690412613934 37 58 23
17.860404200364375 1.879510151433402 1.788711824743007 37 58 25
17.589699672460853 1.8239635599925117 1.792120939982972 36 57 24
18.487184378795067 1.8629906441922 1.671649285014399 36 55 23
13.420508211632328 1.8475088350189774 2.022772502903572 32 55 20
17.22253136191653 1.839430672020992 1.9180631652541738 37 58 25
18.001691559745115 1.839430672020992 2.0227227991273766 36 59 26
17.85874425583228 1.8979386546930515 1.9651374026520612 35 58 25
13.349229939825886 1.9555838746104022 2.110622406486161 27 50 15
12.402826429116075 2.5233384307692215 1.9735500935803274 26 52 25
11.931846505259529 2.2737156003999957 1.9003442412627265 30 56 27
13.385353439383698 2.1507748261815034 2.1090061256783796 30 52 18
13.187348969862256 2.399193774741323 2.1179941354328866 27 53 26
12.847106887373876 2.5984352783952307 2.1342104627062093 34 61 31
13.757164897793224 2.2737156003999957 2.1790499696621124 30 57 28
11.049529242814414 0.35655256747946434 1.927787132283957 31 48 10
11.117405308478315 0.44389395913038204 1.831099718493002 33 50 12
11.449143543403979 0.1648149237807876 2.1082434333393163 30 45 7
12.502037426847597 0.06316531308219098 2.250810132202946 42 57 21
12.777261814307874 0.09130811818514648 2.5868790281149487 44 59 25
13.1659696169831 0.07040150281305219 2.4173497762201954 42 57 21
12.502037426847597 0.06316531308219098 2.250810132202946 42 57 21
11.837428099485674 0.18335473837948688 2.2970961277094637 41 57 23
12.271072696420427 0.3936058919255061 2.266126546762924 36 53 16
12.284070376054466 0.43870224195963864 2.3765710812380245 42 59 24
11.933272363816634 0.539710934515893 2.2899841814550905 31 50 10
12.0300519197572 0.6029130944681227 2.398824686017421 39 59 19
12.166873250044151 0.26315053044540493 2.1699396277995344 31 48 10
12.614501399541318 0.539710934515893 2.3496605576600116 38 58 18
12.206157639966477 0.37184940197344846 2.5113725538333562 41 58 23
12.014656240012194 0.2917842112720568 2.284068186781358 39 56 20
12.864123756655214 0.23628002068606624 2.576075394695044 43 58 24
12.153983896091164 -0.42461683278070145 2.0740241406565882 38 52 17
12.738032733622303 -0.3004668071278079 2.456189844015959 43 61 19
13.157336181771413 -0.04437224647457888 2.4180918543762884 42 59 25
11.88911363462925 -0.039803718573958584 2.185981978397306 37 52 14
12.589072184954864 -0.17809986155482455 2.4707923801244256 42 59 23
12.394624681719346 -0.46787580462253325 2.4908155906087273 42 62 22
12.206080502546193 -0.37112650366295286 2.270577314565293 41 60 21
12.768365553828698 -0.05758833314225002 2.588004536696858 39 58 26
12.520428933525697 -0.46690559185723496 2.249622809647015 41 60 21
12.712952377665278 -0.2411851261371397 2.2374652221599023 41 58 19
13.027609923870898 -0.6557407547939794 2.5565999211335773 43 64 27
12.983706628149656 -0.34208248584639694 2.5617251227089484 42 62 20
12.646672212080508 -0.26765975364519246 2.347152868954562 43 61 19
13.224531554840807 -0.15799297255996772 2.4123578859097345 42 59 23
13.027609923870898 -0.6557407547939794 2.5565999211335773 43 64 27
13.589280228684315 -0.5359352898532335 2.6317974615388353 43 64 25
14.106299905245686 -0.6241786608905723 2.7183053145810665 45 66 29
14.083924882453312 -0.869842217427176 2.721845574269386 47 68 33
12.114842456312523 -0.5068235452702694 1.983699753115614 40 55 20
12.600345373178014 -0.7569629088326215 2.469665759285333 42 63 27
13.341477524247553 -0.8339556347087459 2.2972113336243165 42 63 29
12.868237103932561 -0.9134081468026434 2.3303808168530527 42 61 30
13.467155067342759 -0.9736998434535212 2.288950108426582 43 62 32
12.814924232517864 -0.7613062776300297 2.334339062568617 43 63 27
13.059151694049564 -0.8419736325080983 2.426645324542252 43 62 32
13.365095564647099 -0.6923001330465819 2.2956423514423 41 61 24
13.059151694049564 -0.8419736325080983 2.426645324542252 43 62 32
12.252770452323038 -0.6103028543684447 2.2673734637702747 42 62 23
13.464023511710895 -1.1551166776404522 2.392666755272601 43 62 31
13.827349443763685 -1.370596256586387 2.4742935637977164 45 64 32
13.725472666032303 -1.6063452209902644 2.4837716681323023 47 67 35
13.720265151766599 -1.3914445394657349 2.3727873162592497 42 62 28
13.670854496432694 -1.5033345182212356 2.2760030254672863 43 63 30
13.153682253580053 -1.4760748033138982 2.5422831334707015 49 70 37
13.879811677460069 -1.2905348984387655 2.3609763447968035 44 63 29
13.003378922664393 -0.8531584158217054 2.5594193952792783 45 64 34
12.65456228406268 -0.9361754387623887 2.464297375393458 45 64 34
12.886179034813606 -1.1705792397533958 2.5733843153420404 46 66 36
12.603298021404628 -1.6174637266628031 2.6095735701075125 53 74 42
13.40993473370019 -1.2201378968366274 2.5148570170826856 44 63 31
13.61758727164357 -1.602560630720323 2.380613617096629 44 64 32
14.455736995559269 -1.3914445394657349 2.4209028448422765 43 62 30
14.607252597656991 -1.2905348984387655 2.409170891953163 44 63 32
13.003378922664393 -0.8531584158217054 2.5594193952792783 45 64 34
13.738031470545874 -1.1064191324760293 2.271847979209853 43 62 31
13.75847953189632 -1.4083949200923045 2.270594146376224 43 63 29
14.145767980691678 -1.2284274339115702 2.2477605905026103 44 62 28
13.304267244851955 -1.1058776761180806 2.671537116309872 47 68 37
14.625944376003618 -1.370596256586387 2.5166191390859654 44 63 31
14.04715938563611 -1.2647842083888639 2.7277494854458606 51 71 42
13.54278491630937 -0.96868310052645 2.637972323724223 46 67 32
13.489598720248047 -1.4613532197244505 2.645174933537911 52 73 41
14.076416782872082 -1.3443572481619699 2.572960489455765 44 65 32
12.856133178051781 -2.450075445348154 2.5770554729743456 51 72 41
11.94758659304428 2.804118550113881 1.989840897763907 36 58 27
11.50131097436596 -2.792329018357603 2.105542438286705 65 85 52
11.254270559092927 -2.9138858773535365 1.9210104323522335 49 68 36
11.50131097436596 -2.792329018357603 2.105542438286705 65 85 52
11.394550591296161 -3.1040922508403166 2.0115665856204306 48 68 33
12.181185009267317 -2.648266506972334 2.514188457151907 68 89 58
11.589011985836061 -2.6004260660982457 2.316301752357432 65 86 55
11.723111849028305 -2.5332583210191264 2.427801633925297 54 73 43
11.638613813054059 -2.9935829779603713 2.2012748933084705 46 67 34
20.16396239653626 2.292075251615121 2.968120090623393 44 64 29
13.069422683338226 -2.2155327778648473 2.7082406194872486 56 77 46
11.695774816646656 -1.7885631658458712 1.9994517283787785 45 65 32
11.885348105030587 -1.9631729409728083 1.9016826135007718 41 61 29
12.14552612329767 -1.7885631658458712 2.074407533214294 45 64 31
11.871565719521799 -2.0002209720017796 2.087168196972832 41 60 29
13.23075582635523 -2.3479475056961103 2.5338081074449477 47 66 36
12.085537855217742 -1.9087065798398832 2.1745426444036897 44 63 32
11.851739181102367 -1.8109220071576257 2.188212207899784 46 65 34
12.202867518145638 -2.047518545397967 2.5117422658019306 43 64 33
12.666476410168924 -1.7713483324709918 2.601159989059593 49 70 39
11.722356351094604 -1.8382754773756655 2.305849975969239 46 65 34
11.958684796208654 -1.9455024409141783 2.288124959073744 43 62 32
12.69460775787464 -2.1930397025122477 2.343451206474919 43 62 32
11.762803884585464 -1.8724487161517487 2.4239144861347084 44 65 33
12.533403826463859 -1.8724487161517487 2.4764093613183986 48 69 36
12.888094619898705 -2.2633383580931934 2.442070902233963 44 63 33
12.51025496536493 -2.1631949860010136 2.4787717775515463 45 64 34
12.422972409477245 -2.3479475056961103 2.487824631037723 46 65 35
12.312145488199171 -1.9317490757152433 1.7225564011443506 42 63 30
12.240965311466868 -1.769962764116569 1.8917198913799718 46 65 31
12.592215373258796 -1.769962764116569 1.9671510171220898 46 66 32
12.283147650889736 -2.539756651945123 1.9777048611051185 45 64 34
11.923846050764789 -2.3501938692003344 2.084680621595403 46 66 36
12.831541437348324 -2.4702863356545435 1.9593579863481771 47 67 35
11.944947358568525 -2.161792766817437 1.899969148425249 45 63 32
11.921002570337663 -2.2316895919490727 1.6431123348251486 41 60 30
12.288579834293392 -2.1159054134830257 1.7228496911116433 41 61 29
11.176270753437576 -2.214943849444072 1.9235608704585814 45 62 32
12.01475511419788 -2.214943849444072 2.0804147138291165 45 63 33
11.794192501766663 -2.6165414752463496 1.9956416041899239 45 64 34
11.499092546184022 -2.565852546843818 2.1056567118519087 54 73 43
11.8871467249006 -2.276847511713445 2.186098911861432 43 62 32
11.927035426479037 -2.349247772216133 2.290442162621302 42 61 31
12.608601441654264 -2.349247772216133 2.3501225189331736 46 65 37
11.579600196046918 -2.933436260595999 1.6452483254224173 47 66 34
11.41553333206385 -3.0194964396809683 1.6463203925124008 46 67 34
11.347639506337988 3.0873339954301846 1.6467731278442788 45 66 33
11.770151546996921 0.05727653974837414 1.9965658340559838 29 44 5
12.820231999866278 -0.35863686529740685 1.795880571388 32 45 10
12.54592223247934 -0.3889894698078106 1.9686957489352965 35 48 15
12.126010481436511 -0.1179257344963879 1.8090090106485448 33 48 9
13.046953180841783 -0.5380333610205137 1.871252851303571 34 49 15
10.337635748418526 1.2032421421432316 1.6542126757783608 20 40 1
9.933000402224431 0.9280079652700922 1.8629996202930421 18 37 0
10.6822193148517 0.9280079652700922 2.0432650840671727 18 39 0
11.315982196487571 1.5047747804440201 1.9190191513252965 28 51 14
11.855235872733733 0.5245509164318718 1.9025552716850918 30 49 10
11.105307804622967 0.8593074696090777 2.236791860184176 30 51 9
18.182148988318666 1.933157957005745 1.7847951372183761 37 58 23
13.420508211632328 1.8475088350189774 2.022772502903572 32 55 20
14.107320637321495 2.0744980502991512 2.249952755847329 29 51 16
18.180518420227916 1.954214508746914 1.9577834168461388 36 59 26
12.160978383170951 2.4554786849662427 1.7244577501844185 25 51 25
11.90538550837087 2.399193774741323 1.9011045159356628 30 57 29
13.012940531971676 -2.076046771220947 1.5601396654974131 37 59 27
11.351459259597334 0.06316531308219098 2.1133798553132688 33 48 10
12.237837617119366 0.44389395913038204 2.07025600417819 30 47 8
11.161876732101996 0.26315053044540493 2.0214228917863415 31 46 8
11.79160774843625 0.44389395913038204 1.9957407730451027 32 49 11
11.898667302361977 0.06316531308219098 2.1854146965853785 37 52 14
12.0300519197572 0.6029130944681227 2.398824686017421 39 59 19
13.328987802468202 0.07950620435985176 2.5232929056479447 44 59 23
12.864123756655214 0.23628002068606624 2.576075394695044 43 58 24
12.616121438204257 0.20652744833285724 2.4680951744135973 42 59 25
11.991894934807801 0.1648149237807876 2.179938088416952 40 55 18
12.523871616257212 0.18335473837948688 2.356828584608493 44 59 23
11.829902159426945 -0.33582590245704436 2.089168900097473 38 53 15
11.96343439242913 -0.14193803484222078 2.1815987144992666 38 53 15
12.355939517155882 -0.33582590245704436 2.159527268187263 40 57 18
13.212459080805367 -0.14193803484222078 2.305921088453671 40 57 19
12.666569417030145 -0.42461683278070145 2.143240228273913 41 57 20
12.837597063353728 -0.20398952357162267 2.5793395873827825 39 59 22
12.533168017803456 -0.5177130344836977 2.35608617525787 41 62 23
12.4929451798656 -0.039803718573958584 2.251398825060543 40 57 20
12.51846632112637 -0.050124475524541835 2.477931965083997 42 59 27
12.704308735445444 -0.5795400541592312 2.459442913121857 42 64 23
12.646672212080508 -0.26765975364519246 2.347152868954562 43 61 19
12.983706628149656 -0.34208248584639694 2.5617251227089484 42 62 20
12.54958421587235 -0.5068235452702694 2.0567519599931208 40 56 20
13.365095564647099 -0.6923001330465819 2.2956423514423 41 61 24
12.814924232517864 -0.7613062776300297 2.334339062568617 43 63 27
14.111591159493134 -1.024917049091495 2.2497084806104 42 61 30
13.059151694049564 -0.8419736325080983 2.426645324542252 43 62 32
12.34704594793202 -0.6770088095097351 2.3712730051818554 42 63 24
12.32116974456145 -0.554272038725223 2.1614127290008986 40 60 21
13.63239448768282 -1.4961726847684322 2.379473734443936 44 63 31
13.132292506803436 -1.045487483432376 2.5446716382079773 44 63 33
12.86495976204647 -1.1062216750527845 2.444210696574763 43 62 31
13.772560600370571 -1.0598196694372455 2.368870016079094 43 62 32
14.455736995559269 -1.3914445394657349 2.4209028448422765 43 62 30
14.439745431638949 -1.1457122444173882 2.231504565654661 44 62 29
14.145767980691678 -1.2284274339115702 2.2477605905026103 44 62 28
13.917587987743635 -1.3163117495174435 2.2610074415541104 44 63 28
13.740163618857524 -1.4873135802232569 2.4823890436653806 46 66 34
13.138335528565666 -1.6111530774678733 2.5439952007531614 50 71 39
12.676133757554652 -0.96868310052645 2.599891612629277 46 65 35
13.578393498506873 -1.310381612052244 2.6332333663803906 47 68 37
14.076416782872082 -1.3443572481619699 2.572960489455765 44 65 32
13.304267244851955 -1.1058776761180806 2.671537116309872 47 68 37
11.626652406900101 -2.6553358066466854 2.202025960925678 64 85 54
11.372345286874644 -2.7008064513599535 2.012487856028509 54 75 44
11.404518566462094 3.082077154726796 2.01115432318662 48 68 33
11.921785226888078 -2.754138249107257 2.2908282014021486 75 95 60
11.95880263813855 2.9861666920251184 2.083031396714048 46 68 35
11.085389770884772 -3.0077753247522736 1.9265808653465961 47 68 35
12.550196048149 -2.5728837652710363 2.6168061975405656 59 80 49
12.023206895076031 -2.450075445348154 2.5325414257464107 51 71 41
12.69588240949038 -2.006313196821413 1.7179354809316105 39 60 27
12.872064349726937 -1.6843241251306476 2.0435645557429862 45 64 29
11.47967226610447 -2.286930640155838 1.822703844772536 43 62 31
11.998335670427084 -1.99076267639908 2.401708166073036 42 63 32
12.000077867686278 -2.4856624401945164 2.081098381205428 46 65 35
11.879731539370324 -2.4227316611943284 2.186540182424141 48 67 37
11.722356351094604 -1.8382754773756655 2.305849975969239 46 65 34
12.194879217915986 -1.8527462509984658 1.8076379312787 44 64 30
12.140029929183122 -2.2633383580931934 2.3890105680750224 41 60 30
12.126497929136963 -2.4142677279522333 1.9832787209315546 46 67 35
11.824039919416254 -2.0846751843422324 1.9944999139053605 42 61 30
11.851739181102367 -1.8109220071576257 2.188212207899784 46 65 34
11.932629726708617 -1.8782805268966551 1.99039928449185 43 63 30
13.438100636644482 -2.1202348750521858 2.652296811074812 52 72 39
11.413742886142721 2.9997307888789786 1.5586464747956768 45 66 33
11.41553333206385 -3.0194964396809683 1.6463203925124008 46 67 34
11.337621523522106 -3.1074086736055437 1.646840390997395 47 67 32
12.052692261527259 -0.033006128815758214 1.8104864036820814 34 49 10
10.330720632935616 0.9860698026074781 1.5573726708208995 19 38 0
12.291894466021267 2.5707139036654487 1.4780273259600771 25 51 24
11.217096644419573 0.777610874179786 2.3473630032335517 35 55 15
10.909153814031574 1.4118133621976825 1.7422559603643981 26 47 10
10.596510996662806 0.7787805054894205 2.047403231245246 23 42 2
9.988273370747603 1.0711450489735215 1.758243443226777 17 37 0
11.760472843752215 2.642515237554071 1.6441012037775924 34 60 30
18.266291431082077 1.8979386546930515 2.0157028653779037 36 59 26
12.712952377665278 -0.2411851261371397 2.2374652221599023 41 58 19
11.437427715085716 0.35655256747946434 2.00979891043575 31 47 9
12.725795884097405 -0.5359352898532335 2.593440868666722 42 63 26
12.420147552980636 0.35655256747946434 2.156079343833441 30 45 7
12.027931012800497 0.327160639117424 2.3990167514360454 42 59 24
12.458633347477683 0.4945191788524992 2.48409775568947 42 59 21
13.492137718373746 -0.7507097980276588 2.6448276249504836 45 66 29
12.868237103932561 -0.9134081468026434 2.3303808168530527 42 61 30
13.044907297970118 -1.5033345182212356 2.217596270476059 43 63 29
13.985674420882528 -1.2591357573582356 2.4600532253423255 44 63 33
13.49027278027029 -0.5821669734086907 2.104369424046057 38 55 22
13.720265151766599 -1.3914445394657349 2.3727873162592497 42 62 28
14.108602644086794 -1.1951486001636986 2.344736510125185 43 62 31
14.04715938563611 -1.2647842083888639 2.7277494854458606 51 71 42
14.04715938563611 -1.2647842083888639 2.7277494854458606 51 71 42
11.641596688318247 2.7204020844744283 1.8191256265528388 27 51 22
11.68407312725834 2.8930467540864266 1.9999094599003564 41 64 32
11.840780578446843 -2.7389316480123824 1.9029758592422243 52 73 40
12.372504992976069 -2.861573563246277 2.36915459536882 55 74 42
11.576794424549977 2.804118550113881 1.910852824674597 27 51 22
12.140029929183122 -2.2633383580931934 2.3890105680750224 41 60 30
11.971360492124104 -1.9162352849991027 2.538778416061765 46 67 36
12.034656560616808 -2.2316895919490727 1.7260836790197276 44 62 32
12.51025496536493 -2.1631949860010136 2.4787717775515463 45 64 34
11.927035426479037 -2.349247772216133 2.290442162621302 42 61 31
12.564230675635688 -2.1202348750521858 2.6148799433219367 50 69 39
12.061529466494706 -2.134248726086222 2.1759160401140325 44 63 33
11.339382743752635 -2.276847511713445 2.114022122069099 46 65 35
12.132769299284352 -2.4340778495178053 2.389649841754317 48 67 37
12.00324698790627 -2.5057928315752185 2.2848908963783368 53 72 42
12.862985505068753 -2.2443084881254545 2.576214839252523 48 67 36
11.916601509294312 2.832035061103814 1.4750969113545795 26 50 21
11.59744744442261 2.9142609776577593 1.5588389387359864 40 63 32
12.587702246965028 -0.46629753248064015 1.8825770650936196 34 48 15
9.74595592405459 1.0175769387770368 1.9781685739227997 17 37 0
12.686229784378416 2.202153846001365 2.1422418623468644 30 54 24
12.21914731549065 -0.41424582766327217 2.382121443256299 42 62 23
11.980601891091837 -0.3004668071278079 2.4033310836173283 44 62 20
12.003492384552331 0.48751142283235765 2.1792642037923873 29 48 9
11.829902159426945 -0.33582590245704436 2.089168900097473 38 53 15
12.120086712015937 -0.2411851261371397 2.172578093321312 38 53 14
14.111591159493134 -1.024917049091495 2.2497084806104 42 61 30
13.467155067342759 -0.9736998434535212 2.288950108426582 43 62 32
14.04715938563611 -1.2647842083888639 2.7277494854458606 51 71 42
11.211988628789046 -2.823900947450886 1.8288535141676854 54 75 42
11.968922909477811 -2.7071596670546847 2.404404107143126 80 101 68
11.865314997199974 3.082077154726796 2.087467318883954 46 68 35
13.356882604439548 -2.3460484082036004 2.663841550937139 50 71 40
11.65692881672081 -2.044416268952606 2.2001286581182056 42 61 31
12.666476410168924 -1.7713483324709918 2.601159989059593 49 70 39
12.31083110489568 -2.097813145752371 2.37430954526747 43 62 32
13.9625896815341 -0.5630591512766664 1.7045025873565107 40 53 25
13.564502451174041 -0.6041199214599099 1.859452435449902 38 52 21
11.743406388872046 0.6298450355296986 2.194777437268601 26 44 4
13.187520087038758 -1.0039388536139344 2.415504366343013 44 63 33
11.465402234214858 -2.3501938692003344 2.008653528907196 46 65 34
13.656088982415795 -1.59950413196834 2.2769237687321997 44 64 30
12.282426601074325 -2.0425038272763976 1.8905979814887914 41 60 28
13.059151694049564 -0.8419736325080983 2.426645324542252 43 62 32
13.397438552699862 -0.7569629088326215 2.5161462392834064 43 64 29
12.003492384552331 0.48751142283235765 2.1792642037923873 29 48 9
11.652387350931333 2.9142609776577593 1.4729200797700805 33 56 25
11.490912572308824 0.1496545863998685 1.9134983325528978 32 47 7
11.921785226888078 -2.754138249107257 2.2908282014021486 75 95 60
13.578393498506873 -1.310381612052244 2.6332333663803906 47 68 37
12.616121438204257 0.20652744833285724 2.4680951744135973 42 59 25
12.694896040410345 -2.1833159484382776 1.5598726742922495 42 62 30
13.75847953189632 -1.4083949200923045 2.270594146376224 43 63 29
11.24755149729228 -2.8903677107921166 2.118959447686836 51 70 38
