18.725248188398897 0.8980556645695629 1.0474974823829104 51 62 30
17.56555010589926 0.8577120481862136 1.0749183650815637 50 63 32
17.721360425341754 0.810779997825902 1.1426429329919017 46 61 27
18.204981056330812 0.9481615469701166 1.0309292845887061 23 32 14
16.570063290110692 1.1880749882037747 0.9706794515160365 2 10 0
16.026586591801543 1.1880749882037747 1.0221960213855368 6 11 0
15.885513607892078 1.122137292328813 1.089222944477216 7 12 1
17.26239542919353 0.9481615469701166 1.1304746035012416 4 11 1
16.860450062204173 0.9481615469701166 1.184153428979239 40 48 25
15.55878428296207 1.2136436870022613 1.2192436427468176 4 8 1
16.02458790800972 1.0918310118827141 1.2953857289713695 8 12 0
15.903655053821959 1.4062187536314659 0.9417138906521686 47 57 29
16.066730486528026 1.33061359893727 0.9490803871852298 47 57 30
16.073829335349462 1.4900981640161701 1.0239913652770791 42 52 29
15.845492695392112 1.3475651191192402 1.0879025281907402 21 29 13
15.657749237027353 1.6315442301393366 1.221560953815941 42 50 28
15.657749237027353 1.6315442301393366 1.221560953815941 42 50 28
15.671384115041516 1.4955718249975976 1.221877774663354 27 35 15
14.694661608844271 1.3475651191192402 1.2697140812764325 5 9 2
14.938094398356643 1.2792614495458483 1.2747704405002902 7 11 4
16.829069149087758 2.005696497426939 0.9811737330221808 43 53 25
16.20005737656543 1.9774169115764841 1.1674993681647474 42 52 29
16.29458964438354 1.779136632736556 1.0322178140259601 39 52 20
14.650992221136667 1.779136632736556 1.268788391310559 44 53 23
14.971985305539166 1.7653173537285083 1.5468987691751945 13 18 9
15.085747591318363 1.9774169115764841 1.4138623987985475 34 41 28
14.99349751567576 1.6990066422632195 1.4128887550372158 19 24 12
16.228533232203272 1.6990066422632195 1.9924763984981102 0 3 0
15.196932569880946 1.8299419615608663 1.5472525702556548 11 16 8
14.498583467647919 1.3475651191192402 1.8247301021331723 8 12 5
14.897777885372834 1.4283071082664662 1.479531271177455 3 10 1
14.789530129998433 1.4955718249975976 1.478861401173244 7 14 4
15.339056765864115 1.9774169115764841 1.810534988727841 1 8 0
16.57900345831249 1.6315442301393366 2.0498718350790845 0 3 0
16.590005260645324 2.037391353277597 1.177507392048923 48 56 40
15.383454627600212 2.037391353277597 1.4824202827987962 10 14 9
18.968124749963312 -0.01737157978267852 1.8728264422265728 43 61 18
18.704975961611108 0.03783650055393082 1.821599514364166 43 61 19
18.03272422865182 -0.19138634828261786 1.831162305862133 45 63 21
18.0509705203202 -0.45092073979807124 1.947622687768698 48 68 25
17.66941952260986 -0.39592307437831364 1.9561827905117954 47 67 25
17.74439957149137 -0.338277819169305 2.01604755781575 45 65 21
17.08731297701005 -0.15203193695126177 2.03448067539306 43 64 17
17.013514126610257 0.11110787321037105 2.036650884179224 41 59 17
16.94369538783819 0.04534086377703399 2.0387236619605917 44 62 20
17.470963502144375 -0.2781986082846101 2.0235297697247554 44 64 21
17.251243874972566 -0.21598709077182512 2.0297345754175224 44 64 22
17.08731297701005 -0.15203193695126177 2.03448067539306 43 64 17
17.013514126610257 0.11110787321037105 2.036650884179224 41 59 17
16.932748266460806 -0.020820420948285973 2.0390504079082077 42 62 18
18.069113608924635 -0.39592307437831364 2.007489119795016 46 66 24
17.67068484041235 -0.5325906002640469 1.9561537423449589 50 70 26
17.397375340346276 -0.6178497398724626 1.9625345431079408 56 75 30
14.664416411089155 -2.069323129978338 0.42534577700408205 43 63 19
13.460568355710468 -2.314938874649697 0.566508232745866 28 48 8
13.098005573340991 -2.418953642301132 0.5213721170022954 42 62 23
13.65601896999287 -2.3049019713320296 0.43957792600074413 38 58 16
13.048287104030956 -2.407776436645341 0.6537606791214042 38 56 16
13.264360752773959 -2.0599125227113637 0.6747368102923705 31 49 5
13.815656708577539 -1.947452054233613 0.6057182481088246 44 63 19
13.416392419378516 -1.7946767751662949 0.6887788858185948 56 75 29
13.593601476245539 -1.9056599334344348 0.7044644867299545 44 61 15
13.080540174796885 -2.230048213479732 0.6569722680110814 26 44 2
13.587246325375407 -1.844265871043973 0.9082607015734366 39 55 8
16.285902037553285 0.05224779234340132 2.2044096292000814 43 63 21
16.54656640351097 -0.02229586267673078 2.120339946049029 42 62 18
16.122364948317326 -0.025977522275294974 2.291737228091376 44 64 20
16.285902037553285 0.05224779234340132 2.2044096292000814 43 63 21
16.3585285009777 0.12788986600144212 2.2011518585081475 41 60 18
17.623562123758248 -0.29681591973215715 2.149718541761407 47 67 24
16.595722647877686 -0.09291904946291855 2.1185268041461134 43 64 18
16.32448792752002 -0.09996295173112148 2.2026742239950075 45 65 22
17.40576891350922 -0.23077696418463955 2.157919279266058 45 65 25
16.435268679131145 -0.17479146397164075 2.1977491228627763 46 66 23
17.241788832846 -0.4208784401937476 2.0300055626870215 50 70 28
17.707731715346604 -0.4208784401937476 2.0806493484721393 49 69 26
17.300982591160693 -0.5653099937845016 2.028314503747397 54 75 31
17.080385376898125 -0.6557816652753982 2.0346834983289224 60 80 35
20.02107578699459 -0.4807566410527275 2.391082933625099 55 79 36
20.93972318890251 2.49732165218612 0.8790087529063431 25 30 14
21.591376215554728 2.49732165218612 0.8433338475613932 43 49 26
18.189682450689027 -2.869794666450912 0.7460742684988576 3 7 2
21.008829062819373 -2.1726693057703 1.5537664809594196 57 76 44
16.570063290110692 1.1880749882037747 0.9706794515160365 2 10 0
16.026586591801543 1.1880749882037747 1.0221960213855368 6 11 0
14.796256600994202 1.2136436870022613 1.4107657419037198 6 10 3
16.6689936163072 1.33061359893727 0.9002950321762054 44 54 25
16.28967197283302 1.2577035621539097 0.9588524337909379 23 31 10
16.071503452244198 1.2792614495458483 1.0952614610688278 4 11 1
16.173483667958283 1.4180511877884607 1.027737769774288 35 44 23
15.632616403705526 1.563524467304188 1.2209754213176198 35 43 20
16.20005737656543 1.9774169115764841 1.1674993681647474 42 52 29
16.29021065282906 1.9141802794348084 1.1021627897004347 43 53 26
16.50151711883119 1.8479530038759961 1.0396937682028171 41 53 21
14.619249944996279 1.8479530038759961 1.339046708569673 45 54 26
14.916731696269839 1.9141802794348084 1.3437504154654374 42 50 28
14.869076908093998 1.6990066422632195 1.4793546149901469 16 21 10
14.92639363545732 1.4283071082664662 1.6810420835677133 5 11 3
16.698649908160863 1.2792614495458483 2.1147712551819096 9 13 6
21.48887993539711 2.409635856908187 0.8390790023846857 48 54 31
20.174148097432692 2.365006605275926 0.9728021689452088 8 12 2
20.834021244688973 2.409635856908187 0.8747987659935315 38 44 22
15.503747802811919 2.037391353277597 1.4181271862322278 22 26 19
17.603385738446885 -0.26172832547158387 1.8970749039198214 45 64 22
17.47215551740389 -0.08143570346341472 1.9607671848090042 42 63 16
17.385339772264242 -0.20295414370430415 1.9013218123695297 43 62 21
17.82127304213765 -0.5835750547899079 1.8929407623980976 53 71 27
17.607195655360112 -0.6667415373594313 1.8970016864876078 57 77 37
14.004142407455284 -2.203037499375488 0.489780733677993 32 52 10
13.109420162061 -2.0087137969820734 0.7758592973239407 32 48 2
13.565752296647938 -2.123291147354763 0.5785841290463383 28 48 4
14.17599165785386 -2.0004313203580497 0.5120566562946658 43 63 19
16.62920800359516 0.11891244868809758 2.117298965286877 43 61 21
16.133861939016608 0.056554522791914676 2.291111214376183 45 64 22
16.274512454640984 -0.023996325111870886 2.20492387456104 44 64 20
16.207169728480242 0.1383241411584006 2.287148446768297 40 60 18
16.704704746410894 -0.16262622838505927 2.11455203548146 44 65 18
17.89466659061992 -0.3602941792201761 2.139847732803931 47 68 21
16.17281057782516 -0.10815789835726446 2.288999603235551 46 66 24
17.040976923583692 -0.60179111120866 2.102664862850284 58 80 39
18.399681768956764 -0.5090218063830919 2.1875532281830044 51 74 31
17.080385376898125 -0.6557816652753982 2.0346834983289224 60 80 35
17.319911330789253 -0.5090218063830919 2.093214431017654 53 75 33
21.861497608409856 -0.4841067942063445 2.5920108839131686 51 75 32
14.48672349151386 1.7082613791916361 1.2652538309021282 44 53 23
15.77358122104641 1.4283071082664662 1.2242338512135877 12 19 6
14.694661608844271 1.3475651191192402 1.2697140812764325 5 9 2
15.566057168410175 1.8924283619826843 1.676494386278931 7 14 4
14.775081473703846 1.6315442301393366 1.4787712428375919 20 25 12
15.606852122249348 1.151085298250934 1.2878136487055172 9 12 4
18.69506020808523 -0.01737157978267852 1.8217354025063464 44 62 16
18.69506020808523 -0.01737157978267852 1.8217354025063464 44 62 16
17.47215551740389 -0.08143570346341472 1.9607671848090042 42 63 16
17.222685288235123 -0.1427247323652935 1.9045640408405058 43 63 20
13.503487162340669 -2.509628878551472 0.571485764542232 46 66 27
12.844614133828435 -1.8719591595676706 0.8623140362696706 39 55 9
13.048287104030956 -2.407776436645341 0.6537606791214042 38 56 16
16.491582830578075 0.20209113523308517 2.1952775115382144 42 58 20
21.008829062819373 -2.1726693057703 1.5537664809594196 57 76 44
15.638980259650442 1.2792614495458483 1.1521403317846994 2 7 0
14.873874299056048 1.563524467304188 1.4116079897074125 10 17 7
14.99038873914599 1.151085298250934 1.546928113357612 7 11 4
16.296107726763985 1.0601307281894226 1.1023459772292081 8 13 0
21.70522128408637 2.4581530972478887 0.7847561323847658 43 52 24
17.874796220266052 -0.3187102601404543 1.891941505635274 46 65 20
17.607195655360112 -0.6667415373594313 1.8970016864876078 57 77 37
13.974021241326087 -2.418953642301132 0.485721968159021 37 57 18
16.34145648797206 0.21827744105336627 2.2800160478860283 40 56 18
16.704704746410894 -0.16262622838505927 2.11455203548146 44 65 18
16.62920800359516 0.11891244868809758 2.117298965286877 43 61 21
17.632595742429288 -0.47834920351206034 2.0190756281063984 50 71 28
17.112364853201804 0.8577120481862136 1.12633960629246 47 61 22
16.058493981070477 0.048550097964345985 2.0667835893841957 45 63 21
16.133861939016608 0.056554522791914676 2.291111214376183 45 64 22
18.633400631275993 -0.4489647173762159 2.245677967363845 50 74 31
15.883656155381194 2.093952406969038 1.6743732495650137 2 6 2
13.516642774768675 -1.8719591595676706 0.8061055306049617 41 57 9
17.721360425341754 0.810779997825902 1.1426429329919017 46 61 27
17.874796220266052 -0.3187102601404543 1.891941505635274 46 65 20
16.980786622380418 -0.0868001688179925 2.037620106027342 43 64 17
