15.069264654552436 0.29284982190620407 1.357822647541259 38 50 23
14.86226911403176 0.4452291112543075 1.3548097763308276 36 49 20
14.771266963069973 0.2849505517379632 0.8997248483353039 42 52 24
14.967413692061562 0.2625155634144698 0.9921815827008967 40 50 22
15.117965364766976 0.112295272643392 0.8315763282689562 44 54 25
15.499005343581018 0.09526595732346854 1.0144252392805135 44 58 33
15.233409085912863 0.20013040241936736 0.8384636179513387 42 54 27
14.718012521630854 0.3138092110833448 1.2107692063270796 39 49 21
14.662279552064682 0.17021779905544981 1.1353214951961608 42 56 29
14.72254964000436 0.38124630529932196 1.282553454639474 35 48 21
11.591149940463513 0.24254788040044192 2.1993007269615097 40 49 15
10.745855435383952 0.43703012452699663 1.9337174789242852 28 38 8
10.3931860184001 0.6572325804150064 1.7463153422942073 25 35 7
10.311098195320792 0.7958630693695147 1.7477273745325694 25 33 10
9.871401627534983 0.7218470131806805 1.8599613285729821 25 34 8
10.235180320785991 0.6572325804150064 1.552705756815464 26 35 9
10.788920609884173 1.0668619778953194 1.366848921138558 25 31 9
10.422052406989138 0.9340950178445083 1.7458241669303298 27 34 11
9.773772660796652 1.0170690015129185 1.4492389820589515 28 34 11
9.735811801745069 1.0170690015129185 1.654590490518379 27 33 8
11.721331980592407 0.7975571334880596 2.300595928156197 38 49 14
10.424736474371537 1.0170690015129185 1.9454412346316963 26 35 9
12.082652198926322 1.109502082457174 2.2741546721838164 38 48 20
10.815524071471188 1.153497487901032 1.9312724909604548 29 36 11
11.721331980592407 0.7975571334880596 2.300595928156197 38 49 14
11.423073515991238 1.0560523117831868 2.3242044387068916 38 48 18
11.119087174479498 0.8713209132909157 2.1211175838266705 32 41 13
11.46127324747071 1.109502082457174 2.2075618651809186 37 47 19
11.119087174479498 0.8713209132909157 2.1211175838266705 32 41 13
11.30961602947514 0.6572325804150064 2.010565508874982 27 36 8
11.793608142497272 0.6367666450325272 2.295127060793022 38 49 16
11.716863361404318 0.38170273510033687 2.3009371494691293 39 50 13
11.27090230783293 0.5751436709730127 2.1128740683819247 30 39 9
11.559084420934603 0.9901642585748655 2.43810489343067 39 51 18
11.950559730752836 0.8863615714847555 2.4003199466998932 42 53 16
11.559084420934603 0.9901642585748655 2.43810489343067 39 51 18
11.777569422799083 0.4294109842258268 2.416508913468415 43 54 17
12.406231770237493 0.38170273510033687 2.361030264310699 39 50 17
12.091940171756166 0.5394772160531 2.3876351616731926 39 51 17
12.314271054202257 0.6086034893079507 2.4931586128544403 41 54 18
11.937983393262487 0.7106906903487191 2.4014714714534593 43 54 21
11.777569422799083 0.4294109842258268 2.416508913468415 43 54 17
12.480358347337583 0.20236918594612743 2.6190432755571327 47 60 27
12.17920728122015 0.17449366221888454 2.507938596120625 46 57 21
12.998568756057612 0.17449366221888454 2.5535050236072943 46 58 25
12.03772551273258 0.15331471556665735 2.3924437146835 43 54 19
12.619953252149452 0.3535580573647858 2.6001466366670147 46 57 20
12.182393489309543 0.2711140620621183 2.3797609644030016 41 52 17
12.998568756057612 0.17449366221888454 2.5535050236072943 46 58 25
11.850646664564987 0.6947963782595806 2.546706267994264 44 54 26
12.691238161637205 0.6947963782595806 2.5908782344322905 41 54 17
11.850646664564987 0.6947963782595806 2.546706267994264 44 54 26
12.245068475792364 0.799905559400523 2.5006541080483182 43 53 23
19.900828466446686 -0.3428833136246897 1.0335231263600917 61 64 44
18.983193558108937 -0.2565201986554948 1.4022110017965337 62 64 43
18.60601303259604 -0.4484904376164076 1.2883754630535744 43 48 19
18.052360825998452 -0.502413805377891 1.1002070144939178 39 44 20
18.658789918418424 -0.3758285113566716 1.3992511230562459 58 61 40
18.431518557272295 -0.4740394908227391 1.170349860460985 53 58 30
19.900828466446686 -0.3428833136246897 1.0335231263600917 61 64 44
19.425129415642456 -0.4202234294833069 1.0188699275905952 61 65 45
18.77218467344942 -0.32424758527628095 1.2909431618826943 61 63 42
17.94731455788548 -0.5250417070709613 1.3354385805474718 42 47 22
18.599442055468156 -0.4976845308756905 1.3986982897887994 40 45 19
17.46241490633957 -0.6396687340307341 1.2087401367623725 46 51 26
16.38176391113556 -0.6780918606843775 1.2487380860084842 46 51 24
10.237807600424539 -0.3906346678794473 1.8493304335605374 47 51 30
10.333926167082229 -0.480830051773068 1.4558580526380087 11 14 0
9.542388624329162 -0.29322438903510356 1.6562930981576414 43 48 27
10.482146839894476 -0.17134905489084137 1.3607921454978782 34 41 17
10.694462434579453 -0.265611284496548 1.3650218239740324 41 45 25
11.373082507629583 0.02767316693378486 2.2133086626698266 42 51 19
11.373082507629583 0.02767316693378486 2.2133086626698266 42 51 19
10.44413017413754 -0.18974786590721054 2.049929503434826 44 50 24
10.984373205203697 -0.5632853009497951 1.3705276747423185 1 3 0
9.80333533175488 -0.5301033734466405 1.862027585784582 52 56 34
10.135831654771344 -0.5301033734466405 1.9566742538402817 51 56 34
10.532075428681612 -0.48561447381874806 2.2745140350712267 54 59 35
11.391466498542922 -0.21250653946662804 2.326810173729907 49 58 27
10.333974913842644 -0.5893253186861039 2.1684355498755354 55 59 36
10.344188414993445 -0.32701656722384753 2.167763626402638 48 53 28
10.937638395554858 -0.32701656722384753 2.243450381147131 51 57 31
10.256064856727512 -0.9037140970082513 1.8488214070114926 54 59 37
10.192849806696753 -0.7598682664345674 1.850591985385261 55 57 34
10.098109145346156 -0.6170643574538465 1.751499915754998 50 54 33
10.510925054861929 -1.0428339271012614 1.8419076109755526 53 59 39
10.88073120582433 -0.8288958909747174 1.832472918351576 52 57 33
10.575359709996336 -0.6944924991950131 1.6479245122709671 48 50 29
11.21180884961494 -0.7630886023324005 1.5542817246196394 38 40 19
10.803398372293943 -0.7555617171449107 2.2533879994965016 55 61 38
10.829919755540686 -0.6804402926624461 2.1375837008920353 55 60 33
9.733791457594723 -0.9234485748918316 2.08823192874939 52 60 39
11.276754825836187 -1.1323596371179172 2.112561532459623 56 62 42
10.94863097553738 -0.988502781393403 2.1306980354132694 55 61 41
11.10399814109898 -1.0839165178272583 2.2315719151674407 58 64 44
10.430850891754146 -1.0246341655136537 2.2827788350859093 54 61 40
10.532626720885828 -0.9510119433924121 2.4067942092554384 55 62 41
10.29320850696916 -0.8356554498766615 2.057561891923724 54 60 38
16.7178949912582 -0.7262256082805454 1.3177653800798343 49 54 27
17.327106322888238 -0.7262256082805454 1.2057807716723765 45 50 23
12.959746852813131 -0.10494830553533845 2.5580128120860457 49 60 24
11.995794442342516 -0.09207265762181738 2.3962098984934284 46 55 23
12.439919343026368 -0.12198977118204328 2.624715361263545 51 62 27
12.419962514817838 0.04126617937908818 2.6275492596531596 49 61 27
12.94059172130388 0.035460719642484415 2.5602584057975055 48 59 23
12.240157808357292 -0.24134830259263285 2.5011920918382495 50 60 27
11.725045475946972 -0.6612757384769399 2.4215788772918785 56 62 37
11.879147374160027 -0.4231655791883803 2.5431697977184413 54 62 36
12.084877840695151 -0.33010443567847836 2.679020582112563 55 63 36
13.476056627183917 -0.18039493244934002 2.8270394182690324 58 64 41
13.568353865174247 -0.40286764085806726 2.80676229879292 58 64 42
12.890998709953957 -0.14559183513408863 2.7300863535989612 53 63 32
13.457636413113049 0.0613453695568674 2.83127394329304 52 62 34
13.457636413113049 0.0613453695568674 2.83127394329304 52 62 34
12.890998709953957 -0.14559183513408863 2.7300863535989612 53 63 32
11.649012862215377 -0.8583032181182974 2.5727923685276184 57 63 42
12.503167613492613 -0.8583032181182974 2.615884516823516 58 64 44
12.531421356237585 -0.6336149092217372 2.6120112533754227 57 63 40
11.649012862215377 -0.8583032181182974 2.5727923685276184 57 63 42
12.269490487222608 -0.49409039207589467 2.6497040461248345 56 63 39
12.804946360492067 -0.5902912738089588 2.7457671517611635 58 64 43
13.056139386763624 -0.7403750922078671 2.7020039061843657 58 64 42
11.412442418755743 1.7379292502991384 1.5545720811280657 32 38 16
11.25392075755876 1.561756120152378 1.554343527461401 24 29 9
11.174439286686125 1.2770018322261179 1.2817492906390742 23 29 8
11.421207325665993 1.9341599019005877 1.288168335298981 32 37 15
10.53996691754149 1.4637423597569925 1.3619612794194202 20 26 6
10.155905474429307 1.247320748568971 1.8516373797173162 26 32 9
10.799493760081095 1.7538854893754698 1.8344880779771082 37 44 21
9.791987366795398 1.247320748568971 1.6541086539753047 24 30 7
10.469465194124963 1.4637423597569925 1.745023385064827 24 30 7
10.688283358801137 1.4637423597569925 1.8372982435055984 30 36 13
11.557836895553708 1.321404278083063 2.313322958124842 38 48 22
12.258616904068262 1.773164005909929 2.262043412861117 40 49 21
11.142591225796158 1.211256047230912 2.2288823270761027 37 47 21
12.310757684161931 1.5608743707818176 2.1574396298813827 40 47 21
11.418412695126424 1.4380704560056312 2.3245873776272887 39 49 23
12.343067265884676 1.6581933779854452 2.1557006823230696 42 48 23
11.326753963253973 1.5608743707818176 2.0098537405843553 35 44 18
11.837588448629184 1.4637423597569925 2.0842851559407665 37 43 20
12.111175783411975 1.5598020337546334 2.272159088431535 40 49 21
12.160757545675471 1.4522742410495955 2.268720393516721 39 48 20
11.681514011705413 1.3474215307765116 2.1936896654274487 39 48 22
10.304262886691555 2.1913696073511737 1.7478459828253423 36 44 16
10.426806769551039 1.9695688915090954 1.8441507139175854 38 43 18
10.757090173275866 2.267081871182061 1.5535835595397902 37 45 13
10.9696433805726 1.9341599019005877 1.5539171145780701 39 45 22
11.091704187938156 2.164850907710633 2.232433810560496 36 49 18
11.691236874689299 1.8463119087481588 1.995262170738064 42 48 22
10.711204984297266 2.331206403342072 1.9349462192859317 36 46 16
11.2279531865404 2.1913696073511737 2.013990292301746 36 46 17
12.155033337481266 2.4053054633604973 2.2691154522157264 39 50 15
11.850761303210803 1.8743749404161816 2.183468764629276 37 44 17
12.184094396866673 2.2536175125327964 2.267114978640302 39 50 17
10.459105682233373 2.472021044825445 1.843284995585042 38 48 16
11.767208776426333 2.5782479241453458 1.469908935302975 38 47 17
11.32533345847876 3.0272191609856702 1.8219736856993287 46 56 30
10.70323163922134 3.0018157250471003 2.1451351637117666 48 58 32
11.265164858238611 2.6477475556922303 2.220498103177953 44 54 24
11.374613401852478 2.8516135083912473 1.554518118732333 43 53 23
10.774467544991673 2.7358631136512237 1.5536113235221825 41 51 20
11.758231412208614 2.7696083896051653 1.4698316454646476 41 51 21
10.924676209945144 2.7358631136512237 1.7376939689995714 42 52 22
12.289732080025344 2.554781362307246 2.2599503221332857 42 52 22
11.014321156688721 2.608395656073799 1.924477645290326 41 52 19
11.158299787160884 2.9378279437146304 1.6438877347680532 44 54 26
10.724162818584551 2.3988307087098537 1.5535307043993791 37 46 18
12.022517784957326 3.0367583120623194 1.4720584363199252 45 54 26
11.275520114264612 2.9378279437146304 1.7324543860146897 46 55 27
13.621053109608326 1.773164005909929 2.3754126882152713 38 48 20
13.992309888359244 1.8268135444643454 2.576206267570144 41 52 19
11.82847678404846 1.1666329578608199 2.4116651377047345 37 50 19
12.96260823315632 1.796902890473587 2.42976040147279 39 49 19
19.64684869530303 1.1901344351041543 2.849530984768465 44 57 26
12.417570908646445 1.9085610215896494 2.36010866569388 36 45 17
13.402325236700365 2.0121272993421875 2.3925254856482625 37 47 17
13.339849739665224 1.9510057520879642 2.516173011485942 41 52 19
13.339849739665224 1.9510057520879642 2.516173011485942 41 52 19
13.086033403608958 2.1283386259707133 2.5435552159666392 43 53 18
12.625811867176699 2.2353835202392527 2.461260564191707 39 52 17
13.086033403608958 2.1283386259707133 2.5435552159666392 43 53 18
13.78376011213907 2.446343905166686 2.7644111672229355 47 60 30
12.522854201437402 2.7768773334114805 2.613181152407867 51 64 35
12.429505542213155 2.7010750332811093 2.481020352371997 45 55 27
12.382164663013482 2.932441859363682 2.6329813223113794 51 64 37
13.031869726459657 2.516991668140452 2.5496836475674507 44 55 22
14.05332410632711 2.312828924066254 2.718621069927673 44 57 28
13.196927592965212 2.5555119270533933 2.679839394864946 48 60 29
12.364087492970663 2.490873058094914 2.3644780032129384 41 52 19
12.522854201437402 2.7768773334114805 2.613181152407867 51 64 35
12.429505542213155 2.7010750332811093 2.481020352371997 45 55 27
11.973586928124544 2.5892183718789945 2.3982215075587723 44 54 24
13.478233322748393 2.426713904220051 2.6395208962633845 45 58 27
12.982178145592233 2.321365927451729 2.5554011925414586 43 54 21
13.504447205973374 2.209322216218275 2.63599641867211 43 54 23
12.382164663013482 2.932441859363682 2.6329813223113794 51 64 37
12.851114608352432 2.8913622477987353 2.7372566530970692 53 67 40
11.901752470620481 2.9843927772091243 2.4048106903124644 49 59 33
11.781946491649308 -1.4455168394653863 2.2960031261923297 58 64 49
11.73076373916418 -1.5591688340507481 2.299876918616858 60 65 50
11.764666279843679 -1.6731207162797146 2.297305729135496 60 65 50
12.133472445597919 -1.230063953478764 2.270608015492529 58 64 44
10.780072122160092 -2.7624928095236188 2.38173611871863 56 62 40
9.659870838728756 -2.5387644509322778 2.0925927737301 56 61 43
10.136346659887971 -2.2214639564908456 1.8521940388130018 57 62 46
10.052161657569103 -2.3672017733239334 1.8546157819508498 56 62 43
10.68981167535258 -2.36909183532693 2.2620568874223412 57 61 43
11.169152358742902 -2.4927651082929603 1.5542186473715867 55 60 43
11.136169042715373 -3.04716227061852 2.3486527147665353 52 60 37
11.073650121877156 -3.0730597427208663 1.7354280419277328 48 58 35
10.458707436433098 -3.04716227061852 2.280482574795313 54 60 37
10.74770856672962 -2.568052365816342 1.7404684967115045 55 60 42
10.057369952395199 -2.742934752551308 1.85446472896431 52 60 39
10.247785860556997 -2.6514328654233115 1.7488321410965795 52 59 39
10.63274620755852 3.1132871169961462 2.149430878510588 49 59 36
11.959810127302882 3.120421508055615 1.4715390316058734 45 55 29
10.772536409657329 -2.947613349678335 2.14097760169928 51 59 38
11.258743372919547 3.118479556839286 1.8234916270817259 47 57 31
10.064008429788386 -2.8420540195926693 1.9595751886390647 52 60 38
10.615453156473398 -2.779618808289412 1.647632631528418 50 58 36
12.539621378598753 -2.0396057488312613 2.7999377402043577 59 65 46
13.242948298400956 -2.1753003835602316 2.8866330277822767 59 65 45
13.46821835931212 -0.7250146637951109 2.828833123524348 59 65 44
12.780788879960697 -1.3427948432589258 2.7503150676181107 60 65 48
12.764860905553594 -1.757774650998329 2.75335084745774 59 64 47
11.962797708023862 -1.951130663214136 2.6999252317315463 58 63 46
12.395523174703333 -1.5436629325186715 2.834295422679298 60 65 47
13.103180383196761 -0.6937903007237207 2.9314222495998226 59 63 45
13.300254936751802 -0.5132078736327752 2.8705941241935835 59 64 46
12.42761238318162 -1.8060240390056124 2.826260639283033 60 65 47
13.46821835931212 -0.7250146637951109 2.828833123524348 59 65 44
12.572027888554969 -1.0597378995469227 2.792761307777302 59 65 45
12.777297463024102 -0.8794787110428998 2.7509779494093314 59 65 44
12.905503075127497 -1.154072701644648 2.727518674732802 60 65 47
13.964710185253015 -2.766205115521933 2.994959718967753 60 66 45
14.053798595028699 -2.3973673692902846 2.95692629965629 60 66 45
13.925377747322589 -1.5126702332407924 3.015515868284171 61 67 47
13.864219263489291 -2.447184471969854 3.0571765669050674 61 67 45
12.426521408126064 -1.220256651157694 2.626615317005627 60 66 48
11.961664339175684 -1.4089591591451174 2.5331259620760638 58 65 46
12.634155275862872 -1.075963612151285 2.598280386988474 58 65 45
12.393734441023915 -1.889766157631958 2.6313094669170063 58 63 47
12.138975611788412 -1.1900120761978281 2.383517787523869 58 64 44
12.55298921192194 -1.429549888221299 2.468461652598344 59 65 46
12.536771821271698 -1.6862167894570126 2.4700856368263624 60 65 50
12.247919980577064 -1.5531013204755248 2.653001061085985 60 65 49
11.888545022987572 -1.8110638611127703 2.406036090374804 59 64 49
11.770341880829156 -1.6862167894570126 2.417202159606494 60 65 50
11.787613772413708 -1.429549888221299 2.4155477959709826 58 63 46
12.061139170041628 -1.8450166337154812 2.521385564476452 58 63 48
11.944644126432177 -1.7031346564435146 2.535174402211155 60 65 50
12.308058507299345 -1.1399494562194141 2.493825040551055 57 65 45
12.280394888708612 -1.7258172972828307 2.648049405997224 59 64 48
11.807157125387185 -2.2290268876255066 2.7286830280185845 60 65 47
11.146245731413053 -2.3717654794358998 2.4829696998804875 57 62 45
12.729440643273081 -2.2290268876255066 2.760211719346 58 64 44
11.591909645116873 -2.4884471388032847 2.580545232909549 57 62 45
12.741235790577498 -2.527557136311378 2.7579098160709634 57 63 43
11.248965476234874 -2.5755137781958264 2.4712587432434243 57 63 43
11.218173018943938 -3.033572874586222 2.4747286042517307 55 61 38
13.25428647700815 -2.5988687490281865 2.8833712718708124 57 64 42
12.563557023374058 -2.720054148771298 2.794619871987871 55 63 41
11.52560864622795 -2.7624928095236188 2.4415358375670686 56 62 40
12.341403912238773 -3.015438944536616 2.6389370156470733 57 63 40
11.775941559002149 -2.7055876122988463 2.5561476093556155 57 63 41
13.159786686078151 -2.888999674502406 2.912129174708367 59 64 44
12.792469310830128 3.090203976872129 2.7481077296286767 56 65 39
13.415533548654764 -2.9520018120782034 2.841214818132905 58 64 42
13.207718419187032 3.098904808009621 2.6782003073507044 55 65 39
13.739472157513303 -2.99004417054556 2.772633467687727 58 64 42
14.117845477925789 3.0548838734115904 2.9340397706271317 55 67 43
11.4733575357906 -1.976470414424678 2.446959549354484 58 63 48
11.607537133111618 -2.276543923830648 2.433198161318514 57 62 45
11.222226317650314 -2.166734142519141 2.474269893763548 58 63 47
14.446615026331163 0.15835531722211915 1.4189566518032002 44 58 32
14.959762660844936 0.4768515021502243 1.1445538312002448 38 48 23
15.233409085912863 0.20013040241936736 0.8384636179513387 42 54 27
15.244212728288838 0.10308450805530471 0.9241244612388031 41 52 26
10.717733765955892 0.6572325804150064 1.2690531881506109 26 35 9
10.745728353111847 0.9340950178445083 1.2698639418617044 26 34 12
11.233262134004532 0.8863615714847555 2.340174061028632 40 51 18
11.105569288118195 0.7218470131806805 2.1218645752238254 30 39 11
11.8261841923245 0.3431528080350652 2.184930287520265 34 45 12
10.843345674080958 0.7958630693695147 1.9303055063392933 28 35 10
10.509923207070756 0.5233561339391505 1.5531787171315863 27 37 9
11.855978647129307 1.0170690015129185 2.183159478102727 35 44 16
10.216393697367577 0.8713209132909157 1.9534728626974536 28 37 10
11.156141506441493 0.6367666450325272 2.2279437277713265 34 43 11
10.79811248027744 0.3431528080350652 2.0329728808170064 27 38 8
10.382675337571849 0.7958630693695147 1.358749640631091 26 34 12
10.189556536249084 1.153497487901032 1.454222197596941 26 32 10
12.005723467908334 0.48966199316573994 2.5278777792323153 45 56 21
12.480358347337583 0.20236918594612743 2.6190432755571327 47 60 27
12.03772551273258 0.15331471556665735 2.3924437146835 43 54 19
12.091940171756166 0.5394772160531 2.3876351616731926 39 51 17
12.478737625489574 0.6367666450325272 2.3551806855840014 41 52 21
11.459144918789214 0.799905559400523 2.4484495437609044 43 53 23
12.129151176350787 1.0560523117831868 2.3843736778646107 38 49 19
12.83918676647247 0.5394772160531 2.4409760622498045 44 54 24
17.436412438063126 -0.6048411348665805 1.387092490150502 48 53 26
18.065175781987403 -0.4740394908227391 1.2213477773493642 39 44 17
18.150568045744357 -0.4484904376164076 1.3943980634184698 47 53 22
19.821019352505488 -0.4463225299381801 0.9087159499395765 59 64 39
19.135740094557217 -0.2867521661847297 1.0701419181281682 59 62 41
17.709976148985277 -0.5552515041205459 1.214029301039111 44 48 25
11.50387997626856 -0.18974786590721054 2.2048256510698705 47 53 25
10.653560829901238 -0.43330341865939215 2.148155169827455 53 58 34
10.244329152210033 -0.29322438903510356 1.9523754666100852 44 49 27
11.460502436521475 -0.7555617171449107 2.321145459453474 55 61 39
10.574335253453636 -0.9037140970082513 1.9398843069928644 53 59 36
10.99304287747452 -0.6612757384769399 2.36155990984117 55 61 36
9.876907666332006 -0.3906346678794473 1.6533907055563926 37 41 22
10.552951390056531 -0.5301033734466405 2.0445797695372336 54 58 35
10.424928256242369 -0.480830051773068 1.7457753843113006 48 52 33
11.394872975021325 -0.08200476148439217 2.211878151819401 45 53 22
11.587132232737618 -0.32701656722384753 2.3110051481920295 50 57 29
10.960824369978583 -0.8448994940047748 2.3645355258315908 55 62 42
9.310995198243585 -0.08200476148439217 1.7669668101207305 31 38 12
10.482146839894476 -0.17134905489084137 1.3607921454978782 34 41 17
10.265300572656178 -0.9234485748918316 2.1729963374300336 54 62 42
17.24300315704215 -0.6870298160312044 1.3850080411128793 47 53 26
12.531421356237585 -0.6336149092217372 2.6120112533754227 57 63 40
11.453897304693225 -0.24134830259263285 2.449001294836685 49 58 27
12.890998709953957 -0.14559183513408863 2.7300863535989612 53 63 32
12.439919343026368 -0.12198977118204328 2.624715361263545 51 62 27
12.137764982976421 -0.10494830553533845 2.512600476282172 48 58 24
12.091138286182185 -0.9510119433924121 2.5179201373090354 57 63 43
12.871741271036846 0.049342805307546894 2.7335280302152185 52 63 31
12.871741271036846 0.049342805307546894 2.7335280302152185 52 63 31
12.158662590086509 -0.7403750922078671 2.666995591345466 58 64 43
11.289255386845214 1.6504604990591858 1.5543950282700256 28 33 11
10.496830329769129 1.3685906751891177 1.6485026871282327 20 26 4
10.22588238171045 1.3474215307765116 1.9530993893799167 31 37 14
11.519646079636566 1.3685906751891177 2.0020043584545455 35 41 18
11.00875818871935 2.2536175125327964 2.1272781930234643 36 48 17
12.359538825787567 1.4637423597569925 2.1548184250159403 37 46 19
11.938097193234954 1.7538854893754698 2.079543508729904 42 48 21
10.740018580830604 1.9695688915090954 1.9339238643283136 40 45 20
11.002363815994105 2.1383467885491845 1.6449255440852713 39 44 19
10.881259826858546 1.247320748568971 2.029169847563758 34 43 17
11.57023038901471 2.0165189095677114 1.3807955152670073 38 42 20
11.543583688684881 1.4522742410495955 2.2022989447068717 38 47 21
10.532048592647993 1.3685906751891177 1.4580295021684972 22 28 6
10.939179842979925 1.5608743707818176 1.9270149151673728 33 40 16
10.627192434164103 2.791214579271471 2.04100110526491 44 54 26
11.57712241370224 2.7510174438963118 2.3117952405960813 45 55 27
10.865681899048369 2.8937213127340566 2.135490365672778 46 56 27
11.448615390005232 2.6958310618584886 2.1035514606227297 43 53 23
11.336925851983338 2.8638447446478636 2.331356081643611 46 56 26
11.965393165151175 3.0367583120623194 1.5553219054025442 45 55 29
11.095227536996493 2.824166137195894 1.9217867294815092 44 54 24
13.992309888359244 1.8268135444643454 2.576206267570144 41 52 19
13.633134531035829 1.6792259226821806 2.486968525710158 40 50 20
12.256153287685896 1.321404278083063 2.373472906198444 39 49 21
14.16267244498289 1.9510057520879642 2.5575214498555616 42 53 19
12.810872185055038 2.0640305849720604 2.443600909921911 41 50 18
12.82371691314058 2.0048863532004075 2.5742788986715746 42 53 18
13.417929237120429 2.2353835202392527 2.5081591473003373 42 53 20
13.046366546948683 2.3270953684593856 2.4223505147021798 42 53 20
12.688286804894672 2.0121272993421875 2.338831614741405 38 48 18
12.851114608352432 2.8913622477987353 2.7372566530970692 53 67 40
12.061710359934459 2.9620611407597304 2.521319263728513 51 61 35
12.851114608352432 2.8913622477987353 2.7372566530970692 53 67 40
12.986724848301357 2.7106678928486025 2.7135106244147016 51 64 35
12.597769821236737 2.4140962526417002 2.4640160296039544 43 53 23
13.196927592965212 2.5555119270533933 2.679839394864946 48 60 29
10.188681416770452 -2.4468973512487877 2.0629992951966236 57 61 43
11.036520656848944 -2.094648678151608 2.357585932595544 57 62 47
11.514836250726828 -1.230063953478764 2.204126194737551 58 63 46
11.433504676894247 -1.1900120761978281 2.323349029448212 58 64 44
11.461709406238807 -1.8907203376772217 2.2075337237900134 59 64 49
11.882925879096135 -1.7844776448897808 2.288496190089522 60 65 50
10.17392739466737 -2.289099245572855 2.0637770745181987 57 62 44
10.787808397628487 -2.8067614784498383 2.2545634039185023 54 61 39
10.49967783831646 -2.6985182927274414 2.157732090407956 55 62 41
10.751032325099393 -2.9667923666217755 1.9335346302609688 53 59 36
11.067617255138526 -2.9825493231927873 1.6444876912500717 50 56 33
11.113871357740779 3.1097056486631383 2.350630900542969 50 60 37
10.165942374929282 -2.5124767578829053 1.8513525879140083 56 61 44
11.032600390245355 -3.066161058565986 2.022412469825915 50 59 35
13.072090698989179 -2.3973673692902846 2.94287922689189 59 65 43
13.206084089959042 -0.23665698331479487 2.897573204877021 58 64 43
12.777297463024102 -0.8794787110428998 2.7509779494093314 59 65 44
12.733621604481922 -1.5493755764118362 2.7593937799687387 60 65 48
12.42761238318162 -1.8060240390056124 2.826260639283033 60 65 47
12.572027888554969 -1.0597378995469227 2.792761307777302 59 65 45
12.395523174703333 -1.5436629325186715 2.834295422679298 60 65 47
13.242948298400956 -2.1753003835602316 2.8866330277822767 59 65 45
12.733621604481922 -1.5493755764118362 2.7593937799687387 60 65 48
12.905503075127497 -1.154072701644648 2.727518674732802 60 65 47
13.39709445027678 -1.2849041690637293 2.845690589371495 60 65 47
13.968521419020176 -1.0084280088189965 2.9931237533621764 61 67 47
14.178517436534067 -0.23665698331479487 2.9146142413580574 59 64 46
13.953949268132979 -2.045478568147892 3.000276922074949 60 66 46
11.736455734999348 -1.5576682997393314 2.4204711338735674 60 65 50
11.961664339175684 -1.4089591591451174 2.5331259620760638 58 65 46
11.911253860744845 -1.555723123986425 2.5392278529849936 61 66 51
11.944644126432177 -1.7031346564435146 2.535174402211155 60 65 50
12.55298921192194 -1.429549888221299 2.468461652598344 59 65 46
11.888545022987572 -1.8110638611127703 2.406036090374804 59 64 49
13.415533548654764 -2.9520018120782034 2.841214818132905 58 64 42
12.321287519309868 3.098904808009621 2.641914864997746 54 64 38
11.999207523768877 3.1050870356824882 2.528649045885651 52 62 38
12.90889305291408 -2.798808199723603 2.72692154256862 55 63 40
13.226486692695598 -3.015438944536616 2.675368532427083 58 64 42
11.999207523768877 3.1050870356824882 2.528649045885651 52 62 38
12.471669282782127 -2.382792211372862 2.8156055778984896 57 64 43
12.341403912238773 -3.015438944536616 2.6389370156470733 57 63 40
11.73761084972546 -2.037812772760377 2.5610917605993273 58 63 47
14.133142491513881 0.24329031806660348 1.2701651723033127 40 54 29
15.022014630311757 0.4094543752901003 1.0720692847012279 37 50 23
9.72755575072664 0.5751436709730127 1.4486585648477945 27 37 9
10.896379432919751 1.109502082457174 2.1337066390784463 34 44 18
10.540178249358252 0.24254788040044192 2.045201227465839 29 38 7
11.439007008207863 0.13669178783334618 2.209002138480342 42 51 19
10.504563828809907 1.153497487901032 1.8420759354676086 27 33 8
10.540178249358252 0.24254788040044192 2.045201227465839 29 38 7
11.819054690614587 0.9577266713816365 2.293223766157253 38 48 20
10.33922934832204 0.48330508464006033 2.0552076585840346 28 38 8
10.83073544442498 1.0170690015129185 2.03147293880947 29 38 12
11.079707743989779 0.7975571334880596 2.23327725208453 36 45 13
10.264491071649173 0.9340950178445083 1.5527574209253014 28 34 12
12.41045217170952 0.7975571334880596 2.3606869505058232 41 52 15
12.54355775750577 0.4294109842258268 2.46940518952867 44 55 19
12.32221431429451 0.3070677513163195 2.492308359526563 45 56 18
12.17920728122015 0.17449366221888454 2.507938596120625 46 57 21
19.28207710430903 -0.3968537324467671 1.1323919835942804 58 61 45
19.257667617241452 -0.3074719261287053 1.4046363274009632 62 64 43
18.490505483154532 -0.27081567630831377 1.2865622895300404 60 62 41
17.114399043252728 -0.5552515041205459 1.3237513669531271 47 52 26
18.212292458051852 -0.3968537324467671 1.2820965357981042 58 62 40
10.545545661025917 -0.6944924991950131 1.5532382348766383 30 33 14
9.444085766935647 -0.18974786590721054 1.7641670403370098 36 42 18
11.039062796832773 -0.6170643574538465 2.022128535055726 54 58 34
10.795626606746394 -0.5632853009497951 1.646347806773327 42 46 28
10.142418777065691 -0.43330341865939215 2.0654467707340225 50 55 31
10.915749474769955 -0.7598682664345674 2.0276114104338347 54 58 32
9.679198332752451 -0.29322438903510356 1.7594127304432376 41 47 24
10.911378838210542 -0.36921220513399294 2.369154177711718 52 59 30
17.164318717539846 -0.7705705872814271 1.3841463465230777 50 56 32
11.834781355820256 -1.0246341655136537 2.411069981036359 57 64 44
12.269490487222608 -0.49409039207589467 2.6497040461248345 56 63 39
11.453897304693225 -0.24134830259263285 2.449001294836685 49 58 27
11.480602028269818 2.4577827451257312 1.5546684118276863 36 46 16
10.320714951102081 1.5608743707818176 1.455710271242056 20 26 6
11.601257039538242 2.211477744891559 1.4684607551294493 38 43 18
11.575375226302475 2.331206403342072 2.097106795324227 39 50 17
11.117737544891135 2.267081871182061 1.8267679487209183 37 46 18
11.679375620801515 2.554781362307246 2.1938211834924255 41 52 19
11.769867348496478 2.1064901228913997 2.18830805415169 32 42 12
11.52277109013364 2.0577118240156804 2.0018795858702205 31 39 11
11.16477904332141 2.472021044825445 2.0166779588176116 39 50 16
11.359203982966276 1.247320748568971 2.1081989368546887 37 46 20
11.780791099591776 1.211256047230912 2.2960900549279417 38 48 20
12.14401637139486 1.667583690966999 2.2698772109022594 41 47 20
12.258616904068262 1.773164005909929 2.262043412861117 40 49 21
13.391545996482046 2.4140962526417002 2.510846771479401 43 54 21
13.147859853620416 2.312828924066254 2.6873963168682025 45 55 24
12.740712419599504 2.637723632847674 2.5845869630638987 48 58 28
13.031869726459657 2.516991668140452 2.5496836475674507 44 55 22
12.214742275643168 2.516991668140452 2.5039896432600783 44 54 24
12.851114608352432 2.8913622477987353 2.7372566530970692 53 67 40
13.478233322748393 2.426713904220051 2.6395208962633845 45 58 27
10.395979013227342 -2.643882416212382 2.2856772171451665 55 61 41
11.379998147125203 -1.9287468494140376 2.3277608134428083 58 63 48
10.165723956855835 -2.1986805082890846 2.1797450711859154 57 62 47
11.073650121877156 -3.0730597427208663 1.7354280419277328 48 58 35
10.651343611949724 -2.8707826773143315 1.8382451380109783 51 58 38
12.43791134182522 -2.2582265126730032 2.6249994497067233 58 63 46
11.922721320050872 -1.305912490085739 2.402874132860879 58 64 44
11.736455734999348 -1.5576682997393314 2.4204711338735674 60 65 50
12.161623402124517 -2.1188370530797527 2.6665219424003164 58 63 46
13.46821835931212 -0.7250146637951109 2.828833123524348 59 65 44
13.27363780378664 -0.9178892428813084 2.877907955411629 59 64 45
12.539621378598753 -2.0396057488312613 2.7999377402043577 59 65 46
12.729440643273081 -2.2290268876255066 2.760211719346 58 64 44
13.27363780378664 -0.9178892428813084 2.877907955411629 59 64 45
13.397030118782302 3.0770544247410947 2.845706341436582 54 65 40
14.702280365467862 0.3378768061899142 1.0601858889210085 40 50 21
11.090689446261713 0.7301071999593448 1.3724731678114357 25 33 10
11.673208612061455 0.8713209132909157 2.194200814365827 35 45 17
12.691238161637205 0.6947963782595806 2.5908782344322905 41 54 17
11.559084420934603 0.9901642585748655 2.43810489343067 39 51 18
11.541545212854874 0.3070677513163195 2.439898273909209 43 54 19
12.314271054202257 0.6086034893079507 2.4931586128544403 41 54 18
18.000899098047235 -0.21575165833776788 1.33615235494059 59 63 42
17.753321113402038 -0.5887198645586312 1.0916194028052606 44 48 27
10.819116924679724 -0.9617540901141491 1.7393378636351478 53 57 35
10.599569204192779 -0.5508410142032683 2.3998315895981936 55 61 36
10.803398372293943 -0.7555617171449107 2.2533879994965016 55 61 38
12.117310526286238 0.035460719642484415 2.514924283343713 47 57 22
11.97509749068517 0.03108680145569043 2.398084301112731 45 54 21
12.037563951732823 -0.749508185783651 2.524132957125669 56 62 39
11.648514405621864 -0.36921220513399294 2.429101903837355 54 60 34
11.237136921165742 -0.749508185783651 2.4725875989745854 56 62 41
11.688371056117774 -0.279013604778373 2.5675465209351716 52 62 31
10.70323163922134 3.0018157250471003 2.1451351637117666 48 58 32
11.142591225796158 1.211256047230912 2.2288823270761027 37 47 21
10.875528571562672 1.8463119087481588 1.3684956891919429 33 40 17
10.975527796377722 1.6581933779854452 1.9257829306887078 38 46 22
12.206094068760445 2.82605047375478 2.5049466490663153 49 59 31
11.24093307473762 -2.894586176648355 1.5543245163122037 50 56 36
9.973964090866414 -2.600326808766334 1.9632761004056825 54 60 40
11.787613772413708 -1.429549888221299 2.4155477959709826 58 63 46
12.186301511782132 -2.630323423101394 2.662599830686236 56 62 42
14.117845477925789 3.0548838734115904 2.9340397706271317 55 67 43
12.280394888708612 -1.7258172972828307 2.648049405997224 59 64 48
12.091547219259539 -2.3758373360784093 2.6779156861308695 58 63 45
12.211705660680341 -0.9921322618232313 2.658609401473572 59 65 45
13.968521419020176 -1.0084280088189965 2.9931237533621764 61 67 47
11.328880362793276 -2.8934112868839046 2.4624102962558947 53 60 39
13.964710185253015 -2.766205115521933 2.994959718967753 60 66 45
12.09482777848058 -1.2688631076175387 2.5174962722550376 58 65 45
11.591149940463513 0.24254788040044192 2.1993007269615097 40 49 15
12.032820227955604 0.48330508464006033 2.277671968355369 37 48 15
10.381417986896162 0.5751436709730127 1.9470825374928395 27 37 7
10.151814940171299 0.7958630693695147 1.5525571830051637 25 33 10
14.959762660844936 0.4768515021502243 1.1445538312002448 38 48 23
17.65133206576821 -0.2287014037152253 1.2127907170101038 60 64 43
16.638059787194063 -0.6396687340307341 1.3781697045256984 47 52 25
10.665861984217129 -0.8288958909747174 1.7417832977914791 53 56 34
10.030609195080531 -0.988502781393403 1.9609395220685208 54 60 40
11.356961170203197 -0.5508410142032683 2.459353360167724 55 61 37
12.890998709953957 -0.14559183513408863 2.7300863535989612 53 63 32
11.602042860231517 1.9695688915090954 2.095771932505943 31 37 10
10.490751695117861 2.608395656073799 1.7446662558540973 39 50 17
12.311700953577066 2.3270953684593856 2.3688136767690273 40 51 16
12.421163440144701 2.164850907710633 2.3598172087699667 39 50 17
13.146321423816389 1.9085610215896494 2.413710810552699 38 48 18
11.73076373916418 -1.5591688340507481 2.299876918616858 60 65 50
12.091547219259539 -2.3758373360784093 2.6779156861308695 58 63 45
12.811845903696002 -2.99004417054556 2.744480420517721 59 63 41
12.296950397501696 -1.381424482434086 2.645552521419747 61 66 49
12.426521408126064 -1.220256651157694 2.626615317005627 60 66 48
11.81790753643575 0.5751436709730127 2.1854241824389526 33 44 11
12.240157808357292 -0.24134830259263285 2.5011920918382495 50 60 27
17.086569508851003 -0.6870298160312044 1.4425581335859317 49 54 27
13.031869726459657 2.516991668140452 2.5496836475674507 44 55 22
11.286629640997992 -1.3350149026544655 2.2190540415356974 57 62 47
11.578943770485855 -2.2582265126730032 2.5823296950515697 58 64 46
11.882925879096135 -1.7844776448897808 2.288496190089522 60 65 50
10.867622490201516 -2.276543923830648 2.3732950271295072 57 62 47
12.09482777848058 -1.2688631076175387 2.5174962722550376 58 65 45
10.187048113314424 -2.4638156151589388 2.3036211944231435 57 62 44
11.235566360852541 -0.3552873326773603 1.283366771768975 46 49 31
12.048053265171074 2.8638447446478636 2.39152244401991 48 58 30
13.300254936751802 -0.5132078736327752 2.8705941241935835 59 64 46
10.84109603426863 0.48330508464006033 2.136927714953395 30 41 8
19.072630067902487 -0.32424758527628095 1.240530438569924 61 63 42
10.807216132705083 1.8463119087481588 1.7395252403430042 38 44 20
