24.21549641926566 1.091546403234719 2.121821224489689 41 52 12
19.52431352980219 0.5132280826217812 1.812763705964644 26 32 6
18.490932259708888 0.4916226345383802 1.882924525470783 26 31 4
19.6672092591238 0.4099448255293872 2.2065630231247977 15 19 1
19.321337002906773 0.5198550898282721 2.0954480797678565 30 34 11
19.443677425091934 0.4664177754927149 2.152191569403489 21 26 7
20.42098366017949 0.6250165465907775 2.3728484339442906 18 21 3
13.316769048454372 1.2927149353828171 1.8506492791708031 34 44 21
13.042455187924427 1.191008484477686 1.9376673646251343 30 40 12
12.712885785662378 1.0359911210589932 2.1238827712189066 26 34 10
13.084522547607241 1.1580548933288677 2.106441053920679 28 38 13
14.018966009020552 0.9496683724528608 2.5553667241888594 33 46 13
13.572089538143809 0.8524384553522676 2.476375042591868 33 44 11
14.838201227832087 0.9244004745272776 2.476795033619686 32 42 12
14.866638918936857 1.119265646736493 2.372111061498535 29 39 11
13.962239887014114 0.7663284191608681 2.5615129624279747 33 46 11
14.609232952023946 0.9848489126650803 2.3904755766492016 32 41 11
14.261939427668777 1.0730946480974264 2.416934132921622 32 41 11
13.35232397753911 0.6149695321444817 2.381596689313853 32 43 9
13.587286304919274 0.6836922570669504 2.474950642698598 33 44 11
14.584548482164772 1.4484412731492309 2.125235915236974 33 45 23
13.92447803575464 1.24227537062829 2.2436744286512207 28 40 13
13.896826584838317 1.3520671324673075 2.1561816108367537 28 42 17
15.009770280077934 1.409600251456866 2.4623446939267524 31 44 13
14.594183140485764 1.2098369757530987 2.3915806929385877 30 40 11
14.34058562769132 1.5090733991533873 2.522407852403258 36 45 11
14.55011816313411 1.2769910046655573 2.5024786775045516 31 44 11
13.201403412541358 1.2098369757530987 2.288127308405419 27 37 9
14.386222934809185 1.307035354184315 2.407229307114659 29 42 11
14.38173947353885 1.1915784087016286 2.649940625057463 34 47 14
14.241055405999107 1.3352961386623006 2.6687182650331294 35 48 13
15.516168635168036 1.5006523464398824 2.6499323308016915 35 46 13
14.885461313505902 1.1284936917859545 2.7360847310903886 35 48 13
14.711277836554215 1.366569856879353 2.6096177525229076 35 46 13
14.84750709015828 1.2395046705640114 2.594229370018956 33 46 13
15.071080007996024 1.489576294743197 2.7082917485396294 35 48 13
15.165163687736042 1.6293081687367752 2.5607736803912555 35 46 11
14.74958261470038 1.2930028737067618 2.758110536478386 35 50 12
14.679803980021443 1.662233263407416 2.7700697136686676 35 50 14
14.05090097090635 2.1556453345189226 1.8356651517102893 32 50 28
14.383444504107235 2.1989959283092584 2.0536442723520403 30 46 19
13.816153710366661 2.3101205225486154 1.994334598420925 33 49 24
16.60732583541609 1.8098364526975377 2.051432192231913 41 61 40
16.482465343893452 1.7701608058105847 2.2755643164835595 31 45 21
16.28685226364936 1.9203805467778603 2.2071154334666936 32 48 26
16.81970167314225 1.827049181258683 2.1839058955401027 32 49 29
16.62490363387935 1.8699036560645466 2.3496403453226544 31 43 20
16.60732583541609 1.8098364526975377 2.051432192231913 41 61 40
17.16888921224883 1.7872682097973158 2.401557886172392 31 43 19
14.010369984050794 2.1891115069607676 2.5562912410346548 34 46 13
13.995726488299312 2.370231499949126 2.4386874077785268 33 45 13
14.3618834378358 2.286743084870445 2.5203300834172038 32 45 13
15.080329282473445 2.1520640182038657 2.7069678660107614 34 49 13
14.746859790607772 1.8439184763733283 2.758568436231414 36 51 13
14.457973416807997 2.2726205059692317 2.6401830958432386 32 46 11
14.238235334925076 1.8022790888385807 2.669105566018074 34 47 14
14.19950717573916 2.2482176341132116 2.1421163148269597 33 49 24
14.251703775203108 2.368333991298813 2.3173274360122744 36 46 15
13.337278113656803 2.5249400509615385 2.3827843572210976 31 43 7
14.15515921016091 2.304295907524144 2.230753020010738 36 49 16
14.141612224859792 2.3668883823207683 2.144750266899259 35 47 15
13.92322578546436 2.582748982247902 2.3393801062351196 30 42 6
14.334233595856267 2.502475497772402 2.3120139590843785 32 43 9
21.12607269968663 0.27081186800125256 2.2750428373719984 12 19 1
21.61142003533271 0.21002819819926904 2.317456185193977 38 49 16
21.12607269968663 0.27081186800125256 2.2750428373719984 12 19 1
15.078693857534056 -0.07271438280080883 2.45670321178103 22 35 0
15.119361146038711 0.13653254084260388 2.4534167059263825 25 39 1
14.304701332712263 0.032261042164177606 2.413564044441234 24 37 6
15.065890114984581 0.032261042164177606 2.457744363019933 24 38 5
15.157604426217238 -0.17611418541958396 2.450354033392439 21 33 0
15.225279698693372 -0.2507565086403304 2.348088947533214 28 40 3
14.510972064487474 0.1523356685879149 2.506117582916839 27 41 14
13.613600043888944 0.6631675972647603 2.601846938935917 32 43 10
14.634969995319114 0.2646316987654572 2.4947175437928006 29 41 16
13.748712079038572 0.5205151041423629 2.4601663889924463 32 43 10
13.613600043888944 0.6631675972647603 2.601846938935917 32 43 10
14.470390029489968 2.4760622831590284 2.6386198856145286 31 45 9
14.620238708379516 2.6701184121433292 2.6202944917077713 32 48 13
14.878353954572852 2.555448502495444 2.590837116442084 32 45 9
14.99463530165238 -2.5152768429188286 2.5783369189117256 58 78 53
13.734100469712754 2.619536056931052 2.461479242935775 29 44 6
13.573583895400093 2.671957304481518 2.3645971947741384 30 42 5
14.303801750029777 2.671957304481518 2.413634602569833 30 43 7
14.2769770123355 2.751882783852222 2.22414840195252 30 41 8
14.2769770123355 2.751882783852222 2.22414840195252 30 41 8
13.570012012510576 -3.068673796534475 2.364864911156404 37 54 20
13.290152115679863 2.7700190328202696 2.3865314735278442 31 45 11
14.00778483926711 2.8361078687402532 2.2389437274491666 32 43 10
13.615282831455866 3.112323857499282 2.261906148444982 33 48 15
14.472343855231504 2.782857256840182 2.1300440075525513 31 42 10
13.889272764010359 -3.0492928906987413 2.569579839305374 38 57 23
13.570012012510576 -3.068673796534475 2.364864911156404 37 54 20
14.007878627720448 2.9433856309171778 2.150935410397926 32 44 11
13.062571370279885 2.903036735838535 2.2974368554279754 33 47 14
13.833963789394664 -3.081336183161225 2.159196873713201 34 48 16
13.933412034680869 2.9687538731974756 2.5646779875072636 34 50 16
14.41301907530039 -3.081336183161225 2.2169427190117794 37 51 21
13.674427340407778 3.0175952692341848 2.258333606052114 33 46 13
13.555783360884615 3.1092406342479437 2.3659334905155416 33 50 16
14.740029262242667 -3.0492928906987413 2.606312961838465 41 60 28
14.383593231554368 -2.964991729489407 2.4074318390538076 44 61 32
14.535167360492137 -2.9446889950385553 2.50386403818269 46 65 35
14.646059055249749 -2.9113065114631898 2.2049967628825518 41 55 28
14.495553882395043 -2.9952588313762223 2.2126557039306665 39 53 25
14.424715454252857 -2.6364595667474644 2.4042783292018672 62 80 54
14.753293911384905 -2.770358703259789 2.380075117302258 52 70 43
14.591861022366658 -2.7537280280111998 2.1249256250080766 43 57 32
14.685266551546182 -2.8343216644780242 2.4901963932048514 53 72 43
14.535257746020942 -2.8649973070369716 2.3959424427378773 47 66 38
14.943506000551157 -2.681456164058685 2.1104287428197215 40 54 29
14.061240298893155 -2.601094632396526 2.2359468663190594 45 60 38
14.780337595217718 -2.55072089976125 2.378157792880529 47 64 41
14.943506000551157 -2.681456164058685 2.1104287428197215 40 54 29
14.862469826455772 -2.830526855674378 2.194327899754173 41 55 30
14.424715454252857 -2.6364595667474644 2.4042783292018672 62 80 54
14.90110791795047 -2.7311532520766466 2.471427448753887 59 78 51
15.117843868608283 -2.3454351715182065 2.028342857566922 37 52 28
15.381111858034583 -2.296484013472547 1.9489147126988369 36 51 24
14.877424855876887 -2.6140083220619257 2.036315717706951 38 51 31
14.945473197460773 -2.5514691838107337 1.9605204730318029 37 50 31
15.381111858034583 -2.296484013472547 1.9489147126988369 36 51 24
14.995790798580995 -2.4052066568052695 2.2723430724953286 38 56 34
14.929941072508 -2.3441827162633775 2.1910812390456833 36 55 30
15.636272998187673 -2.4494410384471172 2.0840976449528807 37 50 29
14.508196930782312 -2.473809894856437 2.301092947143942 42 60 36
15.103213889149814 -2.5086703418705696 2.1041073228828946 38 51 32
14.494979897732248 -2.527172606986546 2.212685301947802 41 57 33
14.649637614387741 -3.0902548738615616 1.968829099973685 32 43 13
15.63484410342744 -3.0327060000244366 1.4861586437663097 31 42 14
14.220523590736494 3.037298897230385 2.059659832857885 30 42 10
14.878972048423721 -2.9445066172769727 1.962356924028986 31 45 19
14.730846741627898 -3.016715332993864 1.966512198778293 33 46 19
15.395774486034474 -2.8919852891899023 1.8120447265562156 34 43 20
15.701646400779437 -2.7421631587707163 1.9408185088643486 36 48 24
15.575144012973844 -3.0937930868782977 1.943970899887175 28 41 9
15.367359441448121 -2.8067244953949193 1.9492702255417953 34 46 22
15.461541668882345 -2.8283080493904182 1.7448967263813107 34 44 21
15.562748713913935 3.1204025886317157 1.9442827536462965 30 40 9
14.661712704381724 3.1170098166240416 2.121980197695703 29 43 12
16.04601611069817 -2.708795019787971 1.6755798091889482 35 44 24
15.616893664402003 -2.6232101333288917 1.6784700868295666 36 45 29
15.29241540671337 -2.68093470698537 1.746842214463792 36 47 27
15.65289851443093 -2.5334323252098834 1.8080051159987114 37 48 28
18.402638508221536 0.44019091042259123 1.9421724540211363 27 31 9
19.337563110204762 0.46608267982111923 1.8688288331944138 27 32 4
21.119681066073923 0.6404704308400759 1.794161994058322 28 34 11
21.58399439997693 0.4099448255293872 2.31863265305679 35 38 18
20.42098366017949 0.6250165465907775 2.3728484339442906 18 21 3
24.386882957076512 1.1355107134359534 2.1662529726898074 39 53 15
13.784872003730886 1.3693427728714398 1.9953578777458618 33 44 21
14.22600649859031 1.3693427728714398 2.0594548308565805 32 44 21
13.131467201333514 1.269528359801413 2.01796903063956 30 41 16
14.261939427668777 1.0730946480974264 2.416934132921622 32 41 11
13.501993307236814 1.119265646736493 2.2688669611048256 26 36 8
13.962239887014114 0.7663284191608681 2.5615129624279747 33 46 11
14.496394188543182 1.0174794875947126 2.5074823366768353 34 44 14
14.064695195380077 0.9244004745272776 2.432919369812173 33 43 13
14.360392825368478 1.3316124635796052 2.3103478514917044 29 42 15
14.2194975611266 1.4250074754852906 2.31942484803911 29 42 14
13.324208187713193 1.24227537062829 2.184948173480951 29 39 13
14.411077938626102 1.3905910924893177 2.515576946322523 32 45 14
15.009770280077934 1.409600251456866 2.4623446939267524 31 44 13
15.143314533771 1.307035354184315 2.4514952850059584 30 43 12
15.070191816941426 1.6477982057939726 2.7084191636315915 35 48 13
14.711277836554215 1.366569856879353 2.6096177525229076 35 46 13
15.049094258469827 1.1226073263196417 2.5726321946113546 33 46 13
13.848718726967235 2.259632932630178 1.8396272429925065 31 47 20
16.027420900171087 1.990161918635 2.1429746299082164 34 50 28
14.828274761061623 2.21485344299983 2.477649557022382 35 45 14
14.374383053418962 2.455882693154638 2.5191163100012433 31 44 10
14.010369984050794 2.1891115069607676 2.5562912410346548 34 46 13
14.167841209917592 2.4307441581646128 2.230058557693056 36 46 14
13.30850538518996 2.631544656590062 2.1857803902716775 30 41 7
13.765791803909561 2.4415043698107004 2.350498433875471 32 43 10
20.945092771455798 0.21002819819926904 2.282406837074241 37 48 13
15.065890114984581 0.032261042164177606 2.457744363019933 24 38 5
15.119361146038711 0.13653254084260388 2.4534167059263825 25 39 1
15.065890114984581 0.032261042164177606 2.457744363019933 24 38 5
15.865798851237383 -0.07271438280080883 2.4965849170784598 25 38 3
21.79443291259986 0.2884833159143004 2.373692655856907 23 31 5
15.080556303101002 -0.15966043483929823 2.357575728268827 25 37 1
15.301599113626182 -0.27585593215702203 2.4390576867841727 22 33 0
15.940813551396007 -0.17611418541958396 2.4903558825988363 27 39 5
13.468966082247972 0.41463271405929536 2.486196244363851 30 44 9
14.795205432403327 0.1722350607620586 2.600057329790367 29 44 8
14.035984171366945 2.555448502495444 2.553543506228312 30 45 7
15.337048324955 -2.4212633361543703 2.543914178580578 50 69 44
13.275722477937334 2.806167053432534 2.2832540911890122 32 45 11
13.878278969000172 3.0282937439615236 2.157067793671844 30 44 11
13.615186338599669 3.0046796084829603 2.361494706076662 33 48 14
13.559455882105501 2.7154089775979586 2.265316726268515 31 43 8
13.24376995787281 2.8426734685433503 2.5086446740625057 33 49 15
13.454050661589216 2.725642216028302 2.4876396978161415 32 47 13
14.45285877275049 -3.0601175619561185 2.511589706643225 42 60 29
13.629449367930533 -3.0756060893716817 2.261046653162767 37 51 18
13.077236204579124 2.8761647715384697 2.4039948886541884 34 49 15
13.702431717818934 2.988783873244898 2.464341677733416 34 49 15
13.805940735627058 2.925045706155062 2.250535821094924 32 45 12
14.399623445511615 3.114870665477707 2.217644464775574 29 44 12
13.643408609065972 3.1054316585250654 2.469739741788276 34 51 17
13.87537150567994 3.100606661356119 2.571137871509455 34 52 17
14.525222216918207 2.619536056931052 2.5047885870072117 31 44 8
14.287003003137928 -3.0756060893716817 2.3150440862572372 40 54 24
14.45285877275049 -3.0601175619561185 2.511589706643225 42 60 29
14.522065341974 -2.8902225861766264 2.3002381276261183 45 61 34
14.644307832153096 -2.581664345724597 2.4938737740486556 60 79 54
14.37026159483944 -2.981531540147597 2.3097215311730106 42 57 29
14.341864592495003 -2.6821979559942237 2.3115270429818096 55 71 46
14.754379266346913 -2.6442316551984235 2.1996072011436496 42 55 34
14.967978809333623 -2.7962971739355784 2.5811633864654615 57 76 46
15.764594255089724 -2.3955027025764895 2.008240169755546 38 50 27
16.017235428792414 -2.346451111781642 1.9331871241599619 36 49 24
14.619203339750175 -2.5735287044875785 2.1237686941662637 39 52 31
14.658482668034253 -2.412106201118705 2.386884036776123 44 63 38
15.1412376515761 -2.3426002788753353 2.3535650087550075 39 58 35
14.98300389535113 -2.4602224222018885 2.18855366131723 38 54 32
15.516942872982908 -3.096875340773657 1.6145226308701865 31 43 13
14.177278235951478 -3.0861515572897873 2.0612830931409145 34 47 18
15.092043357684192 -2.874318499298916 1.9565347933877204 33 46 21
15.55646454495766 3.0573955393258694 1.614411472279118 30 39 12
15.504501044244213 3.121770500477411 1.6145577421323074 31 41 13
14.674869093735508 -3.0861515572897873 2.121429165348459 32 45 14
15.262844898496613 -2.649551770190712 1.9519946312017047 36 48 29
23.41909349940213 0.7420626284965686 2.142856311527456 30 32 10
14.74958261470038 1.2930028737067618 2.758110536478386 35 50 12
13.879251305432465 1.2098369757530987 2.34244822728009 28 41 10
14.372132032864254 0.8524384553522676 2.51933458759351 33 44 11
14.75576869462158 1.1706702482466385 2.483955011626122 33 44 11
14.241055405999107 1.3352961386623006 2.6687182650331294 35 48 13
14.236850684362308 2.2146568014164636 1.6889540520896107 34 50 28
16.662679634579774 1.8468652068694533 2.2664016561006783 32 45 23
14.37708503990638 1.9463459421278928 2.650545509091295 34 47 14
16.508150363587223 1.8959882761982187 2.1243303889941827 33 51 31
14.708547921540857 1.7715071841088963 2.6099331770115928 35 46 13
14.309153301705258 2.233756800553998 2.313619470320562 35 48 15
14.88096443365937 2.008970601418117 2.7367892212072666 34 49 11
14.179554525059519 2.1520640182038657 2.677267919384649 33 48 13
13.951690197765553 2.372832037209605 2.5626679235538075 31 44 11
21.79443291259986 0.2884833159143004 2.373692655856907 23 31 5
14.076774330644133 0.2979161075060729 2.549211466151159 29 44 10
14.820743103644137 -2.919198647755839 2.597199525738233 47 66 36
14.754379266346913 -2.6442316551984235 2.1996072011436496 42 55 34
14.644307832153096 -2.581664345724597 2.4938737740486556 60 79 54
15.022060736844754 -2.7208020513047186 2.270866405324744 47 63 38
15.741109596919097 -2.440679723171118 1.8725567690719498 37 49 26
15.009546174860208 -2.2817711715423483 2.2715689909271193 37 56 31
15.713194970110289 2.993711626338854 1.486581676580254 30 37 10
15.317131251596363 -3.025255119051082 1.881184312004076 30 43 13
15.18696508629637 -2.957796140018904 1.8154290115121283 31 43 14
14.649637614387741 -3.0902548738615616 1.968829099973685 32 43 13
15.793835324930743 -2.767150696408654 1.741197480454783 36 45 23
15.368315944059052 -2.7421631587707163 1.8801162082849092 35 47 26
14.917743534106087 -2.782084864821033 2.0349584838618666 38 50 26
14.903815280094015 -2.9291766724791337 2.112024531636157 36 49 23
15.116536421932407 -2.854034661512969 2.1035870938735384 37 50 26
22.013889762814994 0.35056040215771245 2.3634229401309708 30 34 15
21.23973366186827 0.4664177754927149 2.2705052135165293 30 34 16
12.995188985473094 1.0796078848323614 2.023004325304405 29 37 14
13.370311304916534 1.3520671324673075 2.093801606514609 28 42 17
14.589763585910317 1.0625491741639002 2.623943301043977 33 46 13
14.00815425526867 0.7693027633173206 2.437640944765232 34 44 14
15.166046316816951 1.5090733991533873 2.5606850162688857 36 45 11
14.466303473700838 0.8660375810018973 2.6391335822872364 33 46 11
14.333582338681076 1.4377422948307659 2.2211287920330443 28 43 18
16.36149244478198 1.6910079425283429 2.281869446213877 31 45 21
14.19950717573916 2.2482176341132116 2.1421163148269597 33 49 24
14.583339913637435 2.0757982089753724 2.6247173529517465 34 47 14
16.641187925791638 1.7555306583388708 2.1914733315688935 33 49 28
14.048376324792207 0.5842477117402661 2.552221790721252 31 44 9
14.048376324792207 0.5842477117402661 2.552221790721252 31 44 9
14.48056182935121 0.6631675972647603 2.637344582193508 32 45 10
15.261881785736945 -2.713820969080848 2.023701025204818 37 49 28
14.636458545031957 3.118831920176881 1.9692077385050097 29 42 11
14.74029664860947 -2.802993530306939 2.287080670956872 47 63 37
15.261881785736945 -2.713820969080848 2.023701025204818 37 49 28
14.341864592495003 -2.6821979559942237 2.3115270429818096 55 71 46
14.983984933316707 -2.399821920566535 2.108811527837965 38 54 32
15.483963723428943 -2.4937586034784296 1.9462774830069205 37 49 28
15.533483315760394 -2.289933320907794 2.163592515483346 38 54 29
13.559455882105501 2.7154089775979586 2.265316726268515 31 43 8
15.394279234485746 -2.5894201939325234 1.8795772693661705 37 46 30
14.165464623772772 1.119265646736493 2.322974443126533 28 37 9
15.086541343989017 0.9860131759479203 2.7060817345528534 33 46 11
14.256320285654661 2.3101205225486154 2.058324666890286 36 48 20
14.473921253165564 2.296787477535671 2.4005426599523974 35 45 15
13.748712079038572 0.5205151041423629 2.4601663889924463 32 43 10
14.994722917590229 -2.4914551483685075 2.463588515545273 52 71 46
15.58219865350105 -3.0327060000244366 1.5501483746658162 28 39 11
14.20685398518976 2.8612716424458178 2.141783921539975 30 41 8
15.179800826397742 -2.6833371367803194 2.559306186087859 65 84 56
15.239046764354548 -3.0937930868782977 1.8828282884525296 30 43 13
14.941701712849174 -2.3405376760496575 2.468006770203415 44 63 38
14.911938328710235 2.1794787425915794 2.277103890138458 34 48 19
15.51530592373103 1.6372936196468015 2.6500361719336345 35 46 13
21.7868655949206 0.27081186800125256 2.3100297481793373 31 40 9
14.261177429371973 -3.0068306888089498 2.0581440913958122 35 48 21
14.48056182935121 0.6631675972647603 2.637344582193508 32 45 10
