7.398595678270112 1.213064466690973 1.9865346165056368 1 6 0
8.224083645033943 0.48291344256559743 2.077070029016903 34 42 20
7.0542996669951 1.213064466690973 1.8564859641723523 13 21 8
7.925377416991298 0.7819468858637042 2.2515454436596944 25 35 10
7.07357859682753 1.1530936129409735 2.1697679581909712 6 14 0
8.422104722425036 0.3520315451957135 2.204651443719529 26 35 11
8.054298701850142 0.5564096448410532 2.2386487410372933 24 34 10
8.654506158596487 0.7790158252651803 2.7465799399280795 35 45 22
8.103351224714032 0.6069168950229192 2.610716557658473 34 44 21
8.44654243669237 0.7809181765186325 2.5451253378704304 32 41 18
8.130676685045039 0.6525813440980937 2.3986403352630403 31 40 17
8.44654243669237 0.7809181765186325 2.5451253378704304 32 41 18
7.765815123940683 1.0709636791781318 2.451326300272421 26 34 13
7.633871604433327 0.2073229095637077 2.120475205141866 20 29 4
7.6965356805293546 -0.2549450085425931 2.115494566611315 25 33 9
8.11742038853367 -0.1032603381981837 2.2325299742433424 25 35 11
7.640940230910243 0.046085578035599296 1.834007287492269 17 26 3
8.09767200051674 0.05330764882037223 2.2344309105515547 29 38 14
7.544298479343995 -0.1032603381981837 2.1277656780028926 26 36 12
8.339119900903404 0.1424448548084113 2.850390063068377 34 46 23
8.772718918673602 0.37843498904301237 2.7154193293313047 32 42 19
8.914276184221777 0.24452321899412915 2.471743382289891 29 38 15
8.248917709867943 0.07762243962199142 2.5813871555484553 29 39 16
8.837689956150431 -0.1223132257591902 2.482761875793112 27 37 13
8.268304863779656 -0.1499234268441347 2.5776599847963544 28 38 15
7.434493253988911 1.3196624007029847 2.306260859800121 15 23 6
7.334295675954633 1.6882428135656269 2.3186921239603353 22 28 10
6.6416951901270025 1.7149658081760961 2.42039984255852 32 41 19
6.809714866124445 1.930090590222315 2.3927663394685466 30 39 18
6.553818738224738 2.237848040192235 2.4357861433045502 32 42 20
6.861189430626219 1.8670711542210208 2.1910550831450237 22 29 12
7.16491604712135 2.0284493796110725 2.1610914853570167 24 32 15
7.018505619377774 1.512509789255664 2.0105724931268245 3 8 0
6.922163350997033 2.2673644328656137 2.1847772041413007 27 37 16
7.01517224399129 2.3978009177670105 2.3617662104634736 34 44 22
7.495094863792357 2.3885314521056378 2.131859026230324 28 39 19
6.597943887992314 2.5690310538671426 2.427974857030721 35 46 24
7.521169197577326 1.2650310336792074 2.491714851581633 35 44 24
7.865385067087643 1.181546665432109 2.6647631789753667 34 44 21
7.865385067087643 1.181546665432109 2.6647631789753667 34 44 21
7.047589141890692 2.02484265250976 2.5861318251731786 33 43 21
6.946138222673447 2.4145116425310365 2.6101306992728683 37 47 23
7.547503485780906 2.1792609582977747 2.754138551802822 36 46 24
8.331907342733999 1.4139888637899232 2.853292302815773 36 46 22
7.865385067087643 1.181546665432109 2.6647631789753667 34 44 21
7.7707454836898044 1.757249412307194 2.6889054127591647 37 47 24
7.7581386834482275 2.3978009177670105 2.4525253892730503 35 45 22
7.343610438487032 2.237848040192235 2.524229599169464 36 46 23
6.953100846357216 -3.0423562118109135 1.8607636754981982 31 41 18
6.146344986932742 -2.99997603055 2.276864424802506 33 43 20
7.117993629938339 -2.8962451836329066 1.8538586383503366 31 41 18
6.178455099905946 3.048232813611898 2.510405552400025 34 44 21
6.382896059217478 3.0812953266008742 2.0579718396968385 32 42 19
6.146344986932742 -2.99997603055 2.276864424802506 33 43 20
6.255966178451939 2.859898273781678 2.2620160418349426 33 44 22
6.735691290495983 -3.0423562118109135 1.7180143464757212 30 40 17
7.2117945778649375 -2.7600347359018222 1.7082315211390235 28 38 15
6.9300353132855035 3.0903725711845933 1.8617569245382433 32 42 19
8.108076338080078 1.3014036797751902 2.969304685611737 35 45 21
6.676006152237606 2.6704107394314285 2.683616195692387 35 45 21
8.108076338080078 1.3014036797751902 2.969304685611737 35 45 21
7.12945718158644 2.78799555193846 2.567896829446373 33 44 20
7.468293821625955 1.007829847862072 2.1341158429355005 24 33 9
7.8711990024864775 0.3520315451957135 2.1021049059451125 25 34 10
8.709064346838579 0.5564096448410532 2.3289249100694613 26 35 12
8.099640775627348 0.9536636013574347 2.61149736099189 34 44 21
8.099640775627348 0.9536636013574347 2.61149736099189 34 44 21
8.567625080015716 0.49160375209967583 2.5246186283951504 31 39 17
8.11742038853367 -0.1032603381981837 2.2325299742433424 25 35 11
7.544298479343995 -0.1032603381981837 2.1277656780028926 26 36 12
8.20073593598303 0.2073229095637077 2.2246410154449423 29 38 13
8.070234788548113 -0.1223132257591902 2.4068308233051607 27 37 13
9.129125891297168 -0.1499234268441347 2.6362438988531443 29 39 15
8.676451991585218 0.10051887627636698 2.7405567441881824 31 42 19
8.050370650228652 0.06321032409873382 2.4095659015563125 27 37 14
7.16491604712135 2.0284493796110725 2.1610914853570167 24 32 15
7.316542318811989 1.5016265318127904 2.320945451859533 24 29 12
7.195806017949455 1.8224557617022161 1.999010666293774 10 16 3
7.1156389816569785 2.1156290657028434 2.3475899788087737 26 35 15
7.589210994672446 2.167835469838835 2.1240845751086805 27 38 18
7.542706389396081 2.2673644328656137 2.2933548386994964 24 34 13
7.753991476196333 1.4604791123722898 2.693368361477958 37 47 24
6.866462669684835 1.4604791123722898 2.6302129697396905 34 44 21
8.435672967140476 1.0411245843885086 2.814359725068085 36 45 25
7.383016847322315 2.5690310538671426 2.5167507194710073 35 45 23
6.513151323786717 2.9079502025475077 2.0474065312800174 32 43 20
6.407931338505691 -3.0248777529066673 2.0559032198033353 32 42 19
7.4152582727826895 -2.7600347359018222 1.8422175065615132 29 39 16
8.214669825670047 0.7743056358306276 2.906150184356364 35 45 24
7.973420308979425 0.6797092737687127 2.0945872809664197 31 41 17
8.224083645033943 0.48291344256559743 2.077070029016903 34 42 20
8.126978711665593 0.9105461556099453 2.399135858692267 17 26 3
8.376635585579942 0.41093026296720964 2.367205759539938 30 39 15
7.523045766789059 0.05330764882037223 2.1295258807599193 23 32 9
8.350115055970406 0.2975138819727634 2.562353080699669 29 38 16
6.96395497928267 2.516680805658145 2.180553513859035 31 40 19
6.96395497928267 2.516680805658145 2.180553513859035 31 40 19
7.1413807887464795 1.3579841956425778 2.0024921821106973 0 5 0
7.037010920028297 1.6698499256955524 2.0093355553140966 6 11 0
7.495632340889902 1.0411245843885086 2.771465063429745 35 45 23
7.404599088265756 1.4857579716431506 2.5127207454289584 36 45 23
7.521169197577326 1.2650310336792074 2.491714851581633 35 44 24
8.347501514061847 1.8338231983959394 2.8470585238505595 36 46 24
6.953100846357216 -3.0423562118109135 1.8607636754981982 31 41 18
6.5864866184660755 -2.8548525129821445 2.0416663058928823 31 41 18
6.178455099905946 3.048232813611898 2.510405552400025 34 44 21
6.120239763454035 3.06831474192946 2.280507254294785 32 42 19
8.124100163310036 2.010342380523341 2.958316706125556 35 45 22
8.130676685045039 0.6525813440980937 2.3986403352630403 31 40 17
6.543461690092274 2.6736582325359652 2.226186986422266 35 46 24
7.434493253988911 1.3196624007029847 2.306260859800121 15 23 6
8.224083645033943 0.48291344256559743 2.077070029016903 34 42 20
8.439235675427833 0.5145640360318394 2.8131182848685343 34 45 22
7.01517224399129 2.3978009177670105 2.3617662104634736 34 44 22
7.01517224399129 2.3978009177670105 2.3617662104634736 34 44 22
6.885376616680855 1.757249412307194 2.6253390463865283 33 43 20
6.735691290495983 -3.0423562118109135 1.7180143464757212 30 40 17
6.905777226141368 -2.8962451836329066 1.714362994598937 29 39 16
7.914833348317928 2.02484265250976 2.6528073702578365 37 47 24
6.711878665815862 3.0903725711845933 1.7185404783060632 31 41 18
6.407931338505691 -3.0248777529066673 2.0559032198033353 32 42 19
7.865385067087643 1.181546665432109 2.6647631789753667 34 44 21
6.312930023794376 2.78799555193846 2.4818178298387052 33 44 22
