13.423818483654612 1.2080207962323946 1.399291105701809 25 44 17
12.805677285769757 0.766184876625753 1.229101319036322 18 28 4
11.493732752925048 0.8272287109292342 1.7200407768898323 27 41 2
11.594557924088223 0.8272287109292342 1.3718960437180272 37 47 17
11.369689222900927 0.8272287109292342 1.5452004747729393 32 45 8
11.533959896827913 0.9502768589667531 1.6323070479580821 24 37 2
12.917218531517472 1.1063872848394847 1.3924940608330434 38 54 30
11.618912454625352 0.581076258476931 1.6318567458262734 32 43 3
11.722506404920596 0.581076258476931 1.7171069809621953 29 43 1
12.917218531517472 1.1063872848394847 1.3924940608330434 38 54 30
10.614845592926956 1.10622476513383 1.732502476892571 43 60 26
10.983832393071172 1.0245703554134884 1.6353920143700602 39 53 21
10.787672021431604 0.7636340428346269 1.729889559918994 30 44 3
11.113550581699501 1.10622476513383 1.9110625541005568 40 55 17
11.010917315777645 0.8331705826176624 2.012707485134754 48 63 13
12.141693777901553 0.9732160062486124 2.1562289905782537 57 73 21
11.41684434296626 0.7603023651824955 2.1989375448462827 55 71 19
11.706112545750544 1.0595020203521306 2.181105267316043 57 73 23
11.983220939081685 0.702906517162257 1.8854817512345048 41 55 10
11.395857103402179 0.6320407421804343 1.9023055664562603 48 62 17
11.161750231304264 0.9732160062486124 2.006323669854081 38 54 8
12.003181232706789 0.8331705826176624 2.1638989042311088 57 73 21
11.474246376997847 0.8331705826176624 2.091568751379695 61 76 24
12.30654706727011 1.0595020203521306 2.2477427889172237 59 75 22
11.50542079517833 0.8410779409040221 2.3050499520458865 61 79 23
11.76456886573933 0.9354558495296982 2.4042754666459905 59 81 24
15.570484730549524 1.9471500209109676 2.5256422638964504 66 86 44
12.690795920292857 0.3573324396700376 1.389277800493871 34 46 1
12.236923874977498 0.28026864608608926 1.4651004846186355 32 45 0
11.896736752996405 0.1162877894086116 1.7149491484971988 42 58 6
11.572499020671186 0.38761875268919793 1.6321019454481756 34 46 1
12.818186205015232 -0.12801901037131788 1.6261377709227707 41 59 3
12.98360014143839 -0.2045979563800924 1.6254320017522232 47 66 13
13.222777608319488 -0.2788224773468082 1.6244427777700796 49 69 15
20.93767467416057 -0.6478426617976114 1.556898199144965 39 51 46
12.656370370690997 -1.5159338240767581 1.5478031035759923 73 87 75
13.030544280862847 -1.360721414881571 1.7023298054495537 69 87 73
13.27338468959905 -1.2863519971680435 1.6999097727665018 63 81 62
9.432577668446966 2.9958477936535832 1.64603390010281 66 87 49
9.559892847539697 2.9958477936535832 1.7505317367322744 68 89 52
11.599376540358111 -1.9555576651618223 1.7186714590163912 68 85 82
9.894070727810876 -2.4043764228734106 1.6425183859512487 61 84 58
9.383106644697378 -2.484706689633289 1.753956129070531 59 82 56
11.28249720790484 0.2177425465436846 1.8132731618519158 56 72 21
12.273401321016278 0.03128941268357822 1.8777954492589517 60 76 21
12.009094478834276 0.03128941268357822 1.7983349544070764 52 68 14
12.020246472010635 -0.054162540044489296 1.7981201365541155 57 74 17
11.324695277320673 0.0342131592316993 1.9044693246570776 61 78 20
11.049826622410377 -0.059216053402032516 1.8184847300704974 58 75 20
12.11421893042223 -0.1388318664762971 1.7963260944116932 58 75 21
11.400909967097054 0.1270503451301876 1.9021530162722853 59 77 21
11.53372308493941 0.30494443423871453 1.8078891214988702 51 66 17
11.97792461356616 -0.24150189299026606 1.9748416511305482 57 79 23
11.808674692158325 0.30494443423871453 1.89029684230815 59 77 27
11.887835097671653 -0.3275780505969448 1.8880946305898878 58 79 25
11.965390447895713 -0.40890745128569134 1.7991807769369308 59 78 25
11.684228302717862 0.5055641588599719 1.893822565289312 49 63 18
10.980980688227971 0.6090082926099311 2.117530531750062 58 73 20
11.102609680012538 0.5161564449542315 2.219650315537817 58 77 24
11.033727654520842 0.23939361869640793 2.011729622197288 60 78 24
10.66646702881227 0.26571327798080435 2.1355765280595924 60 79 26
10.931859120498354 0.369399632349031 2.1202676111266756 57 76 26
10.931859120498354 0.369399632349031 2.1202676111266756 57 76 26
10.863292364677212 0.1399939112402341 2.0191466899335766 60 78 21
10.808308794577929 0.46540347292225864 2.0215951695683496 61 77 28
10.299119712172333 0.17571544539938677 2.280246022273433 61 81 27
11.260069541363825 0.42317898266394555 1.9064594740447838 58 74 28
11.532561149215377 0.6090082926099311 2.1916693119066406 57 74 20
10.890927866708001 0.6757375826683463 2.234474808601028 57 74 18
10.299119712172333 0.17571544539938677 2.280246022273433 61 81 27
11.703400947493453 0.5529857774087784 2.080373513282489 58 73 21
10.48018438396681 0.33975547075797363 2.3973188989806093 60 81 30
10.48018438396681 0.33975547075797363 2.3973188989806093 60 81 30
10.157688359714063 0.5339005027523535 2.432470791943449 60 81 33
10.750176262537538 0.4659274950038166 2.370437297264801 60 79 30
10.300594146371266 0.20130635800276417 2.4164500920508885 61 83 30
10.48018438396681 0.33975547075797363 2.3973188989806093 60 81 30
10.53141290458001 0.6541650166660808 2.3920520887618735 59 79 27
11.533877907407948 0.6757375826683463 2.302825214646064 56 77 22
10.79569687852927 -0.06530814114600288 2.02216072051571 58 78 22
10.999794261750724 -0.07279500340619748 2.226758300285194 61 82 28
11.094278759149647 -0.2653123942305572 2.0091554995641423 58 79 25
9.498429347830838 -0.09443055773926685 2.355094965552837 62 85 32
10.542474426382146 -0.329844109393876 2.2605919282353435 62 84 34
9.61707518542152 -0.2394214439602824 2.3428594506700597 63 85 34
9.48431257548052 0.05462469872181967 2.3565812325219904 60 83 29
9.61707518542152 -0.2394214439602824 2.3428594506700597 63 85 34
11.102407344678015 -0.18578068388805052 2.2196641369952297 60 83 29
10.407183527226358 0.04207541767134682 2.1514431109325773 60 80 24
10.987606598096235 0.04207541767134682 2.227612296896678 60 81 27
11.102407344678015 -0.18578068388805052 2.2196641369952297 60 83 29
11.368072656548211 -0.16698985105862227 2.0969341386525517 57 78 24
10.78327853886611 0.03773934081395943 2.022719035668844 60 78 20
10.900231471826771 -0.16698985105862227 2.0175172222860986 57 78 22
11.017321323926089 -0.3959234685068737 2.1155242196401156 62 83 33
10.835669895176661 -0.44126351592892543 2.238469054191178 64 85 37
10.249607706506822 -0.5680584287541602 2.422081230841931 66 89 43
10.539678887892425 -0.6588134735300369 2.5433159268045737 67 91 48
9.604714102894235 -0.11088967373293215 2.5024848465187857 64 87 37
10.027406492570892 -0.33499367936854363 2.6230072123219745 65 89 46
10.543914830532483 -0.3748860065220393 2.3907790240390763 66 89 40
10.22928100410241 -0.09443055773926685 2.424352037537978 64 89 37
10.238010354242132 -0.5113707538337436 2.588026303904234 67 93 49
12.883666430241556 1.6277920873775142 2.7112582602239956 66 88 39
13.812839944538721 1.4422091976637827 2.7390989337171403 66 88 40
13.221900993720054 -1.6548500528869017 2.862150136342267 70 96 61
12.997628541544573 -1.3132333779465435 2.930463458897826 70 96 58
12.817281919155205 -1.756025385635494 3.011524398436743 71 98 59
12.83239543723844 -1.1692451761411347 3.0028106805576797 73 98 60
12.817281919155205 -1.756025385635494 3.011524398436743 71 98 59
11.534768604283103 -0.5264762051693909 1.8078672193609246 61 79 33
10.814877616539064 -0.7115617745719662 1.9208570674785064 60 80 38
11.379775457455771 -0.5749992853308865 1.9974267449701215 61 82 35
10.919309246275446 -0.48971362690972137 2.016680470467648 60 81 30
11.455546818333634 -0.7814941105126366 1.9005125842197585 61 81 42
9.945069300836671 -0.6831360883859277 2.3112287147799995 66 88 43
10.538154327420026 -0.9550261670166968 2.2609301797633607 66 88 47
10.549505214037245 -0.6055243251542187 2.260042231110363 65 87 40
10.441375565792095 -0.8615140584761478 2.149296133824572 61 83 38
10.447105126405063 -0.6996375306378515 2.1489380329924845 61 83 38
10.448558677863671 -0.7801155606679293 2.2680301759739074 60 85 37
11.018619721565635 -0.7809082675128426 2.115452826924418 60 82 37
9.945069300836671 -0.6831360883859277 2.3112287147799995 66 88 43
9.945069300836671 -0.6831360883859277 2.3112287147799995 66 88 43
11.789410047774075 -1.0370098476321012 1.890837496338615 60 81 42
10.624136151569223 -0.9299549275112913 2.030003372015291 62 84 43
11.813478480047804 -0.9877947986289436 2.075174131551702 62 84 43
11.36532520150645 -1.0728449007280683 2.09707453268363 64 86 45
11.705578251293593 -1.1174284942672168 1.9848110642440795 67 87 51
12.142429410225692 -1.1174284942672168 2.0602805393819197 65 85 46
10.145677716202366 -0.778982933134722 2.4338516409739 66 88 46
11.743863821361993 -1.6025659915935644 2.1788588396666047 73 93 70
11.517954603887091 -1.2981426470937236 2.0893934606029534 69 88 56
12.044970238334344 -1.2981426470937236 2.1615621534858134 68 87 60
10.81355699167867 -1.1201388748282852 2.2400824487955178 63 87 48
12.997560778669646 -1.625086596621093 2.6925485762116597 70 96 61
12.997560778669646 -1.625086596621093 2.6925485762116597 70 96 61
11.704433376182084 -1.352453612126874 2.4099505068501132 65 88 55
12.370292380541635 -1.4801585823865093 2.4732752644190534 66 89 59
11.178702417314986 -1.2315642972474428 2.3317553387796197 64 88 50
12.601052791587355 -1.6169155669692232 2.5864984711263106 67 93 59
12.379892394677805 -1.3770751045998453 2.351079442245402 68 88 60
12.063642578379062 -1.1850726821755373 2.5061620423092466 64 88 51
10.53399967930731 -0.8978160229872884 2.544107353784831 66 90 50
11.884080224451537 -1.2683644719259457 2.2766505572581504 66 87 52
12.710698060353785 -1.3208114245588287 2.572740450138188 64 89 54
12.267290735068253 -1.6062426750848504 2.3602063862827274 76 96 71
11.890391815244783 -1.2315642972474428 2.392697270190088 64 87 51
11.852546165097293 -1.2364747861889218 1.8890725238965091 73 89 65
11.852546165097293 -1.2364747861889218 1.8890725238965091 73 89 65
11.650661345745734 -1.505642368720943 1.9868832380188184 76 91 75
11.26642015662218 -1.599580168042819 1.9062628339308214 78 93 81
12.707537999429293 2.056756437693882 2.742522698902136 64 86 39
12.0293161390441 2.889625460796971 2.66867478862055 70 93 52
12.550304116664986 2.8344116686497296 2.773364549063749 74 98 56
12.707537999429293 2.056756437693882 2.742522698902136 64 86 39
12.399576486850494 2.171475676663678 2.8062805290834416 64 85 38
12.94608835993244 1.8095684456678522 2.7008714245447374 65 87 38
11.782365152604362 2.6391742121624384 2.7114396816401944 65 88 45
12.22118436695695 -2.289934262898001 2.8510608379990248 71 96 61
12.072489560720602 -2.0311515985881834 2.8955845851237965 71 98 60
12.448682278401916 -2.4688744317609856 2.795138524482517 70 95 61
11.839087964065758 -2.592631097515636 2.7011130721121153 70 94 61
11.968308020171408 -3.022675235734754 2.6787368638131785 74 100 63
12.100908183570475 -2.4406493646597593 2.657239071957414 68 92 61
11.782174490719354 -2.308994926329857 2.711474953297299 69 94 62
11.968308020171408 -3.022675235734754 2.6787368638131785 74 100 63
11.950790653279828 -2.873310964637952 2.940100577911404 73 99 60
12.448682278401916 -2.4688744317609856 2.795138524482517 70 95 61
12.172336067068198 3.03133578611153 2.864798837948956 78 103 62
12.582291466967641 -2.7789241561722227 2.7668307140983104 71 96 62
11.957107585841278 3.0727231077082724 2.6806175587879983 68 94 55
11.957107585841278 3.0727231077082724 2.6806175587879983 68 94 55
12.329354372392096 -1.9158490238013208 2.8230280638910883 72 97 62
12.062685103741018 -2.8428665981506858 2.663296329930742 70 95 61
11.798688660231504 -2.6897105619997035 3.0182235854196726 72 100 60
12.172336067068198 3.03133578611153 2.864798837948956 78 103 62
12.238314710707995 -2.6808285915514536 2.6363147711152224 70 94 61
10.012842448941852 2.9567597178769964 2.305060334754687 67 89 48
10.171102558701325 2.9785941714357893 2.1667491084327604 68 89 51
10.837577624560907 2.6029554260821484 2.23833026754617 69 92 49
10.25306479638586 2.5680153585355723 1.838186373800594 57 79 36
9.699449345023444 2.7565751955536997 1.9631825578263613 68 89 45
10.513170333558318 2.6512994618393555 2.3939182985376704 71 91 49
9.829216966805927 -2.9677832433138143 1.8500188983995718 61 83 45
9.925975466101459 3.0915381555979398 2.312988095956057 63 87 46
9.829216966805927 -2.9677832433138143 1.8500188983995718 61 83 45
10.0381054447234 -3.0735722604077815 1.9492602345015584 61 84 44
10.262987581235627 -2.795580861178256 2.2832726703739974 68 90 55
11.349916544705533 -2.618812787920093 2.445447298531405 66 89 57
11.070349160052007 -2.745934931552275 2.4762371994733248 67 90 58
13.501378027988501 1.8614897170088796 2.797294032157336 64 85 38
13.01950083797351 -2.525165986630104 2.9227632475406184 71 97 60
13.131469905716118 2.3433872814637335 2.8872496454377794 62 86 42
10.235140361412503 -2.245443652248247 2.1625118436111515 62 85 58
12.043897888337902 -1.9794957338026098 2.3790847803448063 65 90 59
12.80668644619917 -1.9053580257487701 2.5611226291644917 67 92 59
13.059438323781638 -1.7986095273566638 2.6828140484118332 71 96 61
10.985014830802022 -2.5078688304648398 2.3486831389242697 64 87 57
12.660211462939326 -1.845536139078632 2.7514826828486316 70 97 62
11.588007772191165 -2.319543111811752 2.5641295243320466 65 89 61
10.44309377988608 -2.4237147618466426 2.401183534472199 64 87 60
12.016426737768075 -1.682600177351343 1.7981936689714195 72 87 76
11.812310552645496 -1.705554175031217 2.1748312595672066 79 99 78
11.221377245985344 -1.9013806677328344 2.003852475396667 73 92 75
11.802248873347196 -1.8318068609683773 2.282575323087149 74 93 76
13.059438323781638 -1.7986095273566638 2.6828140484118332 71 96 61
13.216158656740342 -1.7402549217467607 2.5154552262021355 68 91 62
11.210785216611844 -2.0334406804253993 2.1051013956316305 66 86 66
10.208972424647124 -2.6327067729668734 1.9426138133344917 61 82 51
10.235140361412503 -2.245443652248247 2.1625118436111515 62 85 58
13.67496213266488 1.1392930463083157 1.4762505111564401 9 26 8
11.622796796120468 0.702906517162257 1.3723857449938632 36 48 12
11.278737837732143 0.7636340428346269 1.9058820995123396 35 49 5
11.619066141957237 0.9732160062486124 2.0844341031517493 50 66 20
11.64594165353094 0.7636340428346269 1.9870623265280187 58 72 24
11.759404275145835 0.6320407421804343 1.9828006382042753 57 71 24
11.338178659000727 0.8959811593531566 1.9040571363610015 23 39 0
11.76456886573933 0.9354558495296982 2.4042754666459905 59 81 24
12.087461794264573 0.9127454121273698 2.2623952554721956 60 76 23
11.649853036208258 1.0034522199856815 2.29391535508813 60 76 23
14.231183095130504 1.462235341765635 2.674852614480476 68 90 38
11.95183419139602 0.1996349513007813 1.6301538613608952 31 45 0
12.086057600486422 0.46507531956899056 1.712675682118321 34 46 1
11.34057928039428 0.30494443423871453 1.7220717199944837 40 53 7
11.62267929580452 0.38761875268919793 1.4594919943806277 35 47 4
12.818186205015232 -0.12801901037131788 1.6261377709227707 41 59 3
12.364150621926136 -0.30129993329738897 1.7094636935809027 58 75 19
12.729411712256251 -0.04990308183510807 1.626524118948455 35 52 0
12.718881534703057 0.028825905119835064 1.6265703048126858 29 45 0
11.835045224363439 -0.054162540044489296 1.7157058516470918 59 76 20
13.516352797268766 -0.3500263070995342 1.5492662887983346 48 68 17
13.89099593213357 -0.41771675680058057 1.5498470446731119 46 65 17
10.073596037788736 -2.7693094204753637 1.4422875708671994 64 86 52
10.048198707278408 -2.2612298628182477 1.7417089209267067 61 84 58
10.061660084600993 -2.5455866971263763 1.6413217651411698 60 81 54
11.115876856672024 0.1270503451301876 1.8169824025970982 59 75 22
11.336520549555113 -0.059216053402032516 1.9041077688847063 59 77 19
11.436112679437956 -0.15162451061628904 1.9010941784766777 58 77 19
11.808674692158325 0.30494443423871453 1.89029684230815 59 77 27
12.376280947011367 -0.1388318664762971 1.8751612559034965 57 76 22
11.56342393201671 0.2177425465436846 1.8973218064703299 58 77 24
12.273401321016278 0.03128941268357822 1.8777954492589517 60 76 21
10.434571617663712 0.5779514269838527 2.2691534294262117 58 77 23
11.27996315526371 0.46540347292225864 2.1014763982544347 58 76 23
10.490066440354678 0.15585017787208308 2.1462680244231764 60 80 27
9.575187203553869 0.20130635800276417 2.3471278284616717 60 82 28
11.627862910333333 0.42317898266394555 1.9877498003766632 58 77 27
10.478735219449938 0.2983422734964161 2.2656205784885852 59 79 29
9.575187203553869 0.20130635800276417 2.3471278284616717 60 82 28
10.670737446144152 0.39383058764742135 2.5255279097323298 60 81 33
9.680629261866349 0.23546089332590062 2.492006309235725 62 84 34
10.528315110311055 -0.18578068388805052 2.1439130807310436 58 79 25
10.150078089092851 -0.4973652104018216 2.2929224388386924 65 87 40
10.72909101966799 -0.29418126332862227 2.131882453210069 59 80 28
9.93913895118525 -0.4332857977154401 2.458496263973612 65 90 44
10.216174176988869 0.05462469872181967 2.4258242185412695 61 84 32
9.722062952102892 -0.2794650164566216 2.4864158859915673 64 89 41
10.837071329461619 -0.4973652104018216 2.3622218872495004 67 89 42
10.13396142667468 -0.7772320770324829 2.60486983952205 68 92 51
12.817281919155205 -1.756025385635494 3.011524398436743 71 98 59
12.982707377177503 -1.68651581920423 2.935894817141524 70 96 60
13.89900011497228 1.26503639044913 2.7247785667980855 65 87 40
11.537325127203232 -0.9113062444273908 1.89808796651102 60 80 43
11.366659205465572 -0.4459215626760885 1.9031898895699184 60 79 28
11.197303588180231 -0.7115617745719662 2.0048466807009055 61 83 38
11.003693001758839 -0.5749992853308865 1.9145993698012358 61 82 35
10.814877616539064 -0.7115617745719662 1.9208570674785064 60 80 38
11.705578251293593 -1.1174284942672168 1.9848110642440795 67 87 51
10.809342997818085 -0.850921982638717 1.9210440116334984 60 82 41
11.103616471773346 -0.9299549275112913 2.1108221602054877 62 83 44
10.448558677863671 -0.7801155606679293 2.2680301759739074 60 85 37
10.645300990747057 -0.6831360883859277 2.3806273913580043 65 88 43
12.201250241607108 -1.155118210720993 1.8796706902862583 63 84 45
11.541273320504928 -1.1665360271528677 2.1911295114776017 66 87 50
11.890391815244783 -1.2315642972474428 2.392697270190088 64 87 51
13.01246491091394 -1.4482627821249465 2.6901775054950723 67 93 59
13.01246491091394 -1.4482627821249465 2.6901775054950723 67 93 59
12.611751187343108 -1.4221743573635404 2.7609364042374454 69 95 59
10.53399967930731 -0.8978160229872884 2.544107353784831 66 90 50
10.820493036415794 -1.0627445993175688 2.363773808251808 64 88 48
12.354613580259459 -1.610881218848894 2.4748842938332998 68 91 62
11.880396264280296 -1.3208114245588287 2.5273842108212166 63 88 52
12.61642533838038 -1.4665882458844193 2.5845367546187754 65 91 57
11.884080224451537 -1.2683644719259457 2.2766505572581504 66 87 52
12.596372936242215 -1.6367713028099313 2.7639989205228277 70 97 61
11.937890245699354 -1.32269304651026 1.976275970337173 75 91 69
11.752683381075524 -1.4128388703070123 1.98305056412031 77 93 73
12.0293161390441 2.889625460796971 2.66867478862055 70 93 52
12.243275308647318 2.7497842310481695 2.8450857870672657 68 93 52
12.623859956079228 2.3472260170061503 2.7585465872099975 64 85 39
12.183450731494366 2.7221549986838074 2.6445162174941843 68 90 47
11.373579787084427 -2.6808285915514536 2.59374269870459 68 92 59
12.22118436695695 -2.289934262898001 2.8510608379990248 71 96 61
12.750766000756304 -2.592631097515636 2.7345583425976785 70 95 61
12.072489560720602 -2.0311515985881834 2.8955845851237965 71 98 60
11.957107585841278 3.0727231077082724 2.6806175587879983 68 94 55
11.894411677228582 -2.24515709792771 2.96480157684854 72 99 61
12.072489560720602 -2.0311515985881834 2.8955845851237965 71 98 60
12.481110065498752 3.0567992703302806 2.7880120192727853 86 113 72
12.49177017098249 -2.5410998294779157 2.600770351891645 69 92 60
11.548163433288344 3.0567992703302806 2.7580236095572026 86 111 70
12.329354372392096 -1.9158490238013208 2.8230280638910883 72 97 62
9.699358540022793 3.102282833613694 1.853859634452278 66 88 47
9.93946497553889 -3.0550352263705647 2.311744125101491 64 87 47
10.417448221368103 -2.8345115474048375 2.150796775161419 65 88 54
10.563942878438567 -2.6800384225574914 2.2589165037120194 64 87 56
9.850320026015227 -2.576364583163718 2.0692376006668134 62 85 56
11.037742518823435 -2.084384407891758 2.22411487828951 65 88 59
12.660211462939326 -1.845536139078632 2.7514826828486316 70 97 62
11.254758148930515 -2.1904998192434704 2.6112992092524836 68 92 62
11.702032132806425 -2.1014729007757342 2.5493416912820375 67 91 62
11.737514752189988 -1.8722284413357833 1.8923032331385714 79 96 92
12.564281236601696 -1.8641718819144102 2.453954615819579 68 91 63
12.33283280986718 -1.720940356309788 2.3548634971507107 73 92 74
13.110981022120527 0.9322951148209976 1.3951567745440938 31 43 21
10.791855557671177 0.8959811593531566 1.4508832892489036 33 45 13
10.910064140546993 0.6320407421804343 1.7280898550939612 30 41 0
12.729840845166414 1.179158688040313 1.3093011002784518 39 58 28
12.917218531517472 1.1063872848394847 1.3924940608330434 38 54 30
11.50278061291788 0.6912371150138973 2.090146466975644 55 71 19
11.290732199879336 1.0245703554134884 1.8130927638076182 25 40 3
11.619066141957237 0.9732160062486124 2.0844341031517493 50 66 20
11.41684434296626 0.7603023651824955 2.1989375448462827 55 71 19
12.05256695993759 0.1996349513007813 1.7130726023860519 35 50 2
13.030544280862847 -1.360721414881571 1.7023298054495537 69 87 73
11.586550737735333 -2.150381299833819 1.4591434840620348 65 84 67
12.547521871894576 -0.22154853112606698 1.870877134293949 58 77 21
11.690455633093409 0.0342131592316993 1.9853795537302112 61 78 20
11.864181099163485 0.38761875268919793 1.8011641020845337 43 57 10
10.78327853886611 0.03773934081395943 2.022719035668844 60 78 20
11.292981178301705 -0.29418126332862227 2.206926667094711 62 83 30
10.214687557237026 0.047536378654559217 2.287364588056198 60 81 28
9.87150484269682 0.39383058764742135 2.466959500875588 61 83 33
10.66646702881227 0.26571327798080435 2.1355765280595924 60 79 26
10.22928100410241 -0.09443055773926685 2.424352037537978 64 89 37
10.533913772643114 -0.3959234685068737 2.034242863670163 60 81 30
10.490066440354678 0.15585017787208308 2.1462680244231764 60 80 27
10.057249121428251 0.4659274950038166 2.3010820220149837 60 78 29
10.420050096601642 -0.07279500340619748 2.150633188914294 59 79 24
10.227796289440318 -0.08221633736595282 2.2862487707224712 61 83 29
11.533877907407948 0.6757375826683463 2.302825214646064 56 77 22
9.604714102894235 -0.11088967373293215 2.5024848465187857 64 87 37
11.254912511567534 0.8521175431511558 2.455609668749755 60 81 30
13.089155991374277 -0.999310913580494 2.8999974478879755 70 96 57
13.236552525121121 -1.3821392749603423 2.858318259082437 69 95 59
12.92509301785534 -0.7674180646586372 2.958483329998033 74 99 61
11.541273320504928 -1.1665360271528677 2.1911295114776017 66 87 50
12.358156177294667 -1.4989016324684032 2.2443912702463122 73 92 67
10.447105126405063 -0.6996375306378515 2.1489380329924845 61 83 38
12.283080999539424 -1.4906085032885905 2.358911345193203 73 93 67
11.114389879103303 -0.632059360493138 2.1102411878059817 62 84 37
11.880396264280296 -1.3208114245588287 2.5273842108212166 63 88 52
10.145677716202366 -0.778982933134722 2.4338516409739 66 88 46
10.639678160891966 -0.8761796963982212 2.3811825072645365 67 89 46
12.267290735068253 -1.6062426750848504 2.3602063862827274 76 96 71
12.370292380541635 -1.4801585823865093 2.4732752644190534 66 89 59
11.194671575121694 -1.0195224367193438 2.213428102871805 65 86 47
11.019997889794555 -0.8615140584761478 2.2253480105444368 65 87 44
11.386366593472772 -0.48971362690972137 2.096001342657729 62 83 34
12.834346602748324 -1.187312245738807 1.783471347539046 64 84 48
9.836936638412803 2.8640922885530498 2.06997825637382 68 89 51
11.009666447894011 2.7826554231129097 2.483292822902669 66 88 48
10.236929496129534 2.7826554231129097 2.4234958317908513 69 91 48
12.474987870834548 -2.136277699809949 2.7893440596842853 70 95 62
12.276062700323818 -2.682576953108613 2.8364651562455867 71 96 59
10.746114127043167 -2.9215684520749026 2.37082630900551 67 88 51
11.957107585841278 3.0727231077082724 2.6806175587879983 68 94 55
12.394749502794191 2.520450214448608 2.807399888383829 62 85 42
10.124097361337057 2.7565751955536997 2.054577058059928 68 89 48
12.921743379953051 2.984195449659175 2.9598884878184273 72 99 58
12.988590259571835 2.6068326305911422 2.9337352307673648 68 93 52
9.679072090019158 -2.4124312020947856 2.0788928530356072 63 86 60
12.037666784135128 -1.9364969672144083 2.2658253527182315 69 92 66
11.274424633079237 -1.705554175031217 2.101764701308633 83 100 94
10.009496175823186 -2.1782072982406295 1.9503970103977926 63 86 59
10.894750610447682 -1.9911335447252245 1.8220858896110521 66 85 72
12.24316511412059 0.6497856252487995 1.4651545669320016 31 42 6
11.9684180861832 1.1456085158466092 1.8858843664096345 40 57 20
9.994766976658795 -2.7693094204753637 1.5416784663405312 66 88 53
11.881531682038306 -1.7664865920918018 1.6305054940721437 62 78 69
12.289112064771667 -0.22154853112606698 1.7930621237491515 55 74 18
11.066143127043484 0.15585017787208308 2.22215185888269 60 80 26
10.528315110311055 -0.18578068388805052 2.1439130807310436 58 79 25
10.890927866708001 0.6757375826683463 2.234474808601028 57 74 18
10.98374629716283 0.7557666336378565 2.3487969150948933 60 78 18
11.103977423847248 0.5779514269838527 2.338183482174288 59 78 24
10.642447431789256 -0.5421084514263018 2.1370072528972623 64 85 36
11.363988912938817 -0.9877947986289436 1.9980582827518014 61 82 43
11.197303588180231 -0.7115617745719662 2.0048466807009055 61 83 38
10.87587492936306 -2.888059103498681 2.499366848592724 71 94 60
12.94608835993244 1.8095684456678522 2.7008714245447374 65 87 38
12.582291466967641 -2.7789241561722227 2.7668307140983104 71 96 62
12.072489560720602 -2.0311515985881834 2.8955845851237965 71 98 60
12.183338638319363 -2.952133727571621 2.861637516127128 75 101 62
9.766950023687192 2.657648177065374 1.851847250152684 64 86 43
13.501378027988501 1.8614897170088796 2.797294032157336 64 85 38
12.988590259571835 2.6068326305911422 2.9337352307673648 68 93 52
10.474437436176062 -2.223399668397949 2.397914846007759 65 88 61
11.416807553750608 0.702906517162257 1.632939043202343 29 40 1
13.196038249645973 0.8226008115913822 1.318744059388053 25 36 13
12.770432360039262 0.10719979597125077 1.548008508437574 26 42 0
12.766730106327783 -1.4375218643386813 1.6263610530908625 71 88 75
11.083730053073655 0.5055641588599719 1.5445399543674285 31 43 3
10.490066440354678 0.15585017787208308 2.1462680244231764 60 80 27
12.80668644619917 -1.9053580257487701 2.5611226291644917 67 92 59
11.283611124462663 -1.505642368720943 1.9057317116417656 79 94 81
10.13396142667468 -0.7772320770324829 2.60486983952205 68 92 51
11.178702417314986 -1.2315642972474428 2.3317553387796197 64 88 50
10.74876349879484 0.4124063547583518 2.2448601999760562 59 78 28
9.590753773923048 0.0641939917881993 2.5044461080128073 63 85 35
11.249513942950353 0.5529857774087784 2.0026964404526577 58 72 24
12.491840677554709 -2.995415146638058 2.7856919470455663 77 103 64
11.861435460339743 -1.3967570762855257 2.171976070894293 72 91 65
10.808308794577929 0.46540347292225864 2.0215951695683496 61 77 28
10.837577624560907 2.6029554260821484 2.23833026754617 69 92 49
10.339543747535798 -0.2394214439602824 2.4122094697082734 64 88 38
10.996952598191873 -0.358662305908059 1.9148188219390851 60 79 26
11.930928970633671 1.10622476513383 2.0697482253419253 48 64 18
9.83646837886274 -0.3748860065220393 2.321365694218589 65 87 38
11.645870178715356 -2.5410998294779157 2.5565478979652707 67 90 61
11.27996315526371 0.46540347292225864 2.1014763982544347 58 76 23
11.290490286423429 0.33420723426155996 2.001024266462097 59 76 26
13.059438323781638 -1.7986095273566638 2.6828140484118332 71 96 61
12.92509301785534 -0.7674180646586372 2.958483329998033 74 99 61
11.341644736747956 -1.204667423256691 1.9989554748461642 69 89 54
12.664867729029643 -1.7652005580296373 2.5784257187419644 68 93 59
