12.424361791707058 1.2045067759546486 2.3307396577015673 46 55 44
12.424361791707058 1.2045067759546486 2.3307396577015673 46 55 44
12.20301702977154 1.3120535987433186 2.3481219332332888 33 47 19
9.102642992546693 -0.19110071747881702 1.972486176248546 2 5 4
9.705228122024382 -0.17081054709442514 1.8376128044362527 2 8 9
9.329564409779568 -0.30519141110208686 1.96217655663116 1 5 4
8.927901692192409 -0.34434528739388554 2.1067194809860785 23 30 24
9.47761713074624 -0.34434528739388554 2.197563130648936 30 38 33
9.423016750216236 -0.07176593598995937 2.075793090594256 0 6 2
9.905886539105383 -0.0640094269144361 1.9382830732925327 1 7 7
10.389645596110947 0.9923746802029271 2.738981193299961 42 55 28
10.591523104267539 0.5779942799369199 2.5116979350521045 43 52 34
10.993044083303749 0.6787987614626744 2.6250678070594273 44 54 31
10.854223399075368 0.3691618726881426 2.4792141084108437 45 54 41
10.725189081966143 0.5180852142483101 2.670905585871083 43 55 31
11.72163588128334 1.2365511515308498 2.5243748935773866 41 52 29
9.086074388928628 -0.5232368562990186 2.229135857964303 40 51 38
9.832364218165042 -0.25969850628749325 2.905191889336674 43 57 26
10.186324271691724 0.41175490738751075 2.7887816834997547 43 55 27
9.91514300782999 0.5642937466501325 2.8727189611014077 41 55 24
9.563465421684848 -0.1390382447944154 2.679133156772859 42 56 29
8.96877469876804 -0.839001732625993 2.5732640548052723 40 56 29
9.182005249387245 -0.2502536439562579 2.3664496619623065 40 51 37
9.062370427945922 -0.09470016137070858 2.3800188971533753 41 53 35
9.89338316107988 0.22252426441247544 2.4403418521245475 43 52 38
10.21318706611479 -0.45831248140427927 2.7817065143048847 39 55 28
9.801106723141274 0.0655495258972509 2.4515661140040943 44 53 38
10.036351406145142 0.07804670607353617 2.5921005469118406 43 55 32
9.122686246406332 -0.6021250884918584 2.373109460851012 41 53 35
10.096725449100916 0.12602509761140163 2.8137293940185524 43 56 27
9.544924103757362 -1.016012774822117 2.68304514663931 39 56 26
9.547698129678565 -0.46035775199544254 2.4843807158628897 41 53 32
9.506526959008642 -0.6767933152572412 2.6912963177663762 40 54 25
10.807089523558817 -0.25969850628749325 2.9268650100916846 42 56 25
9.801106723141274 0.0655495258972509 2.4515661140040943 44 53 38
10.036351406145142 0.07804670607353617 2.5921005469118406 43 55 32
8.777285555563582 -0.46035775199544254 2.414722933234715 39 52 33
11.444953830457388 -0.6203670423492024 1.7074294620291783 0 8 6
11.51380947736778 -0.8715326918761969 1.7949138801894398 0 5 1
10.082340719208375 -0.9004645033156362 2.1547779183888878 44 57 43
10.914058245161975 -0.9437280873654544 1.807458321132545 10 19 10
8.978953868689182 -0.6354501793709579 2.1033460731479217 39 51 40
10.824490771183969 -0.8839251989082549 2.0055259724604384 38 48 39
10.281948217780078 -0.9679250728928981 2.030172042733558 49 62 50
9.668652082770661 -1.2856148739710793 2.183327658789569 39 57 37
10.082340719208375 -0.9004645033156362 2.1547779183888878 44 57 43
9.4589075347918 -0.8191990944262416 2.1989962823109748 38 53 36
10.082340719208375 -0.9004645033156362 2.1547779183888878 44 57 43
10.273060214674315 -1.2451647768791614 2.3976408881831173 39 59 33
9.05289598275057 -0.8268584251032782 2.3811171896168903 37 53 30
9.413903665521968 -0.958371088268945 2.503025340917306 39 57 31
10.276216762467982 -1.2856148739710793 2.263032305591663 39 57 33
9.598832653034826 -0.9236342410134291 2.323071518338338 38 55 34
11.068642430404227 -1.1558191815495897 1.8981410119282782 43 55 42
11.540430327925028 -0.9950659758338368 1.7062920677493523 0 6 1
10.753719887531961 2.38027982061498 1.6227923662896997 34 47 18
10.879982203277292 2.510766972330018 1.6221884167381535 34 47 18
11.115436238949963 1.9523066815830243 1.9934052604641028 36 50 22
11.561605452259846 1.9523066815830243 2.0723709836659903 37 51 22
11.115436238949963 1.9523066815830243 1.9934052604641028 36 50 22
12.128852353769926 1.7787688910032464 2.35415668423302 37 54 24
12.023319039345427 1.6626361684623896 2.362936871530856 36 51 27
11.31243480033159 1.9927131394690738 2.1892740161087474 38 52 22
11.79998558421251 1.8575493898273197 2.1601689145334797 38 52 23
12.095941571545843 1.540358876114534 2.482024131997774 37 51 25
12.023319039345427 1.6626361684623896 2.362936871530856 36 51 27
12.118608055379747 1.6749482487036067 2.4796157553574902 38 52 25
12.15577820645749 1.4068570993876872 2.475701661308399 39 51 27
12.060782865409617 1.426064590195086 2.3597934503298457 36 50 22
12.000472575037294 1.5439767940478974 2.3648684074372115 35 50 26
10.941790662049696 1.9291147101201374 2.333430402630447 39 53 25
11.49355390990211 2.040386193638726 1.9786591030011138 36 50 23
11.097142235661183 2.248971857097842 1.8034811304053144 35 49 22
10.914841422667804 2.2328589568003316 2.1051643510976676 37 51 22
10.651151406140274 2.3115062929632084 1.9114813143181166 36 49 20
11.172882475169793 2.1725561190393385 1.9910942641609608 36 50 24
11.153575299331365 2.087201636007701 2.092544117487127 36 50 24
10.986478163446348 2.143251751028969 2.210549447664458 39 53 24
10.597685204042692 1.2996514474823169 2.695129536367526 41 54 27
11.468498024191133 1.744682883218643 2.740633771621454 42 56 27
11.051165959188165 1.3479654259731655 2.6158818475675893 39 53 28
11.510624011265293 1.5356131117391196 2.5506958850436594 38 52 25
11.573487219980548 1.381841341874452 2.5426474620954 39 53 28
10.832493410390068 1.477419157385527 2.916364442328555 40 56 29
11.162947288329104 1.2256433765162893 2.811116966040381 40 54 25
11.097758821477338 1.504717085683406 2.8286905846521693 41 55 28
10.89926854373633 1.100120327483457 2.891023015953958 40 54 25
11.122459690074948 1.7941981429267166 2.8218975457147364 42 56 27
11.046413145005332 1.9793546034138665 2.4572147718645883 42 56 27
10.805311873994048 2.180076625128746 2.485039827757368 41 58 28
11.182809359561908 2.2788431135012805 2.5959329640743727 45 59 30
11.838118145284287 1.9793546034138665 2.5106431948948895 42 56 27
11.579089153665755 1.9534443440266969 2.718671075235422 43 57 28
11.613464708941912 2.180076625128746 2.5376228738567708 42 59 29
11.125414381069644 1.8878036625955452 2.6044903076030916 41 57 30
11.236457104221333 2.050759273040724 2.7925484273357624 45 59 30
11.437081225237062 2.253975698612258 2.747163870077603 46 60 31
11.236457104221333 2.050759273040724 2.7925484273357624 45 59 30
10.827644609921938 2.4070701757761808 2.6526361676725 46 60 31
11.469016883621729 2.5735898692298242 2.7405270675716733 47 61 32
10.284562834448277 -1.241930580943249 2.7636924452632172 41 60 32
10.577849562436722 -1.2063720788036036 3.0817248856669845 44 58 29
10.646221990353139 -0.44954553291560295 3.0134248268284467 43 57 28
10.748241962960497 -0.9145207496432042 2.9536131188900794 40 59 29
10.68052264601358 -1.4299847864703266 2.990535646758348 42 61 32
10.637639777761446 0.3218571317683583 3.019844980944914 42 56 27
10.874567881919496 -1.4839670274169157 2.900057064097404 45 61 33
10.395227258174378 2.452193442854222 1.8195136361731123 36 50 19
10.262379154389643 2.3041824889794444 2.1432276755365853 39 53 24
10.063567666474778 2.7710587296344507 1.9322580448236102 37 50 19
9.541477793014645 2.7710587296344507 1.7349133549372633 36 49 16
10.976876176544632 2.510766972330018 1.7132947211897256 35 48 17
10.117371705493492 2.5337585858876865 1.930248222427067 36 51 18
10.033028989549912 2.6257361583198695 2.042482625635975 39 52 21
10.297958401187163 2.467831301669563 2.1410028646466497 40 54 22
10.147656561969761 2.6759909097115133 1.8257147706407313 37 50 19
9.794393773022339 2.467831301669563 2.054950646729842 40 54 23
9.328826076097746 2.84115179896037 2.081383316107003 37 51 19
10.395227258174378 2.452193442854222 1.8195136361731123 36 50 19
10.484147407610617 2.4895192112496036 2.376017114388174 44 58 29
10.376364905152146 2.5215703762572317 2.54072536928418 45 59 30
10.953054784985866 2.6743566906461615 2.631532907792591 44 58 29
10.601908788940003 2.7464096127091655 2.5103553196885726 42 56 27
10.746454578995202 2.3960032158571876 2.4921803306144787 44 58 27
10.376364905152146 2.5215703762572317 2.54072536928418 45 59 30
10.277007657216169 2.3888893949641608 2.2629685014952043 40 55 25
9.732098076136628 2.7999794305714785 2.3103320823171023 38 55 23
10.338537859018054 2.211086855888636 2.258044738168442 40 54 25
10.10445493289839 2.6083330779914293 2.4159541741538297 41 55 24
10.026518355694368 2.6754147268040844 2.2838614534597372 39 53 23
9.487151557953593 -3.0743018368873223 1.95533149240552 35 50 15
9.377649443779188 -2.8198589008728 2.078469456525749 36 51 17
9.377649443779188 -2.8198589008728 2.078469456525749 36 51 17
9.566092152105588 3.089075242226613 2.1908814908840544 38 53 19
9.566092152105588 3.089075242226613 2.1908814908840544 38 53 19
9.572915931452075 2.982408492775819 1.9517085773529679 37 49 16
9.572915931452075 2.982408492775819 1.9517085773529679 37 49 16
9.533960121062414 2.9365751361903194 2.3294585499642713 40 54 23
11.939783445818218 2.205721032416389 2.888327895300529 46 60 31
11.778840832590486 2.4705998588773874 2.948041473085797 46 60 31
11.970378024822981 2.6717779857530646 2.87863432226905 47 61 32
11.670142786694468 2.0734550680861994 3.0034077718135026 43 57 28
12.166407496927558 3.0337398253686496 2.8242459848731034 46 60 31
11.592018602827684 2.656029052457737 3.065982178616314 44 58 29
11.894226022891573 2.995346010886079 2.9035762647086694 47 61 32
10.386968645869894 2.899981040375531 1.8197155760823505 37 48 15
10.112093893117123 3.0998070112890135 1.8266313267409542 34 47 14
10.782730985165792 -1.4107339708423925 2.3476216608468325 42 61 35
10.106903069036129 -1.4107339708423925 2.277003024396399 41 59 37
11.666552957757379 -1.7367907286779647 1.9722605613025097 45 57 34
11.556798830926038 -1.6437856042250198 1.9762956681292871 44 56 33
11.2402884291998 -1.455594179160621 1.8929602483812973 41 53 31
12.092404879415838 -1.7367907286779647 2.048455586063041 43 62 37
11.963633995253781 -1.549501878703475 2.0540352968210422 37 55 33
12.762950768413488 -1.826992703568311 2.1105228995751038 46 62 38
12.523100556253741 -1.8523749503866203 2.21880060647464 47 66 41
12.756293421471227 -2.238497446467823 2.110835569602668 46 62 35
13.832021313929246 -2.3681099022766654 2.2379777637121614 42 59 29
12.675099884409844 -2.2993911517540933 2.209752833490027 46 60 31
13.713332727210338 -1.9615160937422103 1.9881739037673434 47 61 37
12.48018565603691 -1.9943041282364564 1.9447416643411446 46 60 36
12.499561109571399 -2.1127193934529536 2.0316663541121027 51 65 40
12.895886658419942 -2.0699494341477553 1.9321232017236003 51 65 40
12.879162700296629 -1.9943041282364564 2.0170837776662927 48 64 40
12.975238948993281 -2.1127193934529536 2.100750149024935 50 66 41
16.630350510139817 -2.372302712450842 2.6371448459765756 41 57 30
15.399004788817246 -2.2993911517540933 2.4198058835116303 43 60 31
15.770170818349271 -2.2210856070384017 2.492066553166188 43 59 32
16.630350510139817 -2.372302712450842 2.6371448459765756 41 57 30
11.536736421335126 1.278971785906231 2.406669314654817 39 50 27
12.20301702977154 1.3120535987433186 2.3481219332332888 33 47 19
12.20301702977154 1.3120535987433186 2.3481219332332888 33 47 19
11.757847085230686 1.2045067759546486 2.269050216461758 35 45 29
9.754925418873691 -0.30519141110208686 2.0570796381505905 0 5 6
9.705228122024382 -0.17081054709442514 1.8376128044362527 2 8 9
10.389645596110947 0.9923746802029271 2.738981193299961 42 55 28
8.739226806455969 -0.3944274849595887 2.2602113306727256 39 50 37
9.32608583216997 -0.2956055068068375 2.515821032006558 42 55 35
9.826327770272282 -0.839001732625993 2.62806516097396 39 55 28
10.545726313080191 0.3217814665277184 2.7055352923558162 44 54 31
9.407012438933048 -0.3944274849595887 2.3423294486643806 38 50 35
9.890662067055677 -0.5501052430712947 2.6166475730017034 42 55 31
9.942738493248147 -0.6207366590728677 2.8628239489173186 39 58 28
10.459206762315109 0.09641340048561498 2.7236403064619448 43 56 31
8.589078125621821 -0.7044385917169338 2.4397169294961394 40 54 31
10.105767037735841 -0.18131278391624886 2.8111091019779915 42 56 27
10.798635161155719 0.18160119261652732 2.9304849112643523 42 56 27
10.459206762315109 0.09641340048561498 2.7236403064619448 43 56 31
9.208323100463799 -0.11268175006665877 2.5337409483440907 43 55 33
11.05641557072412 -0.18131278391624886 2.840462833656618 42 56 25
11.995880631779293 -0.8071443212517433 1.701117757261765 2 8 6
10.666926639290935 -1.0243417814807911 1.9109570842866175 54 65 54
9.424233472725458 -1.169008823788931 2.075721721280595 41 56 37
10.60424351272834 -1.113697039893647 2.01519240631742 44 57 43
9.811590994878197 -1.0628763644562456 2.0540290964876893 44 57 41
9.602210843127288 -1.0007173394696796 2.1881982076933166 40 55 37
9.4589075347918 -0.8191990944262416 2.1989962823109748 38 53 36
10.213728551681495 -1.0007173394696796 2.2681155363457677 39 55 36
9.661940982424706 -1.1919811882724445 2.4692062590704453 40 60 34
11.218207909595822 -1.0719370496043024 1.8009244706837335 37 45 37
19.18624323474537 2.5278491715424516 1.2284326209644694 1 9 1
10.763520950887342 1.9927131394690738 2.1135049308113585 37 51 23
11.274833122315407 1.8575493898273197 2.0863722933673405 37 51 22
11.605636608560475 1.7572020296311806 2.1714086112669575 38 52 24
11.333243263528924 1.6626361684623896 2.3009269555688356 38 52 26
10.8034950341264 2.1725561190393385 1.9064866850732267 36 50 21
10.42040808146787 2.143251751028969 2.133485499685582 38 52 23
11.025643932582188 2.3115062929632084 1.9970706686913104 38 51 22
11.039840901146421 2.38027982061498 1.8047113192949498 35 48 19
11.557578753553738 2.3170230712798605 1.7060897908687391 34 48 21
10.55559332416884 2.5735898692298242 2.703533538359302 47 61 32
11.122459690074948 1.7941981429267166 2.8218975457147364 42 56 27
11.01026731977236 1.7130126959962733 2.6223202096712694 38 54 27
11.644405632064055 1.8409091060856653 2.533782502384755 41 55 26
11.534440767821433 1.6910541418579064 2.5476249892565717 39 53 24
11.097758821477338 1.504717085683406 2.8286905846521693 41 55 28
11.573487219980548 1.381841341874452 2.5426474620954 39 53 28
11.437081225237062 2.253975698612258 2.747163870077603 46 60 31
10.597685204042692 1.2996514474823169 2.695129536367526 41 54 27
11.444544037802988 1.519675651466104 2.74560020451013 40 54 25
10.646221990353139 -0.44954553291560295 3.0134248268284467 43 57 28
9.979457403548983 -1.1290217750075366 2.8502447905337704 42 59 29
10.72271968368783 0.8547935377639162 2.9665670966718007 42 56 25
11.301372080560238 2.7843889865264817 2.7770934088805745 47 61 32
10.577849562436722 -1.2063720788036036 3.0817248856669845 44 58 29
9.231601220864004 2.873682039690643 1.740474849018421 36 49 16
10.147025730881813 2.7283883348193645 2.150570830917267 38 52 21
10.510899489514813 2.5337585858876865 2.0194253320572058 38 53 19
9.770263906578101 2.873682039690643 1.9436325029314845 35 49 16
9.942692585417968 2.6759909097115133 1.7282343229344337 35 48 17
10.620370571369993 2.589192403469984 1.814133198506182 37 50 19
9.98146727204924 2.383932041281905 1.935369634143334 38 52 21
11.000143767874677 2.211086855888636 2.328374017292886 41 55 26
9.812373419180538 2.7464096127091655 2.4501761524095453 41 55 25
10.484147407610617 2.4895192112496036 2.376017114388174 44 58 29
10.10445493289839 2.6083330779914293 2.4159541741538297 41 55 24
9.78772440421909 2.4895192112496036 2.3051597590842166 41 55 24
9.031887058498892 -3.065677767899082 2.0998955868039992 35 50 16
9.660613667677119 2.962344830986878 2.18391247696485 37 51 20
9.021769294933982 3.089075242226613 2.100551452514604 36 51 17
9.121932831617839 2.962344830986878 2.094133408782495 37 51 18
11.673468619092203 2.85468845061657 2.701051709414163 46 60 31
9.438170279056985 3.081340488741845 2.339123481160102 40 55 21
9.615889701109666 2.9023167116354873 2.4752445264562617 41 55 24
11.646603537691705 1.412013942259141 3.018792338267975 42 56 27
11.832563967093977 1.8818752871159674 2.926103291431392 43 57 28
11.778840832590486 2.4705998588773874 2.948041473085797 46 60 31
11.701442389123107 2.9152299337040035 2.9853459692574216 46 60 31
11.701442389123107 2.9152299337040035 2.9853459692574216 46 60 31
11.568320387620629 1.066446031597432 3.101231044696976 42 56 27
10.201557737755076 2.9984604304738207 1.82433817031859 35 48 14
11.963633995253781 -1.549501878703475 2.0540352968210422 37 55 33
13.016980103488306 -1.9131343855163252 2.09887253724414 48 64 40
12.692092732322276 -2.3681099022766654 2.1138707132631267 45 59 30
13.890954522918687 -2.238497446467823 2.2346403784117532 45 59 30
12.577205367459456 -2.0699494341477553 1.8576795467374012 47 61 37
12.991839231978426 -2.1857429880088994 2.0129380447222394 49 63 38
12.879162700296629 -1.9943041282364564 2.0170837776662927 48 64 40
13.112046557931786 -2.0326710757542896 2.1852167695007454 50 66 41
9.26769071840004 -0.4612694458340954 2.0850821137557376 14 22 15
8.96877469876804 -0.839001732625993 2.5732640548052723 40 56 29
11.95189897195107 1.1045012852790574 2.4977262452624434 43 52 31
10.150897072258422 -0.8611854891544537 2.79838531967347 40 57 27
10.648750016557042 0.812990108576951 2.6852145527815097 43 55 28
10.126484430500321 0.26331307878248983 2.5777345436433454 44 53 33
11.770617169787505 1.1601684407079098 2.3849444362549113 39 48 30
10.759278460302133 1.103302592656948 2.6647164182444625 42 55 27
10.648750016557042 0.812990108576951 2.6852145527815097 43 55 28
10.313245090401917 0.4319133741960328 2.5497137681754536 44 53 35
9.135639070370624 -0.081656724439743 2.2249463546125874 24 32 22
9.37496991459694 -0.7044385917169338 2.508641168738064 40 54 29
11.068104801917103 -0.8100785180285703 1.8981575059917195 0 4 0
9.206047565244015 -1.1156923920264912 2.219095109666193 37 54 33
9.560652016302937 -0.7208809567260831 2.3268154409062527 42 55 39
12.093789325263508 1.652921390206603 2.2459575821566924 37 50 28
12.060782865409617 1.426064590195086 2.3597934503298457 36 50 22
12.095941571545843 1.540358876114534 2.482024131997774 37 51 25
11.445141395718435 1.7787688910032464 2.2922090321573854 38 54 22
11.38618223782776 1.4068570993876872 2.4214197703297278 39 51 28
11.49355390990211 2.040386193638726 1.9786591030011138 36 50 23
11.32800528990763 2.0447579032647245 2.575175451823501 41 58 29
10.827644609921938 2.4070701757761808 2.6526361676725 46 60 31
9.121932831617839 2.962344830986878 2.094133408782495 37 51 18
9.635576440027608 2.7283883348193645 2.063638736355809 38 51 20
11.865703755224372 1.5291150889148635 2.6678500208032725 37 53 26
11.122459690074948 1.7941981429267166 2.8218975457147364 42 56 27
10.449202148507716 2.2939913063091866 2.3795030272840516 41 58 28
10.380148686533955 2.383932041281905 2.025497634666802 39 53 22
9.61997260149874 2.6257361583198695 1.9497504166281001 38 51 20
10.508296865485503 -2.9621826205455055 2.1282191859215165 33 50 16
11.16286739358466 2.510766972330018 1.8020860774558987 35 48 19
9.575634793006795 -3.065677767899082 2.1901700942163664 37 53 19
10.222210832811637 1.2256433765162893 2.7793677153515848 40 54 27
11.939783445818218 2.205721032416389 2.888327895300529 46 60 31
11.53302824590443 -1.549501878703475 1.9771806423493155 43 55 32
13.398008650150743 -1.8855935761266 1.9986345641360768 46 58 35
11.859903735436534 -1.826992703568311 1.9653497340050656 44 56 33
12.851228840105977 -2.3063205768258097 2.0181240864390624 47 61 34
12.689537152747704 -2.4383644596514746 2.208907852603526 41 57 27
16.14414515745604 -2.2902287375134085 2.567830384005527 42 58 33
10.551311372254869 0.19254093357231983 2.3694167701424362 18 23 18
9.676907227943643 -0.36016881780131926 2.6561454303443055 42 56 31
11.481998404328138 -0.7453207998091036 1.7955454564388789 2 9 5
9.202523947191422 -1.0475444952518005 2.364176408830331 37 56 32
9.842210606621755 -1.1156923920264912 2.3001730526365973 38 55 34
9.477519826258087 3.0950513280878638 1.9557427923082085 35 49 16
9.85620585264146 2.84115179896037 2.1700179505517005 36 52 20
10.341055425861663 2.2788431135012805 2.5457253033085436 45 59 29
11.051165959188165 1.3479654259731655 2.6158818475675893 39 53 28
11.179869837307422 2.426645661357813 2.80673268381129 47 61 32
11.773876350896671 2.1324906002257706 2.6832959136680024 45 59 30
11.642169912247963 1.889497629478058 2.2774191101803587 38 52 21
10.827644609921938 2.4070701757761808 2.6526361676725 46 60 31
11.832563967093977 1.8818752871159674 2.926103291431392 43 57 28
10.604447379106942 2.1030562940109725 2.364285248243257 42 56 27
9.809720172311106 2.564668721963303 2.1732580735220246 40 54 24
13.236578703631482 -2.3681099022766654 2.1785945388904446 41 58 28
16.528226812416246 -2.36989266928639 2.532815733980147 42 58 31
10.372007498145658 0.6414126478208418 2.7429931712213054 41 55 29
9.254326763765606 -0.2167754694040332 2.215149048290384 28 36 28
12.109197886566548 -0.9251585738150002 1.6998913629081915 2 7 4
11.458259992076302 1.8058752763790773 2.4142791180741194 39 53 26
9.750283467100624 2.2939913063091866 2.3086319708113416 40 57 27
9.438170279056985 3.081340488741845 2.339123481160102 40 55 21
10.380148686533955 2.383932041281905 2.025497634666802 39 53 22
11.98655067440404 -1.6437856042250198 2.053032338201841 41 59 37
12.781897599327996 -1.9457084374358902 2.203559630462646 48 67 41
10.10581012285773 0.8248874598542312 2.811096674826043 40 54 26
9.413903665521968 -0.958371088268945 2.503025340917306 39 57 31
17.37981949180969 2.7061225573264664 1.0636507864970577 16 24 4
10.827644609921938 2.4070701757761808 2.6526361676725 46 60 31
9.78772440421909 2.4895192112496036 2.3051597590842166 41 55 24
11.561605452259846 1.9523066815830243 2.0723709836659903 37 51 22
13.298150988247675 -2.238497446467823 2.1753771936536044 46 62 35
11.655066741279537 1.9291147101201374 2.3955049819470755 40 54 27
10.590271183412606 2.0419842280174723 2.238688541372293 39 53 24
