10.999642815216312 0.2674216195888953 1.5035799019575113 52 74 27
11.111693937469484 0.2674216195888953 1.4136667479045206 53 75 28
9.09138636567634 0.3257786120109311 1.4894428794287906 59 77 25
8.913409530125607 0.4148594455001912 2.2021731729543843 18 34 0
8.904818959664643 0.24545835405622532 2.0697732001867 10 26 0
8.882455685424992 0.2178174154296511 1.7132655550477986 73 91 38
8.904818959664643 0.24545835405622532 2.0697732001867 10 26 0
8.638328786968735 1.9788447581203799 1.4851659087227032 30 48 7
8.791693398146627 1.773103696320292 2.212334512538951 59 80 31
8.361234178636149 2.030409109757204 1.9714693038506597 24 43 0
8.498142095863217 2.1400337613301 1.8401222110450837 26 43 0
8.442022407906537 1.8675029174355224 1.363341868847807 67 87 43
8.356730344017768 1.8675029174355224 1.72229546063394 63 83 39
11.563836233219673 1.4862583902917508 2.4995531199283474 56 78 27
10.879766841828344 1.3450446813613768 2.43306032746599 59 80 29
11.386155392789924 1.4520305937791307 2.6933260367475556 47 68 15
11.481025765798375 1.2580057939851177 2.6764395263345393 49 70 16
11.09466716867779 1.3083965702044402 2.5584629035970283 52 73 22
9.637278988141656 0.3928842690487324 2.600629144225661 51 66 14
9.063930341970162 0.5640078949997895 2.4999428589467065 48 66 9
9.60855094435443 0.4789545933919451 2.427521485214106 49 64 10
9.431591599260527 0.7048789845724165 2.4494504567961526 45 64 9
11.931757945916788 1.4219809853591052 2.8047429536245354 57 77 26
11.736105778108898 1.0706879668548483 2.8561412274092453 60 79 26
13.409380067039903 1.2722588093763514 2.992791480276464 65 84 37
10.710842620940598 2.0955256268430675 2.45166676569671 53 71 25
10.146553993454217 2.4180789114901127 2.522125163992331 64 85 43
9.139026329207066 2.633899290101909 2.699708434492729 65 85 44
11.243396620197496 1.9593526814994955 2.5387042499555097 51 71 21
10.571312349620369 2.3042032731275373 2.467820197666543 56 77 31
11.843783326021562 1.641068213587331 2.618700624441225 51 72 20
12.606337403265497 1.7130309798402552 2.907055075464764 67 88 43
12.288104675861764 1.655346785023648 2.7298654893501473 53 74 23
12.606337403265497 1.7130309798402552 2.907055075464764 67 88 43
11.924656375501197 1.6768802633630593 2.806447683247184 60 81 31
12.414493782422875 1.7859814892288548 2.984281059242569 64 82 41
9.622115807125247 2.9195315077690536 2.0295765323672526 68 88 47
8.706423448763747 2.489313540573652 1.9547336210302237 64 80 32
9.03075951750743 2.7687911499210074 2.062188729759608 74 93 50
9.86766916727932 2.9424630774544003 1.8020031369656546 65 83 42
9.167689033923233 2.595363168969386 2.1820383985785305 71 91 47
9.306013975937153 2.3980079917767636 1.9288372283685307 45 62 16
10.298583731985934 2.406102683329882 2.35331510099275 54 75 30
10.85419896070609 2.717033813626505 2.4358134468019377 66 85 43
9.42172146021658 2.717033813626505 2.297687053700804 65 84 42
10.1655552643983 2.313380360039502 2.2343534470927207 64 81 37
10.444679125152854 2.595363168969386 2.3395022869834046 67 88 43
10.630783048648802 2.8536494889279433 2.4608439717742945 56 76 35
9.873760596910124 2.8536494889279433 2.397058550215184 56 76 35
9.42172146021658 2.717033813626505 2.297687053700804 65 84 42
10.294807093130023 2.6499277363547544 2.5022075539724873 64 86 46
15.769753836256719 -0.6260592495876015 1.3962369348078738 64 80 42
16.353035001776636 -0.5902153696928506 1.586769573275878 66 84 44
16.104096850570038 -0.6260592495876015 1.8385890429220464 58 73 23
9.655182564502025 0.09362953150229314 1.4942029630037572 57 75 29
9.274595072324843 0.11811318118885075 2.173983445298777 29 43 0
9.296125002025489 -0.14401886029711558 2.17238899176843 41 55 5
9.235549060485296 -0.3879935212879203 2.0503588363301404 40 56 5
8.723412872974908 0.1044609960940773 1.7158812254847067 59 77 30
9.617446625662987 -0.49556329180996384 2.0298163452509828 40 54 6
8.677433105546243 -0.0116430338679787 1.7166554815529083 59 77 31
9.18382518920724 -0.0116430338679787 1.9338201153768995 58 74 25
9.647018096650733 -0.12743539318967123 2.0283019279098755 54 70 22
10.785317110886318 -1.830232457808595 2.0803771115529237 65 85 49
11.052314109552357 -1.9298374300762458 2.066927793222861 60 79 47
10.785317110886318 -1.830232457808595 2.0803771115529237 65 85 49
11.052314109552357 -1.9298374300762458 2.066927793222861 60 79 47
8.69935879749111 -0.6332730027196568 2.22028617037686 52 67 17
9.161003803993925 -0.017896349263429572 2.4858914006926245 53 68 15
8.65762587777213 -0.2354679319395701 2.56569846197431 54 69 19
9.490893500831323 0.1938490109678791 2.6268803257527833 53 68 16
8.58804824687333 -0.021798709857918094 2.5782982984252474 54 69 17
8.65762587777213 -0.2354679319395701 2.56569846197431 54 69 19
9.072346319207965 -0.2977263878415632 2.715508879749574 61 78 30
8.67092233450362 -0.7130077996266625 2.5633410943649544 56 72 24
8.356549062550705 -0.5945401196394826 2.4177352802251724 53 68 17
9.247020108364202 -0.529919957019651 2.6756322878133343 59 75 25
8.94434627242171 -0.50673452846551 2.3462184905482344 52 67 15
8.648781248947078 -0.3596637218471657 2.3802931527342532 55 68 15
8.543952648861687 -1.299236080453872 2.883607923092443 80 100 58
8.907186024683936 -0.6822887075881592 2.7584004503599444 64 80 30
8.843022108693171 -1.3843681314852367 2.776821734307029 71 88 45
8.936453659170514 -1.9990854205802746 2.750356262111773 84 102 62
8.833437723144321 -1.70397012497534 2.7796737790107744 86 104 64
8.457997236284951 -1.9031855397002209 2.6031359081092167 62 79 41
8.349079904706324 -1.6717435872555613 2.6253917698169524 58 76 36
9.36761498661554 -3.1189577913743483 2.650651117568525 61 81 43
9.431443351168983 -2.8974382853482776 2.638137980751596 67 91 53
8.984526442433433 2.8839177376046905 2.737582522367996 62 82 43
9.36761498661554 -3.1189577913743483 2.650651117568525 61 81 43
9.871374192379443 -3.112333639073609 2.7881524197562655 62 83 44
9.011042183713808 -2.265341761715536 2.5078406236689794 67 87 50
8.60226528815661 -2.4045562047948357 2.5756867786839113 72 92 54
9.182671443611728 -2.5903117411916328 2.689765942345505 73 93 54
8.681491763679604 -2.1031637589743544 2.561478394334801 64 84 45
9.011042183713808 -2.265341761715536 2.5078406236689794 67 87 50
9.798636269901701 -2.4259189631414944 2.8088557499672757 72 92 52
8.428867805900069 -2.0130940117257516 2.408081169902648 63 80 42
11.495187798126707 -1.9829208553767632 1.858448157456556 56 75 45
11.481775142490465 -1.8968747711429146 1.9510190309065192 56 75 44
9.724752333284409 3.046288453671638 1.8054642830598104 66 85 47
10.14431688697941 -2.8970464349170797 2.116050253182795 74 91 54
9.925086337446363 -3.129715242098362 2.129504327304055 59 78 41
10.02462139652942 -3.025293229331081 1.902145400810999 69 86 54
9.683528339018073 -3.1309766440152242 1.8064821693489614 64 81 46
9.767244742665193 -2.994330225930149 2.2666495804381035 70 90 51
10.188174329133362 -2.745624083701642 2.2326188798941136 67 84 48
10.173038585856386 -2.691464030526327 2.3656612934665593 72 92 55
10.460084823993057 -3.126012925885628 2.4812519028884634 60 79 48
9.91417172135309 -2.825249251368938 2.3926454802645467 77 97 60
10.517285185539825 -2.9717852445899737 2.474280376770582 73 91 59
10.498259921352886 3.002205839222269 2.476583855373202 56 77 38
10.098644405512461 -2.771662529645174 2.5288093581497386 75 96 59
10.460084823993057 -3.126012925885628 2.4812519028884634 60 79 48
9.751455674494537 -2.9717852445899737 2.4107726010605623 71 90 49
9.73093322728815 3.002205839222269 2.4131284448511967 54 74 34
8.75936963488496 0.534729535481123 2.0788450551147095 20 37 4
9.924728575768436 0.19569974072389468 1.3946886890677836 51 73 26
11.304522498252382 0.35302480870218944 1.505395334504736 53 76 22
9.282843449230592 0.28092298375599273 2.3110721899209445 41 55 4
8.004976889170912 1.9075067541725066 1.9903978193633813 26 46 0
10.779606139668573 1.4862583902917508 2.443972375844604 59 80 29
8.877040686394912 0.4789545933919451 2.3536780305003404 37 53 4
9.355435019233472 0.32793790007074824 2.459329640145685 51 66 12
10.475622066854081 1.1578966125845855 2.4793445304822814 51 72 21
9.883179303565786 0.5640078949997895 2.560539185732474 48 65 11
12.022323639218646 1.1848440330181 2.7838533036738786 54 73 19
12.508336895293091 0.8756421444184733 2.9424786929288316 63 81 31
12.294996320906437 1.4520305937791307 2.7285837837234137 49 70 18
10.771745008131845 1.630910532261844 2.4448434644888972 54 76 25
9.139026329207066 2.633899290101909 2.699708434492729 65 85 44
11.843783326021562 1.641068213587331 2.618700624441225 51 72 20
8.708041360571798 2.735213974101563 2.5568423847146153 65 87 46
10.345546468990742 2.213239892702677 2.3488118180237842 61 79 33
10.710842620940598 2.0955256268430675 2.45166676569671 53 71 25
12.288104675861764 1.655346785023648 2.7298654893501473 53 74 23
12.414493782422875 1.7859814892288548 2.984281059242569 64 82 41
12.87322141408766 1.6768802633630593 2.8320000964255865 66 87 38
9.222944904063224 2.9195315077690536 1.932209411046014 72 91 49
9.701767675154946 2.3980079917767636 2.0255253871721233 71 88 41
9.128209527148627 2.489313540573652 2.056484008137663 70 90 44
9.28853758749139 2.890756147692258 2.1729498542498455 59 79 38
9.28853758749139 2.890756147692258 2.1729498542498455 59 79 38
8.647040772802262 2.313380360039502 1.95750950949173 52 68 20
16.897081208856957 -0.5902153696928506 1.8257344826020463 66 85 44
9.22728193766029 0.1044609960940773 1.9320317403738292 60 76 26
8.499913061150469 -0.1655188105120315 2.238228254741088 51 64 12
9.729705877170316 -0.11426173556282723 1.7007857409469018 59 79 36
8.923022585129328 0.1044609960940773 1.827001970859758 67 84 33
8.94539872517817 -0.12743539318967123 1.8263467499268924 61 80 34
10.785317110886318 -1.830232457808595 2.0803771115529237 65 85 49
11.40106263337076 -2.0225332830958753 2.0504430058382996 60 77 44
10.785317110886318 -1.830232457808595 2.0803771115529237 65 85 49
11.40106263337076 -2.0225332830958753 2.0504430058382996 60 77 44
8.052705018728773 -1.0982260511556994 2.694503531815252 64 80 35
8.307555363933885 -0.8757893239623756 2.634268636471865 58 74 27
8.725711989830929 -0.40234743549791957 2.8138305292781336 65 83 36
9.072346319207965 -0.2977263878415632 2.715508879749574 61 78 30
9.204568297750066 0.1597881482227614 2.4797630482827397 52 67 14
8.365702659200132 -0.529919957019651 2.621901326821864 58 73 23
8.67092233450362 -0.7130077996266625 2.5633410943649544 56 72 24
8.349079904706324 -1.6717435872555613 2.6253917698169524 58 76 36
8.457997236284951 -1.9031855397002209 2.6031359081092167 62 79 41
9.871374192379443 -3.112333639073609 2.7881524197562655 62 83 44
8.984526442433433 2.8839177376046905 2.737582522367996 62 82 43
8.681491763679604 -2.1031637589743544 2.561478394334801 64 84 45
9.182671443611728 -2.5903117411916328 2.689765942345505 73 93 54
8.60226528815661 -2.4045562047948357 2.5756867786839113 72 92 54
9.148266830188927 -2.23268586433178 2.6975781300296653 72 92 53
9.006749785159835 -2.830014761454253 2.7318495909550644 64 85 48
9.006749785159835 -2.830014761454253 2.7318495909550644 64 85 48
9.985351869343916 -3.011620226680561 2.1257357242426846 71 88 56
9.475496069049637 3.035044357253716 2.0372339551938468 62 82 42
9.878400302240083 -3.1231365401728275 2.561276315254333 61 83 46
10.460084823993057 -3.126012925885628 2.4812519028884634 60 79 48
10.668326992683578 -2.825249251368938 2.456510330540379 81 101 64
9.252131548949414 0.6096131366365278 2.3141090333453476 29 48 1
10.996464048846326 1.472016375377609 2.5721432980725845 53 74 23
12.421315303943592 1.2722588093763514 2.9808558537634933 65 83 40
12.414493782422875 1.7859814892288548 2.984281059242569 64 82 41
10.113912950794534 2.717033813626505 2.3716372431439794 71 90 48
10.216115160677 2.489313540573652 2.2304900167408284 63 84 39
10.294807093130023 2.6499277363547544 2.5022075539724873 64 86 46
9.667846880634643 -0.01042837616710532 1.7016222308591396 56 76 33
8.85018991837516 -0.5569062761167161 2.073140228991125 50 65 13
9.231361053736215 -0.01317793315887121 2.177213080150705 38 52 1
8.980442547269455 -0.4400004721444971 2.1967258828572898 52 65 12
9.630417968925734 0.09362953150229314 1.5979220431221353 53 74 29
9.086859127367084 -0.015178939203941255 2.3309584636993055 53 67 13
9.130777384854419 0.13584505722696893 2.3263952718089733 49 63 9
9.152645625689878 -0.1655188105120315 2.3241466874071204 53 67 14
8.843022108693171 -1.3843681314852367 2.776821734307029 71 88 45
9.871374192379443 -3.112333639073609 2.7881524197562655 62 83 44
9.011042183713808 -2.265341761715536 2.5078406236689794 67 87 50
8.840497666325987 -0.42951559825140195 2.534581328747957 55 70 18
8.46176718796334 -0.19446945224965212 2.403777473485317 54 68 17
8.543952648861687 -1.299236080453872 2.883607923092443 80 100 58
9.196097671930326 -2.0130940117257516 2.4809463126945874 62 80 40
9.410223025445172 2.940500893270089 2.6422474447473543 60 81 42
9.929702060584017 -2.8656257846428335 2.2530613764271044 72 90 54
8.63995269666331 0.28092298375599273 2.225518025435223 31 46 2
8.461799743464988 1.9075067541725066 2.098534822136006 47 68 19
8.265140176686876 1.8675029174355224 1.6024041934421023 55 74 31
12.613055170383491 1.3718428162714744 2.90483629794607 62 83 33
9.399718310364703 2.65740426039613 2.0412971299234166 71 91 47
9.862085987942454 2.5174438718918695 2.3983441636557385 61 83 40
8.686105870639725 -0.3087176056044754 2.2214453437847816 52 65 12
9.011042183713808 -2.265341761715536 2.5078406236689794 67 87 50
8.66997951970809 -0.9243329013371145 2.833293827687006 69 85 37
9.599585242871445 -2.6976467252751117 2.607201416006543 70 90 53
8.939889738896735 -3.112333639073609 2.749425547544468 62 83 44
9.985351869343916 -3.011620226680561 2.1257357242426846 71 88 56
10.173038585856386 -2.691464030526327 2.3656612934665593 72 92 55
9.705625003794207 -3.1281136787351556 2.2719641304441476 54 74 36
9.767244742665193 -2.994330225930149 2.2666495804381035 70 90 51
12.288104675861764 1.655346785023648 2.7298654893501473 53 74 23
11.071738145622646 1.8062260097146672 2.561609880249199 49 70 18
12.288104675861764 1.655346785023648 2.7298654893501473 53 74 23
9.479599124147615 2.8097223520816934 1.9219943817039793 67 86 44
8.985412088371321 -1.841494936830234 2.5117324197243507 62 77 38
9.724752333284409 3.046288453671638 1.8054642830598104 66 85 47
8.75062784337293 0.3652023274827073 1.952693700562327 9 25 0
12.414493782422875 1.7859814892288548 2.984281059242569 64 82 41
9.226261639777876 -0.19446945224965212 2.4767507196347545 53 68 16
9.746755540457025 3.0208068090879046 2.2684066426533738 55 75 35
9.924728575768436 0.19569974072389468 1.3946886890677836 51 73 26
8.776777619585827 -0.7296389702632123 2.365109617427197 53 67 19
9.689735529042375 -3.126012925885628 2.4179068912314916 54 75 36
9.878400302240083 -3.1231365401728275 2.561276315254333 61 83 46
