16.413918640254227 0.21996838290981616 1.2835188341822943 63 83 44
16.38465132767875 -0.03453451312502184 1.531068330151681 61 82 44
15.59922784419408 -0.03678060172542219 1.4000389030840212 63 85 44
15.976412708190633 0.1571829670214031 1.3402501797538748 59 83 43
16.371460796277784 0.026562869814187103 1.59213030181328 60 82 41
16.42845623893228 0.08746277976553182 1.5920562764222184 57 79 37
14.936335887560563 -0.04227973949917515 1.1093163680410336 60 79 39
15.81120865140811 0.23474506253156552 1.205325156304911 60 83 43
14.931964892018806 0.032522891146557396 1.1091707913674613 67 89 48
10.507843779124403 -0.05449907886946392 1.4130451494997986 26 43 7
17.35120144074348 -0.288868201245124 1.177427123740899 62 80 40
18.027879928330776 -0.25712654923441597 1.4791009243915396 65 85 44
17.484639052875426 -0.3278595911146467 1.4186045181378115 65 81 41
16.658668347655787 -0.24332569571468163 1.093627726441532 59 76 38
10.60873861946041 -0.14992638953478385 1.4145578374097265 4 19 0
19.7260646545629 1.4280559899113487 1.0004385249119232 47 68 24
18.80224078505068 1.4827842024172941 0.9685898610089287 43 65 18
18.553501196217603 1.5457258506684703 0.8918739951306242 43 65 19
17.215499714958238 1.3671006983850236 0.745355273399148 58 80 45
17.585152017734064 1.325490439770517 0.5860491256107238 62 85 53
8.619090801423882 0.5421701246655468 1.4952224590008627 41 64 24
7.642565725239491 0.7921373232830596 1.616509182569736 25 45 10
9.378553812737952 0.04640169270502787 1.6080432856197964 34 54 10
9.063288745221405 0.38974397303197716 1.4989329406244576 37 61 23
9.493589085528798 0.1520671504750979 1.5021954159017616 34 54 12
8.71620564080535 0.28333308435816285 1.610875160697696 33 55 12
6.885347172909722 1.2190004990834236 1.4761415613009836 0 10 0
6.4757024403487735 1.6696288664707337 1.62475361806284 25 45 5
16.77189044309156 1.8554236279405965 0.8827409006606586 50 72 33
17.42405880818426 1.8554236279405965 0.8383921276393025 45 69 32
17.346171832771592 1.7646892055009757 0.9096626815492479 49 72 33
17.346171832771592 1.7646892055009757 0.9096626815492479 49 72 33
16.536393258118004 1.797533446963766 0.7890038886969275 46 70 33
18.984775437066542 1.901272073020223 1.1560099856223789 54 81 48
15.866280255584247 1.7427008552058498 0.6479278779716753 45 65 29
7.147720606941353 1.9598672683449025 1.3377434989129395 35 56 16
8.024305698843337 2.8330123589268723 1.6143330772433684 52 74 33
8.663557130336931 -3.0762453841741277 1.6111188518004973 63 87 48
10.831708588113125 -1.3508540131468005 1.603044459985231 51 72 25
10.023945752876507 -0.36386848151915 1.6056441347754138 36 54 14
9.097008630868235 -0.40302923280913305 1.6091966077966557 45 63 21
9.776473750223099 -2.655399191725838 1.6065266087048753 73 98 63
17.94170125184627 -2.4044723290223993 1.067678559435358 42 62 19
17.243000895991 -2.857552076344919 1.2369142874228438 41 61 21
16.598268331176243 -2.754148632364112 1.0917454170797198 63 85 47
17.238042748313873 -2.7996884876510753 1.2976149663927026 43 63 23
16.713662633955 -2.839274868445631 1.1615440744609205 33 53 13
17.238042748313873 -2.7996884876510753 1.2976149663927026 43 63 23
17.743256824331375 -2.8188004059973992 1.4208397035905427 45 65 26
18.376554991983753 -2.5627935222910634 1.2582335699980107 42 62 21
18.1625770491961 -2.4452884131625985 1.1359869994039404 34 54 11
18.376554991983753 -2.5627935222910634 1.2582335699980107 42 62 21
17.764506431420703 -2.4452884131625985 1.1870632756121982 33 53 12
17.586377455355716 -2.7441113931821013 1.3031603560596803 46 66 26
17.898343060510786 -2.7657549360451297 1.5344297414091965 49 69 31
7.5900841486536645 0.7936694644633263 2.180977913301209 41 62 14
8.103101558581008 0.6087558182425642 1.864938366172876 28 50 9
8.888551330315247 0.7936694644633263 2.3664437467831174 49 69 26
8.992264530568267 0.5697189641117284 2.354740895123823 47 69 25
8.992264530568267 0.5697189641117284 2.354740895123823 47 69 25
9.73811496537935 -0.07663312795961526 2.2810143077017004 51 73 28
9.668753445815765 -0.060306984206535956 1.8162254045054214 37 57 16
8.456638309916366 0.436531340471679 1.8522980210276474 28 52 9
9.952523432297438 0.04640169270502787 1.9140172257247834 38 58 16
9.140031195092407 0.38974397303197716 1.7189567433318356 30 54 12
7.602026642825274 0.49504367045723496 1.8849675449006624 33 54 15
8.890571021160442 0.31939366242959116 2.081965304093417 34 56 11
8.659756093404912 0.42623603583135267 2.3937967001447644 53 75 32
8.998689151364106 0.06822553083555535 2.3540292693717197 53 75 30
9.661999740551998 0.04640169270502787 1.8164004920566286 32 53 6
9.936084118601002 0.0519413886738951 2.139292294713466 54 75 28
9.73140939789288 0.058981385594176296 2.2816069905659475 52 74 29
8.998689151364106 0.06822553083555535 2.3540292693717197 53 75 30
8.437284897775507 0.49504367045723496 2.1123626870757777 33 59 10
9.10196968976115 0.2218053522941339 2.3427938548782423 52 74 29
9.566880426391712 0.1520671504750979 1.7123006704631962 32 52 8
10.02971651655059 0.1699227724065615 2.133339607953932 45 65 20
8.665823161379056 0.31777054004346406 2.58313237296458 55 77 35
9.209799861604676 0.2614495542143593 2.4947334300433024 56 78 35
9.114906577135512 -0.10503559235941855 2.5086463842696545 55 77 33
8.886278009084924 0.5090953414028021 2.544604751159166 53 75 33
9.107742184557097 0.08089840794343427 2.5097193978685515 55 77 33
6.970160218245842 1.5042929470276734 2.244622129374197 45 67 22
7.350576733907115 1.1608178310204535 2.203946374452752 64 84 39
6.808666049937469 1.0168069619373599 1.9230745534668798 11 31 2
6.7142423722249855 1.3622165983699608 1.7731261892366468 4 17 0
8.442891822422524 0.9221316582134675 2.4219209640367945 50 70 31
8.902639135818768 1.081405225321878 2.541906383115922 53 74 27
9.012023950573441 0.8005661628290142 2.7556813464182093 52 73 34
8.09432467854525 0.8005661628290142 2.709162410630996 53 75 34
8.781313126103587 0.7961032221186174 2.562424663135358 51 73 32
12.37862697437816 -2.416588602928855 3.07267530893881 59 84 44
12.373352478663785 2.5434986071003323 3.079155054929563 58 83 42
12.373352478663785 2.5434986071003323 3.079155054929563 58 83 42
7.947858046676152 3.076196380695677 2.149837763183576 60 84 43
8.118928717881586 2.9559170690351277 1.8643478841392624 58 80 39
8.53621293162943 3.076196380695677 2.2480469535376097 63 87 47
6.590660432079216 1.8635392739797767 2.1038665951640283 45 67 24
6.8335282378109605 2.378600222298432 1.921737410167104 49 70 23
6.677723617366144 2.1606933344907167 1.7742481589649963 46 68 25
13.614348695116421 2.9782702974824082 2.943925591754849 61 86 46
12.886374140589085 -2.9874456556677678 2.851851320201995 57 82 44
12.470223869052342 -2.809295241213287 3.002183900554467 59 86 45
8.866419974438378 -0.9060232493380501 2.2184473278279753 55 77 34
9.483179519897963 -0.6224337672191019 2.1701111377958773 53 73 29
9.28749960242942 -0.5550802167386094 1.9397269849526755 52 69 25
8.927206961308482 -0.3352935145991596 2.0796649580143183 50 72 25
9.398793836958 -0.8040023548773738 2.1762574742936436 54 76 33
8.485077515617164 -0.3352935145991596 1.9765609580687133 50 70 28
8.927206961308482 -0.3352935145991596 2.0796649580143183 50 72 25
8.6927826339146 -0.2094972049902629 2.0947737915748608 53 73 31
9.587328289023953 -0.16566310299838966 1.7119968458069883 28 45 10
9.347088801948985 -0.3832801138548529 2.3175703368917695 54 75 28
9.505933112123019 -0.7187018825632944 2.0460108227179243 51 73 28
9.800378458563031 -0.26744619036082695 1.70890740104507 43 61 18
10.0017903034228 -0.8040023548773738 2.258559611777321 56 78 38
8.838953255650768 -0.45099562519633773 1.9594235669327493 51 69 27
9.044342961048349 -0.5107968485912928 2.2036474571730493 53 74 27
9.77103804815795 -0.5867926376315006 2.422108018952195 59 82 39
10.198547471631692 -0.9060232493380501 2.3754874538200594 61 82 44
10.612939377475879 -0.24124520626332008 2.4762478891231643 56 79 36
10.248956728028741 -0.4462362052154382 2.522909864481202 59 83 41
9.845608084114227 -0.24124520626332008 2.4135056382370546 53 75 31
10.178592179083395 -0.7053174470527345 2.3775272797963014 58 80 40
10.045424819461756 -0.28402986598306973 2.5519666647471393 58 82 39
9.527297419267668 -0.8859460020699642 2.0448573367669534 53 74 27
10.054314600335951 -1.6849443197186704 2.5506463571867934 72 97 63
9.516434504481472 -1.1694252227760011 2.45320041918216 67 88 49
10.582293314239973 -1.0273705593939533 2.479947145830565 65 89 51
10.12605979320527 -1.3307887062234751 2.5401676751428117 69 92 59
11.07803585053817 -1.3508540131468005 1.7844818477701219 55 76 30
10.526990271901434 -1.6374012987830366 1.996708353681279 61 83 41
10.595535335118612 -1.429361056693624 1.993775320201893 57 79 35
10.670174663155557 -1.6311132344168517 1.6975855909010678 55 78 31
10.657229929431317 -1.5365502113040688 1.697740426740408 56 77 31
11.07803585053817 -1.3508540131468005 1.7844818477701219 55 76 30
10.842099013855641 -1.6311132344168517 1.789206428793734 57 80 36
10.513869250244046 -1.5329732102217128 1.9972746097473846 61 83 40
9.43369472707434 -1.2254482207175037 2.3091060353819217 63 84 45
9.732343943272351 -1.09752978309427 2.281524322079675 60 82 41
9.351583046291791 -1.1526144021385443 2.0545222217974226 55 77 31
9.364974335397564 -1.3926763305915681 2.178759310776919 60 82 41
9.62740723015081 -1.645150319405446 2.0395293178881846 65 86 47
9.883182967047503 -1.5229877148444941 2.268459788635434 65 89 51
9.897140149235943 -1.6549350094085542 2.267278180146654 66 90 52
9.892357517534412 -1.3017236440446935 2.0260128063937115 58 78 38
10.177556665587248 -1.1967630409028065 2.0123410410253393 54 75 28
9.613058431200756 -1.5285623194424 2.040285293304196 63 85 45
9.875287975956619 -1.667675923632238 2.4101406489790076 68 93 57
9.861299865362232 -1.5157194222695793 2.4117224656721814 67 91 55
12.670151035402435 -0.5852530109967171 2.916046140442303 62 87 49
12.670151035402435 -0.5852530109967171 2.916046140442303 62 87 49
12.464387669691195 -1.957854652550995 3.0055614538791486 65 92 58
12.464387669691195 -1.957854652550995 3.0055614538791486 65 92 58
12.464387669691195 -1.957854652550995 3.0055614538791486 65 92 58
13.646655668841069 -0.5852530109967171 2.932434703570144 64 89 53
12.670151035402435 -0.5852530109967171 2.916046140442303 62 87 49
12.832119134011217 -0.8266384285353572 2.866388122496628 64 89 53
12.61805993869173 -1.4306214596110243 2.934806235320182 68 94 59
12.92555272522163 -1.2058966307219858 2.8418518572538396 68 93 59
9.013524543061617 -2.460948169867871 2.206157671102764 75 102 70
10.152470762426463 -2.3626890548064416 2.2464260639758655 73 99 67
10.73356076537252 -2.094768737524483 2.6280893452792973 70 98 68
9.81654289874492 -2.364100354435642 2.4168331208361877 75 102 70
9.58868674769837 -2.013442733064209 2.444090969348723 68 95 63
9.92522230717439 -2.5777173784071374 2.404552607658568 73 99 67
10.646823473124607 -2.3662952838430464 2.6427252574031987 71 98 66
10.396055373134919 -2.714593000834033 2.503303562453444 72 98 66
10.319644794877712 -2.2655672494384236 2.3633670993394658 71 98 67
11.002899769606715 -1.8570449851390824 2.586225816339812 72 98 66
11.750281191502388 -2.1390749439817913 2.879576916273559 68 95 61
10.166873642177759 -1.8570449851390824 2.5343424464533513 70 96 64
11.429423993118236 -1.9152925476123037 2.7033319093739396 69 97 66
11.259540673508827 -2.2078183961026987 2.7367213828964836 71 98 66
10.946560583111465 -1.7246115241106517 1.787088879709883 58 80 36
9.454345481631883 -2.0190364597745094 2.048820462917071 64 87 52
9.63364181379896 -1.9063156898832359 2.1594801054197936 63 86 51
9.139484222317254 -2.185837921403235 2.0667536894374163 65 90 56
9.96188361315873 -1.8695692173651979 2.0225992919985525 61 85 47
9.890233516535286 -1.9724490050863985 1.9162688622665467 61 85 47
10.472401617951112 -1.839899859136943 1.8963316331135553 61 83 42
9.685362637685085 -2.2803577207565686 2.0365015925352132 69 94 59
9.989864372530466 -1.815304654511544 2.3974513920438554 67 92 56
8.881793740239745 -2.9623303918692483 1.7232977155098266 67 92 54
9.111356334471244 -2.852913868713711 1.7194264858798736 70 95 58
9.441788414450762 -2.750150707472204 1.7141882969131306 72 97 62
12.72450844344528 -2.606078107414631 2.898127055317516 57 85 46
12.555358917762172 -2.3789050733988826 2.9601441658517818 67 94 60
16.651911929845706 0.2810413113905587 1.287738864626278 59 82 41
15.654865087760584 0.09312438028732427 1.4006517090359758 56 78 35
15.59922784419408 -0.03678060172542219 1.4000389030840212 63 85 44
15.595042645838856 0.028291108202113054 1.3999926265494946 58 80 39
15.976412708190633 0.1571829670214031 1.3402501797538748 59 83 43
15.164231306645913 0.09956708874993904 1.2590800633521724 63 85 43
18.30669300883857 -0.31019657615002044 1.4805012936584359 66 85 44
17.859199991186745 1.4522473276857613 0.7007568321919034 52 75 39
18.59990131867822 1.4767217089641587 0.8938852437839803 46 68 24
19.20458566176314 1.4280559899113487 1.0442810511576976 47 68 27
7.289165118037575 1.089333322345256 1.4813998407700173 0 16 0
19.305382046707216 1.9546630807618035 1.1633109835230455 53 80 48
19.305382046707216 1.9546630807618035 1.1633109835230455 53 80 48
6.649120217699424 1.820064423760202 1.6233450269400247 34 54 14
7.174336409411286 2.277265883341838 1.4799650903801613 45 67 25
10.023945752876507 -0.36386848151915 1.6056441347754138 36 54 14
17.48150815846575 -2.4044723290223993 1.1178144334651192 16 36 0
16.94165173715801 -2.857552076344919 1.2927097710323578 42 62 22
17.621624397829635 -2.8188004059973992 1.4769807911716533 48 68 29
17.919951982362544 -2.8188004059973992 1.3656341997088344 45 65 25
18.153574028534166 -2.482475150552685 1.2542616799351256 36 56 13
17.764506431420703 -2.4452884131625985 1.1870632756121982 33 53 12
18.08186154530914 -2.7657549360451297 1.4236684617291968 46 66 26
9.435427066535588 0.0519413886738951 2.049859558449124 46 67 20
8.890571021160442 0.31939366242959116 2.081965304093417 34 56 11
9.212561586000273 0.1924707975488546 2.1903188937045748 49 71 24
9.435427066535588 0.0519413886738951 2.049859558449124 46 67 20
9.475563809714522 -0.060306984206535956 1.7136736670236845 16 36 0
9.475563809714522 -0.060306984206535956 1.7136736670236845 16 36 0
9.442342830964133 -0.06749832455968599 2.049479161665599 48 70 22
9.942651649407336 -0.06749832455968599 2.138870365731914 51 73 23
8.433381872464382 0.2614495542143593 2.4232084725195326 55 77 32
8.661224759800467 0.36550425364662253 2.236494029198848 48 70 25
8.993678898550543 0.49504367045723496 2.2077857201115827 45 67 22
9.736808734715295 -0.08861992566877785 2.4261296191586856 52 74 29
9.209799861604676 0.2614495542143593 2.4947334300433024 56 78 35
9.209799861604676 0.2614495542143593 2.4947334300433024 56 78 35
6.970160218245842 1.5042929470276734 2.244622129374197 45 67 22
7.092746710163613 1.3252496345775495 2.2308961496480495 62 82 31
7.215013310006695 1.0168069619373599 2.05353262587366 39 60 24
8.440498470364561 0.6267817805519801 2.627444207687603 53 75 34
8.449114615873032 0.968392500578415 2.625641600135156 52 74 33
12.37862697437816 -2.416588602928855 3.07267530893881 59 84 44
6.481851496328197 2.022699482069072 1.9416742078208284 45 67 23
12.953668595118078 2.765951615590702 2.8349067698473402 58 82 39
12.64051268413441 -2.930505452993461 2.9265034330115105 58 84 43
9.26420953668374 -0.45099562519633773 2.0594834943638896 52 73 26
9.48183816905219 -0.7053174470527345 2.304495250305732 55 77 35
8.51667343735844 -0.6224337672191019 1.9749677154325047 52 72 28
9.398793836958 -0.8040023548773738 2.1762574742936436 54 76 33
9.388958057106043 -0.40302923280913305 1.8236968464214058 49 67 23
9.503256644283711 -0.9060232493380501 2.302465075261485 59 81 40
9.14275170082861 -0.1850486446522936 1.945855458795215 50 70 26
10.045424819461756 -0.28402986598306973 2.5519666647471393 58 82 39
10.467965418627465 -0.8081690072492648 2.494100976255886 62 84 46
9.52596228066578 -0.984365536057085 2.167046279019351 55 75 31
10.550193463048878 -1.0997674300557532 1.995710788972862 52 73 24
9.087792054212215 -1.0273705593939533 2.34431379331179 64 86 45
10.582293314239973 -1.0273705593939533 2.479947145830565 65 89 51
10.308298082714147 -1.1694252227760011 2.5148691084061605 68 89 53
9.856499843032248 -1.1526144021385443 2.144459096630623 58 80 37
9.561729275040937 -1.268174951033841 2.164509889709535 60 82 41
10.737805743972391 -1.4425941629710157 1.696782754549139 55 76 29
9.613058431200756 -1.5285623194424 2.040285293304196 63 85 45
10.406286935322525 -1.3287084330187293 1.8984769430738346 56 77 33
10.189862536472335 -1.4131069004833754 2.1234611686756244 58 80 39
10.177556665587248 -1.1967630409028065 2.0123410410253393 54 75 28
11.333437286733835 -1.2627192969820056 1.7795943137312276 51 72 25
10.133759415322276 -1.2254482207175037 2.3821554744188242 64 85 47
9.94832435443844 -1.3662484821694165 2.4019977941807102 65 88 53
12.628994979407398 -1.8145710469686531 2.9307186437495307 67 94 60
13.509525843544335 -0.8547433502827609 2.9873976288575315 66 91 55
9.633098411645342 -2.2655672494384236 2.290426942617831 69 94 62
9.537141999926511 -2.772820687491943 2.299279301339002 72 97 61
10.73356076537252 -2.094768737524483 2.6280893452792973 70 98 68
11.750281191502388 -2.1390749439817913 2.879576916273559 68 95 61
10.187586593174156 -2.24364007348755 2.5314224734114474 72 99 69
10.194726281629862 -2.4862283082948915 2.530421531553614 72 99 67
11.068025054404217 -2.0014745940368694 2.779218069630065 70 97 64
10.37503721581224 -2.013442733064209 2.5060392640249702 71 98 67
11.259540673508827 -2.2078183961026987 2.7367213828964836 71 98 66
9.506575833128931 -1.9528679485292453 2.30215161110884 67 92 58
9.831127180771857 -2.076807370985067 2.2729068992186763 65 90 56
8.967122283958263 -2.2803577207565686 1.8358736790369867 65 90 55
9.278949644089618 -1.815304654511544 2.3243888865272333 68 93 57
10.27205932107095 -1.9724490050863985 2.0079969460208247 61 85 47
9.74489853967912 -1.7597565075654096 2.0334335015162552 62 86 46
10.011466461368096 -1.7840255042899078 2.2577658046535256 64 87 52
10.946560583111465 -1.7246115241106517 1.787088879709883 58 80 36
10.767881556794041 -1.9342386935216567 1.8870834396742677 60 82 42
10.011466461368096 -1.7840255042899078 2.2577658046535256 64 87 52
10.266212450275171 -1.7403996070626773 1.9031187763915118 61 83 42
9.2032781541865 -2.602863989191241 1.8289143964544718 74 101 68
9.546329101223735 -2.5119115277506863 1.7126073572103762 74 99 66
15.102465538149968 0.030259808888592334 1.2577619702527532 61 83 42
17.374796830921117 -0.27209760258111093 1.3591006390516691 63 82 42
17.790979562678945 1.4617023160771747 0.7797674018839862 49 73 35
19.20458566176314 1.4280559899113487 1.0442810511576976 47 68 27
6.586544386017507 1.3622165983699608 1.623844735417414 1 16 0
7.762943224104671 0.6087558182425642 1.6157998450907944 39 60 21
17.24302026263332 1.7798477662202268 0.8289100529060082 45 69 31
17.42405880818426 1.8554236279405965 0.8383921276393025 45 69 32
16.725082348395503 1.878826702467715 0.8001432598691064 52 75 41
8.663557130336931 -3.0762453841741277 1.6111188518004973 63 87 48
9.79188211248474 -2.655399191725838 1.5042883614215752 72 98 64
16.16171387191751 -2.754148632364112 1.1466826193183586 42 63 24
9.121307254684625 0.1699227724065615 1.9467812151844497 33 53 9
6.989936411835024 1.6876617992439018 2.242365014175695 44 66 23
8.659756093404912 0.42623603583135267 2.3937967001447644 53 75 32
9.020488242928558 0.28333308435816285 1.8342680151799113 27 49 5
9.936084118601002 0.0519413886738951 2.139292294713466 54 75 28
8.543856589600793 -3.056640362665606 2.247327761471796 66 90 52
7.007406079284067 2.5944320575455606 1.9126682570263576 46 69 25
7.834527269303966 2.6640981786476563 1.8753396146129901 49 71 28
12.464988132153811 2.882180392231132 3.0052099680720947 62 87 46
12.881307553260877 3.022662821459996 2.853173567108878 60 85 46
9.091989916852866 -0.7187018825632944 1.9480544630606815 52 72 25
9.365920289675318 -0.2976647271585125 1.9364917275151599 51 69 23
9.778310048547326 -0.16566310299838966 1.8134200133533724 39 59 18
9.388958057106043 -0.40302923280913305 1.8236968464214058 49 67 23
11.66922118904465 -1.179254679402243 1.7735011480410152 48 69 22
9.755820206328726 -1.047778050836601 2.032875241141622 53 75 27
10.04057590524809 -1.5058485945036675 2.5526889107264052 71 96 62
10.513869250244046 -1.5329732102217128 1.9972746097473846 61 83 40
10.737805743972391 -1.4425941629710157 1.696782754549139 55 76 29
13.068811563375 -0.9856906855175457 2.8082073076746816 66 91 57
12.453308090899773 -1.3435465951787855 3.0122235769001797 63 88 50
12.522332244170396 -0.8547433502827609 2.9751324555395815 62 87 49
12.464387669691195 -1.957854652550995 3.0055614538791486 65 92 58
9.287264888189435 -2.44387648608812 1.9397367562417696 74 99 67
11.930850164713952 -2.3701772929531115 2.8280657236336983 68 96 63
9.910549486227618 -2.1497703640597208 2.4061851926002564 68 95 63
15.106787201140907 -0.03933901968574206 1.257854564375723 60 81 40
15.624495935162516 0.16792923584391165 1.2007483202919378 63 85 42
15.624495935162516 0.16792923584391165 1.2007483202919378 63 85 42
17.612072031188827 -0.27209760258111093 1.3035603909886853 63 83 43
17.343745297981975 1.348191683628814 0.6647501155796969 63 84 50
17.790979562678945 1.4617023160771747 0.7797674018839862 49 73 35
19.20458566176314 1.4280559899113487 1.0442810511576976 47 68 27
16.725082348395503 1.878826702467715 0.8001432598691064 52 75 41
9.73140939789288 0.058981385594176296 2.2816069905659475 52 74 29
9.107742184557097 0.08089840794343427 2.5097193978685515 55 77 33
8.316389703694355 0.5697189641117284 2.2694884698261477 41 67 13
8.235062101814563 0.436531340471679 1.7353794738541826 35 59 19
9.21475441196077 0.436531340471679 2.0623392896838615 36 58 11
6.584612988358661 1.514604293451962 1.7771663433887261 12 32 1
7.722358197219343 0.6910311024591222 2.0193992697460055 22 42 0
12.367470565856319 -1.0012524182219669 3.087291876392484 59 84 44
9.33198914895222 0.968392500578415 2.6785341215730636 53 75 34
13.661546132372413 -1.082718470291843 2.927360392990718 66 91 55
10.829359789607569 -1.5365502113040688 1.7894675301543352 58 80 35
12.555358917762172 -2.3789050733988826 2.9601441658517818 67 94 60
9.347088801948985 -0.3832801138548529 2.3175703368917695 54 75 28
8.902729572595115 -2.772820687491943 2.2153655275077515 72 97 64
18.80224078505068 1.4827842024172941 0.9685898610089287 43 65 18
9.713337955979068 -0.26744619036082695 1.6067589520664571 36 52 13
17.743256824331375 -2.8188004059973992 1.4208397035905427 45 65 26
7.709631332119172 0.6670268779817322 2.3376025747724967 48 71 19
8.43426931993497 0.6670268779817322 2.423088122002555 50 72 30
7.098124549631985 0.8944661396932626 1.7620443102461925 4 23 0
9.484842770206088 -2.120770190832996 1.9316950117908958 63 88 53
10.673212955945795 -2.1497703640597208 2.469083960039999 70 98 68
9.433285532885048 -2.361705298688938 1.7143184405603142 70 95 60
12.832119134011217 -0.8266384285353572 2.866388122496628 64 89 53
10.908664257336419 -1.4425941629710157 1.7878522775639458 56 77 31
10.501629715284007 0.04192913881558784 1.4129510215775714 32 52 9
17.376515808490883 -0.30777216432745697 1.0496876889323112 62 77 39
18.503740151388655 1.469765282244983 0.8179939562125818 48 70 28
16.583733942076673 1.7798477662202268 0.8733776235620773 47 69 30
9.233794106676298 -0.2094972049902629 2.1886799194223663 49 73 28
10.612939377475879 -0.24124520626332008 2.4762478891231643 56 79 36
9.454814002085778 -0.3352935145991596 2.172162047844451 49 73 28
10.10831203221456 -0.36386848151915 1.7046743436769975 44 62 18
10.12389838657541 -0.8011245795787334 2.014847749783363 52 73 24
9.77103804815795 -0.5867926376315006 2.422108018952195 59 82 39
17.526144893430466 1.835247816385829 0.9176264588329485 52 74 37
16.583733942076673 1.7798477662202268 0.8733776235620773 47 69 30
9.52596228066578 -0.984365536057085 2.167046279019351 55 75 31
9.452123059345077 -0.4462362052154382 2.4615133794662345 57 79 35
10.054314600335951 -1.6849443197186704 2.5506463571867934 72 97 63
8.700038182002668 -2.6487089707285176 2.094291946166022 73 99 65
12.453308090899773 -1.3435465951787855 3.0122235769001797 63 88 50
10.507843779124403 -0.05449907886946392 1.4130451494997986 26 43 7
9.970016448665353 -1.3926763305915681 2.2611807727769464 61 85 47
