10.09172403785046 0.8808274902295055 1.7050789488986244 35 51 7
11.11824632197441 1.1063207548913954 2.0729193805803487 38 54 10
10.767659017564192 1.0188386426325964 1.8872692650610805 32 48 4
11.164128739222514 1.1483972528027115 1.875661343624423 43 58 17
11.162819653922577 1.2372412658214176 1.9711919674554055 47 60 22
10.354610714613797 0.9630038315938454 2.0044691468959233 35 52 8
11.341175420836892 0.9630038315938454 2.165183827834109 35 53 10
10.410492214190278 0.4669535826946545 2.2269386204351727 39 58 7
10.152518797279768 0.6373467589504652 2.2466535908142413 42 58 6
9.905818241765267 0.6597276475284044 1.915899245601274 36 52 2
10.08805866936358 0.816766535656644 2.2517876861052293 43 59 9
10.514366416657074 0.7390960208198614 1.8951685941542593 35 51 5
10.686233846466129 0.8965077138043617 2.207219871169028 39 54 5
11.831855853559686 0.7048261714422529 2.635918051184368 48 64 18
11.993301734676336 1.1060742253323075 2.464969150356081 47 62 25
12.408206359481643 0.8344679166916132 2.7258181923851916 53 71 29
11.795931362617695 0.918317714650153 2.4860828155201844 47 62 18
11.4027207638944 0.6053715215671231 2.532336552672487 47 63 14
10.806284577347528 0.6373467589504652 2.318912496709233 46 61 11
12.292874717967878 1.0384348080609578 2.571847618483396 49 64 23
12.460669936728042 0.556088062147161 2.7163827420512443 49 67 21
12.78833198413657 1.1060742253323075 2.5139524300169827 49 64 30
12.71593336632882 0.7048261714422529 2.6740210312797172 49 66 22
12.236183606698965 0.6053715215671231 2.5791212690878504 46 65 14
11.633002666205568 0.4029234117707683 2.504519327433469 46 64 15
11.861201571797743 0.9506842937916185 2.63146757931871 49 65 21
12.743243353413495 0.9506842937916185 2.669794240061237 51 69 27
11.137830520315994 0.5280762018470874 2.418546437469844 42 61 9
12.208936372566605 0.35294956073713396 2.4432680986174073 43 62 11
10.806284577347528 0.6373467589504652 2.318912496709233 46 61 11
13.601225634414336 -0.5701009134345694 1.449263754469977 35 50 16
13.372931478773797 -0.6743947479523795 1.447178485470656 56 69 36
11.852383263023993 -0.780652851548335 1.685036428229216 48 61 25
13.339480561419142 -0.6743947479523795 1.6722541701721216 53 67 28
11.319648243529384 -0.03059865655453548 2.16646983697184 45 64 13
10.810132007731195 0.0760177432194847 2.0886374264973817 49 67 19
10.577183333599013 -0.23946869205769675 1.9947465503378714 44 63 10
10.837441633878733 -0.3374998547851099 1.9839344141005846 45 64 10
10.406895472589378 -0.13652629982594583 2.0021438905818947 44 63 10
11.267588059872313 0.2020112577962518 2.281554897420914 42 60 11
11.140251724144475 -0.03425358645325959 2.291436840434038 42 61 8
11.927415935548423 0.0760177432194847 2.234854119463221 47 65 16
11.842044714475644 0.08506314260439997 2.3535091738552003 42 61 9
10.816387899061203 -0.4735266913984713 2.088307959864799 46 64 16
12.886836547066768 -0.6127099610176718 1.7542638400142807 40 55 14
12.330503976353999 -0.6611923612825501 1.8460292146311186 46 61 20
13.199568122218476 -0.5052406703590161 1.7498693647612305 44 60 16
12.090084484949573 -0.5911652009556742 1.938943987267096 42 58 12
12.242682953038164 -0.780652851548335 1.848055549646351 46 61 22
11.138939832738574 -0.03889960231980664 2.4184335927133107 47 66 14
11.315774508067758 -0.04500273820616944 2.5434360885439338 51 71 21
12.026282103981396 0.22854588079776164 2.4615616237704043 47 66 13
11.315774508067758 -0.04500273820616944 2.5434360885439338 51 71 21
11.33461154262786 0.11159351529562339 2.541001601572219 49 69 19
10.4102753162378 -0.03889960231980664 2.354823088131984 46 64 14
10.654599943226252 -0.3010148093981773 2.3322076140235133 47 66 16
11.61016719444041 -0.41970032360050996 2.3735757301486258 50 68 20
11.367614014721685 -0.3010148093981773 2.3959283833040184 50 68 21
10.48556941968501 -0.17293891837731779 2.3476873497303057 46 65 16
11.209340502122926 -0.17293891837731779 2.4113466206432586 50 68 23
12.58844322545192 -0.47661012276526843 2.5361812102778627 52 71 26
11.256678667569082 0.16196407551824366 2.7377291054728152 51 71 29
11.784347968690307 0.3090794771575502 2.6432476222247727 50 68 23
12.86593964593328 -0.36514602251017847 2.8577353052469814 56 77 36
13.861523126914749 -0.5495848076758475 2.670412026401565 55 77 36
13.216621003990564 -0.7735200400148294 2.7776783124945665 59 81 40
12.86593964593328 -0.36514602251017847 2.8577353052469814 56 77 36
13.298011625254171 -0.48249135044065566 2.7619336196664976 55 77 35
10.424881886065501 -0.779152671310766 2.1098199578596417 50 68 24
10.423479959134697 -0.8642721893376893 2.225979620062427 50 68 26
11.316546554995282 -1.0859136036410852 2.166655624163936 49 67 27
10.628500331797694 -0.5270624650361821 2.211240064485644 46 67 18
11.910250123682431 -0.8441700315350876 1.944774818847597 49 64 25
11.069704295878328 -0.6225346549371056 2.18185486452706 51 67 21
11.055418054223281 -0.9360751744791952 2.1827603595789213 50 67 29
11.056739855562308 -0.8527554458766387 2.0759762765451155 49 67 27
11.229134152342713 -0.9961745202831227 2.0675054036798337 48 66 26
10.981369618522764 -1.0792552856909847 2.434843016331749 54 74 35
11.068384042770344 -0.693060367144777 2.2971534378459597 53 69 25
12.895023557102249 -0.7762655037668104 2.647222675667421 60 82 41
10.627125266180396 -0.592651022307318 2.334674706474038 48 69 20
11.870831888134074 -0.9002482901992463 1.516103494574325 46 61 25
12.070460454614267 -0.9698919308496629 1.9395711850356983 50 66 22
11.574309451063286 -1.046872267111327 1.9561912994385429 50 66 22
11.666381118804683 -1.1694317945543098 1.862142537155449 48 66 21
12.073829921229157 -1.2545854864967652 2.029957246217778 55 73 29
11.573046763451662 -1.1313512405464945 2.0514668841366963 49 67 25
11.501813713993409 -0.9698919308496629 1.7766562463264002 49 64 21
12.312933523194424 -1.2230986859046507 2.210578288799531 49 67 25
12.338387062381203 1.8716495515462948 1.6805180369146473 0 3 0
11.992157933357992 1.6299349897009843 2.033327174523078 0 5 0
11.307975400506887 1.4440046024355109 1.8716609301021794 54 66 40
11.719895814973379 1.737489508710307 2.143498868598824 0 5 1
11.611145961906534 1.533166037488185 2.1495497864387216 27 39 19
12.058221111486706 1.7094271265866894 1.7670301950348388 24 32 16
11.220496225140973 1.3534666864618299 1.7818945700088396 53 67 37
11.33928193255932 1.3318968312092179 2.0622476194124952 48 60 27
11.64289248924981 1.3056849917278242 2.2541261215955997 38 51 18
11.481531657352852 1.4153257413882188 2.265622671532329 24 34 12
11.385881559922854 1.652847460817398 2.394192763286968 61 74 41
11.417653724120726 1.6434659779664094 2.270294840343752 48 58 40
12.198491708771177 1.395556923089902 2.4442887299282976 55 68 34
11.611736642246631 1.2732030783448434 2.3734357976991904 44 60 25
12.05432302007504 1.985403665051102 2.7983253549639326 53 71 31
11.490483938444351 1.9045660014825418 2.6924941118383994 60 78 38
11.455363376687332 1.2887695445112803 2.698898155522176 58 75 37
11.079518888786833 1.8494084262269228 2.575487586965156 60 76 38
10.964419339018919 1.5068774202813922 2.5922277559565274 61 76 40
11.528823930881012 1.6650020334937823 2.516833328753733 53 70 36
11.517167948184511 1.5163781846246995 2.5182381462360075 53 68 34
11.900612656346588 1.8356316494766134 2.1337379958945206 1 3 1
12.019138094057691 2.0159634424965156 2.032208234921449 2 3 3
11.798873932341987 1.8978467930803555 1.8587767999971194 1 3 1
11.859466717615645 1.8119039429284338 1.946455872057606 2 5 1
11.965311847654707 1.9659547263761137 2.232377819622342 14 21 10
11.700430074534014 1.8643903995428572 2.250128818027271 30 37 24
11.669427846373765 1.8999030061125886 2.3683319836362364 65 78 50
12.30598680700545 2.0596093389415735 2.2109984574013613 0 1 0
11.270508528436073 2.002827274241419 2.549355760726306 54 70 37
11.674752452288386 2.0804517122712136 2.6607823393257197 62 77 41
11.308102348200475 2.187816340371625 2.727217138920175 54 72 32
12.557304982167658 2.6119122334583986 2.6996953704005615 55 73 33
12.959727315716899 2.6927949312587507 2.6380381897297904 54 72 32
10.913935484759978 2.86707099527584 1.9808640371119406 55 71 39
11.629393892539698 2.7737111601250466 2.0489419315593858 52 66 42
10.760752202853464 -1.6902088075451243 2.6239704254164784 57 78 43
11.322156428707313 -1.9350392458388361 2.7244040118183035 55 79 39
10.865652840661797 -1.8706157595142086 2.607259835356275 56 77 38
11.286512089588179 -1.2623731581999447 2.731587977907416 59 84 45
10.865652840661797 -1.8706157595142086 2.607259835356275 56 77 38
11.702935061068379 -1.3179960879578183 2.656186054879541 59 83 45
10.760752202853464 -1.6902088075451243 2.6239704254164784 57 78 43
10.999450755538545 -1.1500383655833621 2.5870476410085472 58 79 41
11.385769431573133 -1.825131373028685 2.534473376451161 56 77 40
13.329617051103673 -1.4074590743477775 2.4599630549565354 51 72 34
12.716442844168636 -1.2927121157519619 2.3969837317894482 49 69 30
12.894421311576314 2.9477791258182955 2.8502596446903032 53 73 33
13.578537558247168 -3.09075770179395 2.713123103559523 51 71 34
13.594239527298523 3.015657489785237 2.7106013367268984 52 72 32
13.254485747599803 -2.870774395660838 2.770250252682182 58 79 41
12.472071916525728 -2.6832220542338416 2.7143683868143325 66 88 47
11.691258631179188 -2.8096715150250318 2.4978160781114114 60 80 39
13.211159095363264 2.9888670191898727 2.778765332251274 54 74 34
13.6832019070977 2.846388587811561 2.69667249682275 53 71 29
12.938808629497549 -2.801329336491407 2.8390293651504996 57 79 42
11.80778401515937 -2.5247169773043665 2.6396122777528577 62 83 44
13.302683591961289 2.7874713269972244 2.7610544139994877 56 74 32
12.877866083152007 -3.0628777142611243 2.854577867905312 55 75 38
12.234884021976638 -2.6135201861957573 2.5792897878204313 64 85 46
12.98817797326746 2.7010590232680176 2.8270805080598205 55 73 31
10.135371273858137 -2.567938656970227 2.2480109096454286 55 76 37
10.408616970180955 -2.3093674513355915 1.8985867861258392 51 71 32
11.055008611118499 -1.984107379809458 2.1827863540190062 57 78 39
10.068534836905032 -2.0807129048786055 1.910095604978321 59 79 39
10.566173263984284 -2.167921682434752 1.8935203931260811 54 74 35
10.26120003235561 -2.6299630772627776 2.11938814388613 56 78 37
10.029802406658474 -2.468764743256385 2.1335501972540936 57 75 35
10.664549193896855 -2.388016504139632 2.3313187787712297 56 76 36
10.970051500983974 -2.033452964235156 2.30514507268922 56 77 40
11.060336131255136 -2.033077813918191 2.57822268012631 56 76 37
10.790176054932964 -2.567938656970227 2.3202989142144297 57 79 38
10.909918657980475 -2.274022051529261 2.6004424788900273 59 82 42
10.618742931307096 -2.1218356723344636 2.647964813054388 57 81 41
11.340178967675683 -2.1730487755331067 2.5402852704120296 56 76 37
10.779713391088432 -1.9676008080835197 2.4570412857853094 57 78 41
10.94812422524437 -2.4912060260911546 2.43840667890968 54 75 36
10.725545194611014 -2.2060324059588337 2.3259217493795523 54 74 37
11.368786299422442 -1.7449973297648849 2.1635431377532077 64 84 45
12.094849666364881 -1.5352615683399276 2.123635609178509 62 82 40
12.648617983379319 -1.5352615683399276 2.190969483255056 64 84 42
11.922482095257564 -1.424783874839041 2.235178032585614 55 75 35
12.595777022356954 -1.7449973297648849 2.295623242434217 59 80 41
13.249523621124542 -1.424783874839041 2.354301296929262 53 73 33
11.860979161809086 -1.638993901256419 2.239245402035589 62 84 43
12.71137695399956 -1.32136122169247 2.287597444672347 49 69 29
12.077953288085325 -1.32136122169247 2.2251363973390585 54 72 30
11.55499569902566 -1.8472012822354738 2.1527281624227594 61 81 41
11.001653980147085 -2.929790437203372 1.420349620769122 53 73 32
11.112505041700109 -2.6397225396189747 1.4218616320057298 57 76 35
10.700216210521528 -2.512253644865845 1.5101130458608232 54 74 35
10.71761882503398 -3.021185897837223 1.6035589244215214 53 73 34
9.732807618487755 -3.1118466377617833 1.7100625633119768 53 73 35
11.36215108092494 3.059163764343696 2.274412268735928 54 73 37
10.722390714921145 -3.108403941915748 2.204730185945188 51 73 32
10.709216668863622 2.965596029615661 1.9891892048426705 56 73 40
9.935392974550831 -2.8827012139409427 2.024098735577789 52 72 30
11.36215108092494 3.059163764343696 2.274412268735928 54 73 37
9.827676175801553 -2.777876149805769 1.9187590956232095 55 75 32
13.611501005051968 -3.0331987434637 2.945663213882413 56 76 37
15.428202353485744 0.4813476734959163 3.0415592972026895 52 72 33
11.295404968223298 1.202182999331143 2.167925323095946 36 51 10
10.547378391388486 0.8808274902295055 1.8941163631112028 35 51 7
11.855960701956084 1.1593542306871059 2.352342383060347 40 57 20
11.514904777993648 1.0557578186673209 2.26320945180791 38 55 17
10.745746886746481 0.816766535656644 2.324153760520688 45 59 14
13.085834608160997 0.6784947530480976 2.8048946732189197 56 74 29
10.988473892524162 0.7207642643139716 2.4340862067010987 48 62 15
12.71593336632882 0.7048261714422529 2.6740210312797172 49 66 22
12.460669936728042 0.556088062147161 2.7163827420512443 49 67 21
11.970694347113367 0.46818303824168833 2.615351589177933 48 66 18
12.71593336632882 0.7048261714422529 2.6740210312797172 49 66 22
13.505466879499192 -0.5701009134345694 1.5967942262361 53 68 28
11.444988797150964 0.18093652507838826 2.159065334216144 49 67 19
10.86303925312347 -0.13652629982594583 2.0858649571199646 44 63 9
11.319648243529384 -0.03059865655453548 2.16646983697184 45 64 13
10.581889903744386 -0.15260705664596275 2.214526653068687 44 63 10
10.460445176367696 -0.3743487968458428 2.1077877677077757 46 65 11
11.140251724144475 -0.03425358645325959 2.291436840434038 42 61 8
11.758814970719671 -0.5635789288909099 2.141366223178475 49 65 21
12.090084484949573 -0.5911652009556742 1.938943987267096 42 58 12
10.816387899061203 -0.4735266913984713 2.088307959864799 46 64 16
10.913012134390774 -0.41970032360050996 2.309873769443411 46 65 13
11.907062149618184 -0.03889960231980664 2.474039040468391 50 69 16
12.97843114403634 -0.5495848076758475 2.6354285080313087 53 74 30
13.505941177147134 -0.6453165649009944 2.72504673982442 58 80 39
11.158075403142185 0.09654432537159169 2.416492816090315 46 65 12
11.266290996021858 0.22854588079776164 2.405718570103083 43 62 10
11.138939832738574 -0.03889960231980664 2.4184335927133107 47 66 14
11.385081756957195 -0.19943832793102717 2.534560335447939 53 71 26
11.68093279418809 0.13216843172489554 2.6597690311697617 50 70 27
11.441157499445119 0.2629206040334584 2.527538674581182 48 66 17
11.662655136696024 -0.05337519769738148 2.66277461805069 51 71 27
11.319129016458971 -0.9157584264260492 1.9653542225751375 48 66 26
10.628500331797694 -0.5270624650361821 2.211240064485644 46 67 18
11.229134152342713 -0.9961745202831227 2.0675054036798337 48 66 26
10.431058281917188 -0.693060367144777 2.2254214740812444 53 69 23
11.759788566811684 -1.0792552856909847 2.490090254261439 54 75 36
12.895023557102249 -0.7762655037668104 2.647222675667421 60 82 41
11.233567575517235 -1.0310140118769426 2.284164883448537 51 69 30
11.929834306952497 -0.9002482901992463 1.684291545342153 47 62 23
11.986108113415002 -1.046872267111327 2.033578854109711 48 66 24
11.743346350555495 -1.2230986859046507 2.1422118114948003 52 70 28
11.991938827675131 -1.1694317945543098 1.9421028783186252 50 68 24
12.068038772996173 -1.1313512405464945 2.1250069858625156 48 66 24
11.622707697918951 1.6360069462302467 2.148899963673304 0 4 0
11.220496225140973 1.3534666864618299 1.7818945700088396 53 67 37
11.231158949148346 1.5366756444663874 1.8737838431662739 58 69 46
12.08637561807373 1.7221785750973364 2.029444118178514 0 1 0
11.173537417874087 1.431112620818818 2.070204422399361 47 58 31
12.127317248737464 1.5234219245957528 2.451324430434864 59 74 36
11.449936747923944 1.395556923089902 2.388175722361425 50 65 31
11.485073903948436 1.7795897765427662 2.38491977042998 63 76 45
12.057503577201206 1.1782245196020296 2.6030864385835617 55 70 32
10.838830955150135 1.809593943693623 2.4503860302455562 52 69 35
11.59208927950965 1.3701056175124557 2.5093042763260627 57 70 37
12.562247355431928 1.2319970042756268 2.5392007380095496 53 66 33
12.17506504056741 1.0035577873955306 2.7715763336652697 57 75 34
11.901765255489876 1.3361637252709875 2.6254090692038643 59 74 38
11.39133870346596 1.704570773622712 2.7109061384265596 59 78 39
10.976662294359707 1.6813665910785887 2.590408659801591 60 75 38
12.042680589017332 2.096424697840726 1.9404628056362574 4 3 3
12.233941313251007 1.7920142235251397 1.7641756831637636 0 2 0
11.965311847654707 1.9659547263761137 2.232377819622342 14 21 10
11.308102348200475 2.187816340371625 2.727217138920175 54 72 32
11.96447495922995 2.341418740883564 2.819994547192619 53 71 31
13.468038344639233 2.6119122334583986 2.7314540538030814 55 73 33
12.59051259253589 2.7533647904794285 2.5359437756179863 54 70 31
11.270508528436073 2.002827274241419 2.549355760726306 54 70 37
11.322156428707313 -1.9350392458388361 2.7244040118183035 55 79 39
10.828505926769562 -1.3179960879578183 2.6130856940613993 60 81 44
11.221524072671782 -1.7177034905582007 2.7451237840436917 56 80 40
10.865652840661797 -1.8706157595142086 2.607259835356275 56 77 38
11.861284304872617 -1.1500383655833621 2.6314551133876996 60 82 44
10.74826331500348 -1.5017345548484196 2.626014712389697 60 81 45
12.004959522466363 -2.756056189322513 2.610458499143501 67 87 47
12.744573095349406 2.5649425233089267 2.8924500996246576 55 73 31
12.649010920932408 2.877148976369712 2.924119888936419 55 75 35
11.469039218295274 -3.098409766839204 2.524098629031894 50 71 32
13.195001270866285 -3.079813868492783 2.7820047411123685 53 73 36
13.211159095363264 2.9888670191898727 2.778765332251274 54 74 34
11.443717405001502 2.9208252454560437 2.3887552966378354 55 72 36
9.995081116689823 -2.3015257338508395 2.135742986336987 53 73 34
9.37485622444498 -2.6299630772627776 1.936336037001441 57 77 38
10.898609573563512 -2.0807129048786055 2.0840185341927713 55 75 36
10.441963274180848 -2.4527005324894167 1.897501014709389 53 73 34
11.28250631758372 -2.3951441483985936 2.5477770575972594 59 80 41
10.91632421028159 -2.2905338988145396 2.44184991797151 56 76 37
11.066654619919126 -2.0949559874435533 2.42586497365123 54 74 37
10.970051500983974 -2.033452964235156 2.30514507268922 56 77 40
11.834102950766253 -1.34475058161482 2.039997628093164 57 75 31
12.56374656498758 -1.424783874839041 2.2978833991216105 58 78 38
12.49465291361882 -1.5314388992671466 2.30281406703873 60 82 41
12.71137695399956 -1.32136122169247 2.287597444672347 49 69 29
12.505397839108094 -1.638993901256419 2.3020422730418506 57 78 39
10.268765545282623 -2.8128309749125386 1.702750159756482 56 76 34
10.343363728650678 2.965596029615661 1.9007328966023915 56 73 39
16.35767507549079 -0.6648532566382577 3.1131828017862233 53 73 34
13.085834608160997 0.6784947530480976 2.8048946732189197 56 74 29
10.848182260374948 0.31363545834398715 2.196232015908046 42 60 12
10.812326030438602 1.2372412658214176 1.8859167069444809 46 61 21
10.089507202854637 0.7314432988097812 2.129821849583064 39 55 3
10.25196887476025 0.569245058363149 2.119938550367813 39 55 7
11.50990594245318 0.6373467589504652 2.382637429268108 47 63 13
10.223633075565271 0.8119722510680701 2.0104099140590552 35 51 5
12.993240617262739 -0.5052406703590161 1.5978193737084814 53 70 36
11.026284764600664 -0.23946869205769675 2.077504464884562 45 64 10
10.749405929172587 -0.26682112761276505 2.2028838539979567 45 64 11
12.007545021823207 -0.780652851548335 1.7678692382131762 48 62 23
12.915587531634303 0.4708683295339735 2.8448433688795833 58 76 34
10.423479959134697 -0.8642721893376893 2.225979620062427 50 68 26
11.58239653833253 -0.8441700315350876 1.8643176904310235 49 64 23
10.44112756379556 -1.0038725125396997 2.4977998334999887 60 78 37
10.612243239699547 -0.9638143265033088 2.336018823399868 53 71 29
10.627125266180396 -0.592651022307318 2.334674706474038 48 69 20
12.60167729098797 1.9475420403976789 1.598659256499962 0 4 0
12.05432302007504 1.985403665051102 2.7983253549639326 53 71 31
11.379541896513913 1.4933655508373311 2.7131680210522515 59 78 39
11.516572417455375 1.7562065726330025 2.26308935764398 41 49 34
11.481531657352852 1.4153257413882188 2.265622671532329 24 34 12
11.5805744011729 1.6299349897009843 1.9559718402105588 28 38 19
12.46481515507455 2.686603243335459 2.105423332217416 47 56 38
13.195001270866285 -3.079813868492783 2.7820047411123685 53 73 36
10.865652840661797 -1.8706157595142086 2.607259835356275 56 77 38
10.842041098828576 -2.8505717327433455 2.315856051740562 54 74 32
10.779713391088432 -1.9676008080835197 2.4570412857853094 57 78 41
11.387654268154813 -2.974624372618357 2.394024805426373 53 73 33
11.987936449333565 -2.801329336491407 2.814171148153848 60 82 44
13.302683591961289 2.7874713269972244 2.7610544139994877 56 74 32
11.160497920737466 -2.681628318518093 2.4162478955349975 59 81 40
11.728749826340515 -2.4912060260911546 2.4935685033766513 58 80 39
10.652463584747563 -2.229003266956268 2.097090059427803 53 73 34
12.166214068863026 -1.4388052653091883 2.1200203348063713 59 79 37
10.896721467321544 -2.929790437203372 1.5112086825268058 53 73 34
10.55076922701122 -2.722956644597894 1.6040772211942211 60 80 39
9.942653503005616 3.0676866159908736 1.8095207909282125 55 72 40
15.371989186265685 1.0970822616722333 3.0894218154855206 52 72 32
11.309188399653543 0.8965077138043617 2.2783926039506843 42 58 7
10.287243725915584 0.6597276475284044 2.0075037668680173 39 55 5
11.57015619509626 0.9942094353640639 2.3771628720025575 46 62 19
12.292874717967878 1.0384348080609578 2.571847618483396 49 64 23
14.080796181001734 -0.6299871494833742 1.5246941247268504 61 76 38
11.924965204968382 0.09654432537159169 2.4721367969574497 49 68 15
12.724484813482439 -0.7243479340949616 1.7566318481809846 45 60 21
11.916882999801075 -0.7165703865914584 1.9445563940660422 47 62 21
12.541721550555208 2.1700289436196334 1.9250899934623438 5 2 4
11.670092409294053 1.9288277496803081 2.0471353993878414 1 2 2
11.611145961906534 1.533166037488185 2.1495497864387216 27 39 19
11.209548556074246 -1.48569409749866 2.747683540848734 57 82 43
11.469039218295274 -3.098409766839204 2.524098629031894 50 71 32
12.499806637470032 -1.5266952359832127 2.4159867822050143 53 74 37
13.254485747599803 -2.870774395660838 2.770250252682182 58 79 41
11.386252243246593 -1.8785910309312166 2.2726176471606783 57 78 39
11.699071873506888 -2.2905338988145396 2.4969266473011555 55 76 37
10.460451263991978 -2.7350621198280156 2.2232665650361056 55 76 35
13.184024418564436 -1.5314388992671466 2.3592628773774074 55 76 37
15.414368678452792 -0.20690273016020538 3.050939337427516 51 72 33
10.754247090074683 0.35294956073713396 2.3234127077145077 41 60 9
12.182753344143974 0.8236704759206793 2.5861172295039605 49 65 18
10.512854984072884 -0.9360751744791952 2.1048223915301123 49 67 27
12.63896660128437 -0.6611923612825501 1.9222454359762962 46 61 20
11.236658348079866 -1.046872267111327 1.8736308492193647 49 65 21
13.004066166701904 -0.5967700021121111 2.8233461708693626 56 78 37
11.617087690526542 1.105618637325701 2.6703866145675326 56 74 33
11.490483938444351 1.9045660014825418 2.6924941118383994 60 78 38
11.907136570828662 1.9790648869453642 1.7695532182516853 2 2 2
12.07461557644225 1.5288521387536556 2.334529211309256 40 49 31
14.008128774470599 2.3502743231086405 2.402282294629585 7 12 4
14.82470160837582 2.4991319424682854 2.4429043114595004 18 23 16
12.510547136584632 -1.647193424405637 2.4150194611459286 55 76 38
11.513524691365406 -1.210884274019927 2.5186783912377693 54 75 36
10.74826331500348 -1.5017345548484196 2.626014712389697 60 81 45
10.63971964101992 -2.3794893432416515 1.6981241009666492 51 71 32
12.136060077653854 -2.579987104414695 2.7799528338945887 66 87 48
10.795508164907783 -2.993663341122034 2.1997600614458044 53 73 33
11.340178967675683 -2.1730487755331067 2.5402852704120296 56 76 37
10.673015170915738 1.1063207548913954 1.9906978946545644 37 53 9
12.522222983801447 -0.7243479340949616 1.5189511725136065 54 67 32
11.145997620291284 -1.1313512405464945 1.971830856120378 48 65 23
12.105949452006346 -1.632381843993024 2.1230699716259913 65 86 43
10.790379415003807 -0.03059865655453548 2.089680612581715 46 65 12
12.553303721575102 -0.780652851548335 1.924748728935864 48 63 24
11.060336131255136 -2.033077813918191 2.57822268012631 56 76 37
11.906024405181707 0.5280762018470874 2.4741496197129647 45 64 11
10.393639322645571 -2.5921883841348676 1.7989743775731115 58 76 36
11.452298444682931 -2.4063829048225323 2.699463012727375 66 88 47
