16.225522133430896 1.0163131064008895 1.4268577056804883 46 60 11
16.14522662810646 1.0709981032414462 1.299447540094249 46 59 11
16.122295830479555 0.9817057187210303 1.23402846486748 38 52 6
15.557922679692584 1.0709981032414462 1.5497493478963775 49 65 19
11.296347549301512 0.7984636965189347 1.9019263702413862 34 47 3
11.488868148804801 0.7285616870159384 2.0871879556107853 38 50 5
12.650194389226767 0.40773647587491946 2.326180866031848 50 64 16
12.345937967771027 0.5579049649193049 2.3496499673019864 43 55 7
13.626229171851474 0.17296976951926404 2.3600813566588874 50 65 20
12.863184644569529 0.07694816234342079 2.421823884592426 37 52 5
13.541434089956638 0.06883653648949048 2.3664123628307276 42 58 11
13.0344833037805 0.08722139294379334 2.530106159268646 46 61 13
13.94799602223569 0.21806748725461061 2.562325574187489 48 63 18
13.122554599913421 0.21806748725461061 2.520598209810334 44 57 9
14.101428199564713 0.3417783759052568 2.545897197476761 45 60 14
13.285523078105927 0.3417783759052568 2.5036518539547625 41 56 6
12.662458855342187 -0.4221454588674914 2.4400976876501455 40 55 13
12.186426749845216 -0.1581298331384271 2.3626528084470326 29 43 0
12.435495506589596 -0.3051612270340754 2.4619859856667827 39 55 10
13.725135111926996 -0.5280467696098695 2.4616258258995907 43 60 24
12.662458855342187 -0.4221454588674914 2.4400976876501455 40 55 13
16.222027958285402 1.21442016320366 1.3007644562286669 50 66 21
16.32930027397086 1.339255165051116 1.1728901726844978 47 61 19
16.516931835870714 1.21442016320366 1.242381329500814 48 62 16
16.01294073716548 1.1291524220664753 1.2316365383209824 43 56 9
16.610060538926785 1.2935304254525273 1.3691059114948814 51 65 25
15.279061897831127 1.1291524220664753 1.4178733777688728 49 64 20
13.793124962262768 1.4646573050066576 1.4744091243438027 33 44 6
13.764734709600349 1.6107360564881938 1.6926090963126943 37 48 11
13.189690005256017 1.363181794480335 2.0153739391048076 33 45 3
12.695925835870083 1.2825782541361532 1.8642626488080223 33 45 2
13.40079471705836 1.3791764733801417 1.8484049862637573 36 47 9
11.762116645486467 0.9298464153607074 1.979321681438035 30 41 1
13.701684058874639 1.0975416241558476 2.0794359639803313 27 39 0
13.574367898105319 1.2571920258680627 2.1715027325298033 30 44 3
14.73525678747351 1.2943672597258393 2.4851248278093747 54 67 26
15.063338243565655 1.1384088245425439 2.3581857249688336 30 42 1
14.091199157908779 1.1610951885703678 2.6890212493205685 55 71 27
15.005641011639645 1.2603977154149992 2.576466153440256 59 74 33
14.06923928065433 0.8031684660414222 2.5492809397698637 49 63 22
15.539399808273739 1.2943672597258393 2.524410750841466 62 76 35
13.693328964866925 0.7191975918012306 2.4645034817573634 39 50 10
14.6506636159018 1.0436111771905021 2.492655945934323 49 63 20
14.075609025375442 1.0564180432205341 2.2346316538236346 25 36 0
14.798487795302504 1.2270951108495791 2.3763203491418614 30 44 3
15.196895361141536 1.0953341096937192 2.446648674140006 43 55 12
14.597476597527626 1.3217751498510466 2.3907654764637885 37 51 10
14.52121131101071 1.21730563809218 2.631489613357531 59 74 31
14.989443417409678 0.9807256875176514 2.57817255993169 51 65 22
14.59605609190199 1.3443235904888537 2.2951937297890272 36 50 9
14.499902695103959 0.883983309029957 2.5064898406860086 44 58 17
14.14196731044056 1.7551407191028794 1.7609216632321054 40 51 18
13.25414580561074 1.4563385256302488 1.851559392824041 37 48 10
13.951198321883496 1.6923534171264552 1.9895273207614452 34 47 10
14.736459968405494 1.84402674417377 2.040692535021254 33 42 15
14.575029166551012 1.8248941752582777 1.8255192975826386 16 24 4
14.528323042002066 1.7693447337890182 2.0479814845709554 39 48 15
14.746484116520092 1.7858837704867552 2.199518181866937 44 54 12
14.532224462752795 1.5318128971038805 2.2102815681388 36 47 8
14.607111686131855 1.7026700034821411 2.2064739498100923 40 53 9
15.224841699490952 1.7295774844378622 2.444449803286328 50 64 23
14.820013999361263 1.922837568259937 2.3748093529454604 52 66 24
14.536504276065935 1.518317129867083 2.503081100892981 53 69 26
14.400368060834593 2.004702937124855 2.5159294460084465 55 69 26
14.61306719869632 1.828660895528101 2.3896228410237814 50 64 23
14.61136956425996 1.7475689371443397 2.496209670251478 55 69 27
14.602016113552049 1.4042438987204844 2.4970608898878788 53 67 26
15.15601276018561 1.627258206923536 2.449890570687742 50 64 25
15.08851394967349 1.6219672646281198 2.356511937901722 46 60 18
15.157649395507903 1.7148868908526849 2.351958306951605 47 61 18
14.385988319426472 1.3555292233888168 2.6485508030864326 60 75 32
14.874822491641746 1.382957565237263 2.5904908570420373 55 70 29
14.884004505535456 1.7700977586496671 2.5894879612633686 56 70 29
14.539636809622609 1.6337678532476403 2.5027908877147618 52 66 25
14.61136956425996 1.7475689371443397 2.496209670251478 55 69 27
14.611648208747596 1.805373418744086 2.294249868673455 49 62 21
14.884004505535456 1.7700977586496671 2.5894879612633686 56 70 29
15.215865365190702 1.4212293092369948 2.4451545676938315 51 65 24
14.049113674939488 0.45252960668358605 2.6952216816949726 54 70 25
13.811959549210211 0.11894218814248109 2.7325638822398894 49 68 24
12.489549110523651 0.10064972042768769 2.595423492805844 50 68 23
14.126171729009986 0.6244954858832071 2.5433179827645978 47 60 16
13.698168114938964 0.7061470275386236 2.5908323108280378 54 67 23
14.27169503887145 0.5899719344107883 2.6636688885599273 54 69 23
13.82913748164739 0.5148820948625475 2.5756000985037186 55 70 22
13.811959549210211 0.11894218814248109 2.7325638822398894 49 68 24
13.895103843447712 0.2940625673031123 2.7189725445763866 52 69 27
14.215345423216903 0.8070702126364213 2.6713792323360557 51 67 23
12.888808655156966 -0.06374348171740805 2.7036748816421134 48 67 24
12.545177102051193 -0.20591190834255627 2.5881717332548027 48 67 23
12.954447279528095 -0.24230978036825693 2.6929757789137416 49 68 26
12.69164230076838 -0.3489190376050018 2.5697658704561617 49 67 24
12.477385653774025 -0.05388845231055534 2.5970293747275184 49 67 23
12.712399540391504 -0.4851291697115949 2.7343187539872886 50 71 30
15.416424413133765 1.936284931629607 2.661352045966207 54 70 26
15.283162620943912 1.7990934254918294 2.6783696228726224 55 71 29
14.996901263809228 1.1610951885703678 2.7181833731985607 60 76 32
14.849655931960749 0.932047918805562 2.7407527170473194 55 70 28
14.567381270030683 0.813166811183357 2.789273040249305 56 71 30
14.849655931960749 0.932047918805562 2.7407527170473194 55 70 28
14.555761924567195 -1.05690215291121 2.791450697094794 55 79 38
14.28894290827199 -0.9382139175878743 2.8468059302475828 56 79 38
14.555761924567195 -1.05690215291121 2.791450697094794 55 79 38
21.742281090617798 1.8897803098440342 3.061497180600166 58 78 40
21.790315945646263 2.322960442645489 3.037591243686735 59 79 40
21.737391397771482 2.7424723989683666 3.064350331463218 61 81 44
20.849108312971538 1.7736872473891738 3.011369214749276 57 74 35
15.263500685710921 -2.2208449028019532 2.8624251613298872 62 86 48
15.059624470995242 -1.7323145971326253 2.9143841078336976 67 90 55
15.381147127697334 -1.912315711109519 2.836877829583096 64 87 52
14.35452434530588 -1.4666568371922775 2.8321140885884266 61 84 48
14.151500677437213 -1.1609859823969317 2.880689443092291 59 83 42
15.513567254230132 -2.1004335156757246 2.8108148280881413 61 85 47
15.313020765878377 -1.6956089974541395 2.8513571883408333 63 86 51
15.31004647244981 -1.4666568371922775 2.852008352556215 60 83 47
15.381147127697334 -1.912315711109519 2.836877829583096 64 87 52
13.23386351908622 -0.8976272049503949 2.013784408161846 15 28 1
13.038273809254731 -0.7155047348741569 2.108038268943907 0 9 0
13.577250742830511 -0.7155047348741569 2.171357257363259 0 8 0
13.593306203052109 -0.7782170483768576 2.2626990513313183 12 25 3
13.331560141291837 -0.6223377492717419 2.382614722068951 42 57 24
13.248316631080133 -0.7770952765787473 2.389262499714548 54 69 32
14.4761653463468 -0.8500564171283144 2.3997897129583716 50 65 27
14.370521403404897 -0.6919376938719481 2.5188098705378565 51 69 29
14.857170624262036 -0.9589349128532834 2.592426972031853 55 75 36
14.3631223333296 -0.8609743434404021 2.5195275810537483 55 72 33
14.45818810188922 -0.8763162379407291 2.639335672311526 54 73 34
14.494367213461398 -1.0258299031087394 2.507008241089584 55 72 34
14.170003699333487 -1.1261194512823838 2.3221236435781147 49 64 27
13.658893486897398 -0.9126370396621653 2.2587270928473835 51 64 29
13.892501829499661 -0.9920537462532274 2.340948422699308 49 64 26
13.046847032053929 -0.9126370396621653 2.199478011636309 29 42 15
13.869130075202317 -1.0426127869845134 2.246331617101153 47 59 24
15.026077222199028 -1.0806424171632762 2.4603985239743054 53 70 31
14.606394520594232 -0.9920537462532274 2.3901114121126623 52 67 29
14.760558210147 -1.178451186756047 2.4829032251711896 58 76 36
14.55902334165268 -1.2848420782929264 2.501000111360524 59 79 42
15.372388053629836 -1.2848420782929264 2.539889403457195 61 82 42
14.398483344540754 -1.314031197345764 2.4056961068527234 58 74 36
13.911062530961496 -1.9333113864402787 2.339655069153455 66 83 45
14.782139648531421 -1.9724207942405796 2.481019271595919 67 86 47
15.034154594861972 -1.7346452289970296 2.459736022888383 64 84 47
15.253676357586041 -1.7538591764587894 2.5513189484866188 66 86 47
14.868403029269995 -1.9042773282784102 2.5911937262586466 64 85 49
15.184978117677016 -1.6360522092163408 2.5581062403424792 65 85 46
15.605766760263144 -1.5269076291061692 2.415788041891888 65 80 44
13.739641214853513 -1.8119971104643446 2.2539065413736594 65 82 46
15.181978739501657 -1.5164117696293804 2.5584055703551583 62 82 43
15.75400882999321 -1.522219752059911 2.5054667296168995 63 82 43
15.034154594861972 -1.7346452289970296 2.459736022888383 64 84 47
13.825155001835153 -1.7740958272235943 1.9935885151569195 59 72 37
20.914448750983137 -1.5446059327249773 2.162903431065331 6 13 0
15.272944599595967 -1.2018589866574982 2.6797109008764366 58 81 41
15.714934060031919 -1.2484245562674257 2.6260740590867813 60 81 42
15.082288917331292 -0.9972976975867516 2.705791076486029 57 77 37
14.885110714183615 -1.1405366096129201 2.735168927404467 61 81 41
15.144435239716834 -1.3455685151882697 2.6970604572330252 58 82 42
15.153453886587231 -1.8096130348744708 2.6958126305311403 62 85 50
15.103410637978463 -2.1562188040720334 2.7027974977359714 60 82 45
15.590068457155692 -1.3753869499625313 2.6403904733620425 60 81 42
15.287846371565067 -1.9521549330093793 2.677756606360338 60 83 48
15.485778271311542 -2.0801534030797315 2.6528243015243835 61 83 48
16.09409196663711 -1.7538591764587894 2.5859092468016467 66 86 49
16.028996046007485 -1.6360522092163408 2.5924842755494675 66 86 49
16.026154630954803 -1.5164117696293804 2.5927741050589606 61 82 44
14.691486205842226 -1.6724501288418827 2.766971386125289 62 85 50
14.762481123581562 -1.8521178533861522 2.7549245216163367 63 86 51
15.531657943506863 -1.6449022441947028 2.647298439181894 65 86 51
21.361579445776343 -1.4820621914971799 2.265365636328985 16 21 4
21.316851512497426 -1.5430046942985103 2.2671148468080338 38 44 9
15.155206730763185 2.257153508623945 1.6813847879303088 9 13 5
14.518528173461531 2.082623614227054 1.9722023013567067 5 8 0
14.991537304298674 2.048234287825692 1.8877579424685822 0 4 0
14.971538501992397 2.1085635349345946 1.7502687601092308 6 10 3
14.850001925705673 1.8922124025861826 1.8207009475315301 4 11 0
14.6729616630551 1.9427509189185392 2.121052739721237 31 40 10
15.012890659467756 2.01500876839423 2.107220773399587 11 19 1
14.171419473751163 2.1218083356443818 2.06104746731118 37 44 16
14.433329008206153 2.2469134645713793 1.900470977881327 8 15 0
15.199055690282627 2.2469134645713793 2.025295734919846 40 50 19
14.520055729141982 2.4801624189629767 2.2998348747295383 48 61 13
13.962576360875026 2.278428743451953 2.336091848650134 52 64 21
14.25509068558353 2.197929358257249 2.4168730058321897 53 66 23
14.601351568310234 2.2481284119080556 2.6217641394027713 55 70 25
13.289102377205836 2.3467013856469294 2.503288630529112 52 67 23
15.011605672015632 2.287999177769491 2.270956161188905 51 62 16
14.534690325715315 2.2184755261699864 2.2989359085080205 53 65 21
13.750456679294086 2.054544452425968 2.351017694436602 55 67 24
14.79437352356653 2.557259619752402 2.376609915221888 50 62 17
15.001758678692648 2.2954747055684015 2.1076620362167287 53 63 20
15.010224357905994 2.234323459654339 2.1867999524662736 53 63 20
14.533263683255214 2.1667170908158275 2.210228386777634 53 65 21
14.40065078808314 2.0109355484769624 2.307265587184081 52 66 23
13.959605992950918 2.1667170908158275 2.15271405819986 61 71 34
14.533263683255214 2.1667170908158275 2.210228386777634 53 65 21
14.468492441954764 1.9741377726261677 2.2135616806376657 55 67 25
14.18301794555652 2.1702606530616464 2.5374628056955935 54 68 25
13.744232471223485 2.2657421080566165 2.459909281345064 54 68 24
15.503889791576734 2.257153508623945 1.8099505425347897 5 12 1
15.50264550224622 2.498497082004415 1.945407022614814 27 35 7
15.77624079495605 2.400413897114787 2.0074958131457286 23 31 3
14.994671093765394 2.405266458292624 2.107943384273288 49 59 13
15.38539886130716 2.64960333333683 2.2506580302070502 54 65 19
14.996053840514875 2.4658681598812886 2.1874690342347987 48 58 11
15.834097415208934 2.5563043967401273 2.0766569090057185 60 68 32
15.18779208917788 2.5788527624874513 2.1785476480499377 52 62 18
15.50665748317694 2.6863593260978043 2.164314384346005 62 69 35
15.50665748317694 2.6863593260978043 2.164314384346005 62 69 35
13.616402475701458 -3.042391548444533 1.5467477825249312 53 67 26
13.662453033127374 3.0202445176890373 1.6200443537816773 58 68 32
12.781111218124062 -2.9565628237898935 1.6234433690945067 54 69 28
14.149788234536295 2.8036311731119117 2.540873684958265 54 71 29
13.356183577217372 2.5237290191541057 2.496549530078282 54 68 21
12.939357582375184 3.0245860877122044 2.695404647705331 63 83 44
13.914350096927604 3.055418871289728 2.5660327619615053 69 88 48
13.398434857557792 3.042334241058385 2.628416505789652 69 89 49
14.481029680499889 3.0654614549876027 2.5082604407146896 63 81 41
13.42899949132842 2.559252224342253 2.6243920513186554 57 75 34
13.192207666153633 2.695541867274995 2.65687910017471 58 77 37
13.771664787893338 2.9506488595153746 2.457458189256948 58 74 33
13.898372566268735 -2.903112299526797 2.718449882769469 65 86 48
14.326752666897718 -2.938467340324845 2.6563019403988437 67 88 49
13.387097235810437 -3.088452644751517 2.629921359390451 68 89 49
13.619526123711127 -2.6709125056422836 2.3605774861805426 61 81 41
13.964303425431455 -2.9647887778867545 2.5605427195346033 67 87 48
14.076232801222773 -2.7681736541364614 2.4313418652758316 63 83 43
13.492562687887366 -2.723967850586787 2.4832332119654765 64 86 45
13.349615639405693 -2.598415404618552 2.634943690009129 64 85 47
14.147884128364673 -2.3783844377398586 2.6808496891161204 62 83 46
13.253470551811875 -2.5552350715058476 2.506921268527791 61 83 42
12.959867510855226 -2.6687736626569087 2.5383665411909417 63 85 44
14.147884128364673 -2.3783844377398586 2.6808496891161204 62 83 46
14.096030857171831 -2.839894313507358 2.5464623160121542 66 86 47
13.13453166089455 -2.7410511147431675 2.6652847441773946 64 86 49
14.671395032807101 2.858332978865709 2.0429459825157377 61 71 33
14.95170613809184 2.7865123671475405 2.0333951465365248 61 72 35
14.553331076697969 2.895234960687862 2.297794510961107 55 69 24
14.333392787005263 3.0734109005768904 2.4107246854751536 59 75 34
14.324527111413845 3.079859088516402 2.312094237206863 54 69 28
14.454687998870334 3.0851941837728623 2.214277036218368 57 69 31
15.708340704827137 2.7261483786453833 2.3177696050747096 57 69 23
14.894598277167963 2.8352506027901607 2.192306051266603 57 67 26
14.553331076697969 2.895234960687862 2.297794510961107 55 69 24
14.333392787005263 3.0734109005768904 2.4107246854751536 59 75 34
14.363694925146728 2.688131169800432 2.309600713835201 54 67 23
14.404713159129777 2.9862162864096216 2.307009930264627 57 68 28
14.404713159129777 2.9862162864096216 2.307009930264627 57 68 28
15.046820723672338 2.7261483786453833 2.2689858935715677 58 70 24
14.776914477660867 2.776201432915329 2.3778414681046955 56 71 25
14.79823021698602 3.0106780486179843 2.1158679757206214 57 67 30
13.040211332154255 -2.9565628237898935 1.7772078205151605 53 68 27
12.527969566053331 -3.0253503585646127 1.9530059961888093 54 68 27
12.32671435406776 -2.7505092546853116 1.959577705280888 57 75 33
12.868522039757655 -3.1114466074733835 2.0272975270866156 56 68 28
12.569705612185682 -2.8593391467419873 1.8672985407726175 56 73 31
12.433693128212155 -2.8341635575736133 2.044546048986602 58 76 36
13.720042080645525 -3.0144408499890436 2.2550696349612123 59 74 34
13.324455119992034 -2.804244299763265 2.2795349392226245 61 79 39
13.65808328155383 -3.108589939614674 2.258775847225749 57 72 31
14.322795277298292 -3.1051354614513427 2.4115504089686484 61 79 39
13.251064736650937 -2.9224986440551035 2.1883174581067473 60 76 37
14.792277152264388 -2.506735343267302 2.7500070758044592 64 85 48
12.741847169420861 -2.7077972119093126 1.6236057518967204 55 70 31
12.563783743216694 -2.5026755227765136 2.13069002291893 57 77 37
12.827742820417628 -2.367877788791273 1.943629669956049 59 76 34
12.60178787663561 -2.3057382890991844 2.037719162600183 61 79 37
13.097517998275086 -2.431389414229929 2.105345946399531 56 74 34
12.617441258295838 -2.431389414229929 2.037093866349906 56 74 32
12.46811516338738 -2.369446507461507 2.135506797224903 60 78 36
13.751385351523023 -2.1816536960598496 2.1627090672552405 62 80 41
13.660700965895074 -1.984683801235173 2.1671789504088386 61 78 40
14.522617491606342 -2.1247772506860834 2.504370520167981 64 85 48
13.79848814782337 -2.298490213386534 2.347578473064245 62 82 41
14.3559949475627 -2.2357481580347156 2.3100893924236203 67 87 47
14.09440835886935 -2.2172887921245303 2.4298436224204645 65 86 49
13.702169066459952 -2.2357481580347156 2.256134160827628 67 84 46
12.668760791256819 -2.5823881331769996 2.2213531998642617 60 80 40
13.614359971609694 -2.4565301641424484 2.4717519479820043 61 82 43
14.48650893343378 -2.27524770610756 2.635787676036477 61 82 45
15.05332968403782 -2.0694042226589224 2.458168295250233 66 86 47
13.292928924687677 -2.371501788317967 2.3856836065374623 61 83 42
13.927164565690916 -1.9517795124385882 2.070431334341396 59 74 36
19.590962495061774 -2.078829689201851 2.0293844321357635 43 50 13
12.32470179584675 -2.6308926235402996 2.049085249536246 57 76 36
19.616621004509245 -2.0524558251231526 1.9178718242526986 42 49 13
15.616619686579625 0.8891347310297303 1.2900178751517062 50 64 21
16.071808545656495 1.0163131064008895 1.6126567912513023 48 64 16
13.86516890647663 0.08722139294379334 2.5715228481677572 53 68 22
14.323196622914006 0.45552447947150826 2.523425725123263 38 53 6
12.746123092198179 0.45552447947150826 2.432363679801067 42 56 6
13.0344833037805 0.08722139294379334 2.530106159268646 46 61 13
13.117503103206872 0.30394309346680076 2.3999788445623302 47 62 14
13.541434089956638 0.06883653648949048 2.3664123628307276 42 58 11
13.022828831147107 -0.04667073311785522 2.5313837223853017 45 59 13
16.178795279900516 1.1558521917197253 1.4264390810725 49 65 21
16.21419499261215 1.2756551788990396 1.23601210684149 47 62 18
16.01294073716548 1.1291524220664753 1.2316365383209824 43 56 9
15.708578066157594 1.1291524220664753 1.2917057498136768 50 64 19
12.984976035241214 1.0260150062463338 1.857542526432805 27 39 0
15.728377679014717 1.1909156297125842 2.507676570781539 59 70 30
15.005641011639645 1.2603977154149992 2.576466153440256 59 74 33
14.299329065386233 1.02217536718606 2.659951266662239 53 67 26
12.032268320871943 0.8004571939259641 2.2622617574183685 25 37 0
12.199055312723031 0.7191975918012306 2.361604697884097 24 35 0
14.597476597527626 1.3217751498510466 2.3907654764637885 37 51 10
13.719105343384463 1.1384088245425439 2.2551253356955305 28 39 0
13.712569997048558 0.9033272813155848 2.5891245720249696 50 64 23
14.934413634459661 1.1909156297125842 2.468005785125675 44 55 15
13.876053207914538 1.6138891238064241 1.9919387716519017 38 49 14
14.14196731044056 1.7551407191028794 1.7609216632321054 40 51 18
14.607111686131855 1.7026700034821411 2.2064739498100923 40 53 9
14.535357918657535 1.617582309671865 2.21012124527873 38 51 10
14.744899791620236 2.060506879729646 2.6049988212957316 54 69 26
15.224841699490952 1.7295774844378622 2.444449803286328 50 64 23
14.189049676073713 1.959723920406401 2.4221452051438903 56 69 26
14.61136956425996 1.7475689371443397 2.496209670251478 55 69 27
14.319488186186138 1.5025815563618552 2.6572648187633483 57 74 32
15.157649395507903 1.7148868908526849 2.351958306951605 47 61 18
14.810517416535477 1.5114739085884537 2.5975962495640603 55 71 31
14.61136956425996 1.7475689371443397 2.496209670251478 55 69 27
15.085495391993 1.5281573584983805 2.356712181734448 44 58 17
14.187301304330415 1.8919500774537308 2.537025523708771 55 69 27
14.215345423216903 0.8070702126364213 2.6713792323360557 51 67 23
14.02909724953443 -0.5928335397727341 2.553546670067644 50 67 28
13.691920137037801 0.53697346865113 2.7532858750851688 55 70 28
13.096336132174395 -0.4065220126548429 2.670969028862622 48 68 26
12.477385653774025 -0.05388845231055534 2.5970293747275184 49 67 23
12.566176280226312 -0.29388947342628746 2.7621967055555783 51 71 29
15.214597520492209 1.6526267061936504 2.6874753942280067 55 72 30
15.283162620943912 1.7990934254918294 2.6783696228726224 55 71 29
14.86600583559997 1.3189191321196958 2.738165377365401 63 78 36
14.649346855244659 1.0852885532320287 2.774356716276177 58 76 32
14.649346855244659 1.0852885532320287 2.774356716276177 58 76 32
14.555761924567195 -1.05690215291121 2.791450697094794 55 79 38
21.742281090617798 1.8897803098440342 3.061497180600166 58 78 40
15.46174424734633 -2.384819064643076 2.8207182762718976 63 85 48
15.128891935467324 -2.0032625427867505 2.8953623476889203 66 89 54
14.571397158231866 -2.1004335156757246 2.788524193923888 61 85 48
15.381147127697334 -1.912315711109519 2.836877829583096 64 87 52
14.778927468885461 -2.2548645565266603 2.7522005294711978 61 83 46
16.035505698792054 -1.7323145971326253 2.9284320653476157 69 92 57
14.778927468885461 -2.2548645565266603 2.7522005294711978 61 83 46
14.42086291427561 -1.2479961000615512 2.8180368148460553 58 81 41
13.030118252785396 -0.8418918394040066 2.108411150938564 4 16 0
13.67444974298643 -0.6440545185158911 2.2577924878461064 0 10 0
15.154585986809776 -1.314031197345764 2.450004256074383 60 78 39
14.263163845335814 -1.0806424171632762 2.416233998914597 52 67 29
14.760558210147 -1.178451186756047 2.4829032251711896 58 76 36
15.050678280891795 -1.1313435064797606 2.571764581631307 59 78 39
14.55902334165268 -1.2848420782929264 2.501000111360524 59 79 42
14.853080444896188 -1.2484245562674257 2.59287712910543 59 81 41
14.314696123040891 -0.9126370396621653 2.312723142663949 47 62 24
13.950016752440398 -0.7755581688913286 2.56210416189125 55 73 33
15.372388053629836 -1.2848420782929264 2.539889403457195 61 82 42
14.574655076571629 -1.8667630160110638 2.499562759287744 68 88 49
14.414289179882063 -1.836654385241091 2.404486062621517 67 86 47
15.814477930929447 -1.4164461010836975 2.5003074085135273 60 78 38
14.964448616456265 -1.6290883402513696 2.46549492650803 64 84 46
13.93301484507683 -1.7914569153192226 2.153970203670623 62 77 41
20.960035414327205 -1.4871525475705916 2.1614412644805894 8 15 0
14.900400360787339 -2.015032488333458 2.7327912995010206 60 84 46
14.762481123581562 -1.8521178533861522 2.7549245216163367 63 86 51
16.09409196663711 -1.7538591764587894 2.5859092468016467 66 86 49
14.688386056636817 -1.4860251048087514 2.7675085461535502 60 83 47
14.753223476961004 -1.3052630992811847 2.7564685925813834 59 80 41
14.885110714183615 -1.1405366096129201 2.735168927404467 61 81 41
16.08560071205376 -1.3983025906949336 2.5867599418203504 60 82 41
15.084299211606622 -1.6565226045448793 2.7055049680866747 63 86 51
15.993440984548021 -1.4993291349923128 2.7323241005699828 60 83 47
15.272944599595967 -1.2018589866574982 2.6797109008764366 58 81 41
15.598829458063493 -1.7781049456392033 2.6393662777947133 63 84 49
15.465178781853059 -1.072442335820777 2.655334881985563 58 78 39
22.015045542237882 -1.4820621914971799 2.3002729226415646 28 33 3
15.39806716382513 1.8716180448180195 1.4844820663189504 6 12 0
15.270971995210685 2.1648471629330777 1.549353802528309 11 16 8
14.93633934507206 2.3500133306939817 2.1903060172277504 51 61 13
14.534690325715315 2.2184755261699864 2.2989359085080205 53 65 21
14.112623458336612 2.1407948753680928 2.3259282659784035 54 66 23
15.38691723690514 2.3014746924700917 1.9483659157709565 17 25 2
14.45550695984339 2.234323459654339 2.1303074141040383 54 64 28
14.40065078808314 2.0109355484769624 2.307265587184081 52 66 23
14.81311430896797 2.0508019755385085 2.1962512561005267 55 67 27
14.694705266629677 2.203592976752292 1.7536876802001717 7 11 3
14.937630807199312 2.082623614227054 2.033865103620659 3 7 0
15.185061389051386 2.4545199875378554 2.025746085363901 49 58 18
15.38539886130716 2.64960333333683 2.2506580302070502 54 65 19
15.008475418511608 1.9157134684545496 2.0315097472147445 12 20 2
15.18596849664557 1.9566463099405003 1.8150581751807144 0 4 0
14.25509068558353 2.197929358257249 2.4168730058321897 53 66 23
14.45837544888483 2.3491999051755728 2.3036517809904247 50 62 15
15.004522738446736 2.4113141115741232 2.271353961819822 49 61 12
15.37579125518911 2.6189024374599392 2.093245069120468 44 50 21
13.4406046888557 2.3481399522517696 2.3740993372323715 51 64 22
15.18779208917788 2.5788527624874513 2.1785476480499377 52 62 18
13.996886184114148 2.926076228459618 2.55700728694432 58 75 36
13.356183577217372 2.5237290191541057 2.496549530078282 54 68 21
13.927039716367492 2.840696150898564 2.4438906277457253 55 71 27
13.87188196769813 2.6326945434212745 2.570768405330336 54 71 31
13.484129221547677 2.8943927016323623 2.6172495488604337 59 77 39
13.64277922912235 2.7566655203973953 2.5974789740641056 55 73 34
13.795046926615168 -2.6687736626569087 2.579501752959426 64 86 45
13.349615639405693 -2.598415404618552 2.634943690009129 64 85 47
14.076232801222773 -2.7681736541364614 2.4313418652758316 63 83 43
12.927617352528419 -3.0788933535869756 2.697306890237835 65 86 47
13.403300783686106 3.089681262580679 1.926888143452753 56 67 25
14.681463605752617 2.915823086988505 2.2027423710799847 56 66 27
15.170785809225281 2.758578074876254 2.17932759364939 57 68 27
14.324527111413845 3.079859088516402 2.312094237206863 54 69 28
14.768315058230545 2.808224509518308 2.284918958067577 56 69 23
14.381890707560741 -3.0012863364278117 2.406970995698954 63 80 40
13.045998816390659 -3.108589939614674 2.199525286369184 54 69 28
13.162815635300783 -2.3743115242376955 2.516335461527158 61 82 45
13.59985408810486 -2.2888141173226733 2.473099847096618 62 83 46
13.702169066459952 -2.2357481580347156 2.256134160827628 67 84 46
14.640651035913328 -2.1571470190325654 2.3876105777796033 67 87 48
14.0251856624879 -2.0627470289231535 2.1496408583548448 61 78 40
13.905203015671011 -2.106217736509697 2.24425459870777 65 82 44
14.09440835886935 -2.2172887921245303 2.4298436224204645 65 86 49
14.88473234046486 -2.192207097972542 2.5894085869852557 62 83 48
14.19889934917388 -2.023383484976399 2.320224418211752 65 82 44
13.131941500625643 -2.442163807859194 2.2921722633992547 58 80 39
19.648406635243006 -2.027721667417856 2.0855069861197872 40 50 12
12.379395636168113 -2.5547176813229466 1.9578351159180856 56 75 35
19.57206916642943 -2.0032160714175964 1.9736190043593327 41 48 12
21.913059022801622 -2.1968991852124953 1.7856787170966004 38 45 7
11.542133449609697 0.8596041827152028 1.7162188942818888 32 43 5
16.14086888847798 0.9290387773627254 1.3631585989270918 45 59 13
12.09878980421731 0.6487175229737159 2.257718864446206 43 55 8
13.0877953274866 -0.17891860493838913 2.524320245842109 44 59 13
13.840484226114565 1.683527513582518 1.6919391204439704 38 49 14
12.99580668644897 1.3791764733801417 1.6998555793589984 35 46 6
12.585910504412322 1.2056440792513048 1.704083428646014 29 43 0
16.21419499261215 1.2756551788990396 1.23601210684149 47 62 18
13.953483422764204 1.3443235904888537 2.2414968228265657 30 44 3
14.52121131101071 1.21730563809218 2.631489613357531 59 74 31
14.321605553629322 2.13106569610789 2.656983887306045 55 70 25
14.813592006436192 1.641971275320967 2.5972532149001104 57 72 31
14.536504276065935 1.518317129867083 2.503081100892981 53 69 26
15.413112222683239 1.4042438987204844 2.536052137340743 55 69 28
14.026735615943844 1.4466121382412567 2.149568646330833 36 46 7
14.61306719869632 1.828660895528101 2.3896228410237814 50 64 23
13.649654803083639 1.363181794480335 2.0815625668863764 36 46 7
15.153007648624067 1.5237458675138982 2.4501300612873993 51 65 26
14.116928176224107 1.922837568259937 2.325641293089864 54 68 25
14.73525678747351 1.2943672597258393 2.4851248278093747 54 67 26
11.91472889309776 0.9813678653908585 1.7970298904780544 29 40 0
12.489549110523651 0.10064972042768769 2.595423492805844 50 68 23
13.920214124437795 0.6867083367230854 2.7149791542808317 55 71 27
12.69164230076838 -0.3489190376050018 2.5697658704561617 49 67 24
13.448468633144396 0.14530343149737396 2.8002507634442972 52 71 28
12.914104694460125 -0.4785235266334847 2.5435299357832424 50 67 25
13.599314661229382 0.3898283542288442 2.602784740436241 55 71 26
13.440151599738456 0.2505450871704732 2.6229352545791333 54 71 27
13.448468633144396 0.14530343149737396 2.8002507634442972 52 71 28
21.841027248154163 1.7736872473891738 3.0173147436111303 57 76 38
20.849108312971538 1.7736872473891738 3.011369214749276 57 74 35
14.28894290827199 -0.9382139175878743 2.8468059302475828 56 79 38
14.42086291427561 -1.2479961000615512 2.8180368148460553 58 81 41
15.381147127697334 -1.912315711109519 2.836877829583096 64 87 52
14.649346855244659 1.0852885532320287 2.774356716276177 58 76 32
12.978167040123237 -0.7782170483768576 2.2033311926522674 1 12 0
13.76324131771673 -0.7054175944094943 2.3500987827829514 36 51 22
13.633592001090069 -1.8736203139428749 2.0822228991308083 61 76 40
14.0588209008587 -0.9322483549179078 2.432783253102167 52 68 30
15.244717001605204 -1.3983025906949336 2.552196754036597 60 80 42
13.995107979788802 -0.7770952765787473 2.438109116234134 51 68 29
13.658893486897398 -0.9126370396621653 2.2587270928473835 51 64 29
14.26464386633474 -1.7740958272235943 2.0575627158466525 60 73 38
13.825155001835153 -1.7740958272235943 1.9935885151569195 59 72 37
13.570804382833188 -0.6919376938719481 2.4758148137260307 49 66 26
15.253676357586041 -1.7538591764587894 2.5513189484866188 66 86 47
13.17464912011111 -0.9665068605589311 2.101883355623195 19 31 1
13.755515596522661 -0.8500564171283144 2.350653774441061 54 69 32
15.598829458063493 -1.7781049456392033 2.6393662777947133 63 84 49
15.722326620742848 1.9326211336319783 1.4862665208733206 2 7 0
15.38539886130716 2.64960333333683 2.2506580302070502 54 65 19
14.717996335570346 2.6070078667833485 2.2878859778406815 51 63 19
13.736496059021285 2.429333518619233 2.460603646796284 51 65 20
14.35926302753934 2.145470919245825 1.829433826344877 6 10 2
15.340971819794099 1.9838938658471625 2.0207806108221495 0 5 0
14.104800452344284 2.3467013856469294 2.5455445704794624 55 70 25
15.38539886130716 2.64960333333683 2.2506580302070502 54 65 19
15.130204901621076 2.532981665531053 2.2643699063936134 49 60 15
13.89663730787275 2.1068258809269014 2.446504243351387 54 68 24
14.533263683255214 2.1667170908158275 2.210228386777634 53 65 21
14.746858143617207 2.0922982042019416 2.286180743591763 52 64 21
15.432368464556259 2.3511797093524 1.811080684613413 8 15 1
12.988763063905921 -2.880790811804167 1.545585474847128 56 71 30
13.571110400582713 2.6908482254777226 2.475786103953067 53 70 26
13.398434857557792 3.042334241058385 2.628416505789652 69 89 49
13.687770702306675 3.0654614549876027 2.4650087981069144 61 78 38
13.77481628390717 -2.6188155046678134 2.4571776973498287 62 84 43
14.65568722080237 -2.8734294490082113 2.4922041852915466 64 83 43
13.903433187119393 -3.0954844784393307 2.567244043744979 69 88 49
13.898372566268735 -2.903112299526797 2.718449882769469 65 86 48
14.47054029317297 -3.1008737050375395 2.5092483682945854 65 83 43
14.413529512848363 2.970241066280753 2.404544122713556 58 72 28
14.534155956775141 2.9994851747990885 2.2101827330684385 57 68 30
14.324527111413845 3.079859088516402 2.312094237206863 54 69 28
14.942934845139838 2.933281734544126 2.1100066275822233 59 69 31
15.055261064202096 2.688131169800432 2.358724513702266 55 69 25
14.768315058230545 2.808224509518308 2.284918958067577 56 69 23
14.562057452466222 2.8706163395467956 2.393375687331753 56 71 26
12.831776184519304 -3.113848250357889 1.7806103625554512 55 66 26
12.920599003728269 -2.8341635575736133 2.1134723283263295 59 77 35
13.076371477798265 -2.940947073989642 2.019506321511902 56 71 31
12.314720677645047 -2.8593391467419873 1.789560013302463 56 73 33
12.995855731921306 -2.7141601238815993 2.2023338629797724 59 78 36
13.790936961804007 -2.900386690103437 2.3481168075289798 63 80 40
13.030696433271862 -2.369446507461507 2.200379491605865 58 78 37
12.381399304077473 -2.6722424169291776 1.8719482705027106 57 73 34
12.67878431897279 -2.5249957572653035 2.3240594929839946 60 82 41
14.291871142986857 -2.0694042226589224 2.4139713082179806 68 85 47
12.339183298274417 -2.485539476785378 1.7891192788039454 55 73 31
12.595642527764914 -2.599721805882843 1.7846042616527213 55 73 33
13.783243655794246 0.2734591890042584 2.3486661744452046 48 64 18
13.715332924871323 0.19295046075512332 2.4625101612845315 46 60 14
15.32483301208261 1.190686437501736 1.284522372484798 39 53 7
14.73525678747351 1.2943672597258393 2.4851248278093747 54 67 26
14.539636809622609 1.6337678532476403 2.5027908877147618 52 66 25
13.4947625704431 1.5348913815432004 1.9243684189260262 38 49 11
14.951584390506207 1.8661843928920334 2.189579038886327 42 52 15
13.698168114938964 0.7061470275386236 2.5908323108280378 54 67 23
12.914104694460125 -0.4785235266334847 2.5435299357832424 50 67 25
15.313020765878377 -1.6956089974541395 2.8513571883408333 63 86 51
14.555761924567195 -1.05690215291121 2.791450697094794 55 79 38
14.043717200670807 -1.850405442570685 1.9865972646706787 60 73 38
14.602234097403315 -1.2168266546668225 2.3904163922635595 55 70 32
13.95954235283345 -1.9008862361437777 2.2411525086521777 63 80 42
15.387193519600281 -1.8667630160110638 2.538489522465791 66 86 49
20.689683530621487 -1.5430046942985103 2.230024641608911 21 27 4
12.450040454900074 -2.7814118544396855 1.705546839891495 57 74 32
15.757237955647478 2.4452944033988895 1.8718590269976347 8 14 0
14.746858143617207 2.0922982042019416 2.286180743591763 52 64 21
13.324455119992034 -2.804244299763265 2.2795349392226245 61 79 39
14.232886498531121 2.1871236557704266 1.9807362339964802 20 27 5
14.668820119887197 2.1218083356443818 2.1212259505212057 48 58 22
13.744232471223485 2.2657421080566165 2.459909281345064 54 68 24
13.40299701802347 -3.0253503585646127 2.0919052234180127 55 70 29
14.529034797438067 -2.985120715972495 2.5037740736935636 64 83 43
14.883280782893122 2.718317975736204 1.9618227165808135 49 57 26
14.030719003658904 -2.7410511147431675 2.6979689432475538 62 86 50
13.669196141581866 3.079859088516402 2.2581078011413136 54 66 26
13.09214586373289 -2.2357481580347156 2.196964547884634 63 81 39
13.928514240463562 -2.1571470190325654 2.338443605805513 67 84 46
12.593672946245988 -2.485539476785378 1.8667171726584875 56 74 34
18.877912592188522 -2.0032160714175964 1.87600006877421 39 46 10
17.999254895444697 1.377539134973592 1.6081719584576515 50 66 22
17.725056733390222 1.2542517382403118 1.7221531647372124 51 67 21
12.914104694460125 -0.4785235266334847 2.5435299357832424 50 67 25
12.863983606499005 1.174710705853977 2.027470794818379 29 42 0
14.461532955589416 1.4350902672188786 2.30345527793765 42 56 15
12.545177102051193 -0.20591190834255627 2.5881717332548027 48 67 23
14.72326376695656 1.0918095641435928 2.60747453861503 54 70 26
14.097057019256694 1.7693447337890182 1.9849271795026393 37 48 11
14.126171729009986 0.6244954858832071 2.5433179827645978 47 60 16
13.63109214292395 0.07694816234342079 2.4702035767273944 44 59 12
15.071844300829765 -2.0203522299184424 2.5695765183902712 64 85 48
14.848748115849647 -1.164310851631798 2.2802335705775922 48 61 26
15.528725526792286 -1.5090283431867635 2.6476489564653907 62 83 47
13.492562687887366 -2.723967850586787 2.4832332119654765 64 86 45
15.154842781862833 2.0178790415266867 1.6151912371215589 0 3 0
13.90364919444465 2.9482654466636036 1.6913860731385257 61 71 34
13.914350096927604 3.055418871289728 2.5660327619615053 69 88 48
12.851374827975139 -0.04115713132089073 2.422872757551808 33 48 2
15.58386365434703 -1.9724207942405796 2.520401568889269 67 87 49
16.061516693684922 -1.8096130348744708 2.7226602574109076 61 84 49
15.120435144752836 2.5138914429202046 2.1029971009094828 51 61 17
12.939357582375184 3.0245860877122044 2.695404647705331 63 83 44
15.12609307232988 2.350657275316165 2.0276539991286713 45 55 16
13.587016005683179 -2.7971515373710285 2.604300817678679 65 86 47
16.602410646826822 1.3535724988951745 1.307100615230946 51 65 24
13.972760955603514 1.8569415449270177 2.4399966370791786 53 67 24
21.841027248154163 1.7736872473891738 3.0173147436111303 57 76 38
14.818614826084332 1.8921181861037117 2.2819807234813942 52 63 22
15.201255875175317 1.1467334470214783 2.556486178197124 60 74 31
