11.3087316805744 0.2805537410787203 1.580138965336264 26 42 4
10.785297181970371 0.6620741480296676 1.9613183471848155 51 68 34
12.129405539164184 0.5416443562867355 2.4199307099229888 24 41 3
12.026778381336458 0.4835869510403011 2.310361861660634 29 46 8
11.201920226845038 0.5779947078019411 2.1472498940951086 41 58 20
11.142836431534379 -0.08784119888000708 2.0467657995093793 28 50 3
10.721543733483173 -0.08784119888000708 1.9637674668791663 42 64 19
10.745973754964151 0.11414790812357292 1.9628252481242208 21 41 1
10.806900579945523 0.30730668734388533 1.8622832460611922 27 44 6
11.514814891864265 -0.20774863686479103 2.235832764512509 19 39 6
11.395314298017063 -0.09768896801184487 2.24408338321736 11 30 0
10.926099866052917 -0.20774863686479103 2.163750671977747 38 60 19
11.418302845168283 0.12689165586130569 2.2424785590786644 19 39 0
12.401988974799897 0.30095354637638844 2.523251565235947 39 59 19
11.362896369644718 0.014787025904937757 2.246361030232644 12 31 2
11.720971473264875 0.37882500912948014 2.3344306768010474 27 44 6
10.97399481090335 0.23589114607634645 2.160812653378387 24 44 4
12.177082828188423 -0.2332622937404012 2.4154927117924467 46 62 38
10.926099866052917 -0.20774863686479103 2.163750671977747 38 60 19
11.211190305512911 0.33948287395751187 2.1467124371645836 37 54 16
12.218219126274999 0.01909334610637493 2.5447191959075672 53 73 29
13.05741867018936 0.01909334610637493 2.5877777055949074 51 71 31
13.105663214248361 0.1632720461011708 2.5818529535008827 48 68 28
22.800333485149928 -0.31801570899166187 1.8418925987868497 41 63 25
12.323036346151014 -0.659144490065287 1.9979893108639974 42 64 21
12.563903611396606 -0.5366264163281776 1.9892791247284476 35 59 16
11.743193611714839 -0.4584309176850361 1.9279614855051705 46 67 28
11.743193611714839 -0.4584309176850361 1.9279614855051705 46 67 28
11.473375781632177 -0.28297854654910365 2.03197055187625 39 61 16
11.718734404243747 -0.3129460651945274 2.2222584930774505 34 55 15
12.370089742918939 -0.34972312750951856 2.398090134798631 44 62 39
12.136264476997814 -0.7072518032782085 2.302162276373582 40 65 18
12.033926449335167 -0.7856002322934618 2.202435273704941 34 56 8
12.361402999814382 -0.5021957437821296 2.1831874226843566 33 57 14
12.116510840828488 -0.6409988935339825 2.1974576461033823 33 58 6
12.260944272615772 -0.5847273181574676 2.0920591726370636 32 56 13
12.549828713874668 -0.39578438423196305 2.506880173817098 52 74 28
12.002770933435038 -0.41145987424019437 2.204335678023417 32 57 9
11.939245812874354 -0.457100238626947 2.317070920082129 30 55 9
11.876056901734701 2.7862986684900903 1.5796926507165845 55 71 32
14.973380354220861 1.6569339331322326 2.0652516526344407 3 7 3
15.488642751220128 1.8236039742379317 2.199247026050147 1 5 2
14.869371568591427 1.7206703758460316 1.8505456083775573 1 7 6
16.741258598177236 1.8452354003052627 2.3790802164307436 0 4 3
16.03304199895035 1.8452354003052627 2.335984574862911 0 4 0
16.093710370649468 1.8707934351603928 2.4221872980846006 31 38 26
16.741258598177236 1.8452354003052627 2.3790802164307436 0 4 3
10.105464602762488 0.8824211489471029 1.989175945122809 34 47 14
10.087057532381094 0.9458254365536795 1.6806279496110677 34 50 16
11.469616624140745 1.1269634471543308 2.238926843184042 29 42 9
11.24460660797209 0.718662492465949 2.375821327106174 31 48 10
11.581757759977805 0.8185227105308448 2.6311924362662165 49 67 27
11.581757759977805 0.8185227105308448 2.6311924362662165 49 67 27
10.756809683025764 0.8118994517474213 2.424221866808282 37 52 14
11.9527961591428 0.703887457159863 2.578228662246995 50 67 29
11.268148939090656 0.899923957482776 2.3736508293340854 37 52 16
9.903004220534802 0.8074831285541477 2.1124643546771513 36 53 21
11.974946294973483 0.925081606466628 2.575307022675784 48 66 26
11.263875303558411 0.6807405063914695 2.68412448594935 51 71 31
12.097079535017471 0.4902917356280992 2.5596191001239914 47 67 28
11.181328309252233 0.9719956597386722 2.25944272687034 32 45 14
11.99516444653087 1.146511912593216 2.7540593875865196 50 70 27
12.190824144024509 0.9642524862373857 2.716461145310034 51 71 28
11.688530452654225 1.0333306714787232 2.8244566173852457 51 72 33
11.813625127439273 0.28462754015884245 2.7936361542050396 53 74 35
12.610558475899868 0.19048381291860028 2.6480561366154096 53 75 34
13.047721625522279 0.02693757852860919 2.759263375020019 53 75 33
12.698011939040336 -0.3084237847680081 2.6354017496089233 53 75 30
12.708690585812098 0.033900404649523076 2.8322999744012263 52 74 32
12.737683873028724 -0.22107116707024096 2.8252544519690095 52 76 33
13.075963202014172 -0.1766966122855728 2.75392764327277 51 75 30
12.589747144430818 -0.14705057321750106 2.6511378763221627 53 75 31
12.708690585812098 0.033900404649523076 2.8322999744012263 52 74 32
12.12566434906493 0.02693757852860919 2.728490506944566 53 74 35
12.739246878476884 0.3484670590331558 2.6295933521039614 52 73 34
11.95089806702231 0.5037863198678287 2.763237306318712 53 74 35
15.696535193776146 2.043320215753991 2.6874728281876448 56 75 36
14.804388314905674 2.043320215753991 2.6578373089107883 56 74 40
15.573633684581267 2.1690055918774567 2.895823095231712 52 76 35
14.560788140163211 2.074451427098334 2.080592243203792 4 8 4
13.802214935208733 2.3044771132662993 1.7239533761713524 2 6 2
13.668077743997825 2.2984987046437895 2.0338797389155436 53 64 44
13.08582863868414 2.3563464428787495 1.7324097900902327 0 5 0
15.721508549236333 1.8992225953615676 2.188524116560619 0 7 3
15.886556757420498 2.0029412722112188 2.260246992076694 2 9 3
16.317943812966682 1.9582135395932447 2.406638283984791 23 30 17
16.540676809540788 2.0029412722112188 2.3069122945233094 0 4 3
15.716649271598719 1.9959145319038014 2.450019691670097 62 73 50
15.631292787005227 2.1623146824696846 2.3609701168033657 59 68 50
12.287566884140585 2.71684084825743 2.187414945882331 55 75 42
13.662488151091006 2.495680605028479 2.3002614714625755 56 76 40
13.668280800746777 2.4142107085201885 2.0338723213753567 54 68 43
13.593048878096019 2.47871181708411 2.1208600818102457 50 68 36
11.568165366632545 3.1232158285710723 2.476938523039179 57 81 41
11.57304610314226 3.1272390761898907 2.231893007372564 56 80 40
11.63419404661193 -2.9157469849587216 2.341596344689659 65 90 52
12.604638218077625 2.774130287096146 2.378070244411737 59 79 37
12.396416890770487 2.91237397387414 2.2834851905545963 51 74 36
11.600009654869417 -3.020392502555125 2.4734429541548595 60 85 45
11.762095980867644 2.8513005673297562 2.456170901224823 58 80 40
11.020973933270406 -3.046750218216961 2.157961155034471 58 83 42
12.261829092563516 3.0034170172168797 2.4077426462507576 53 78 40
11.62259333825501 2.984346734686953 2.4709848317811645 56 80 40
11.62259333825501 2.984346734686953 2.4709848317811645 56 80 40
12.897826220434462 2.5974968089647685 1.977793598920445 71 85 56
13.625970402689683 2.4654091628172132 1.8768633556108867 16 27 9
13.402094879876792 2.5283946643357154 1.9616298738518574 52 67 42
13.325360217399911 2.5974968089647685 2.046762994616519 62 77 48
13.398294767533244 2.6728922067968055 2.1297979052606815 53 69 34
11.545779202191362 2.9343172823631565 2.028856826945835 46 69 29
11.755896775594044 2.867449600675389 1.7508826731008198 54 74 34
11.3481525136195 3.128655303369468 2.0374613374957633 51 74 36
10.386742915026975 -3.0560611053218687 1.7749361733698035 49 73 33
11.755896775594044 2.867449600675389 1.7508826731008198 54 74 34
11.40363062489581 3.0304358617969607 2.0350119932160786 49 73 32
10.386742915026975 -3.0560611053218687 1.7749361733698035 49 73 33
10.659276898888901 3.0304358617969607 1.8664411006777866 46 70 29
11.09255650641659 -2.9592221981351843 1.9499417803184136 52 78 42
12.238404595917931 2.841922855455792 2.093117081478041 50 70 32
12.021494129129378 2.9343172823631565 2.103535235584096 46 71 30
15.568775414962715 2.2489737621262242 2.7045844207990823 56 77 39
15.926361602018224 2.164028942340777 2.658751786766557 57 74 42
15.352702268854506 2.267900507234403 2.5937268885977516 59 76 41
15.926361602018224 2.164028942340777 2.658751786766557 57 74 42
15.268416485177971 2.3565302936384236 2.7488036224342896 55 77 36
15.46022687927117 2.133976185947288 2.470301187435256 53 70 40
15.33049790419845 2.2811585167399775 2.4810266109177492 54 74 37
12.687682238409204 3.1202207265259587 2.6368723121975153 56 80 40
12.687682238409204 3.1202207265259587 2.6368723121975153 56 80 40
12.716723423356797 -3.000875325371284 2.632753864815512 58 83 43
15.028716379257459 2.4933560624645246 2.789287973915271 56 77 38
15.028716379257459 2.4933560624645246 2.789287973915271 56 77 38
12.319415406396677 -0.7856346709662636 2.402574411817785 50 74 32
12.400546229398852 -0.9544363821133549 2.395423012882265 50 72 29
12.22739965862659 -0.7856832600962979 2.5436152303293715 52 76 31
12.30868602165509 -0.5830467865749134 2.533988076667987 52 77 29
11.875614590919362 -0.692769287762336 2.4445625199626546 51 75 32
12.729188518167224 -0.9301931799317856 2.2611070480904245 45 67 16
14.677006600342327 -0.7858821069885193 2.8616505587841425 55 80 39
14.745171195295988 -1.121377811309295 2.845996194910968 55 82 42
14.745171195295988 -1.121377811309295 2.845996194910968 55 82 42
14.642969001041957 -1.1165064890463927 2.679257323403585 52 77 36
14.21066541361963 -1.1754997754198893 2.5903433582391435 52 76 35
13.738167949876065 -1.3379472567372526 2.5121901774078803 53 78 37
14.334400324474998 -1.3634105010854438 2.4571242216120046 54 76 30
13.500975691026458 -1.761648147358093 2.682940705564806 59 86 50
14.36035763941266 -1.593605621639653 2.7204615119702504 57 85 45
14.00765221940291 -1.3947508472298167 2.7807696935754023 56 84 44
13.945557180529565 -1.4453662910114147 2.622087849579637 56 81 41
14.821938766111444 -1.4453662910114147 2.6555884068511513 54 82 42
14.0267556575752 -1.7996025738012567 2.7771775224022552 60 87 52
13.964745563489307 -1.734396930508555 2.619690270842737 57 86 47
14.797217494351584 -1.5902858658412176 2.658760488029623 57 85 46
14.385829650842188 -1.4242770886738163 2.716525869843753 53 81 40
14.922915304975367 -1.5982881665301913 2.809108125258455 58 85 50
14.438979046577844 -1.5878095938200012 2.5651389085621106 58 84 40
14.21304282129212 -1.585891594591761 2.467655153039952 56 80 40
14.438979046577844 -1.5878095938200012 2.5651389085621106 58 84 40
10.767259730838152 -2.602208502255187 2.0648322021107015 57 82 42
11.135095652448554 -2.651850159990756 1.9484201579911173 55 80 40
10.850166395659663 -2.837257507499204 2.06072139807689 61 86 46
11.640694538308157 -2.5788765454710365 2.4690269505886615 57 85 46
10.876325924836006 -2.5788765454710365 2.4117156695544644 58 86 47
12.131922266753264 -2.112558845389371 2.419695009937613 58 83 42
11.954885759005279 -2.274733818823469 2.5779520005418624 57 84 48
11.988058251110727 -2.2894923871952 2.433433005174204 56 82 44
11.17248711651708 -2.7592349510497027 2.3825585722230027 71 99 60
10.881516979675187 -2.6976138076571843 2.1665140640305216 64 89 50
11.5836746962076 -2.3892960784819928 2.630896942405881 65 93 54
11.17248711651708 -2.7592349510497027 2.3825585722230027 71 99 60
11.270857982716613 -2.470663010235527 2.373401961634863 56 82 44
12.508049994916512 -2.2126390390466435 2.386172171896863 56 81 40
21.31684581591146 -2.707554826127067 1.7170067329491887 51 76 40
21.75191232013059 -2.6654004699615275 1.7140619506302661 50 72 35
21.570907552276225 -2.7514224069250655 1.8577693109445206 45 70 34
22.649379491780167 -2.785160437790758 1.6638980772337761 45 70 34
22.578376550401813 -2.785160437790758 1.619785421513821 45 68 33
22.21881392712332 -2.7266707330287847 1.7110312862129764 50 75 37
23.00989779042189 -2.5926241845797695 2.1767738800848706 37 62 22
11.13783309721958 0.39653724971663434 1.8533803027752247 29 46 8
10.120772234717238 0.8043283245799128 1.780379783079064 39 53 22
11.035969941873606 0.5246353388561452 1.9519855101677686 42 59 21
10.560628493992859 0.21273496393394503 1.8692873782257875 22 42 2
11.265015658366249 -0.18720680790449987 2.041182758652275 41 61 21
11.128184487034332 0.1936665568961319 1.670316520777309 22 39 1
11.514814891864265 -0.20774863686479103 2.235832764512509 19 39 6
12.835687588602017 -0.11001354409459184 2.477228467328228 55 72 46
12.80691617169742 0.016666536758380177 2.480102460340386 28 48 9
12.248373470015485 -0.12587807489350425 2.541105982039843 53 73 30
12.80691617169742 0.016666536758380177 2.480102460340386 28 48 9
12.085860502034617 0.14281671374096405 2.4240345198902395 23 43 3
22.907572873520422 -0.3328916672419408 1.9795819124171756 41 65 29
22.907572873520422 -0.3328916672419408 1.9795819124171756 41 65 29
23.121266857102704 -0.36062208826637915 1.8380367432553704 44 65 28
11.365070266342977 -0.37371132773130467 1.9404063080072875 40 62 19
12.563903611396606 -0.5366264163281776 1.9892791247284476 35 59 16
12.042618946058312 -0.5131303334746898 2.428158491002945 47 72 22
12.370089742918939 -0.34972312750951856 2.398090134798631 44 62 39
12.259810499756245 2.7097481048137233 1.5794141731497073 60 73 41
10.405706723094134 1.0811643625440712 1.6772516587684716 35 48 20
11.153103785027007 1.1702818252506557 2.046291298473 37 50 20
14.922692470328078 1.8236039742379317 2.1450117722038002 0 5 1
15.829523189543226 1.6639949898023627 2.2632209916713424 0 8 4
16.03304199895035 1.8452354003052627 2.335984574862911 0 4 0
16.093710370649468 1.8707934351603928 2.4221872980846006 31 38 26
11.638310058305487 1.0081998098063873 2.4692842397624295 48 63 27
11.581757759977805 0.8185227105308448 2.6311924362662165 49 67 27
11.120163322140613 0.703887457159863 2.5301863074217996 44 62 22
11.645046589229509 0.5717588182887259 2.621567953439346 51 71 31
11.592681118804833 0.613561668639504 2.4742443388428366 38 55 17
11.665836506532434 0.6393638386669896 2.830438188803447 52 73 34
12.75825389160296 0.28462754015884245 2.8203653674928617 53 74 35
14.85223849752218 2.047588841134548 2.82317627716204 53 75 32
15.741850047891818 2.356637493425776 2.8563221065568314 54 77 36
12.560412378476949 0.022347197021585264 2.655529761528296 54 74 33
12.190824144024509 0.9642524862373857 2.716461145310034 51 71 28
12.16906695540174 0.6807405063914695 2.7204276030335657 51 71 31
11.889237458888518 0.8295567733112483 2.776506101288646 51 72 32
11.99516444653087 1.146511912593216 2.7540593875865196 50 70 27
14.141116640812225 2.2340133546994463 2.1811989706275683 63 76 52
13.813428190853799 2.1843064009714954 2.0286328054005653 0 5 0
14.172569302339994 2.140745066919761 1.939330972602784 5 10 6
13.959486790771509 2.2472801222754515 1.9452324933001923 4 8 2
16.25811220679981 1.926390763561538 2.3227729839487226 0 6 0
13.517192930651602 2.4217913860211246 2.213866211718538 51 71 33
11.144489242721388 -2.9397681341686215 2.150603781259691 60 85 46
12.370681212475496 3.1232158285710723 2.526817971536075 57 81 41
12.264131676278057 3.0183829688506036 2.2928449053521627 50 75 35
11.389801549227796 2.952472318512333 1.6680232840171265 49 71 33
10.629597206394758 -2.9397681341686215 2.071820534194534 60 87 51
13.04806793057944 2.7545060706288726 2.146678652801277 49 67 32
11.515932314446514 -3.0351731381977705 2.351619161333889 59 84 44
14.070420415934652 2.3563651274985826 2.1847180092283294 60 76 44
12.55221914938073 2.8513005673297562 2.5066215957673905 57 78 39
12.606878189562746 2.811344860754222 2.2691461965551945 54 74 36
12.261829092563516 3.0034170172168797 2.4077426462507576 53 78 40
13.398294767533244 2.6728922067968055 2.1297979052606815 53 69 34
15.482245190023184 2.096153739249334 2.580164370472235 54 73 41
14.958488867591063 2.1947720050852086 2.5137269459589895 54 74 39
15.028716379257459 2.4933560624645246 2.789287973915271 56 77 38
15.568775414962715 2.2489737621262242 2.7045844207990823 56 77 39
15.33049790419845 2.2811585167399775 2.4810266109177492 54 74 37
12.823916276608264 -2.8458457562930985 2.617964961483989 57 86 49
13.747579865655778 -1.2582252482709757 2.396589671900416 53 74 26
12.031873400945523 -0.45485825973697797 2.567907736159519 52 75 32
12.031873400945523 -0.45485825973697797 2.567907736159519 52 75 32
14.104841151567642 -1.2047926536917015 2.7629299441032487 54 81 40
14.21066541361963 -1.1754997754198893 2.5903433582391435 52 76 35
14.904774295164595 -0.9332025736542335 2.812651116400195 54 80 38
14.904774295164595 -0.9332025736542335 2.812651116400195 54 80 38
14.04317586184238 -1.3055230504743716 2.610059355708427 53 78 38
14.514899225805172 -0.9940940392229344 2.903565413732754 55 82 41
14.48048058436815 -1.2629387501639031 2.702308681273906 52 79 37
13.919279502338009 -1.5902858658412176 2.6253984468803395 58 83 45
13.919279502338009 -1.5902858658412176 2.6253984468803395 58 83 45
14.2575721295272 -1.6979566157346486 2.46375422782802 56 82 38
14.238778369336893 -1.4734477081933368 2.465395339831745 55 78 34
14.464312604431871 -1.461169745457668 2.5624503850269993 56 81 39
14.438979046577844 -1.5878095938200012 2.5651389085621106 58 84 40
14.482813700945728 -1.7139088998792094 2.560499833000643 58 83 43
14.482813700945728 -1.7139088998792094 2.560499833000643 58 83 43
10.735575492067097 -2.740929590110052 1.9632257199665921 58 83 43
11.175014158675143 -2.802507455156641 2.259907866225718 66 94 56
11.184306538378523 -2.542707680066461 2.259223576120788 58 83 44
10.78660923094508 -2.6446609391143556 2.289949118258524 66 92 54
11.5315118951817 -2.3826810790827406 2.481005483499329 58 85 49
11.270857982716613 -2.470663010235527 2.373401961634863 56 82 44
10.562040123951094 -2.7041082711708535 2.4456230255173135 62 90 51
10.980495443303754 -2.865713174464976 1.8575432646196892 54 79 39
21.698629518041386 -2.707554826127067 1.8083218584788383 49 74 36
21.833990190471635 -2.6431952409744164 1.9022732564146325 46 74 35
22.00339114763358 -2.7690181070662714 1.7584881729462902 46 71 35
10.806900579945523 0.30730668734388533 1.8622832460611922 27 44 6
10.687082201690288 0.013288442911247431 1.965104537486712 23 44 1
11.125896266445956 0.10372190602943267 1.7612015697392631 26 46 6
12.359628906414875 -0.26575191812202603 2.5280856301726615 54 75 28
10.37503418490565 0.8043283245799128 1.874796089207057 43 60 28
11.530525314274268 0.4360337012853044 2.1288317800825096 42 59 21
10.526239395108911 0.7289079007338516 2.0772057452434023 36 53 19
12.22007569662862 0.2645722067446578 2.4115391838631286 21 41 2
12.299730266292217 -0.5542513722490581 2.290298787695822 34 59 7
11.558483085810904 -0.6409988935339825 2.1273226302255788 34 58 13
12.825763882380516 -0.7072518032782085 2.3602236234433596 44 68 28
10.899941979319284 1.2062451502448694 1.6724075799761842 35 50 24
15.317645951194216 1.7449171647747204 2.2073841047889156 4 8 5
10.45374556333124 0.8074831285541477 2.194522239616484 31 46 11
11.529104833757666 0.8118994517474213 2.481274215793859 47 62 24
11.690471143469216 1.061393443171435 2.614821682678865 50 68 28
11.525168781430137 0.3758864306251465 2.8709524338134758 53 74 35
12.17760082540388 0.22839118668350786 2.7188659715064927 52 74 33
15.028531703931264 2.2197827620505355 2.7893214000681197 54 76 34
12.463884487660483 0.8185227105308448 2.670397843504143 52 70 30
12.310815887648157 0.41278798075092865 2.695420000553989 51 72 33
15.527827932478704 1.9057262811975237 2.7102641630633055 56 73 35
15.333590288408 2.1190914443875783 2.7386686580814565 55 75 36
12.708690585812098 0.033900404649523076 2.8322999744012263 52 74 32
13.55217763250176 2.3563464428787495 1.8785844520318555 14 23 9
15.074078909626788 2.074451427098334 2.138528294289709 2 6 3
15.33879973203284 2.038940000259507 2.052451788266369 3 10 5
15.884953993039682 2.0398251720506764 2.3449766554996323 15 23 12
13.664554714902053 2.5504244068536304 2.2058095307145846 51 68 36
12.370681212475496 3.1232158285710723 2.526817971536075 57 81 41
12.021494129129378 2.9343172823631565 2.103535235584096 46 71 30
13.246049584682178 2.629760528145018 2.229294530203167 54 72 38
13.039676310482662 2.4654091628172132 1.6556896166977007 23 35 18
10.968456400275203 -3.0560611053218687 1.9544537083031122 54 78 37
11.483854885342573 3.1254747013980686 2.354390790084763 58 82 41
12.774722687688556 2.5283946643357154 1.8163662000770386 59 71 48
11.09255650641659 -2.9592221981351843 1.9499417803184136 52 78 42
15.028716379257459 2.4933560624645246 2.789287973915271 56 77 38
12.825980274375555 -0.8639777246178747 2.3602066157037243 49 71 25
14.922915304975367 -1.5982881665301913 2.809108125258455 58 85 50
12.45973747861909 -0.5327110571594664 2.6710515552552963 50 75 33
14.36035763941266 -1.593605621639653 2.7204615119702504 57 85 45
11.977032030363263 -2.495792923679992 2.575033157677505 65 93 54
11.07317402901201 -2.453176316298105 2.1548273828156255 55 80 40
11.283131401509134 -2.7768936515954623 1.8496432928888962 50 75 35
11.82625269376626 0.4278523369247126 2.4495629067495166 25 45 6
12.400098593288263 -0.6168196082010152 2.3954620625749357 46 70 27
12.096954380681268 -0.7178239288203596 2.099861295340319 34 56 11
14.869371568591427 1.7206703758460316 1.8505456083775573 1 7 6
11.467396533608236 1.0740022656929025 2.3558218727697313 38 51 14
13.180234736291144 -0.36669139760498276 2.734990971544155 50 75 31
11.95089806702231 0.5037863198678287 2.763237306318712 53 74 35
12.560412378476949 0.022347197021585264 2.655529761528296 54 74 33
14.095576683722332 1.7284820647598522 2.6037703755706443 52 72 33
12.708690585812098 0.033900404649523076 2.8322999744012263 52 74 32
16.008773879196116 2.0829892091374314 2.428264950385906 60 70 47
16.95693121528275 1.926390763561538 2.3658566089624653 0 2 3
12.400464818062312 -3.020392502555125 2.5234243581524893 58 83 43
10.599903681189446 3.128655303369468 1.8681475359700563 50 71 36
12.421593280146762 2.984346734686953 2.5210365309811245 57 78 39
11.139735799147891 2.9343172823631565 1.9482549385700887 46 70 29
12.394138883033788 2.8853482117047617 2.3959823862027525 57 78 39
11.62745122811312 3.0183829688506036 2.228258494170172 53 77 38
15.926361602018224 2.164028942340777 2.658751786766557 57 74 42
15.967534001237919 2.041144318177497 2.5335516386208012 54 72 41
12.658873427564107 -0.8785396687074405 2.4952731406071624 50 74 29
14.271607026616474 -1.038757924190851 2.734567238716726 53 78 37
14.04317586184238 -1.3055230504743716 2.610059355708427 53 78 38
13.621458123067244 -1.9195293549710466 2.665340214904805 58 85 49
12.508049994916512 -2.2126390390466435 2.386172171896863 56 81 40
12.395848803295973 -2.184451487970711 2.5239481893035816 55 83 44
21.267358092055925 -2.6431952409744164 1.8132341502651586 48 69 32
21.369760283160918 -2.6190173696345695 1.9598411204484085 44 65 27
11.133826712695182 0.6417772019318585 2.262959356986067 24 41 3
11.439196054337714 -0.41145987424019437 2.133823248754727 39 61 18
11.75954493323001 -0.39578438423196305 2.456436252660244 52 74 28
15.069010857929214 2.2170899962812176 2.3993967684986566 58 72 45
12.737683873028724 -0.22107116707024096 2.8252544519690095 52 76 33
10.327168904552977 1.0315130518463624 1.9796506185904579 35 48 16
15.57381189605225 2.5444009683360194 2.895777480660203 56 77 38
13.90933074702786 -1.221498100109104 2.495482398059783 53 76 35
12.131922266753264 -2.112558845389371 2.419695009937613 58 83 42
11.07317402901201 -2.453176316298105 2.1548273828156255 55 80 40
10.567385567663008 -2.802507455156641 2.1868056698236686 68 94 55
12.260944272615772 -0.5847273181574676 2.0920591726370636 32 56 13
13.246049584682178 2.629760528145018 2.229294530203167 54 72 38
15.352702268854506 2.267900507234403 2.5937268885977516 59 76 41
12.075987301216438 2.7545060706288726 2.0073222692179487 51 68 29
12.400546229398852 -0.9544363821133549 2.395423012882265 50 72 29
22.946042397220516 -2.7442601750284235 1.6189998527375973 51 76 40
22.101230477446087 -2.7266707330287847 1.6662141101957335 53 78 42
11.814947330093457 -0.5021957437821296 2.113874251083227 35 59 16
11.140800344960345 -0.3129460651945274 2.1508206423371505 40 62 19
15.926361602018224 2.164028942340777 2.658751786766557 57 74 42
12.766747853871111 2.841922855455792 2.161053782494547 48 69 33
14.131768820517205 2.2018530804773095 1.792368717960623 1 6 2
14.081260435123754 -1.872004012891461 2.6054773176663346 58 86 46
14.412970762680784 -1.2881525173204527 2.3478051666088633 48 71 25
10.97399481090335 0.23589114607634645 2.160812653378387 24 44 4
13.59264051382655 2.2340133546994463 2.1208785040954465 25 33 22
10.546557450519677 0.718662492465949 2.310056448263181 33 50 16
15.268416485177971 2.3565302936384236 2.7488036224342896 55 77 36
14.21304282129212 -1.585891594591761 2.467655153039952 56 80 40
12.825980274375555 -0.8639777246178747 2.3602066157037243 49 71 25
