11.39372133661816 -2.5742383951000165 2.9152775997731006 40 68 36
11.188952056374385 -1.6838975943273387 3.017692683817257 41 69 37
11.219649247258708 -1.0199632101323806 2.997378617499543 41 69 37
10.318501348157142 -0.07704301951447308 2.6513511880023 38 66 34
10.673455153864579 -2.7310038190344312 2.813227071488894 41 68 40
13.344145868875717 -1.3032270604315002 0.937529115169413 41 71 49
13.995385171736793 -0.5568651945555854 1.6497027322875069 44 64 29
13.952220118747727 -0.5568651945555854 1.5781916281348851 44 63 32
14.062077435976905 -0.4937073744373499 1.8668945449191445 44 71 36
13.618100231650745 -0.35376144623196626 1.9549073474680543 41 70 31
14.02351645567428 -0.35376144623196626 2.0210682610413757 39 68 33
12.787620080904883 -0.7581072235002946 1.2611374027357218 39 65 32
13.324317387565516 -0.9233897177209631 1.351637634522331 40 64 34
12.572028976907175 -0.9876150152770115 1.419341758688961 41 66 32
13.281162782560983 -0.5971799599703898 1.7298238918588031 45 68 35
13.174567665050228 -0.9233897177209631 1.7311216731179286 45 69 33
13.74520967003795 -0.6575723034646893 1.6511419721602862 43 65 36
13.026273870137512 -0.8144817977937632 1.4246618191555933 41 65 31
12.476978487840613 -0.9876150152770115 1.659329170238518 44 69 31
13.06230562235445 -0.7048821406122909 1.4250678063654731 44 63 30
13.05791906824944 -0.8144817977937632 1.7325664546053983 45 68 33
13.730188241489708 -0.6575723034646893 1.5054324022018635 44 64 30
12.887844298655606 -0.8144817977937632 1.5788024006979944 43 65 31
11.880993689682432 -1.4100747788277186 1.324493871633757 45 73 29
12.622496322611038 -1.2448870537089176 1.2569490737858813 44 70 27
12.87845918267135 -1.133949741527301 1.095184537948056 42 67 33
13.428796357125563 -1.4100747788277186 1.031439323820937 44 72 37
13.111427668295589 -1.0961687687696142 1.34801961000921 42 67 29
12.959218140665483 -1.0961687687696142 1.7338095277001235 44 69 31
12.507118543156134 -1.1681797720424278 1.4185496140342 44 69 29
13.275446331563202 -0.4996997358572975 2.1353768430514775 46 74 42
13.98094633529165 -0.5313912694587112 2.0225406452623242 47 74 38
14.445525961126727 -0.5313912694587112 2.084862341083306 49 76 42
13.58321824655449 -0.624491649626889 2.210002063985836 47 75 45
12.954379059679493 -0.6823726288729687 2.246589890704896 51 79 49
13.836323036323492 -0.4996997358572975 2.1964724766306376 43 71 39
13.051222761621819 -0.7498545710773318 2.342693975196675 49 77 49
13.782681666392396 -0.5460182094456508 2.2922536424805227 46 74 42
13.529424302236684 -0.6950039048189193 2.1235316028061204 53 81 51
14.203281418799703 -0.642914192741644 2.0945202428386303 51 79 48
12.610619697087262 -0.8740260301243935 1.81942674204128 46 71 34
13.435044906481052 -0.9876150152770115 1.9604206576349643 49 74 38
13.740524174260802 -0.5971799599703898 1.8740415020032966 47 73 39
13.893953204742852 -1.0291119036097964 1.8705880981817333 46 71 33
13.524864883595505 -0.8144817977937632 1.879034665676015 48 72 34
13.316173749807353 -0.642914192741644 1.9640889243723132 48 74 42
13.245393496273628 -0.8740260301243935 1.9663071230528792 53 78 42
13.623025580478602 -0.7581072235002946 2.0353286496972705 53 80 48
12.938988507851722 -0.8856005613953712 2.1519336382710947 54 82 54
13.113311085410148 -0.940151051196934 2.054903915149576 54 82 50
12.55757082366748 -0.8180660017542603 1.9892879761584914 53 81 49
13.55957179823464 -0.7048821406122909 1.8782198339136165 47 72 36
14.136129008072947 -0.8856005613953712 2.270466698591555 54 82 53
14.257932504976297 -0.822657332006068 2.3583093469607888 49 80 50
11.75006970628631 -1.0706244281017363 2.8082254930752897 40 71 39
13.379794856079645 -1.0577770630288683 2.044459256241616 53 80 47
12.719651145479 -1.0938419509410233 2.1633020854480334 55 83 53
12.634996959534208 -1.215942887179043 2.0749170180427337 53 77 39
12.231211309483722 -1.4100747788277186 1.912898295506691 48 73 35
12.400481138137259 -1.2448870537089176 1.823731418334624 46 71 31
13.025596855125201 -1.1681797720424278 1.8912624386885373 47 72 32
13.038989601338173 -1.4100747788277186 2.0579035596988726 50 78 39
13.805823343965812 -0.9006370281225872 2.3917640365273707 49 80 49
12.95765089617548 -1.269599331559759 1.5787592687578038 44 71 34
13.4536730146599 -1.1976707442680923 1.7277677270077978 45 70 31
12.869559252828022 -1.3448863502419381 1.7349554743118945 47 71 33
13.07026836852758 -1.3448863502419381 1.8105082706974651 47 72 34
12.384245197200135 -1.5845162657595937 1.1642851585219183 47 73 27
12.634553292305917 -2.1746517159867893 1.4997550444651058 47 72 34
13.253488678869692 -2.0668913534997637 1.3504471393899729 47 72 33
12.6312787609124 -1.9964098218916746 1.4200576328972527 48 72 32
13.413803470531128 -1.9964098218916746 1.197100920486032 48 73 32
13.102929499823059 -2.0668913534997637 1.7320058779634253 48 73 35
12.5695571473715 -1.7581350044259312 1.1706232269500416 46 72 26
13.836998754645563 -2.293916042870055 1.5782532103068738 46 71 33
13.062082707505004 -1.9211260284260265 1.1865202002817472 46 71 29
12.648086148046472 -2.1486044006509295 2.4960795780460714 50 78 48
11.355197576420569 -1.6364406758815226 2.9305162714163817 42 69 39
11.605532123916188 -1.6170178553960175 2.8462910813100155 43 71 41
11.385446548608266 -1.2292272586994355 2.9184559171785156 41 69 39
10.599924052224605 -2.3081359582896175 2.8342373018376668 43 71 41
11.109382191686644 -2.3228419648332723 2.7127021416296326 45 73 43
12.908891803732354 -1.5845162657595937 2.063249330830077 49 76 37
13.086776737498493 -1.7581350044259312 2.0559703974703685 49 74 36
12.95961444213523 -1.6720896080523344 2.0611505345479904 49 74 36
12.756262045000092 -1.7757134453426726 2.1613712587962137 51 76 38
12.500755319737735 -1.9211260284260265 1.8216586620688924 48 73 35
13.140837237045202 -1.9211260284260265 1.9696314044112657 48 73 35
12.473916596549389 -1.9881176652310748 2.1766239882906384 48 76 44
13.180362175908067 -2.0840324682237608 2.4442210465001053 52 83 52
12.704013583186502 -2.338808162028671 2.3696534419150126 50 81 50
12.97911308022406 -2.1746517159867893 1.8122251892282408 47 72 34
13.420770246497895 -2.0736720426284014 2.219029665528475 51 82 49
13.568326396571386 -2.0668913534997637 1.8780149893355833 48 73 35
13.093976407586188 -2.0320576974864304 2.0556805380203125 48 74 39
13.819401401683656 -2.237070226270184 1.8722560806991881 47 72 34
13.10675734279697 -2.277933976154862 2.1435495287143462 58 90 59
12.592884029470017 -2.277933976154862 2.076762828805226 49 77 45
12.567158196593567 -2.2664236124681807 2.271545046444494 60 93 60
13.098014245963931 -2.106360745859831 1.9710096090842841 49 73 35
13.2340403883882 -2.2664236124681807 2.3293342944820767 56 87 56
13.400580957289181 -2.122699909392122 2.317621487923563 57 88 55
12.942112219110193 -1.8205289396823021 1.7340269193053874 48 73 32
12.592341728759823 -1.74330648502265 1.499516499150757 46 71 31
12.460134482642404 -1.6639529208844166 1.498758886261657 45 70 30
12.546886214738288 -1.5026986821409047 1.4190359089439453 47 73 29
12.604524224078354 -1.6639529208844166 1.7384396015191086 47 72 34
12.552366789854666 -1.58340761085335 1.7391428325311575 46 71 33
12.451643798126954 -1.5026986821409047 1.6595097768121323 47 72 32
13.557478725543088 -1.74330648502265 1.9567153105330592 48 73 37
14.47594878663421 -1.7306346520913773 1.9310676850169095 48 73 35
13.385850425613238 -1.58340761085335 1.9619301846601975 48 74 36
12.784997184277982 -1.5026986821409047 1.8159654804055285 47 72 34
17.527988582227103 -1.4896230414459302 2.505813282189437 53 81 52
17.737140298312475 -1.3032270604315002 2.4900040711433564 55 82 50
18.211703070554798 -1.4100747788277186 2.4565657659265403 52 82 51
18.13775751349617 -1.4967325057213876 2.461571128893773 54 81 51
14.106869400397903 -2.4976965484927014 1.7204433018898175 47 72 36
13.864816962656693 -2.3962206102607033 1.6504473803125683 45 70 32
14.797997804266423 -2.596330353657311 1.8517576426926767 43 74 46
15.083840460290462 -2.5383763207232555 1.778004674787792 46 75 43
14.417081153888832 -2.3962206102607033 1.8593911636965719 46 72 37
11.247433796567831 -2.270290520806938 2.9812617392505274 41 69 37
10.42163739693656 -2.5742383951000165 2.8937449549769325 42 69 41
10.896688152977337 -0.3432767940426076 2.7576071383957137 38 66 34
11.338801098140015 -0.6403618517967931 2.937374889070987 39 67 35
13.613570512134144 -0.4937073744373499 1.725909006090667 45 66 29
14.670499073439796 -0.46065101026199584 1.7839315118942753 44 67 32
13.637967514835479 -0.42595011871731864 1.876395325770178 45 72 34
13.861354505840545 -0.6575723034646893 1.723114382750944 43 68 33
13.24452597522884 -0.7048821406122909 1.350295563175401 44 62 26
13.759950296716886 -1.0577770630288683 1.0457833899545812 42 66 40
13.167264341476374 -0.8740260301243935 1.1897483295021578 40 62 41
12.076667262367632 -1.3257798006965211 1.3285652496016211 44 72 28
13.018548661942532 -0.940151051196934 1.1007189642325743 42 65 36
13.024714694365906 -0.9876150152770115 1.2669562364541407 42 65 32
12.934561860753966 -0.8144817977937632 1.6561893854585719 43 66 31
12.39493340505875 -1.1681797720424278 1.4983792855997518 45 70 30
13.036493146975657 -0.9233897177209631 1.5019489049291646 43 66 31
12.223283092308773 -0.8740260301243935 1.5792376887634159 44 67 32
12.924261986603149 -0.7048821406122909 1.5787798408872527 43 66 31
13.574258748345109 -0.5313912694587112 1.956213117436614 47 74 39
13.681282561740337 -0.3833932296978831 2.1166988163508513 40 69 34
12.492720798215236 -0.600659998977835 2.2765821434800775 49 77 49
13.479464799679294 -0.4181265385716065 2.215735680938786 42 69 36
13.163374673898817 -0.600659998977835 2.3344340860327395 47 75 45
13.494639851362734 -0.8180660017542603 2.1251224716034716 53 81 50
14.080187563141118 -0.6950039048189193 2.1840145165952176 51 79 49
12.893179941653125 -0.8740260301243935 1.8946731603457747 51 76 38
12.852007868026375 -0.7581072235002946 1.8957487792391396 50 76 40
13.291186082821913 -0.7048821406122909 1.80644782190432 46 70 32
13.567692488156505 -0.822657332006068 2.3062792589020935 50 79 50
11.502881127043095 -0.9103967722133733 2.877202630004029 41 69 37
12.786585590852317 -1.3257798006965211 1.9813359762158567 51 76 38
13.133065383769075 -1.0133306252016194 2.14225828855297 54 82 50
12.534937950218412 -1.133949741527301 1.9900911792149585 50 75 39
12.18946944700236 -1.0938419509410233 2.0951952964123803 50 81 50
12.745972445010473 -1.1681797720424278 1.8167316063765862 46 71 31
12.42136913584452 -1.3257798006965211 1.9074519857340955 47 72 34
12.510993346805861 -1.422866753028133 1.5790435617228216 46 71 31
12.889687122411633 -1.422866753028133 1.8139338533784712 47 72 34
13.591400082415431 -1.269599331559759 1.8774764272137512 47 72 34
12.839433412450944 -1.4967325057213876 1.0936184109754925 46 73 29
11.767333170374902 -1.4967325057213876 1.3220647906134038 47 73 29
13.995544085980558 -2.293916042870055 1.7216427194524555 48 70 31
12.812617579600717 -1.5845162657595937 1.0925360052987096 47 73 27
12.650875725525122 -2.1746517159867893 1.6581090858962064 47 72 34
13.759541278494941 -2.237070226270184 1.2836583158099755 44 71 32
12.437107702062658 -1.6720896080523344 1.1661141862381075 47 73 27
11.635130295399312 -1.3256900258848574 2.838040295107713 42 71 40
10.847603827632227 -2.4966963578138244 2.768966151058672 42 70 40
13.069236975468442 -1.9881176652310748 2.2395637038504064 51 81 49
12.962806032994616 -1.8661291580498534 2.1507273373813076 50 75 37
13.217567098756064 -2.4139371766213342 2.3305160577013933 52 83 52
13.730990864081326 -2.3444372015913273 1.8742587500995143 46 73 35
12.84998957961067 -2.2228184076554824 1.9791892682988685 47 74 40
13.253819683869422 -2.1746517159867893 1.8855525822912198 49 73 35
13.14486068072097 -1.9964098218916746 1.8882525345989185 48 73 35
12.867828194854132 -1.9964098218916746 1.8143552356323522 48 73 35
12.588684170898505 -2.204722658104218 2.17032230471259 55 84 53
13.727780005879385 -2.3412009390405744 2.29577710215883 57 90 60
13.099772048287397 -1.894830096447582 1.6551098594872216 48 73 34
13.897495225640265 -1.7306346520913773 1.7959853241646984 47 72 33
13.037431946269512 -1.58340761085335 1.890961156140389 47 72 34
13.411520149802499 -1.5026986821409047 1.961141013510786 49 74 36
18.54218179787108 -1.3032270604315002 2.5227164275790797 54 81 50
14.761543396327223 -2.5383763207232555 1.5777861630922332 45 70 34
14.540167949733084 -2.4976965484927014 1.8568788949434114 48 75 40
9.997649289723451 -0.06389915564663819 2.515816107838786 37 65 35
13.803465577605124 -0.4937073744373499 1.7975460650835824 46 70 35
13.296952081688355 -1.1681797720424278 1.1936526920927397 44 69 29
13.087936115976467 -0.9876150152770115 1.8896819445192787 48 73 36
12.918046276039469 -0.822657332006068 2.2488468421789243 53 82 54
13.045483976605102 -1.2448870537089176 1.9727136986574687 47 72 34
14.03300952803365 -0.46009735638881855 2.101541939176629 45 74 40
13.42959621671165 -1.0961687687696142 1.881294090728244 46 71 31
13.554298084024934 -0.46009735638881855 2.037871147820126 43 72 37
14.2924702930614 -0.7048821406122909 2.011991669037408 51 78 46
12.55757082366748 -0.8180660017542603 1.9892879761584914 53 81 49
14.046767050865068 -0.8180660017542603 2.185689817587077 52 81 52
12.903085345083628 -0.4181265385716065 2.1537622866523534 42 71 36
12.69696166945025 -1.3448863502419381 1.578922764440791 46 71 32
12.779119131198739 -1.841468407698113 1.177549775239973 46 72 27
13.331830178980255 -2.237070226270184 1.4280343373786626 46 71 35
12.841756661220533 -2.0736720426284014 2.156914756308487 50 77 45
11.412827471221986 -2.023974492057166 2.908118380111618 42 69 40
12.73342449123927 -1.9518416267963383 2.07065771777331 49 74 38
12.799519761036288 -2.181003960740352 2.3620180068845427 54 84 53
12.859606697025463 -1.841468407698113 1.9788656778398819 48 73 37
12.908891803732354 -1.5845162657595937 2.063249330830077 49 76 37
12.65882531276668 -2.0320576974864304 1.9857332280348197 49 74 36
13.55616078532469 -2.237070226270184 1.8017570983904345 47 72 34
12.801530732775577 -1.8205289396823021 1.5006832066676978 46 71 31
12.423990991777364 -1.58340761085335 1.6597077529224247 46 71 33
13.087656422826072 -1.6639529208844166 1.88968900014978 46 73 34
14.117745038829494 -2.452074895850413 1.9406432783142151 46 77 45
13.955974382499168 -2.5135885040397277 2.023409029742804 44 77 45
10.867670117952269 -2.1394243838997977 2.7642706775881707 45 73 43
13.730507754571192 -0.642914192741644 2.0314098354560945 48 76 44
13.011003116467872 -2.2509582167396878 2.459905042011459 51 79 49
12.604814637642185 -0.9876150152770115 1.7384357024419697 46 71 33
13.035946546297735 -0.9614993421450992 2.241583410296607 55 83 53
12.052742811963979 -2.204722658104218 2.101769428738013 49 76 44
12.834912346957111 -1.0961687687696142 1.6568540073683495 45 70 31
13.427137397501388 -2.106360745859831 1.1161197218394152 47 72 31
12.519443780532798 -1.58340761085335 1.418700666191224 47 72 31
12.95424835826047 -1.0577770630288683 1.9757092358985182 49 74 36
13.434772439651583 -1.6639529208844166 1.960428985233173 47 75 36
12.933446630762075 -2.0668913534997637 1.5787741713009162 48 73 35
14.802348573957213 -2.5383763207232555 1.6453928493773222 45 72 40
13.536642867133743 -1.8661291580498534 2.2125620009209124 49 77 45
14.728868351808368 -0.642914192741644 2.153347742487165 50 78 45
13.126821263113158 -1.269599331559759 1.731709903555308 46 71 31
13.086083601541775 -2.3412009390405744 2.238546768694872 67 100 68
13.475742826284726 -0.5971799599703898 1.803160655625355 46 71 32
12.935508057750832 -1.4967325057213876 2.062145659823245 52 78 40
13.395134514236027 -0.3016410366241786 2.129727820375126 41 68 32
13.048503787964725 -2.0314869372265396 2.342896817876151 53 84 51
12.678823595249657 -0.940151051196934 1.9850385134339794 54 81 45
10.591259653216671 -3.0236617884313763 2.836825153063613 40 68 37
14.196751396647754 -1.215942887179043 0.8935108212230566 38 71 65
13.08400962971708 -1.894830096447582 1.5021993279833392 48 72 32
13.413090189013264 -1.8205289396823021 1.8816889833977415 48 73 35
11.940451890435579 -1.0577770630288683 1.495617815139491 44 69 31
13.28818438559096 -1.841468407698113 2.0479962808976766 49 74 36
10.442522253967095 -2.023974492057166 2.8859611033197696 43 71 41
12.42854103757783 -0.9876150152770115 1.5790982760399668 44 67 32
13.84992525905502 -2.3962206102607033 1.5059982898617912 47 70 30
