21.756556645997115 0.8526427481479067 1.671883110367655 25 38 0
21.24273059630116 0.8885069157432531 1.7218001382684693 45 56 17
13.316227719185978 0.9091058629767876 2.054728760243862 54 64 27
13.316227719185978 0.9091058629767876 2.054728760243862 54 64 27
13.555889435453748 1.2657872862068948 2.2200289771443638 72 85 53
14.168015836935313 1.0999613390014271 2.1876294409749253 60 75 40
14.850736175312877 1.2657872862068948 2.327509663228902 67 78 43
14.444324797379702 1.18005225793856 2.260904663877527 70 81 45
14.437124791318805 1.1427817196650263 2.3549187119150092 61 71 33
13.005869282503744 1.7250858748889104 2.067313545135561 42 53 17
13.352036219301718 1.3564014146943852 2.2316686569104935 70 82 51
13.164586466431127 1.5472429487268986 2.242787776073159 46 57 23
12.794607277177713 1.791334617677239 1.7432500187924165 59 70 40
13.756677426730045 2.0085969421444596 1.7310811042242225 50 59 29
13.901469688877448 2.2163274521264325 1.953835943902747 52 61 30
12.870396805451177 2.042032999906715 1.7422243986925774 50 58 28
13.315619435768639 1.9692939343683296 1.9716289733563932 51 58 24
13.559489158133077 2.2163274521264325 1.8853777770665023 54 63 35
13.251710133932045 1.8672809132366737 1.8143397233005476 41 52 16
13.003579840123216 1.791334617677239 1.819083871477056 42 53 19
13.54817183336247 2.109760074971311 1.8089062108337466 51 60 29
14.574421823895364 2.4287519405717957 1.7918500903722494 64 73 55
13.44527497493044 2.326178218677206 1.8881431002113978 57 67 41
13.058643883780354 2.199175552020747 2.0651252800736932 53 63 32
13.1782915663933 1.810143486989087 2.060238383174632 38 48 10
14.197099905050704 2.326178218677206 2.0223854789258575 59 69 44
13.43461527649316 2.003503192428944 2.136012363395109 51 58 23
12.633648248516595 0.7247921442239104 2.0833464119735945 37 44 8
12.083460107680677 0.6525663501303877 2.109158288181459 20 29 0
13.220901434335342 0.6525663501303877 2.239403856525331 44 51 9
14.41740644835054 0.4354093664271771 2.356283832634838 55 63 20
15.078026259482419 0.3974307740529932 2.313370230460562 49 58 17
14.073718602737014 0.520615034235465 2.2828436303117523 44 53 12
14.823893415304404 0.3116401222501043 2.329220809277324 53 63 20
14.288750641681448 0.3807653599901197 2.471110929654739 58 66 21
13.797693340273877 0.4807943421167564 2.402280164031563 55 63 19
16.285375168163124 0.1719315694046974 2.170806900939486 65 78 41
14.830402028553644 -0.13801437995244248 2.1562992945492145 49 61 42
14.575854770756377 0.13968602085975837 2.4466480891166866 57 67 26
15.229603063864898 0.12620031773118523 2.3966371737494523 56 67 29
14.63382233372297 0.22084394066163124 2.341599744462511 53 64 24
13.905797899442653 0.03632312434052472 2.506640218904214 53 63 17
14.551718679304681 -0.1645182844849629 2.347094294049408 59 69 43
14.551718679304681 -0.1645182844849629 2.347094294049408 59 69 43
13.634000796784926 -0.469264096814592 1.961753476701068 57 63 64
13.7439370106293 -0.5374639725168469 1.8810140742945691 57 63 67
14.229543087616296 -0.5526506623921399 2.2734301774794403 53 60 49
13.37093852344952 -0.4302405923076299 2.139035722302652 55 62 54
14.542010509448644 -0.47047525708320226 2.3477500587398596 56 64 43
13.754378833830714 -0.5078530447803246 2.1213352621681354 56 62 58
14.658814296831535 -0.6272770372159834 2.2488849262713133 32 38 34
14.723677620945827 -0.6825598745603659 2.3356894850915633 20 24 23
14.250232613899708 -0.3808250074504501 2.368087179896789 54 63 33
14.978042743803075 -0.21710267761497362 2.149777451732916 51 62 51
14.674862563601945 -0.29352976708390816 2.083267126599215 54 63 58
14.253535822865235 -0.34668924606853335 2.2720056307228678 52 61 46
14.023843604503975 -0.28426288238803066 2.3847620830742353 56 66 29
14.162416303023132 -0.316601791267658 2.482440473548812 56 66 25
14.773205831224999 -0.23573319356008052 2.2426633095725643 53 62 49
13.979099508019777 -0.812413584170035 2.1114969290236494 41 45 48
14.702158230283358 -0.25778386559198346 2.3370952953314275 54 63 33
14.396438356661491 -0.31797740694088317 2.17642211945605 54 62 55
13.157278368155433 0.853295514829186 2.1494388136248217 48 58 21
14.689693448083624 0.7038698472642059 2.5502838252078237 59 67 21
14.2434588920679 0.17753865850397788 2.5987071343409247 62 71 24
14.369244277392053 0.30743274212809174 2.584368577722058 62 70 21
14.2434588920679 0.17753865850397788 2.5987071343409247 62 71 24
14.2434588920679 0.17753865850397788 2.5987071343409247 62 71 24
14.285620096097329 -0.2306092920714594 2.593835326192215 55 66 23
14.285620096097329 -0.2306092920714594 2.593835326192215 55 66 23
14.285620096097329 -0.2306092920714594 2.593835326192215 55 66 23
14.285620096097329 -0.2306092920714594 2.593835326192215 55 66 23
14.201338015248984 -0.09641495890746778 2.603643125523193 57 67 23
14.187214713138449 0.041332941932399864 2.60531395157549 60 70 24
14.201338015248984 -0.09641495890746778 2.603643125523193 57 67 23
12.651616585633608 -0.9989763235530582 1.9939779177795922 38 40 41
12.104679822190123 -1.3642038236948246 2.01442404669287 33 35 39
12.251640489578936 -1.1933191283847 1.9203181263127247 34 37 38
12.116341663558833 -1.1152256443854542 1.7530091788189508 36 38 41
14.50143402134511 -0.6668078082938562 2.4528267915957236 59 68 42
14.188073001674304 -0.7465337501128446 2.3725841328276993 47 52 49
14.922886074150982 -0.7465337501128446 2.4192021295133994 58 66 51
14.463998810750356 -0.8207564252850447 2.455976609257201 62 69 57
14.942615629467673 -0.5756719944006797 2.5255292216346366 60 70 34
14.346293370431706 -0.7172479851724473 2.7383376743897956 62 77 39
14.438832419440422 -0.3568909678993229 2.5766810565015676 60 70 30
14.547434155521529 -1.0063331855335869 2.565009769046218 61 72 46
14.869872484118217 -0.9068624005105154 2.532473077137901 60 71 51
14.484353443123027 -0.6453945223093139 2.5717417650065837 63 73 35
14.956682144174163 -0.7309255154408358 2.6514200049213072 63 75 38
14.658813790458886 -0.4723523710774745 2.553428509106065 61 71 31
15.500707565288678 -0.4723523710774745 2.589230303495801 61 72 32
14.636156379909194 -0.8365478684035881 2.694187034707233 63 76 45
15.286683811627539 -0.6668078082938562 2.4944164618672136 62 71 51
14.220305496816922 -0.8895757359043542 2.370244761264479 52 56 54
14.782172069488421 2.5859850778934548 1.929941961468511 64 76 54
15.28516374220479 2.621879078011487 1.8488509940155105 61 73 53
14.219909454309171 2.4844600165666884 1.8703021400601236 63 72 54
14.546371993387263 2.4844600165666884 1.9360347387281363 64 76 55
14.990682362856258 2.526917639669656 1.854462968845906 63 76 59
13.68049227679406 -2.134057458040921 1.9603531566373074 67 74 65
13.513002724629187 -2.094529501480352 1.5852685703959442 44 50 44
14.19967229976761 -2.4615137836251026 1.797784924974787 52 64 42
14.534421452708445 -2.4078107781925153 1.6531462844711664 51 62 42
15.317979808073796 -2.6579703727938493 1.9168417107027138 59 73 54
12.922955690196297 -1.9084866541291574 2.070792945117483 46 51 46
22.484075299394632 2.446485370285334 2.981220138045498 64 84 50
15.619783084203196 2.6537730678454214 1.6474124420386154 58 70 59
15.632434604160506 -2.688361858726234 1.7766658098105357 65 80 61
15.865200213028809 -2.7729698469328325 1.6462250047317326 77 90 77
21.756556645997115 0.8526427481479067 1.671883110367655 25 38 0
13.312691942870359 0.9796033284691262 2.1418317746307105 55 65 29
13.352036219301718 1.3564014146943852 2.2316686569104935 70 82 51
12.908830426428107 1.6377225877950696 2.0713908200096904 57 68 35
13.569176625317235 1.9398653684866682 1.8085305114385186 47 57 23
13.177700847167626 2.266026744400609 1.9760684184403465 56 65 37
13.369047872148773 1.9398653684866682 1.7357704966199359 44 54 24
13.35774458852496 2.042032999906715 1.8902961071825175 52 59 28
13.327134244143855 2.080517817529662 2.054298657784259 54 61 26
13.42319266881658 1.8918184248833765 2.0505448627611154 49 57 20
13.1782915663933 1.810143486989087 2.060238383174632 38 48 10
11.782480278139507 0.7247921442239104 1.9348705310458731 25 35 1
13.438165355595391 0.5713970589917973 2.3244212775062776 54 62 19
12.625415694350833 0.6525663501303877 2.1772125047792623 28 36 3
13.441668126678916 0.520615034235465 2.226494481623613 39 49 9
14.151415081312669 0.34288857750044294 2.3752645892836757 56 65 21
14.823893415304404 0.3116401222501043 2.329220809277324 53 63 20
14.091463196092018 0.2720626101580127 2.4889671413133074 59 67 22
14.698795943597474 0.2438451333659953 2.4366749491076494 57 67 25
13.866046636908559 -0.18194642136876255 2.3968898578203053 55 65 23
14.006180615480849 -0.20344756372218276 2.4969752670545646 57 66 23
14.534697193664174 -0.07564224688413257 2.4500516314448753 53 62 19
13.29667818098544 -0.5793042707572915 1.9722327225449865 55 61 63
13.634000796784926 -0.469264096814592 1.961753476701068 57 63 64
14.702158230283358 -0.25778386559198346 2.3370952953314275 54 63 33
14.211279955702647 -0.29352976708390816 2.021901584974125 53 61 59
14.229543087616296 -0.5526506623921399 2.2734301774794403 53 60 49
13.629826490915155 -0.34668924606853335 2.215918099436393 56 63 54
14.918257161443242 -0.34668924606853335 2.3232446595558507 55 63 43
14.045536337498188 -0.469264096814592 2.027625913516427 56 62 62
15.177815683689445 -0.4219743139795499 2.5039678894588078 57 67 29
14.162416303023132 -0.316601791267658 2.482440473548812 56 66 25
14.455125428509499 -0.21710267761497362 2.091840283045372 54 64 52
14.6756913211427 -0.5182671116117652 2.4385275503353965 59 68 40
14.2434588920679 0.17753865850397788 2.5987071343409247 62 71 24
13.805566788267631 -0.2659439283335785 2.6538215481793768 63 74 33
13.805566788267631 -0.2659439283335785 2.6538215481793768 63 74 33
14.369244277392053 0.30743274212809174 2.584368577722058 62 70 21
13.703714610717432 0.04794457323484093 2.668021580679643 63 73 27
12.748438044304077 -1.630358733640968 1.5076530485503883 35 36 43
14.463998810750356 -0.8207564252850447 2.455976609257201 62 69 57
14.673152376200363 -0.6146359003949546 2.6889611367031296 64 77 38
14.942615629467673 -0.5756719944006797 2.5255292216346366 60 70 34
14.839051006448283 -0.7400337763041653 2.535456848611002 63 73 40
14.438832419440422 -0.3568909678993229 2.5766810565015676 60 70 30
14.636156379909194 -0.8365478684035881 2.694187034707233 63 76 45
14.845394158904375 -0.40827768299951567 2.6656590496771484 63 76 38
12.448269819577893 -1.0284899922265625 2.187116971812115 40 42 43
13.413797220415148 -0.8765845244764899 2.1369970036243764 56 60 62
13.82324872650069 2.436755470663895 1.9561171004932747 62 72 50
14.55810190723879 2.526917639669656 1.7221873448550324 62 72 57
15.377030401116077 2.5648184820826474 1.7140675465446302 59 71 57
15.04144665066369 2.621879078011487 1.784877929942472 59 72 58
13.426088397753363 -2.028074062229089 1.811113805606066 46 51 46
13.597366479882062 -2.198075459727189 1.808028175039778 66 71 68
21.724959715302635 3.0787143574031393 2.9203776255564913 70 93 64
15.813333300451811 2.9870132360508843 1.9055700226452132 61 74 55
13.829222883840876 1.18005225793856 2.205111413632851 66 80 47
13.369223114881438 2.151437293238619 1.9699304647610845 53 61 28
18.89936535479608 2.2589402537571477 1.3681113588044496 51 60 55
17.563905173407182 0.09099030636200714 2.190118638277408 62 75 42
14.623497202279502 -0.15011410569581723 2.2508318227774233 53 64 45
14.503841494101476 -0.36658772160646 2.012153081576831 54 62 62
15.14205325230553 -0.6946281458725103 2.2234363568859257 0 4 4
15.025872881803808 -0.6050549981865092 2.4114590144751227 58 66 50
13.73619771681561 0.42747665921593897 2.5235953153631954 61 69 21
14.689693448083624 0.7038698472642059 2.5502838252078237 59 67 21
14.463998810750356 -0.8207564252850447 2.455976609257201 62 69 57
14.636156379909194 -0.8365478684035881 2.694187034707233 63 76 45
15.05943783279761 -0.5350892244106196 2.638782187452287 63 74 35
14.582388605829495 2.682920964004466 1.79172731765573 58 69 51
14.125045157880137 -2.3591185661692626 1.799005381066608 54 64 43
15.011788160019512 2.8386844129222517 1.854053119532801 55 63 55
12.828809603511953 1.7127165437492633 1.8225391422092811 62 73 41
14.769014389487872 1.0999613390014271 2.2428890350226696 65 76 41
13.22087758119117 1.4507271266347497 2.239405281828642 63 75 43
13.046712543491838 1.8672809132366737 1.7398851947102247 43 53 22
13.764641990389554 0.03239608604475682 2.404917342836889 52 62 18
13.963175681537484 0.1563724077618855 2.5010834776225965 55 65 22
14.63382233372297 0.22084394066163124 2.341599744462511 53 64 24
14.777056147782947 0.1563724077618855 2.541535837197308 59 69 27
13.728455682111145 0.4354093664271771 2.304758988079918 49 58 15
14.027200125008507 -0.25778386559198346 2.285709464286986 56 64 44
14.396438356661491 -0.31797740694088317 2.17642211945605 54 62 55
14.229311952302998 2.436755470663895 2.021287799631233 61 73 50
15.286683811627539 -0.6668078082938562 2.4944164618672136 62 71 51
15.619783084203196 2.6537730678454214 1.6474124420386154 58 70 59
13.569176625317235 1.9398653684866682 1.8085305114385186 47 57 23
14.18285061852858 1.2657872862068948 2.2762212986456656 73 84 49
14.151581684835376 -0.3960061173651702 2.1041952936714337 54 62 58
14.55223195229818 0.4807943421167564 2.4485975275696186 57 65 21
13.764641990389554 0.03239608604475682 2.404917342836889 52 62 18
14.453389240885008 -0.4756529224648093 2.7213088344827665 63 76 37
14.151514831418822 2.499305753905069 2.1041980832270797 63 74 51
13.521315584718506 -0.8895757359043542 2.318666092441428 47 50 50
14.956682144174163 -0.7309255154408358 2.6514200049213072 63 75 38
14.023843604503975 -0.28426288238803066 2.3847620830742353 56 66 29
14.984215451331512 -2.5617465272314788 1.924884567955994 54 68 50
12.80137080249518 -1.1585002833276499 2.167710160851562 28 32 35
14.723677620945827 -0.6825598745603659 2.3356894850915633 20 24 23
12.334585000797578 -1.3814226908594076 1.8328585282543353 34 38 41
14.736460518321813 -0.08477764901093976 2.5455739161871898 55 63 20
13.337389101148773 0.041332941932399864 2.5669956793912907 54 64 18
14.446873972845204 -0.8272116764736984 2.575803440617434 62 73 46
12.799102104418596 0.7888376246156609 1.9887940037718468 48 58 21
