15.91354604174563 1.0787273216605597 1.8002191215277488 54 57 63
16.553338036938506 0.8461374237397262 1.9171256261610188 36 38 42
16.384393126691133 0.936056271074829 1.856584570861346 41 43 47
15.665275440158455 1.0464126528707112 1.9376610753809134 55 57 61
15.665275440158455 1.0464126528707112 1.9376610753809134 55 57 61
16.488687075574713 1.0464126528707112 2.051128271027138 56 60 59
16.488687075574713 1.0464126528707112 2.051128271027138 56 60 59
16.793948566954057 1.0100347594861536 2.1806713827595807 49 51 51
16.328142733429218 0.8963196629507776 1.9881830494517188 42 44 47
16.24188212737064 1.0100347594861536 2.1301804374951105 57 62 61
13.472992095505669 0.4634594737278844 1.9207273703891574 13 12 16
13.916811735422867 0.5947259283163269 1.760113895328044 24 24 28
13.623493767840205 0.531618666032334 1.8396672239888465 25 24 28
13.623493767840205 0.531618666032334 1.8396672239888465 25 24 28
16.678516335646552 0.8014437633207877 2.045207149695705 2 3 6
16.07887367592689 0.8522003633001008 2.064454856900153 50 50 53
14.9580067548765 0.6202425685052045 2.2692915955721205 38 40 36
14.629462436128476 0.5971349328377104 2.383084666954474 48 52 44
14.540492639935275 0.5455468922997712 2.293654818255164 46 50 45
14.846389374990673 0.7439094774419808 2.2756215971753635 14 18 11
12.43825622261472 0.13376113497754144 1.5401591627011126 0 0 4
13.17794890945367 0.3614368581846729 1.5418793539980837 0 0 4
12.341641363922061 -0.02774792519756147 1.6209717043375376 2 4 6
12.762814590509414 0.3125194255165277 1.941112000012443 10 11 14
12.747365608939681 0.14541680094776724 2.0272815170568483 12 14 15
13.084551048417332 0.3903261934319448 1.931583369157679 12 12 15
12.512929169654914 0.23060262989943814 1.9488767308874824 11 13 16
12.339260777610695 0.14541680094776724 1.9544731938212747 11 13 15
13.750383688077097 0.3091777964768783 2.4532003762829593 45 52 43
13.707025995932607 0.2520493444171645 2.2508061210459553 43 47 43
13.462929915859105 0.06366702942874221 2.2655567457082673 41 48 44
13.707025995932607 0.2520493444171645 2.2508061210459553 43 47 43
14.877763937339145 0.46341910264973757 2.3656324536902655 44 48 43
13.935515832580128 0.3406003070249931 2.2376168169878268 44 47 43
12.372977609535237 0.15927884532632117 2.1352508567838395 0 2 2
13.496731706021846 0.17603202378098717 2.364121963554294 44 48 42
11.82812250085391 -0.12929431800624483 2.06582074498138 0 2 1
12.266152420063191 -0.033121106666486835 2.140774805888439 1 4 3
13.45118738448078 -0.033121106666486835 2.2662844771944437 44 48 47
16.5419369087233 1.243193075236925 1.5477611172700956 61 65 72
16.301992969881674 1.3015154543297225 1.4859802887823081 65 68 74
15.833745333184426 1.423614385174522 1.5467306331002326 71 74 77
15.733446298570463 1.6141103165083808 1.482907584181945 74 77 76
15.926726924509316 1.677594556523071 1.4207358131972594 76 80 74
16.263748152739733 1.222557161768169 1.858764923449941 52 57 60
16.36808660221661 1.1636384481035813 1.7937387413130792 53 59 62
16.282037616153186 1.2841056801537265 1.923145289319275 56 60 60
15.542886429479646 1.4137325368123415 1.872530933308499 59 62 59
15.070015650274213 1.4137325368123415 1.745471154604352 55 59 60
15.256084037901859 1.3479687887912042 1.7433192331965057 56 60 63
15.812449434403018 1.222557161768169 1.7371912493881259 56 60 65
16.044884298662613 1.1636384481035813 1.671871949701339 53 59 64
15.698134842678682 1.1992747994466806 1.9368568635964314 52 57 60
15.24314177268255 1.1728328846487044 2.0199765210487852 53 58 59
16.083202758437725 1.1992747994466806 1.994946663294066 56 60 61
14.47153017776825 1.3894209676905926 2.0458429164723304 42 45 38
14.923492976849808 1.2418093528815426 2.0303275185231824 57 61 58
15.393135355091955 1.2418093528815426 2.0885851563150424 48 52 48
15.393135355091955 1.2418093528815426 2.0885851563150424 48 52 48
14.299525982340024 1.1500750799204742 2.308619384425364 41 48 33
14.366571507593408 1.107855431909466 2.402597144923686 41 50 30
14.366571507593408 1.107855431909466 2.402597144923686 41 50 30
13.257688227928593 0.9950917286150103 2.4997069567674433 45 54 34
12.784766610385866 0.918547389820148 2.5509749197011424 45 54 36
13.257688227928593 0.9950917286150103 2.4997069567674433 45 54 34
14.098072506934432 1.2044924498598555 2.4237440590406107 41 50 29
14.73600199221357 1.2687037834747785 2.282010624960204 39 44 30
14.54328113743622 1.356341169246407 2.2934856916233883 42 47 31
13.90212403959955 1.356341169246407 2.2395087589389773 36 41 24
14.103608803580235 1.2687037834747785 2.2282701548160144 34 39 27
14.540596954928825 1.3349146449253422 2.3895561999838297 39 46 29
14.029743933785934 1.2395687761832277 2.3262429280601746 41 48 33
13.896507472698538 1.3088401736461255 2.440515588353102 42 50 31
14.76276440418158 1.617061204668124 1.6806842565813123 0 1 1
13.434940380801729 1.7793354753595763 1.8435364180919183 39 44 30
13.068160854797434 1.8764533352705564 1.9320566262481813 31 37 17
13.669487721333331 1.853622789390175 1.8387402183576238 28 33 15
15.725862018796358 1.4866068265510357 1.6101675649420948 61 63 64
13.423150166898061 1.6289426307615613 2.086448512637982 30 34 15
12.184448623550468 1.9031456087965055 1.959607612270008 34 40 18
12.16487643316058 1.727012827747819 2.0509353568175923 33 39 17
12.342669490918546 1.8170224452437884 2.04344807004076 33 39 17
12.959427498644656 1.6490187230915587 2.407200981588602 39 48 26
12.959427498644656 1.6490187230915587 2.407200981588602 39 48 26
12.75855016240044 1.9725669190855233 2.3125012134869505 37 47 26
13.76481716067279 1.4193475917072162 2.4519267081352805 40 49 29
13.105175406620353 1.5406531200624622 2.1912106962283953 33 39 18
12.833648577457058 2.018611958287036 2.4181224696432397 40 50 29
12.272762331814896 1.934720133416802 2.140429645094626 36 43 21
12.839730086077005 1.934720133416802 2.206062151736806 36 43 21
13.710710990622744 1.5406531200624622 2.250588793822424 37 43 21
13.118799257793096 1.6343842026129443 2.190468849628818 36 41 19
12.65789050608995 1.727012827747819 2.121062214398016 36 41 19
13.074277613701405 1.9031456087965055 2.1016389977975773 36 42 19
13.705015979368207 1.5336958375291958 2.4572342886268173 40 49 28
13.050058720964174 1.7623025048563115 2.3995412777109397 39 49 27
13.454314388945456 1.9725669190855233 2.3673302767832785 38 48 27
12.415479274975226 1.742884640709299 2.231494625164518 38 44 23
13.599283409053655 2.018611958287036 2.4668199854492623 40 49 29
12.962439104175186 1.6409475761868433 2.2981832085909883 38 45 26
8.952512215925536 -0.6018620674714861 2.112904537901228 47 56 38
8.276759420466547 -0.6843926239609476 2.162850869047081 47 57 36
9.018756283017098 -0.7877778208252421 2.3948620026838663 46 56 32
14.212119349144873 0.46335667177683154 2.527923818980944 40 47 34
13.98814843099039 0.34825285966105635 2.5510358836370197 42 53 39
14.501737008415827 0.5666290737266284 2.5001166941890336 44 53 37
13.833013289247567 0.22270674679910285 2.5679803711807616 44 53 37
14.674838785106388 1.3088401736461255 2.484485338335157 41 51 29
13.602018942687472 0.7190243383829594 2.59482668830803 45 54 37
14.580109099469054 0.5245922851993616 2.6169306459650366 46 55 39
13.723760706246807 0.5245922851993616 2.580422300528457 46 55 39
13.292813075128592 0.6022340070201976 2.6343357727191123 46 55 37
13.830911915285698 0.7024566135924643 2.719846683560028 48 58 37
13.242816575231064 0.8228726809573064 2.6411709852968084 46 56 35
13.330773728050657 0.25651027526209585 2.629235393841371 45 57 38
13.491685145133085 0.3980376532196782 2.608414604643572 44 56 39
16.264998526149594 2.5158883622326442 2.8588077408589183 52 64 43
16.264998526149594 2.5158883622326442 2.8588077408589183 52 64 43
20.175785881246732 1.7154703320040001 2.9061132478844196 51 63 42
19.968632803950197 1.75423081331097 2.954183450751334 54 66 45
19.968632803950197 1.75423081331097 2.954183450751334 54 66 45
20.175785881246732 1.7154703320040001 2.9061132478844196 51 63 42
14.543200459288041 -2.1235610949558277 2.7831675462616587 58 68 45
14.276579403553047 -2.2464582921474383 2.836899523236846 58 71 49
14.276579403553047 -2.2464582921474383 2.836899523236846 58 71 49
11.828457945970838 2.5390276812749937 1.4537759838577595 37 46 25
12.653251055097254 2.130566967764736 1.4614355075127068 37 43 20
11.68519894343937 2.2963160545929355 1.709793677714419 34 42 20
12.365320290058902 2.3573836365407357 1.7021029428557382 34 42 20
11.590821048516228 2.418587377075946 1.6242249239025661 37 45 23
11.505796130159814 2.102324028860879 1.8004324876729014 36 44 19
11.683407889867047 2.0219106278916255 1.9772406618625737 36 42 19
12.357159238907608 2.060341459885243 1.784356816827148 35 41 18
11.870152615280901 2.2278417055613446 1.9704791069887189 35 43 21
12.533844776407987 2.102324028860879 2.035664663755676 36 44 21
11.873625664985122 2.4871907574896626 1.9703555520492793 38 47 24
11.611307276669468 2.2879871660843762 2.0759291670762394 36 46 24
11.34314535590875 2.5638491747294587 1.9901882031343945 39 49 28
12.294018603592036 2.5638491747294587 2.1393227013758134 39 48 29
12.204144050503679 2.208853232956068 2.2450251265625703 37 47 25
13.30499802938337 2.358012998962319 2.4949649349188707 43 53 32
11.772164647058695 2.1192254207883536 2.2747066663152213 37 47 26
13.30499802938337 2.358012998962319 2.4949649349188707 43 53 32
12.700330843463494 2.2879871660843762 2.214178173258056 38 48 25
12.852202357399326 2.208853232956068 2.3058450885960653 38 48 26
12.855410096829821 2.5065593522373257 2.305619528723801 40 51 32
12.44587884981923 2.0662250889247806 2.2295976196188585 36 45 24
12.28898687615326 2.1512951176702266 2.139584317443113 35 44 22
12.521381678225408 2.358012998962319 2.4468287864313663 40 50 29
13.76005132362574 2.2769725013781663 2.4523467518058784 41 51 30
12.123628321031251 2.3577402910723033 2.250343858605886 38 48 25
12.128547388883815 2.4272638487697176 2.148063691957292 38 48 25
12.599355835547 2.183336614442259 2.4394354109511136 40 50 29
11.228193281773981 2.6125821600431087 1.6259521879947934 39 47 25
11.339703705496522 2.649000340892596 2.0892233000928293 41 51 30
12.972147639506757 3.0659167815921147 2.4061155564818155 51 63 40
13.73006146421993 3.0659167815921147 2.4550015954629836 52 65 44
12.972147639506757 3.0659167815921147 2.4061155564818155 51 63 40
12.766626827467844 2.7426927188160817 2.3119217303992645 44 56 35
12.45250284033874 2.649000340892596 2.229185864372318 44 54 33
13.381487369607386 2.5325796036728567 2.487430492448002 45 55 34
11.850432365732742 2.844392046751686 2.2691126231529637 47 57 35
13.061112289850348 2.952821203084538 2.398618702531289 51 61 37
13.225305066991798 2.844392046751686 2.3852005014788022 48 58 37
13.605345856832479 2.6970113817608583 2.4662632240387614 48 58 37
13.024766203173185 -2.9881773983391566 2.401661701822884 56 67 44
14.115609386193025 -2.774013036064733 2.4223225435233857 57 69 48
13.165428013566567 -2.8780152401039416 2.3900327472938416 56 69 46
13.165428013566567 -2.8780152401039416 2.3900327472938416 56 69 46
14.385214231170194 -2.677699673500592 2.401176068343513 58 70 49
11.774128918502557 2.780240042754392 2.0682980814737078 46 56 34
12.196286725368815 2.811565697185357 1.9592100098332512 44 54 31
12.180119194148542 2.9875574392354225 2.0502837298386325 48 58 35
12.512100867495349 2.917807934297778 1.8642280199530077 46 54 32
11.331025476955816 2.780240042754392 1.990665136324767 44 52 30
12.576110758681954 3.085308259966919 1.9468820692061826 50 59 33
12.976745064886266 3.0737102664253264 2.2972022281570936 51 62 38
13.065678411241002 2.9719322943587523 2.2911708866721376 51 61 37
13.029368960578797 -3.027185464530237 2.016680167543073 54 64 40
12.563539387756816 -3.112318483371705 1.9472772272795906 49 59 34
13.292743803001974 -2.755405843747113 2.092017863031426 57 67 44
12.568261505869613 -3.1095788985985635 2.125443008287779 52 63 39
13.00050297792999 -2.838289258548589 2.104973628648349 57 67 43
12.780028072977213 -2.92569626004855 2.115209799265538 55 66 43
12.635076470405899 -3.0165783982714127 2.1221702815452144 52 64 41
13.02934506202103 -3.0038172326280552 2.2936211450709734 55 66 43
14.025381619773734 2.9289312235113987 2.547087403613765 50 62 39
13.891945068497044 2.6405018895014383 2.5614473324917677 47 59 38
13.662726591688065 2.7628215683676585 2.5875697952721017 51 61 38
14.025381619773734 2.9289312235113987 2.547087403613765 50 62 39
16.38875860816539 2.8010202233565584 2.8338854193284084 54 66 43
14.782938223571342 -2.521329385945315 2.7421139185319143 58 71 50
14.235679141502734 -2.6096584893521606 2.6603788687382535 58 71 51
14.663281765955459 -2.6776262058148412 2.6072116827721286 58 70 49
14.775561690729223 -3.0970854990268264 2.5945075311246515 54 66 45
15.407962736386057 -2.8622604128570184 2.8201931996848946 57 69 48
14.340289811633518 -2.943297009753873 2.646589775014281 56 68 47
15.040585848131299 -2.3934978774952826 2.7033115280149245 59 71 50
14.503052118533427 -2.4888022628953643 2.6261848641468184 58 71 51
14.087505771100373 -2.565126197656503 2.540596004471605 58 70 51
14.58942433370302 -2.6774899412281132 2.7748031060217584 57 70 51
14.468167541700677 -2.804323361922071 2.6304573184507345 57 70 49
14.087505771100373 -2.565126197656503 2.540596004471605 58 70 51
14.83243686686803 -2.9685720703645337 2.588244334106666 55 67 44
14.235679141502734 -2.6096584893521606 2.6603788687382535 58 71 51
14.122576610258143 -2.845555496818334 2.536983411210197 56 69 48
8.912797067773804 -1.0388140196854825 1.869043963891771 45 54 27
8.680753898664792 -0.7016235696118169 1.8772719599921202 48 57 37
7.982027297445792 -0.7873314972805711 1.9050989375254113 45 53 32
8.842437822080663 -0.7873314972805711 2.1204192864983247 44 54 27
10.0461519964297 -1.2292025674504896 1.7326570732622235 47 53 28
9.680762194294436 -1.1918852897810928 1.9539343706495815 46 54 27
8.957116628604837 -0.9726695280044801 2.112594954506832 44 54 27
9.035191937106099 -0.8726821050758957 1.982906173834962 43 53 27
9.131220978244206 -1.0145391071124008 2.381648122536301 45 55 29
11.34689986166626 -1.6363219048454327 1.9900406856287656 54 56 34
13.253146718381998 -1.986122885880816 2.3829768159762965 60 64 43
13.253146718381998 -1.986122885880816 2.3829768159762965 60 64 43
12.171251708673022 -1.7485864231387418 2.2471866957074003 55 59 37
14.188302852350107 -2.1738490692969266 2.666813426509804 60 70 48
15.02095194546332 -2.378603647481841 2.355965708333644 62 70 49
14.717960069579696 -2.58983060654687 2.376760433225458 60 69 49
15.02095194546332 -2.378603647481841 2.355965708333644 62 70 49
15.109675997281451 -2.510520771086597 2.3501134752883264 61 69 49
14.535189225460138 -2.308917678391506 2.389954019218244 64 69 50
18.72704395315803 -1.9478021618895527 2.1737043749503435 67 49 29
18.490813624510977 -1.9252968175105951 2.0556994265386894 65 49 29
18.151991205272967 -2.093024656746246 2.1292949893559863 53 44 28
17.994207767061983 -1.9813736161965336 1.9474812600100544 64 46 26
13.773463954870094 -2.6441078062451555 1.8366682529238914 60 66 44
13.426157300115284 -2.637264874925048 2.1742303606128557 59 69 48
19.991412156389252 -2.3325254734763394 1.7021795691042674 13 5 1
18.96973618550523 -1.9876276753290845 1.5507096527392212 58 44 21
22.15901779061514 -1.9740524781820303 1.508433054558217 48 52 30
22.221941385432388 -2.075247561638114 1.4634432922184373 50 45 21
22.779451137211172 -2.014894048293366 1.4218220731641815 48 48 24
20.409505399370033 -2.191280494815626 1.7490576197851084 61 51 31
14.427119566423062 -2.4669364927774207 2.5070743682330296 60 70 50
14.83315478534414 -2.3867328051428296 2.5881659873114216 60 71 50
14.826521477303706 -2.3820443203775765 2.4713361476379454 62 70 50
15.221906615764619 -2.301066517775334 2.54811659013103 61 71 50
14.87780795315872 -2.2063948870125567 2.583327064540663 61 71 50
17.253389143629505 0.9508759459122941 2.1621831827635294 67 69 69
15.836843424683769 0.9892375713514602 1.8667590161131355 45 48 53
15.42912848951133 0.6877471613917238 2.2439186915886706 29 32 28
16.592739799670838 1.1075660907202531 1.7292984836941312 55 59 62
15.004889906988614 0.572902877941947 2.1826817930931246 39 39 38
16.956400854787514 0.9892375713514602 2.036809380961151 50 52 56
16.59407716851387 0.9078971869237309 2.1891124340501573 0 3 1
12.858549591351743 0.2885959337587687 1.5411608644549089 0 0 4
12.762814590509414 0.3125194255165277 1.941112000012443 10 11 14
13.169294707664587 0.34825285966105635 2.5087413160865646 43 52 40
13.45118738448078 -0.033121106666486835 2.2662844771944437 44 48 47
12.546179290643805 0.2520493444171645 2.126533773163244 0 1 2
14.857745953444855 0.42393353563363423 2.2749716396486948 45 48 45
13.592535146263835 0.19667292774347414 2.4674407713453297 46 53 42
16.010940626588862 1.3617754577297563 1.546997022037708 65 68 73
15.677350090499894 1.6141103165083808 1.5464905097585264 74 76 76
15.275580025963208 1.4137325368123415 1.8099836982660127 52 54 56
15.812449434403018 1.222557161768169 1.7371912493881259 56 60 65
15.742813998165646 1.1373229638123277 1.8685807524281244 52 58 63
16.06966312665609 1.1076320526531978 2.06476330008175 55 59 58
14.47153017776825 1.3894209676905926 2.0458429164723304 42 45 38
14.299525982340024 1.1500750799204742 2.308619384425364 41 48 33
12.471099539289229 0.9950917286150103 2.4516809506553017 43 52 35
13.257688227928593 0.9950917286150103 2.4997069567674433 45 54 34
13.896507472698538 1.3088401736461255 2.440515588353102 42 50 31
12.784766610385866 0.918547389820148 2.5509749197011424 45 54 36
14.098072506934432 1.2044924498598555 2.4237440590406107 41 50 29
14.54328113743622 1.356341169246407 2.2934856916233883 42 47 31
12.822618944617913 1.7966440208642136 1.9393019575187822 31 37 17
11.7636185684133 1.934720133416802 2.0687833518293637 36 42 19
12.597569673950499 1.9031456087965055 2.0331292957984317 33 39 17
12.50693130701942 1.8708381065615138 2.3310934878180394 37 46 24
13.705015979368207 1.5336958375291958 2.4572342886268173 40 49 28
13.118799257793096 1.6343842026129443 2.190468849628818 36 41 19
12.33150676886311 1.7623025048563115 2.34471098673289 38 47 24
12.828852777709622 1.8170224452437884 2.112907169176695 36 41 19
12.58973380001838 1.8413444541399613 2.220781457055079 36 44 22
8.584592967662834 -0.9178005296226632 2.451254827003334 46 56 32
8.873709479940064 -0.6843926239609476 2.25649941533242 46 58 36
8.58219113976026 -0.6582860767923667 2.451593751648782 47 57 33
14.501737008415827 0.5666290737266284 2.5001166941890336 44 53 37
14.212119349144873 0.46335667177683154 2.527923818980944 40 47 34
13.833013289247567 0.22270674679910285 2.5679803711807616 44 53 37
14.674838785106388 1.3088401736461255 2.484485338335157 41 51 29
14.55019466869253 1.4193475917072162 2.495670623018047 41 51 29
14.023467751923667 0.6350444316103283 2.5472892914617153 43 52 36
14.175219676618987 0.6022340070201976 2.668612243725969 48 58 37
13.242816575231064 0.8228726809573064 2.6411709852968084 46 56 35
13.330773728050657 0.25651027526209585 2.629235393841371 45 57 38
16.131774148825954 2.718143475185821 2.8887794179986392 55 67 44
19.869260875031625 2.134082017760475 2.9827053954521943 55 67 46
20.175785881246732 1.7154703320040001 2.9061132478844196 51 63 42
14.497516718181112 -2.404110231698714 2.7916761658628753 58 71 50
11.512961010663902 2.6125821600431087 1.8002870141328366 39 49 28
12.213915350993027 2.3575387088096855 2.0488455284115945 37 47 24
12.284311019739297 2.4387368663823064 2.348472623006037 39 50 30
13.37840576828303 2.183336614442259 2.4877309472578744 41 51 30
12.297193170081123 2.4871907574896626 2.0453398511593783 39 47 25
12.287334517578772 2.1758028378979977 1.8697598287659165 35 43 19
11.758599800001422 2.1758028378979977 1.6234618619072467 35 43 18
11.773755476435586 2.102324028860879 1.8832321352133818 36 43 19
13.155219775345882 2.1192254207883536 2.390863477134653 39 49 27
12.11855154088117 2.102324028860879 1.9618362736379236 35 43 20
12.18934314710314 1.9844466054958676 1.8722384367019427 34 40 18
13.005470797313903 2.4387368663823064 2.403288231270595 40 52 33
11.05753436087377 2.4871907574896626 1.7177393644664567 37 47 24
12.592883272845524 2.130566967764736 1.6199698343355695 36 42 19
12.28898687615326 2.1512951176702266 2.139584317443113 35 44 22
11.867049066998415 2.649000340892596 2.162483059499192 43 52 31
12.11399137863839 2.7426927188160817 2.250986738120733 44 55 34
13.067064106219227 2.6405018895014383 2.5194863862164767 46 58 39
13.159920300702865 2.5963191570870805 2.390480704106828 44 54 33
13.73006146421993 3.0659167815921147 2.4550015954629836 52 65 44
12.959960436445844 -3.1022082113173957 2.4071554363885133 54 66 43
12.576110758681954 3.085308259966919 1.9468820692061826 50 59 33
12.356024581174355 2.8976400734247116 2.0428954992210224 46 56 33
11.33446976246549 2.6930424398567974 1.8957768630442704 41 51 30
12.580828158227225 3.0800502435900357 2.1248243079933014 51 61 36
12.601191165234814 2.8735727484522195 2.22009046012652 49 59 36
12.672540274694816 2.9875574392354225 2.1203531808374008 50 60 36
12.964586201565144 -3.112318483371705 2.0190699960787826 50 61 37
13.16995796797745 -2.904181839427644 2.2842420394328 57 68 45
12.96456218358842 -3.1062738477497525 2.298037435011254 52 64 41
13.99154065782355 -2.9685720703645337 2.55067431341558 55 68 49
14.588183244625498 -2.6269556473843823 2.4922238653882984 58 70 51
14.235679141502734 -2.6096584893521606 2.6603788687382535 58 71 51
14.816363041710023 -2.90952933237031 2.7368037267865035 57 69 48
14.292515230549112 3.0433835202319175 2.652817725876636 54 66 45
14.940166462152675 -2.7504258790634366 2.7178795826584494 57 70 51
14.322399598031442 -2.7310882979494466 2.517075972977941 58 70 49
16.31794622033655 3.001865591067685 2.847847450877057 55 67 45
14.034621494245407 -2.7504258790634366 2.688580122745561 57 70 51
14.340289811633518 -2.943297009753873 2.646589775014281 56 68 47
13.942571129937539 3.056106603038951 2.555930133632917 52 65 44
14.178412091881304 2.8083447902571836 2.531307000067211 50 60 37
9.206532642156969 -0.6303446386479885 1.7475674642894141 46 54 37
9.211010075623363 -0.9436284306400516 1.747480630897853 44 53 28
8.975717326323954 -0.7870261545368898 1.6398134733751921 39 47 27
9.100834206626969 -1.0883604065059376 2.2362479612915154 44 54 27
8.876032424199725 -0.8906252987488245 2.2562853194629495 44 54 29
14.188302852350107 -2.1738490692969266 2.666813426509804 60 70 48
15.065048488239704 -2.245906414186529 2.353044232689798 63 68 49
18.41034414179408 -2.0623579974685837 2.0580036663285384 52 28 11
18.97756996895275 -1.9252968175105951 2.102335581977715 61 46 24
14.261566163966235 -2.58036030006266 1.8273597992365997 61 66 44
13.19632617493338 -2.677745624429267 2.0106414337834484 58 67 45
13.647795522102507 -2.7125897683500124 1.9160569837102241 57 64 42
20.57129559163554 -2.0127398447310423 1.4056913563004243 57 43 20
21.491690146994383 -2.0980221143294178 1.4128228561951555 62 51 30
18.523450050389883 -1.905231195018652 1.9362040456071583 57 47 25
20.36678222650121 -2.403860937569877 1.799577069927717 119 112 97
15.221906615764619 -2.301066517775334 2.54811659013103 61 71 50
14.479820764014725 -2.2900929759656306 2.629024201664169 61 72 51
16.93291968626493 1.0544651700682937 1.6665543909591678 52 55 61
14.540492639935275 0.5455468922997712 2.293654818255164 46 50 45
15.044507670143721 0.674808978537152 2.3544019103004312 27 31 24
15.044507670143721 0.674808978537152 2.3544019103004312 27 31 24
16.24188212737064 1.0100347594861536 2.1301804374951105 57 62 61
12.400084606915247 -0.10848726648438187 1.5400648215878485 0 2 5
13.655687701879188 0.2777811494203737 2.352365590267247 44 48 44
12.71250382290286 0.07047575131785355 2.315824950855126 42 49 42
15.833745333184426 1.423614385174522 1.5467306331002326 71 74 77
16.359593499163253 1.3617754577297563 1.3626275699814148 70 73 79
16.575508360404562 1.222557161768169 1.916642986232321 54 58 61
15.723359915479794 1.3479687887912042 1.868960506312475 55 59 58
15.504542193935881 1.2841056801537265 1.7405274930224812 55 59 63
15.387940377675898 1.2643646033583449 1.944595855210276 57 61 62
16.616606860378415 1.243193075236925 1.6683829899791016 53 59 65
15.14284938801703 1.3141889578422288 2.098025702598286 36 40 34
15.620374501724148 1.1076320526531978 2.0083673506231934 55 59 62
14.873729228117105 1.2932501075085046 2.18888336882303 19 24 16
16.225432380281923 1.2643646033583449 2.059600735934747 56 61 58
13.616498287774673 0.8965182026087152 2.4652413123343004 44 53 35
13.90212403959955 1.356341169246407 2.2395087589389773 36 41 24
13.507020713090705 1.1615709378568873 2.4754039872685363 42 52 31
12.749072699485387 1.8764533352705564 1.858616498714914 32 38 18
13.215948855401905 1.8708381065615138 2.3859510571770546 38 48 27
12.75855016240044 1.9725669190855233 2.3125012134869505 37 47 26
12.105479288999335 1.9725669190855233 2.2515557089616025 37 46 25
9.375072169827597 -0.6582860767923667 2.519542713428195 46 58 34
15.031403950838106 0.510310456921038 2.4543225257900048 45 51 42
13.950656364970321 0.4632473030449864 2.701106070899479 48 58 37
19.2048005065353 1.7154703320040001 2.8939644662914867 50 61 40
20.027570186794545 2.001020117571271 2.939252358235971 53 65 44
14.300140938496375 -2.5746641639552013 2.831703264854025 57 70 50
12.569426550818593 2.472222643586388 1.3802157918429412 34 42 20
12.336418669348618 2.3573836365407357 1.4586151364299293 32 40 18
12.415554515380554 2.242513393743748 1.4593331568979038 34 42 19
12.204144050503679 2.208853232956068 2.2450251265625703 37 47 25
12.207522079749753 2.5065593522373257 2.2448040047979063 38 49 30
11.521502202494991 2.4871907574896626 1.890312431149465 39 47 25
12.852202357399326 2.208853232956068 2.3058450885960653 38 48 26
13.003885534666862 2.2769725013781663 2.403422206891884 39 49 28
11.866890049162825 2.418587377075946 1.7933253329187917 37 46 23
12.125173038268336 2.2963160545929355 1.8738843263548235 35 43 21
12.60864650869396 2.0219106278916255 2.123459936722391 36 44 21
11.65656821726895 2.7302739578736586 1.5381039290817549 38 47 27
12.022979886562878 2.8735727484522195 2.153792871569347 47 57 34
12.516817514244686 2.844392046751686 2.3303426101713924 49 59 36
11.58764268637995 2.811565697185357 1.798781700068752 44 52 30
13.81414592648334 2.952821203084538 2.447608467617744 51 61 38
12.635076470405899 -3.0165783982714127 2.1221702815452144 52 64 41
13.00050297792999 -2.838289258548589 2.104973628648349 57 67 43
12.322414502930606 -3.1062738477497525 2.237378081795154 52 63 40
13.384011095758012 -2.80911591707874 2.2704808399910053 59 69 46
15.381043338570805 -2.4888022628953643 2.6582356223715253 59 71 51
15.129194758806975 -2.6096584893521606 2.690977171992092 57 70 49
14.782938223571342 -2.521329385945315 2.7421139185319143 58 71 50
14.816363041710023 -2.90952933237031 2.7368037267865035 57 69 48
9.28822749288022 -1.1459650343436085 2.091274148781118 45 54 26
11.789406681456798 -1.6363219048454327 2.0675944663656876 50 56 31
9.533306785911266 -1.092831973531595 1.7414476569428352 46 53 27
13.631837170693931 -2.605674792686498 1.9956592003855729 61 68 46
18.053000062651172 -2.0348425391820983 1.8873038547506351 63 43 24
18.72704395315803 -1.9478021618895527 2.1737043749503435 67 49 29
20.688495149106753 -2.367794540274749 1.6977283572334139 39 33 30
15.281024155796263 -2.308917678391506 2.434654181817764 63 70 50
14.403765743338173 -2.301066517775334 2.509280450113012 61 70 50
14.916402063227345 -2.5337625389700182 2.463770520506806 61 70 50
16.206347604092535 1.0235915908919648 1.7331106351893857 50 53 59
16.793948566954057 1.0100347594861536 2.1806713827595807 49 51 51
16.716502729680514 0.9508759459122941 2.112501145946343 53 57 58
12.43825622261472 0.13376113497754144 1.5401591627011126 0 0 4
12.354438531256331 0.05335411045059994 1.6209196873032687 1 3 5
13.548672325591655 0.15927884532632117 2.260294295706019 43 47 44
12.619993310474825 0.21246853053845866 1.6198641157611462 1 1 5
13.88502237946247 0.37396696560375925 2.3361053647200922 46 49 43
12.279028262005964 0.06366702942874221 2.1401028599860714 0 4 3
14.665193969329943 1.3141889578422288 2.03906259848136 54 58 54
16.21201153349863 1.1728328846487044 2.131334427499454 56 60 58
13.434940380801729 1.7793354753595763 1.8435364180919183 39 44 30
15.673544837151793 1.5502752694835666 1.61029905163086 64 66 66
8.276759420466547 -0.6843926239609476 2.162850869047081 47 57 36
14.212119349144873 0.46335667177683154 2.527923818980944 40 47 34
14.212119349144873 0.46335667177683154 2.527923818980944 40 47 34
14.760147395165866 -2.2736773810346387 2.745787311480141 59 71 50
12.538333998111403 -2.904181839427644 2.2239014572258506 54 67 45
14.385214231170194 -2.677699673500592 2.401176068343513 58 70 49
12.28263268068461 2.2769725013781663 2.3486071810342892 39 49 28
12.840072525259828 2.6970113817608583 2.4175561998886623 45 57 36
12.976769060314375 3.085308259966919 2.0186185402353884 50 60 34
11.787355715813733 2.3575387088096855 1.9734481367236574 37 46 23
13.029368960578797 -3.027185464530237 2.016680167543073 54 64 40
12.653251055097254 2.130566967764736 1.4614355075127068 37 43 20
13.060541325471851 -2.7198911874132072 2.193654737809166 58 69 47
14.281454819049747 -3.0904322576775187 2.6542759818993336 55 67 46
16.31794622033655 3.001865591067685 2.847847450877057 55 67 45
13.011096280136188 -1.881499597032844 2.4028132261267925 56 61 38
8.43556438421012 -0.8726821050758957 1.763918478317319 44 52 30
14.83315478534414 -2.3867328051428296 2.5881659873114216 60 71 50
12.564430768489924 1.6343842026129443 2.125631902270829 33 39 16
14.540596954928825 1.3349146449253422 2.3895561999838297 39 46 29
14.084688235743094 0.6579400967153516 2.424832915230155 41 48 35
11.890639317292703 -0.03019743065266183 1.8800585466771509 10 14 16
16.57613200105836 0.8522003633001008 2.117604765493015 0 0 1
13.634717798016965 1.537534259199058 2.353892994353578 38 46 27
12.564430768489924 1.6343842026129443 2.125631902270829 33 39 16
13.655687701879188 0.2777811494203737 2.352365590267247 44 48 44
12.24505274267786 0.058056648638302136 1.957580902900816 11 15 15
12.372977609535237 0.15927884532632117 2.1352508567838395 0 2 2
12.962439104175186 1.6409475761868433 2.2981832085909883 38 45 26
13.156480751099494 0.8160510893610631 2.510070369723161 45 54 36
14.760147395165866 -2.2736773810346387 2.745787311480141 59 71 50
13.225305066991798 2.844392046751686 2.3852005014788022 48 58 37
14.588183244625498 -2.6269556473843823 2.4922238653882984 58 70 51
15.155877297523622 1.480893167135212 1.8119101492252665 25 28 26
13.694825953752563 1.434825288331583 2.3495334820152127 39 46 27
8.958194556798917 -0.7884920699730696 2.5877404724665265 46 56 32
12.651572434716895 1.7138031926005861 1.9445278502710652 30 36 16
11.762292695900637 2.7302739578736586 1.708876791367103 40 50 29
14.497516718181112 -2.404110231698714 2.7916761658628753 58 71 50
14.373309691313183 2.8982548710695952 2.642350809263886 50 62 39
14.373309691313183 2.8982548710695952 2.642350809263886 50 62 39
15.303039261693536 -2.4512422496674047 2.4329717152364907 62 70 50
11.867049066998415 2.649000340892596 2.162483059499192 43 52 31
16.51991067117599 2.624945316983263 2.809813599637118 55 65 42
18.151991205272967 -2.093024656746246 2.1292949893559863 53 44 28
