19.53498327804391 0.28773099457642626 1.0412401951870545 38 51 18
19.480133535398092 0.27180607843132415 1.1550159342559287 41 54 21
18.786122460803412 0.25751428382096503 1.5778173635511663 40 56 21
18.96760089869042 0.10356979534320757 1.1430535100499004 46 59 28
19.322757155835603 -0.012565502313077705 1.0939877554213013 46 57 26
17.81083937892477 0.21697909669281393 1.4090608023391937 45 59 26
17.68686121484679 0.10356979534320757 1.3503150899818313 46 60 29
18.87248853756725 0.21697909669281393 1.1983217580051613 44 57 24
17.81083937892477 0.21697909669281393 1.4090608023391937 45 59 26
19.42238334980756 -0.011873873242577864 1.2093602047256327 46 59 28
17.625476631291725 0.1607953700787733 1.4073446409441934 45 60 27
18.203854305075165 0.04314599602909034 1.5230903640774793 49 62 31
18.21833964583569 0.04314599602909034 1.6329659023150624 52 66 35
19.295383251043734 -0.0633451436388268 1.4738283744525067 48 62 29
19.313390066177533 -0.11509421839794627 1.525832930845253 46 60 27
19.081410352371016 0.1520837410568259 1.8430963935213778 48 64 32
18.3122084356502 1.03596177519945 1.0652646039958826 4 8 0
18.632480903992825 1.0661444191403262 1.1348384557492406 10 14 1
18.232749068173177 1.0661444191403262 1.1845753222666162 20 23 4
9.969220080810185 0.5299597378229123 1.8903645452326747 25 37 11
9.869076450921009 0.7580271412217116 1.5841613969794308 22 35 6
9.452919389432136 0.6790914975735917 1.7982811797684095 22 35 6
10.616188061185508 0.8267153691145531 1.4889332900899066 22 35 8
9.531933756012158 0.5299597378229123 1.6898250761138698 24 35 9
9.11797097924883 1.3290184486370655 1.6952565285379424 24 33 5
8.072653209222329 1.5494461053768647 1.8380553450542034 32 43 10
9.41095908265255 0.9848690589908718 1.6913625592351462 23 33 5
9.760875620225935 1.1279346692944432 1.4817416586736374 25 34 6
9.405840620129863 1.224849943651564 1.6914284888952251 25 34 6
9.555977185619504 0.5886597703375468 2.0179366195542174 24 35 8
9.410251318687825 0.7534493050181532 2.0253759389993267 21 34 4
11.271177079634112 0.6598635184502253 2.3767295734181078 23 36 7
11.11666953838194 0.9199769317850455 2.267313257884685 22 35 5
10.210838340078762 1.224849943651564 1.9874010905412687 22 32 3
11.38032040752985 1.0200745815207046 2.3667881648246762 23 36 6
10.749543133969086 1.079379711135249 2.177829591178856 19 32 3
12.938394742759636 1.0699643592693193 2.606805206988617 36 50 15
11.980791151446024 0.8417800128634608 2.437518978587641 35 48 17
8.162852627242602 2.2669144629015525 1.964570834792163 32 45 12
7.487562361171683 2.3613401838594728 2.00234711978058 32 45 13
8.72046879639998 2.02842775595621 1.471083425957097 32 44 11
8.276644480140813 1.8021525434427084 1.8313130416220937 37 48 15
7.876795351383009 1.6774999700097288 1.4603618118710484 31 42 10
8.361017097965522 1.9199222904711117 1.7065911949446493 35 47 14
8.602031217386175 2.45471473076349 2.071838288778147 31 44 14
9.81411495061498 0.2948982623008344 1.7897697086399733 25 37 10
9.981063631708723 0.39153575732322615 1.6844452627488384 25 36 10
10.358056792620973 0.17374170143795253 1.4868884536142948 24 36 9
9.413348689969192 -0.02352918700721963 1.7992544072006444 29 38 11
9.91755197994475 0.39153575732322615 1.5840960666292505 23 35 8
9.718204587571915 0.0853547889344435 1.8989239888275642 35 44 18
10.197282067434802 0.0769938050459372 1.5837312098185512 28 38 12
10.235484412272974 0.12651147410628732 2.488948662304125 36 49 20
10.266565302138696 0.24402377069552766 2.338760351107113 32 45 15
10.795346632061953 0.4858527909649496 2.2924746042962667 26 40 11
10.57838772957279 0.4241326132801937 2.4476454087080834 29 43 13
10.360198552900886 0.28167124913372493 2.473358641850627 35 48 19
10.266565302138696 0.24402377069552766 2.338760351107113 32 45 15
9.676706325174269 0.0957466506514706 2.1297921017920167 38 49 21
10.207672029029755 -0.03496884045865963 2.4925215268759637 35 48 19
9.566190315985166 0.3285912713401653 2.0174247196979 28 42 13
10.112626627132292 -0.030092348144697904 2.3535674439251792 33 46 17
11.063085710677848 -0.2998651829657088 2.396533526277469 29 38 6
10.183154933425026 -0.16804509515021146 2.346701155844527 29 41 11
9.72118817328286 -0.1477856073307235 2.1269322810360496 24 34 4
11.04184208570518 -0.5996877970487545 2.3986216458900156 40 49 17
11.460964346162303 -0.7020812631732852 2.3596272068281703 36 45 11
10.642606119178753 0.3325490923381275 2.602258498661548 36 49 18
12.54011224251614 -0.06802452713858335 2.885737524581387 40 53 24
10.955421523206784 -0.7901652590903573 2.4072501210114203 42 51 18
10.235109516064297 -0.7901652590903573 2.3417326074470237 40 49 17
10.156692697646985 -0.556763363096304 2.499165960425868 40 50 20
10.562165796040189 -0.2311148810669229 2.61512151018368 38 48 18
10.562165796040189 -0.2311148810669229 2.61512151018368 38 48 18
12.011865067700807 -0.7931530308900374 2.756441779311066 40 50 20
10.723375093756381 -0.40515644808763046 2.589803415855378 39 52 21
11.41724798067378 -0.6573414130082812 2.662514515781456 40 50 20
10.886743526199211 -0.7913027042127203 2.5658879729731816 41 50 20
11.307237841228137 -0.6844301066474002 2.5108931202854192 40 50 20
11.421582007659527 -0.9266220649969208 2.6617845118564945 42 51 21
11.645600732419464 -1.2228849554421848 2.843466596355156 45 59 35
12.387589889316155 -1.086298440075622 2.9380615419193465 46 60 35
12.383593951692518 -0.5114119225331246 2.9396309657089534 41 55 28
11.396781724568651 -1.5389377412961203 2.665983277203066 45 55 25
11.455089553134147 -1.3508170243525823 2.6561932521990412 42 52 22
10.737212194879621 -1.1771480854559462 2.5877134460507536 45 54 22
11.035744178439879 -1.3009090357640916 2.734051603825443 44 54 26
11.960411511201535 -1.3009090357640916 2.7671964124668866 47 57 29
11.904578973001147 -1.5313877104146167 2.779319730442003 49 59 31
11.960411511201535 -1.3009090357640916 2.7671964124668866 47 57 29
10.462091515127966 -1.2354519325911866 2.461115485653872 44 52 20
10.337139396918388 -0.9803015701943232 2.3321879235394003 42 50 18
10.93409086190548 -1.4105594879924988 2.4094136679617546 42 53 19
10.786868269206975 -0.9494336437080672 2.1754284138417708 39 50 16
10.54800295150474 -1.0094533206314151 1.973299997555595 40 51 17
10.1009691811727 -1.5527615350485433 1.992219427702266 38 47 19
11.107957049942351 -1.385327898066744 2.535893236433356 42 52 22
10.23857813815899 -2.1719519609406084 2.997109614890266 48 62 37
11.542172572429326 -1.9088844974285004 2.642078555470566 51 61 31
11.00120222985524 -2.293143116030114 2.7413869907210153 46 56 32
12.55489380527618 -2.5545653801272348 2.660863535101195 48 59 36
10.891533902695535 -2.0684930748771206 2.5652106774056436 50 60 30
11.57413602684209 -2.318207364832285 2.4799624471789667 45 55 28
12.637115118994823 -2.701771900892425 2.501025815671795 49 59 33
15.165649047628568 -1.898562319003319 1.7118375427227637 12 19 2
15.33821061862008 -1.898562319003319 1.7764317135047263 2 8 0
10.717498241622458 -1.6522330755180465 1.8673465585551479 38 44 21
14.416285162370935 -1.9214416112292219 1.7897897095279995 48 56 35
15.835428037380353 -1.8176205315605962 1.7058346784895566 3 9 1
16.005141179910854 -1.8783963790161746 1.641576247340756 20 26 12
10.841232658988524 -1.7484104072890967 1.8638609503011248 29 37 14
16.6853476556369 -1.8029570209448125 1.5187449600741565 4 11 1
10.469048410140626 -1.6522330755180465 1.775868769556902 35 44 17
11.025289746660704 -1.8196646629066664 2.400257529932968 51 61 36
10.91132852331574 -1.6719358800462167 2.2831582647113544 45 55 28
10.26473050855591 -1.7672146642774667 1.9850790224855832 44 52 29
10.133959512754114 -1.6610242458520164 1.9907605611482406 42 50 27
10.620411663707163 -1.9985504711442499 2.442902979396443 51 60 30
11.668472519400096 -1.6858365241499107 2.469648491074677 47 57 30
11.19773998826463 -1.8576808415348471 2.524410521560752 51 59 29
14.686364722635838 -1.8531390095344424 1.927761959226699 19 26 9
14.686364722635838 -1.8531390095344424 1.927761959226699 19 26 9
15.281297612061996 0.9918898500020443 3.0016450148058 43 57 28
15.430056046886488 1.1741392318311907 2.9446874992396945 40 54 24
14.565551093508505 0.9096042769106565 2.8969643452448435 39 53 21
18.89977012956388 0.04565602477157412 1.1414167148024092 45 58 27
18.697653614797787 0.1607953700787733 1.1946657266388316 43 58 24
18.678260414216332 0.2053772918763362 1.6851834880647198 46 61 27
18.697653614797787 0.1607953700787733 1.1946657266388316 43 58 24
18.413175860082415 0.1520837410568259 1.632307229042955 46 61 29
17.86036653560874 0.04565602477157412 1.2947388112402827 46 60 29
18.39250256947466 -0.011873873242577864 1.414218614215523 50 64 33
18.254114013212547 0.09790597699279924 1.5780219922145688 48 62 31
19.167889179482717 -0.011254406174669636 1.5776775233801301 50 63 32
18.7154442690686 0.09790597699279924 1.7934050462039346 50 65 34
10.376059764247705 0.48105105631721334 1.4870343796152803 23 33 7
9.082813540297519 1.079379711135249 1.807724456756156 23 33 5
10.50643596695973 0.8330871300141375 2.0811119671289258 21 34 3
9.925313338622834 0.6598635184502253 2.23674307496095 22 35 6
11.584770762587677 0.9465984949272969 2.4787844900785974 30 43 11
11.021979338644822 1.1844886424165402 2.274520165459144 23 36 5
8.43202708658001 1.6774999700097288 1.9513436714633206 38 49 14
8.43202708658001 1.6774999700097288 1.9513436714633206 38 49 14
8.67815475630034 2.02842775595621 1.585995646806529 34 45 12
10.169365204435369 -0.02121547168029938 1.583766720548391 24 33 7
9.443500752400633 0.0853547889344435 1.798512068330625 35 45 19
10.169365204435369 -0.02121547168029938 1.583766720548391 24 33 7
10.576290153962686 0.26732115412223095 1.4886237750187647 22 33 7
10.884431995231665 0.5504411659190247 2.4145038989820713 26 40 11
10.140699689934202 0.10900827999910476 2.3508173536545485 36 49 20
9.903563503269666 0.4339473112470536 2.001172998766742 26 39 11
10.486702818556688 0.3705788309985448 2.3186810985304365 26 40 10
10.360198552900886 0.28167124913372493 2.473358641850627 35 48 19
10.700039698398164 -0.4807029998318756 2.4340902884091253 41 50 18
10.443151940335987 -0.3449630674972288 2.4633591133623147 38 47 15
10.277548119594957 -0.19466038896109597 2.483612919318886 36 46 16
10.60940613770843 -0.42179903095226706 2.3080049680923995 24 33 2
10.183154933425026 -0.16804509515021146 2.346701155844527 29 41 11
10.277548119594957 -0.19466038896109597 2.483612919318886 36 46 16
10.774502763408204 -0.7020812631732852 2.2941783712774964 37 46 14
10.642606119178753 0.3325490923381275 2.602258498661548 36 49 18
10.520875332322941 -0.8967981113738114 2.454241971968815 41 50 20
10.955421523206784 -0.7901652590903573 2.4072501210114203 42 51 18
10.51617010383481 -0.6844301066474002 2.4547872041162906 41 51 20
11.783610452925602 -0.610589973660065 2.8074542518377865 39 52 23
12.098920882051557 -1.0961345081471927 2.739064495851588 43 53 25
10.973704957750053 -0.556763363096304 2.553790919672106 40 50 20
11.904578973001147 -1.5313877104146167 2.779319730442003 49 59 31
11.78780978009867 -0.9779840755349248 2.8064295859096555 41 54 23
10.562165796040189 -0.2311148810669229 2.61512151018368 38 48 18
9.97617200726116 -1.0996650728186954 2.3672676028391995 41 50 18
10.462091515127966 -1.2354519325911866 2.461115485653872 44 52 20
10.54474832404283 -1.1014816537342327 2.0790792917044585 38 49 14
11.57413602684209 -2.318207364832285 2.4799624471789667 45 55 28
11.193438603070334 -2.204656626753239 2.52495222070953 48 57 29
11.426031274445249 -1.7293140589662401 2.661036736080588 48 58 28
11.624346631431127 -2.3087817084755136 2.6292735286107884 47 57 32
15.053011259346446 -1.8342154458125282 1.780385251241066 2 8 0
16.663271597581918 -1.8029570209448125 1.578711840218284 10 16 5
10.533792150011697 -1.9450139496550596 2.3145421336083354 51 60 34
11.025289746660704 -1.8196646629066664 2.400257529932968 51 61 36
10.414454052207924 -1.7904004661682877 2.2003538591324094 51 59 36
11.07798825769561 -1.7041407764183714 2.539810625863829 47 57 27
15.377034137228705 -1.7675584197418512 1.9110622311057996 12 18 5
14.978546851194256 -1.9214416112292219 1.9204968569998333 32 38 18
14.978546851194256 -1.9214416112292219 1.9204968569998333 32 38 18
15.53766625342813 0.9096042769106565 2.912552627366974 39 53 23
15.641457812867214 1.271856745746421 2.8856394709509354 39 53 21
7.78717804764618 1.5494461053768647 1.587734847942177 32 43 10
9.688013668301672 0.8330871300141375 1.8999850814739832 22 35 5
9.338417629661485 1.224849943651564 1.58492092088085 23 32 4
10.215553469650972 0.9848690589908718 1.9871968548574188 21 34 5
12.38832949057373 0.9465984949272969 2.5284753027106976 35 49 16
10.02898269603617 0.5886597703375468 2.1079663419136754 25 38 11
9.578532213352831 0.19225463659855307 1.7952464576709746 29 41 14
10.580892340677632 -1.3508170243525823 2.612084213666024 44 53 22
10.166433728964167 -1.0252059578694452 2.4978866483316686 42 51 21
11.645600732419464 -1.2228849554421848 2.843466596355156 45 59 35
9.808527830684596 0.21511525323027275 2.121406909252932 34 46 18
12.597056884576515 -0.36660584791743434 2.86899184979812 38 52 24
10.521240046037084 0.15066009456408722 2.6218534475142903 35 49 20
10.494185018603773 -0.04173036687843557 2.626376805978201 35 48 19
10.955421523206784 -0.7901652590903573 2.4072501210114203 42 51 18
11.035744178439879 -1.3009090357640916 2.734051603825443 44 54 26
11.047817288066584 -1.5440605565396799 2.5437988015296904 44 54 24
12.125556544900883 -2.6378108771497133 2.5599876911862256 49 59 35
11.624346631431127 -2.3087817084755136 2.6292735286107884 47 57 32
11.542172572429326 -1.9088844974285004 2.642078555470566 51 61 31
15.791042336249541 -1.7549270468291962 1.77045395385167 16 21 8
14.666051678216222 -1.9214416112292219 1.856395142635468 37 44 26
11.19773998826463 -1.8576808415348471 2.524410521560752 51 59 29
10.929807908364449 -2.1234686909633638 2.4098497310512927 49 57 27
18.590686328265782 0.2053772918763362 1.6317191698832416 43 58 24
19.32270660611264 -0.0633451436388268 1.6813525824410864 48 62 30
7.840111808785719 2.45471473076349 1.8461858011693422 30 43 12
7.995224887138633 2.246345967456064 2.2677310963574167 33 46 14
8.212652925175604 1.8021525434427084 1.3413211878329614 29 40 8
10.562165796040189 -0.2311148810669229 2.61512151018368 38 48 18
10.886743526199211 -0.7913027042127203 2.5658879729731816 41 50 20
12.521374775109518 -0.7966922487435526 2.891522103202562 42 56 28
10.779095226603362 -0.8773449927307357 2.2938021995988795 44 51 17
11.639832212229535 -1.5477643560374061 2.472747909270586 44 54 23
11.300177322029544 -2.443645974821335 2.682859022178719 48 58 35
17.023647947819356 -1.8605019723249396 1.460839121371692 6 12 1
18.45089394424166 0.04314599602909034 1.7413644842110558 52 66 35
9.994928406357976 0.9008683060702238 1.6842869302635222 22 35 6
12.08876604845001 1.0699643592693193 2.5646330552105985 34 47 14
9.64728316170004 -0.026409202520811605 2.1317011066676472 30 41 13
9.808527830684596 0.21511525323027275 2.121406909252932 34 46 18
10.880695434418922 -1.550566943107701 2.2855922951757135 44 54 23
15.513364175541557 -1.9602148541359896 1.7086558408531523 42 50 28
15.732036968610878 -1.8176205315605962 1.642807079004479 7 14 4
14.781638437261794 -1.9864984772864425 1.7842920303509107 54 62 40
10.133959512754114 -1.6610242458520164 1.9907605611482406 42 50 27
10.345244514479258 -1.047173922211552 2.205235793881621 40 49 19
10.469048410140626 -1.6522330755180465 1.775868769556902 35 44 17
12.54011224251614 -0.06802452713858335 2.885737524581387 40 53 24
10.723375093756381 -0.40515644808763046 2.589803415855378 39 52 21
10.544607228928887 -0.9266220649969208 2.617993733742384 42 51 19
10.044836790113894 0.6162871161195864 1.4842655724212097 24 34 8
18.235426464390443 0.27180607843132415 1.3570522639468203 41 55 22
9.886757546265098 0.8417800128634608 2.239810716812097 21 34 3
11.531295838409521 0.7470335245153432 2.4847479754934336 35 48 17
10.414454052207924 -1.7904004661682877 2.2003538591324094 51 59 36
