10.091936070034226 0.42971168010287575 1.7188543503732534 14 16 2
10.449233258227594 0.5169177411837549 1.6175861130475186 16 19 2
10.263167516738811 0.65160333753245 1.7163663887267662 10 14 1
9.34543863709583 0.37287751921083107 1.9533699646193026 23 27 3
9.75798285219172 -0.09248437555129271 1.9364144818953641 28 35 3
10.184703219318761 0.015721261969590936 1.717495962894247 25 30 0
9.239283583452815 0.019614625138913693 2.0781110558281113 30 36 3
9.31027073752403 0.1424981120546234 2.0738779727927126 31 36 5
9.276183539846825 -0.1038611640475871 2.0759013273767883 30 37 4
9.486723421526095 0.2612158890616422 2.0636707076045426 33 38 9
10.168161040778111 -0.3384047225065388 2.1409918209465477 31 38 5
10.717262852186101 1.6715565215182544 2.1084708266114816 13 18 0
11.224318570687405 1.5627095846614267 2.1871902443166973 38 43 11
11.387452997912385 2.0223017690571967 1.7019066638364255 23 31 6
11.070838741065453 1.880028928606631 2.0895330951866224 6 11 0
9.496551014476596 0.7163092559652433 1.728211923577807 6 9 3
10.897480958310489 0.6300541198188777 2.2086030209341665 33 38 11
11.827900427135813 1.0533837865889384 2.3712724538092456 17 22 0
10.244328527231309 0.792291755806022 2.1362313602172005 18 23 1
10.867124425529113 0.7163092559652433 2.1002679759604783 14 18 1
11.493058959708902 1.210450463763055 2.280472257450372 32 37 10
10.485431438884717 1.0533837865889384 2.238053497554738 11 16 0
11.154093180499018 0.7936390975801323 2.4357149931864117 39 43 17
11.154093180499018 0.7936390975801323 2.4357149931864117 39 43 17
11.235886298588348 0.6003251334743593 2.4272169527782044 39 44 15
10.461276746468576 0.5314274777418264 2.2398738028488974 39 42 15
12.545488360056186 1.1078155901357123 2.5608522347236287 40 45 15
11.081938768474311 -0.11841463278028772 2.4433881531051154 35 42 7
9.494422208240206 0.41991839725770536 2.1871963099619154 35 40 12
9.774335309523142 -0.254679667412593 2.296757747937501 33 40 5
10.464946668298632 -0.254679667412593 2.368282197439412 34 42 7
9.600582840852006 0.022386508516805965 2.312939842285985 32 39 4
10.464946668298632 -0.254679667412593 2.368282197439412 34 42 7
10.525313727033357 0.2961411756557375 2.362423967143089 35 41 9
10.525313727033357 0.2961411756557375 2.362423967143089 35 41 9
11.267453068906342 0.026070547037893244 2.572030165658174 38 45 9
11.240541478101218 1.8026203880776033 2.2999326874676282 40 46 11
11.112960857800235 1.683807789488402 2.3102364120488543 40 43 16
11.126282022273775 1.4398977499583447 2.309144968957737 29 33 4
12.210365497401492 1.398126598023014 2.604115175858513 39 45 14
12.843886745545896 1.8336188526766364 2.526348898069173 37 42 11
12.041094165609113 1.8336188526766364 2.4783982033047565 38 43 11
11.886303097146662 1.5604503537329575 2.4952500245967464 38 43 12
11.93450156576824 1.4218647577941503 2.489915836572907 37 42 11
12.198228271677829 1.7200321922269004 2.605786966339104 43 47 16
10.441938132074505 -1.563270956940942 1.9114554149687395 36 44 10
10.208071327768732 -1.4620916342382118 1.8170796242896632 33 40 7
10.853910805518952 -1.5639650534696121 1.5236750406063881 32 39 5
10.89308282664163 -1.6559954200872948 1.5238446157449819 40 47 14
10.482649743647135 -1.664604068346682 1.9100790568134254 46 53 21
9.728674351461231 -1.3403826065654874 1.9375680483861315 33 40 7
10.011036443468544 -0.3819660193576458 2.275960116312416 34 40 4
11.071384271635795 -1.8451986388996224 2.444524869666738 45 56 21
11.602087950202835 -1.3524915672427593 2.699922262836253 44 55 20
11.589313706689854 -1.7597602474230156 2.7022592380799995 48 59 26
11.711706360986987 -1.9493948002849244 2.6805235425805245 48 59 26
10.825275417218693 -1.9493948002849244 2.639413163393467 45 56 23
11.711706360986987 -1.9493948002849244 2.6805235425805245 48 59 26
11.194381926053913 -1.388962962124516 2.5823063961769095 44 51 17
11.30795329792725 -1.8892668462236462 2.566461220579293 45 56 23
11.602087950202835 -1.3524915672427593 2.699922262836253 44 55 20
11.698259713724118 -1.5599713513149713 2.5168676406890356 46 53 21
11.602087950202835 -1.3524915672427593 2.699922262836253 44 55 20
10.387315283043373 -1.3122229327989021 2.2455168773255494 37 44 10
10.896130988135372 -1.4346736379420493 2.328540007811697 39 46 12
10.611411814243528 -1.3403826065654874 2.1144293934008296 35 41 9
11.019592207188278 -1.4499104082336096 2.20041498729192 38 46 13
11.556600807844035 -1.5613517164148503 2.395778922813043 48 55 23
11.012778559125994 -1.8116340482843731 2.3185651033042194 50 56 29
11.587094723613083 -1.5624198635587485 2.273521963440014 50 56 24
10.583456688016545 -1.785272518208159 2.1160265704770547 51 56 27
10.407007642895946 -1.5624198635587485 2.1263431809322944 44 51 17
11.13494649715327 -1.785272518208159 2.192888218921291 50 56 29
10.079720361369892 2.5646383792263276 1.9242229482768305 44 50 18
9.958960795791173 2.7056140141606906 1.7208461395523245 45 50 20
9.78987222025465 2.801497364862439 1.8278329803248066 46 51 18
11.138942592607147 2.0193030374857095 2.1926309931481573 31 36 5
10.925196887833001 2.339691601033612 1.9941947501061046 37 43 14
11.47120803281501 2.1735145605219643 2.2821096094278768 42 47 18
10.232489673788514 2.501432292354165 2.1369656935817454 41 47 15
10.297725329769694 2.4147888841221796 2.0218301096776377 39 46 13
14.415248672733606 2.1839493727053907 2.7811112022180846 45 50 19
14.054382364843777 2.4404856165291573 2.6650824992558193 46 51 20
13.825291907946818 2.0867633190254526 2.6982562421030103 41 47 14
13.5227573260938 2.3331476341013224 2.585995333237445 42 48 17
13.825291907946818 2.0867633190254526 2.6982562421030103 41 47 14
9.677553316561426 -3.035804766454099 2.1738520700554353 50 57 25
10.468183053130062 2.875719848202708 2.239352216453264 47 54 22
9.815205455025051 -2.9132912644578632 2.1642261875370217 50 58 28
9.66767099449415 -2.8817057132905464 2.306594606937382 51 60 31
10.67826019713909 2.7137408784782333 2.3480256862212725 47 53 21
13.79162367477797 2.5714459809233032 2.703425269829699 47 52 21
13.4668856790567 2.4641178707225486 2.7581081532420453 46 51 20
14.21329334987464 2.638920618440788 2.820917335481206 46 52 19
9.99230773805504 3.1238495957584513 2.0366878129923136 49 56 24
10.057981606790209 3.01253598797492 2.0334074137340834 48 55 24
8.654355448829287 -2.635171038343762 1.9857193107844284 50 59 29
9.406274810113294 -2.5932286589745335 1.7297354997953542 47 57 27
9.858181764681182 -2.5064476893356273 1.620393651867358 47 56 26
9.848480693405813 -2.3623194613916514 1.7225423619392561 47 56 22
9.114083716925716 -2.7973475437835282 1.9636058788567075 51 58 26
9.615377466886862 -2.5932286589745335 1.8326060722817785 49 58 26
11.33254506919274 -2.2352923596105567 1.4370420351030597 51 57 32
10.473696285004054 -2.294268001778697 1.617476748324345 50 55 28
10.65502980315205 -2.161263717857039 1.6166817507906557 50 56 31
10.608093825959102 -1.9503644678271757 1.5225822812269423 50 57 27
9.787920654846701 -1.9886742159275834 1.7234885904922215 51 56 29
9.968319339506726 -2.3633604220690314 2.1539010741537563 47 57 26
10.024619433565237 -2.2713585163425822 2.2748073988753506 47 58 25
10.711872079831508 -2.0351464902038687 2.4856294691342598 46 57 24
11.230902247204316 -1.927926193252513 2.3006997040714987 50 55 28
10.290990165773906 -2.1316785948870525 2.0221471148645853 51 56 29
10.18760290184561 -2.364827649453178 2.3965861914237694 49 60 27
10.033027885551954 -2.4565593742121052 2.274095945055406 49 59 27
8.728810132690507 -2.7522512180863963 2.110922361788714 51 59 29
10.810246489374602 -1.8903805768429491 2.1033498196598135 50 56 29
11.288375586599617 -1.9749245228317558 2.421871277535307 46 57 22
10.876663966984925 -2.0917526134292554 2.330234812719495 47 58 23
10.338469477330392 -1.8903805768429491 2.0199222314560656 52 57 28
10.531517327485298 -2.252132826649817 2.508213196872751 48 58 28
9.417227326815434 -2.4565593742121052 2.1930159579272583 47 57 27
10.293488555885336 -2.566434220487952 2.3854994735782284 50 59 29
10.963900552130267 -2.3670503719265854 2.6168499096588884 51 60 30
18.600002081297326 -3.033214961916989 1.9851739793383283 51 58 28
18.220389660951852 -3.033214961916989 1.93491421133005 51 58 28
18.725471886009423 -2.9752588596517366 1.9822287014176052 55 64 34
19.489523367617974 1.133403159999709 3.1326210125652705 56 63 30
20.78469854039968 -1.4985538945798744 0.7979575973228665 50 55 24
20.848606461154684 -1.5030998042699748 0.8657548423466415 50 55 25
21.25995736791862 -1.5106689901476509 0.9986322948443591 48 53 24
20.728410761582484 -1.6226474150860537 1.0389860884743842 41 44 13
19.437416096093678 -1.6846575779901785 1.059477940959305 35 37 6
20.324587810002225 -1.45506711866367 1.0838060188250822 51 56 27
20.246993439530836 -1.5106689901476509 1.0817755667594118 47 52 23
19.86136557363289 -1.6783263150354337 1.1279272346642109 37 38 7
19.453825343022732 -1.6783263150354337 1.174388586844405 40 43 11
20.389385611897257 -1.4611588726028704 1.193518893410043 52 55 27
19.23549636036947 -1.7534374855074004 0.9926753378469756 35 40 9
19.27418921531728 -1.7998158365682013 1.113427910421445 42 47 16
20.067076024155874 -1.7428119991282032 1.0194831338792631 34 37 4
19.56182553307833 -1.7428119991282032 1.0630428130143672 37 42 11
20.454615311637593 -1.855345460992054 1.0310922940968907 41 46 15
20.00687716072076 -1.4666435862688008 1.495187232570078 50 52 25
19.935101480700173 -1.5668655177119672 1.2380680162079716 43 45 16
20.453427576866883 -1.4666435862688008 1.348405097765948 52 55 27
19.72535161818378 -1.6726597537129002 1.287627279774854 43 45 16
19.652929114182236 -1.619900014395209 1.2865547977760101 39 39 10
19.876668822334672 -1.5167172524849835 1.5953873827658491 41 43 15
19.62101984061783 -1.840178054141331 1.2325309127234685 43 48 17
15.392379249017582 -0.12156833209156237 1.4069141062303192 40 45 13
11.086990119820648 0.014301818022308873 1.5246663717091944 29 34 3
9.4105011230465 0.017453476920119518 1.8384444451434252 30 35 2
9.653553310979875 0.23352403201982294 1.8315465494258225 22 27 0
9.92511317811873 0.33495252933922065 1.8242530134673136 9 12 0
10.849497533838235 1.7780682433967203 2.10121901190101 2 6 0
11.275347164604929 1.4540531815026603 2.1839875244696305 42 47 16
10.379504742973923 1.7780682433967203 2.018017611553471 30 35 23
10.92876324646324 1.9757722890460137 1.9940476937765848 12 17 0
10.943175806065005 0.8816351365421563 2.324480216971196 27 33 3
9.838705970911631 0.6300541198188777 2.044553280140218 15 17 0
10.93546720346219 0.7040577149015443 2.325141988493924 41 46 19
9.872225338740014 0.5314274777418264 2.160335314607273 34 36 12
10.349633845614758 0.9541704545483404 2.129788108340483 10 15 0
10.397928411591788 0.7163092559652433 2.017167943086146 5 9 0
11.521766453463345 1.165175208181232 2.399057454434878 26 31 4
10.27652494429189 0.7040577149015443 2.2541713148563955 34 38 10
12.963409125269227 1.0333714460763979 2.6599682768404618 46 49 17
12.963409125269227 1.0333714460763979 2.6599682768404618 46 49 17
9.774335309523142 -0.254679667412593 2.296757747937501 33 40 5
10.905428044981537 0.47950337733014803 2.4629026464980845 39 44 13
11.325735240175028 0.18844798522123254 2.5640436811255274 37 44 8
11.325735240175028 0.18844798522123254 2.5640436811255274 37 44 8
11.074566597979642 1.5617184182570731 2.3134030096847513 35 38 7
11.922083501265712 1.6994319560282818 2.4912824631025803 38 43 12
12.314570502533737 1.8738941994101042 2.5900821912127374 42 46 15
11.93450156576824 1.4218647577941503 2.489915836572907 37 42 11
12.210365497401492 1.398126598023014 2.604115175858513 39 45 14
10.892049003535494 -1.6559954200872948 1.6156825707526756 37 44 10
10.332489599053819 -1.7640473923398983 1.8140537082563999 48 53 24
10.011036443468544 -0.3819660193576458 2.275960116312416 34 40 4
10.955360724708394 -1.415077472874734 2.4572708880660628 41 46 15
10.852607662814698 -1.166063784388708 2.6348458520439624 38 49 14
11.593398808191461 -1.6883320230372436 2.3923494489735404 50 56 28
11.606168555468582 -1.4346736379420493 2.3911673635390964 42 51 19
10.447855367165474 -1.6751408908343048 2.123918021191937 50 54 25
9.973788465675273 -1.4499104082336096 2.037621643333404 37 44 10
9.823558217149321 2.9043359764462378 1.933860212080288 46 53 19
10.771287063054448 2.4147888841221796 2.105482831659992 41 47 18
11.777700032924495 2.0724399154232316 2.3756752951983855 40 45 13
11.334152345839085 2.262278496904633 2.1803412811615734 41 48 19
12.338022115244874 2.2454605118596014 2.448173105901711 37 44 13
13.191402200164688 2.2213496980447607 2.6278804655052155 40 46 14
13.359565800696203 2.0143376097806653 2.605994483416272 40 45 14
10.145055863672276 2.762390478759484 2.142452928197395 46 52 19
10.235141452645527 -3.020669826931443 2.391563978659775 51 59 28
13.597503576618786 2.7286213033084823 2.734960884157755 46 52 20
14.15918833218248 2.318007819360099 2.832628885680282 45 50 19
10.221534819833355 2.9043359764462378 2.025443442000496 47 54 23
10.422703222620905 -2.0790980626292135 1.811906228772922 50 56 29
10.283887727910209 -1.9886742159275834 1.9169086024560484 51 56 28
9.300565992240909 -2.5932286589745335 1.6233699261993304 48 57 25
10.13411606331805 -2.0790980626292135 1.5203254120515037 51 56 29
8.93279272534113 -2.6902691530774137 1.7382376195872111 49 58 26
9.636017034510092 -2.635171038343762 2.1768234799948183 50 59 29
10.909058664835797 -2.0349673508696533 2.207816683132245 50 55 28
11.230902247204316 -1.927926193252513 2.3006997040714987 50 55 28
10.539521383040713 -2.4792447168796334 2.5071797024306237 51 60 30
9.568624049020286 -2.531501278319149 2.0590792780840226 49 58 26
10.103124880773498 -2.284598277482487 2.031180310660339 47 56 22
11.35298794355331 -2.252132826649817 2.5603704371736202 49 60 27
11.520489637251428 -2.0351464902038687 2.5385966707808283 46 57 24
18.220389660951852 -3.033214961916989 1.93491421133005 51 58 28
18.600002081297326 -3.033214961916989 1.9851739793383283 51 58 28
18.34845550247719 -2.9752588596517366 1.9322555295053374 55 64 34
18.968147577452715 -1.6846575779901785 1.1054712403460885 37 40 8
19.789440839891764 -1.6226474150860537 1.1262027203420653 40 41 11
19.94581827013717 -1.6846575779901785 1.0157405398429837 34 37 6
20.821053409134095 -1.5661211319380142 0.8646282261487572 45 50 20
19.736182302575873 -1.7998158365682013 1.0679516883772355 40 45 14
19.799667729596962 -1.7534374855074004 0.950364483953801 32 36 3
19.095614580681584 -1.7428119991282032 1.1088200387259755 40 45 14
19.50246762852759 -1.855345460992054 1.1191807629486377 42 47 16
19.963877312583858 -1.5138531032713336 1.2385660850543778 48 51 23
19.39413689474231 -1.7873884730695964 1.2284125325739337 43 48 17
15.555965504457625 0.6489301561243472 1.3431163616771578 37 42 13
9.729028902735315 0.4755997014094001 1.9375540488517982 11 13 0
9.653553310979875 0.23352403201982294 1.8315465494258225 22 27 0
9.480206298250845 0.12697268057563954 1.836428684700617 29 34 2
9.899156804165237 0.5685210998481213 1.824932263258939 7 10 0
10.006969432612651 0.7163092559652433 1.9269063128195236 2 6 0
11.297730683171352 -0.13768136969455463 2.5678585818546757 37 44 9
11.954905100945076 1.3218455722720597 2.3603843872440704 29 34 5
10.658873335101337 0.34142885536184037 2.4921172258310467 37 42 10
9.636099356769128 -0.11841463278028772 2.3095650973306077 32 39 5
12.065672543601156 1.2887798827609787 2.475795067397018 32 37 7
11.074566597979642 1.5617184182570731 2.3134030096847513 35 38 7
10.441938132074505 -1.563270956940942 1.9114554149687395 36 44 10
11.114569228478665 -1.7466053656716745 1.4344026557093197 45 52 20
11.18114189580787 -1.7279956472671445 2.584200994859684 44 55 22
11.747229743042697 -1.415077472874734 2.5111093788609695 44 49 18
11.73461350124726 -1.7053180002047474 2.512583942815481 44 55 20
10.706585206166253 -1.3524915672427593 2.659987607065966 41 52 17
11.142982563042816 -1.5581184545252242 2.5897194294181367 45 52 19
11.589313706689854 -1.7597602474230156 2.7022592380799995 48 59 26
11.552502694141886 -1.5555003039122715 2.7090889975485593 48 59 26
11.636532578052122 -1.4499104082336096 2.269929115892156 45 54 20
9.293050096551173 -2.9132912644578632 2.0748980214788806 49 58 28
10.997746939622118 2.1139963632561014 2.093331368895795 25 30 2
10.82701105511045 1.9151487062798094 2.2134355625020032 35 40 9
10.013064491963638 2.658415390335608 2.035645781308294 46 51 20
14.070912196224292 2.2213496980447607 2.662811649148523 44 49 18
11.454328719520305 1.9151487062798094 2.2833802919096313 40 45 13
9.396107176180267 -2.4409195436373543 1.8388645603199056 47 56 26
11.288426474029846 -2.034861005290593 1.3464559326318726 51 56 27
11.350722760616597 -1.8903805768429491 2.1793223114381273 50 56 29
10.664699940814366 -1.9886742159275834 2.0052301529252627 50 56 29
11.047101952664015 -2.1143945826371797 2.6039820041542177 46 57 24
9.906920933733547 -2.7522512180863963 2.2849396479578408 51 60 30
10.638431027048973 -2.1948172304610205 2.2267734185612964 47 56 22
10.277090985353968 -2.162526371655021 2.3871929072604896 48 59 26
11.288375586599617 -1.9749245228317558 2.421871277535307 46 57 22
10.18760290184561 -2.364827649453178 2.3965861914237694 49 60 27
11.047101952664015 -2.1143945826371797 2.6039820041542177 46 57 24
20.9803947299097 -1.5663987261044343 0.9318735510975101 44 49 19
21.00773879618911 -1.5071082016339952 0.9328401387458973 49 54 25
20.21862055221173 -1.5666452032261966 1.0810286763260837 43 48 17
19.578130507552228 -1.7333445342227352 1.1770446614480974 40 45 14
20.148545657877033 -1.7248570148519515 1.2417265819185692 45 47 18
9.486723421526095 0.2612158890616422 2.0636707076045426 33 38 9
11.275347164604929 1.4540531815026603 2.1839875244696305 42 47 16
10.557480195098732 1.9757722890460137 1.9075786215922608 13 18 0
12.338604130379538 1.245941071698879 2.586924027216002 40 45 14
13.236242006521326 0.9023098911978983 2.621908140926231 43 48 19
12.163260223889257 1.558770524231461 2.610648874485652 41 47 15
10.852607662814698 -1.166063784388708 2.6348458520439624 38 49 14
11.623796188332618 -1.6751408908343048 2.27085075955889 51 57 29
10.30854385271285 2.996468322622018 2.251644778458863 48 55 23
12.240907744075992 1.958816381729686 2.4577745938058397 38 43 12
9.142269311508255 -2.531501278319149 1.9623287979311108 47 57 27
10.374716236173661 -1.859776666393143 1.7147902539434126 50 57 27
19.412784290866185 -1.81372628261234 0.9986226862311769 38 43 12
20.00003507708558 -1.5670636252047048 1.4449011969145387 43 43 15
11.250886562564926 0.9863466346498474 2.4256808309358977 32 37 6
10.774925017048256 0.41991839725770536 2.33923767107364 37 42 12
11.194381926053913 -1.388962962124516 2.5823063961769095 44 51 17
13.735857816798992 2.3274488491646834 2.7121719000718736 46 51 20
9.66767099449415 -2.8817057132905464 2.306594606937382 51 60 31
10.429711130162005 -2.217938079238253 1.911871009418387 50 55 28
11.047101952664015 -2.1143945826371797 2.6039820041542177 46 57 24
21.2329381146282 -1.5666452032261966 0.9978125451047067 44 49 18
19.72535161818378 -1.6726597537129002 1.287627279774854 43 45 16
11.224318570687405 1.5627095846614267 2.1871902443166973 38 43 11
10.717262852186101 1.6715565215182544 2.1084708266114816 13 18 0
11.552502694141886 -1.5555003039122715 2.7090889975485593 48 59 26
10.63223612865293 -1.1971886617653698 2.2272219512813556 33 42 8
9.879543431074925 2.875719848202708 2.159839929903328 46 53 19
10.407007642895946 -1.5624198635587485 2.1263431809322944 44 51 17
20.178504686011703 -1.5167172524849835 1.395896016563937 46 49 21
10.80191293019585 2.501432292354165 2.215176187222975 36 43 12
10.244476379628601 3.1216115511682583 2.2567212714462337 49 56 24
