9.579137944872667 0.33636321137870234 1.598988352452345 44 64 27
10.155363941218496 0.9337222721541149 1.5973883188468243 47 59 10
9.3318419930025 0.4775836877553388 1.8165168283735493 24 41 6
9.018125529888705 0.6326245059592078 1.8252507604275967 11 25 0
10.044307028766859 0.7939658347987993 1.5976824090639081 37 49 4
10.27446896304961 0.6538760896503008 1.401613772146383 31 41 10
9.625485924788212 0.7953703835086287 2.030425723632485 3 13 1
9.556358811153823 0.5706890018482241 1.5990555705982712 18 33 0
9.141081377856926 -0.10406708362147496 2.056831739524751 56 80 35
9.379718863550595 0.23461378947437736 1.7066140982393656 49 69 28
9.391398625955265 0.1276821155350447 1.814926741625283 54 76 33
9.320813874412577 0.017743797009769868 1.816813564973287 54 78 35
8.401260301533284 -0.6756095278289419 1.9705914618369211 50 73 29
18.296046177498443 -1.0237154251758647 1.2522552639734919 41 58 3
18.169418892385316 -1.074341043531256 1.191355071442397 36 51 0
18.56307474058294 -1.074341043531256 1.1412954870390315 38 53 0
19.01749793227688 -1.0237154251758647 1.1522127279132617 44 59 5
19.138514844322227 -0.9760283829700326 1.2114676015798578 49 65 13
18.66405703697125 -1.1011595013252269 1.2587506543283309 41 57 1
18.784867863516894 -1.2264774780815597 1.2608245951253818 44 58 4
18.810177817044746 -0.9760283829700326 1.2612555387494593 45 61 8
19.250097850963343 -1.1254150303057884 1.3225421615383237 47 63 13
19.029091053809257 -1.1254150303057884 1.3735042690660202 46 65 15
19.793971631687192 -1.033220692587235 1.432435499436794 51 67 17
19.120200594232525 -1.0059118417503106 1.374456684301897 46 63 7
17.97307477589157 -1.2264774780815597 1.4743930669358756 48 64 9
18.840502857447913 -1.052243368559829 1.3170275238321576 42 59 3
18.333273048735098 -1.1748803453489016 1.47629284128288 47 66 15
8.983380609172881 -0.25563566796068 2.1977012296341973 46 70 25
9.463718249288478 -0.11872194861046995 2.294990884060308 44 68 23
9.85199464218084 0.2625448415504313 2.135208251230493 51 71 29
17.27308103241822 1.763696065342135 1.1068105688501972 26 38 8
17.74314767142476 1.763696065342135 1.056388006644366 28 40 7
17.096790412534702 1.7520273999628955 1.2904806970150062 24 37 6
17.29805649864896 1.8111780414785232 1.2938288138194909 27 40 10
10.596917086778891 1.0679093039820966 1.4068091441390367 41 53 8
9.914627599395383 1.2504931126866459 1.8018020127232073 22 34 0
10.159968060989113 1.4578837989082716 2.0045489157718213 72 83 43
10.265345791271697 1.1555427899876383 1.7937736861268117 37 48 4
10.2169267209113 1.4689159238807836 1.5972280495704885 19 30 0
9.618414315073665 1.0176354407322916 1.494829224791698 45 55 12
10.498289824962635 1.0176354407322916 1.9896733004724825 34 45 9
10.723599133533655 1.8543916502852542 1.4087636278655549 54 67 25
10.855299724184702 1.9789458658174475 1.9750775726148062 76 92 43
10.662080950602352 2.0671663802618587 1.7853443763402912 78 94 44
10.28448652697827 1.6651238704359195 1.6946012189286261 60 72 27
10.239538412608471 1.5669833166719072 1.695147492968127 30 41 4
10.295265885894265 1.781713846428983 1.9984705596042889 76 90 45
9.891154520912679 1.8834603437952617 1.8023602220662318 76 90 43
10.461321687628438 2.117053792000933 1.9912471895667203 76 94 46
11.290231386276075 2.663612015756525 1.6835232716617459 71 93 46
10.417549231106872 2.8025380681169803 1.9931266615086956 68 93 44
10.621757322112863 2.201707141352962 1.8837398229448783 78 96 46
10.241260122539556 2.3420936568009174 1.7943069898219228 69 88 35
10.344407642433676 2.6191149543256445 1.5969022396303834 71 93 43
10.763183955163443 2.706939485138801 1.978742161377359 68 92 47
10.694286796128505 2.8343689883532877 1.784688212044254 69 94 46
10.319163156364937 2.483034542242228 1.7925912904329133 69 90 39
10.934587617861022 2.483034542242228 1.9719772443449413 68 90 41
8.553639173880635 -2.0957551105280414 1.963075773515087 75 98 49
8.298177495017756 -1.8500535898027992 2.111306114196357 79 104 55
8.12017447586602 -1.7104247885074153 2.1245141858043683 76 101 53
7.6519384482221104 -1.4200763741389875 2.012350673421521 71 92 45
7.850455132988577 -1.2811028084961618 2.0004311563562647 67 88 39
7.613556735011919 -0.8753584246358094 2.166201499787789 64 86 40
8.140570750264589 -2.368606697041103 2.1229659394344234 76 101 54
8.247762063105228 -2.166839660324561 2.1149784915437295 76 100 50
7.454218346821677 -0.9657217136845863 1.8802393673264652 56 76 28
7.717692454145849 -0.8588852268154766 1.6057905496820106 52 71 21
18.240512413044105 -1.3354064643449701 1.2512511001602982 37 51 0
18.558118536811737 -1.5091899150545676 1.1411731637963578 30 42 0
17.904226471172727 -1.450314401974709 1.245029817150963 33 47 0
8.930308618691457 -1.4538227375045114 1.4889631139424306 64 84 33
8.104858526674864 -1.3163750424005103 1.6041182541594958 58 79 30
17.332526890298368 -1.3354064643449701 1.5286676487655515 34 50 0
17.113785029356954 -1.450314401974709 1.7038311451754407 30 44 0
8.89581269633085 -1.6791152013024941 1.6011545437323544 67 88 39
8.995633942445625 -1.9319588749454977 1.9428311994807332 70 95 47
8.218050773958115 -1.6928030025670082 1.8506589251037247 73 95 47
8.161730349811886 -1.565854548294046 1.8526427483022379 71 93 47
16.91476123477602 -1.6278176321767244 1.645950557299313 28 42 0
16.991958994526453 -1.568495689137806 1.7047906842163547 29 43 0
16.40602355863409 3.130872145393103 1.1481076304130737 41 59 12
17.038021561451647 -3.081527035680576 0.9629820756248765 82 99 56
16.42671032606055 -3.0855330734143225 1.148674009841958 46 64 17
17.077914958609536 -2.954026663376162 1.101083509469573 6 21 0
17.44510785630269 -2.8732094231658327 0.9791257816596286 75 89 45
10.10871590633764 3.0256241877597594 1.6967653013479043 70 94 47
9.99418522152909 3.012818644251868 2.012245754990481 69 94 47
9.073016492964866 -3.036520128975367 2.0607992105752517 75 101 55
10.07693125583075 -3.0575047058554463 1.697164757793554 70 93 46
8.37115972796762 -2.883235875168618 2.1060822317023966 82 109 63
10.442555875248933 2.9280201784429636 1.7899274463340558 68 93 45
10.209003216014102 -2.9589745464217256 1.69552136591557 74 96 49
10.13329697591491 -2.9589745464217256 1.5974462410981356 71 93 46
10.158963289252645 2.905024810300081 2.0045947261376225 67 93 45
8.209574414139832 -3.021561832216965 2.1177957133498877 86 114 68
10.251077143268345 -3.0575047058554463 1.794089311472983 71 95 49
10.217895060500041 3.125491818467782 1.7948268025959577 68 94 46
9.540592345844047 3.1236954669407684 1.9206369207502647 71 97 49
10.196415795891026 2.9280201784429636 1.5972812315674028 69 91 44
9.02411887393124 -2.637547023151231 2.06369165506184 79 105 57
8.646127359748668 -2.7542816823558303 2.087325362968153 79 105 59
9.404275331551109 -2.8347267052033915 1.5995126963532804 73 95 48
9.087017415972614 -2.5340823684300036 1.938910087465518 76 101 52
9.02411887393124 -2.637547023151231 2.06369165506184 79 105 57
17.387839912095465 -2.9055205306035936 1.2349805134753804 22 37 0
17.27776617380783 -3.0335559300296944 1.4121259695522865 16 32 0
16.748689787904752 -3.0268447810140873 1.2844919374973507 44 62 16
17.069916223855067 -3.0921318889538734 1.4692752821934656 49 67 16
17.412650777139753 -2.97571409044878 1.4133653839570655 18 33 0
11.149216525178748 1.4578837989082716 2.1680492753853473 73 88 38
10.76301416158623 1.3518051456830904 2.0824749931742703 62 74 32
11.127488363943629 1.2934118592604882 2.4086462548792245 64 80 33
11.353346690266608 1.1694495217631775 2.386811206857617 78 92 48
11.343687181734174 1.2143275548423649 2.2664492896300485 59 73 32
10.978354672612214 1.4441866265770107 2.2945658672335947 66 82 35
10.974330311530387 1.0572387640362564 2.2948899941719114 12 24 0
13.29860645400355 0.6639914819152395 2.7457047637144703 68 92 52
14.235037259221714 0.93995973355164 2.7712635197397217 67 87 47
13.901482448584547 0.6902057048832682 2.652247981786174 76 95 54
14.235037259221714 0.93995973355164 2.7712635197397217 67 87 47
13.036659399411713 0.9067298300645136 2.6149247562984703 67 85 43
13.975531793147551 0.8050203891544212 2.8224923179548598 73 97 54
13.635630436402703 0.5601939487818378 2.6902214171849095 78 100 57
13.653462695561258 1.038609759885372 2.6875345471749155 66 86 47
10.61178696089613 1.675349956169936 2.0904959288077722 75 89 44
11.858019094636264 1.781713846428983 2.230760907149522 71 85 39
11.488911785133148 1.8834603437952617 2.148074607487102 72 87 40
11.346302118725408 2.1767241097092227 2.2662568926032716 72 93 40
10.503152870516326 2.443767547627743 2.4773509574178876 67 92 44
10.202792658340549 2.3365223510789495 2.363925041512415 68 92 47
10.937870775045196 2.3365223510789495 2.4281149965215167 68 92 47
11.517500622253685 2.018879078543297 2.5062422888411424 70 91 38
10.743266491120856 2.248789113153379 2.3140740166264893 72 93 44
11.71349942556993 1.565385802205587 2.483886014460953 66 82 33
11.323176948141317 1.918900516989615 2.2679625137281714 72 89 40
11.782693199820903 1.8066613693296454 2.348827712260966 69 85 35
11.876493642209947 1.838142834143835 2.466317610116466 68 87 34
12.081954206740168 1.9629378744782653 2.445356657278115 71 90 37
11.517500622253685 2.018879078543297 2.5062422888411424 70 91 38
11.443680088229495 2.248789113153379 2.3784556979498577 71 92 43
10.743266491120856 2.248789113153379 2.3140740166264893 72 93 44
11.618383131937058 1.5660488136575235 2.3628605955210724 67 83 33
10.852854397117246 2.566491729931063 2.077832380128325 70 94 49
10.695885723361764 2.5036811860028196 2.1971673079588805 71 95 50
10.280987179218174 2.5322733699615476 2.3562307753617056 69 93 46
10.954619608063746 2.6600442387573264 2.1801810651590596 67 91 46
11.362448918924985 2.483034542242228 2.0530874593001727 69 91 42
10.620746304147056 2.3397674934833548 2.202295951417953 71 94 40
10.704251952598359 2.265061274200699 2.085560444323159 73 94 41
13.783856210477733 0.6180382840955354 2.867687225046864 74 100 59
13.43910787693883 0.4050489839013058 2.7213953885201403 77 101 59
9.638150811653897 -1.3593702498626976 2.602257744092059 74 99 54
8.125916612310215 -1.2349026047537217 2.276467193712103 69 91 44
9.290072166820725 -0.5131895260938534 2.4695601922875223 64 90 46
9.642854556332615 -0.6511470522216319 2.4248173829725905 67 93 49
8.80301048950446 3.109273717241638 2.542514994891267 76 105 63
9.817914187877214 -2.7865150872074533 2.572406298203407 80 109 67
8.80301048950446 3.109273717241638 2.542514994891267 76 105 63
8.841504216374787 -2.973949424397232 2.5361679768306855 80 109 67
9.126187044839849 -2.371788500203806 2.492464028298312 80 108 66
8.869597912826478 -2.482959604777649 2.3559181623570193 78 105 60
8.159743966824205 -1.955822056231447 2.4471474334857937 82 108 63
7.924523294883956 -1.7339434743623012 2.298325888294538 83 109 62
8.404945085590072 -2.040107266177105 2.2485107151347554 79 105 56
8.178411519497551 -2.2567218746796702 2.2710109161690752 80 106 59
8.56828992817968 -1.5641620862517904 2.3917120291147276 77 102 56
8.48472533470402 -2.6217483303066387 2.402347471971625 81 108 66
8.869597912826478 -2.482959604777649 2.3559181623570193 78 105 60
8.35148195920357 -2.371788500203806 2.420019213065323 80 107 63
8.69221916233054 -3.0016699985406765 2.3765272006461347 80 108 66
8.732579687237433 3.118555142896597 2.2186663939505835 88 117 69
9.105661987229778 -2.6970493945966436 2.3303318487302613 82 108 66
9.58434490949238 -3.036520128975367 2.1529893996048033 87 115 69
8.8449916391048 -2.8422712827408483 2.358702447158871 82 110 68
9.617757591269255 2.996856211430515 2.1507041161917555 80 108 62
9.635484224324818 0.37458374340293915 2.0299121633144677 42 62 23
9.977005641701911 0.43137404405391966 1.4975646007220922 27 44 8
9.103854437915574 0.019950529065510755 2.058993294279645 53 77 34
19.68146931064927 -0.9312296511584055 1.2218104170115955 50 66 14
19.362341627203282 -0.9312296511584055 1.2703628744312778 46 62 10
18.152417471091326 -1.1279017411463121 1.1309089993291066 37 53 0
19.12978683701093 -1.1748803453489016 1.2665943879822499 47 62 10
18.63344484164577 -1.0237154251758647 1.2012660351077398 47 63 11
17.97307477589157 -1.2264774780815597 1.4743930669358756 48 64 9
19.30605680029846 -1.0781787873718367 1.428915401682486 48 66 18
18.38170460381235 -1.1011595013252269 1.3105485292490917 40 57 1
10.195425702751722 0.6326245059592078 2.114022456664576 20 35 2
10.01485127644837 1.1555427899876383 1.5977615057454349 34 46 1
9.93792713383962 1.3518051456830904 1.9060877999824535 44 56 13
10.060686602532874 1.9789458658174475 1.6973698964379096 74 90 43
10.425602109418461 1.7614807275319098 1.692917020706195 62 74 31
10.531619812809963 1.8834603437952617 1.9882647101170785 77 91 44
10.932630437937188 2.1477084872092034 1.5954973347558423 78 94 45
11.242297213232417 2.663612015756525 1.5058190025561249 72 94 47
10.732465137624814 2.4091061641766616 1.5027276703921548 69 88 36
10.132204713676991 2.201707141352962 1.4986882840980393 74 90 42
10.751004073116675 2.2770605541528686 1.5028452285242446 76 92 40
10.5871076124615 2.6191149543256445 1.7868877228959574 69 91 41
10.185364523906753 2.201707141352962 1.6958123496177002 78 95 44
11.031254096792482 2.745957205121355 1.7780577727057252 70 94 49
10.877847505044032 2.5393406588376775 1.5956217592823223 70 91 40
8.772006342331892 -2.275051423291942 2.079193749863654 73 97 47
7.820939234660603 -1.1527039883794563 1.8652833208184276 60 81 33
8.12017447586602 -1.7104247885074153 2.1245141858043683 76 101 53
7.713863550415721 -0.7652416102516632 2.0085594900659984 55 76 30
8.589660410000633 -1.9793878571399641 2.0910630241323673 75 100 51
18.821629520517156 -1.2800554833235884 1.2051357230669806 39 54 1
20.32109449326785 -1.5683504437700713 0.8938166035568869 26 39 0
18.134671734254482 -1.568495689137806 1.1905908964420593 27 41 0
17.158644548688255 -1.3922654870434465 1.6448803846140843 32 48 2
17.023635165597135 -1.5091899150545676 1.7045398598799915 31 45 1
8.393978481248729 -1.8159379830297966 1.8446404184919776 72 96 48
8.84380954724196 -1.566413590593235 1.6013331107104125 66 87 38
8.682245732757154 -1.9319588749454977 1.835326012546024 70 95 46
8.009449857526256 -1.4390643275891806 1.7300335630483281 65 85 36
17.10419903578342 -2.828740162331372 1.1663938665479632 12 22 3
17.077914958609536 -2.954026663376162 1.101083509469573 6 21 0
17.162489047640538 -2.807909739591678 1.037161279555991 72 84 41
9.03550912521065 3.121448006180565 2.063014688219645 74 100 54
10.043173821302265 3.125491818467782 1.6975917984674207 70 94 47
10.548280210538758 3.0256241877597594 1.8859946108002557 69 95 47
10.251077143268345 -3.0575047058554463 1.794089311472983 71 95 49
9.063001460819015 -2.7989814972398674 1.939932337738423 77 102 57
9.125632008039506 -2.6922165833866094 1.8221879031053643 74 100 53
9.02411887393124 -2.637547023151231 2.06369165506184 79 105 57
9.087017415972614 -2.5340823684300036 1.938910087465518 76 101 52
17.194701907239118 -2.9655288596631566 1.2310572999417502 17 34 0
16.648129124672533 3.131543756760728 1.2827132347337484 40 58 9
11.05516547113733 1.1112212165859139 2.1738467393751573 15 27 0
11.660873245562472 1.0572387640362564 2.3591747449948883 59 73 34
11.1176326210823 1.325974261796608 2.2835478482573577 75 89 45
11.664660748610155 1.4441866265770107 2.3588481585294168 65 81 31
11.759402730262877 1.4267336876469947 2.4788488759908933 66 82 34
13.29860645400355 0.6639914819152395 2.7457047637144703 68 92 52
13.5710622461404 0.8002347942766727 2.700137988601654 67 87 48
13.792679403277345 0.9978804199967937 2.8654195922081525 75 100 57
11.734142517817189 1.675349956169936 2.2389799010686016 71 85 38
11.858019094636264 1.781713846428983 2.230760907149522 71 85 39
10.61178696089613 1.675349956169936 2.0904959288077722 75 89 44
10.733057938299442 2.1767241097092227 2.194663601287484 73 94 41
11.752811791785838 1.7042449240142126 2.479567706742919 68 87 34
10.743266491120856 2.248789113153379 2.3140740166264893 72 93 44
10.954619608063746 2.6600442387573264 2.1801810651590596 67 91 46
11.010846309060375 2.5322733699615476 2.4204917761700915 68 93 45
11.240119711086415 2.3397674934833548 2.2741669295188895 73 94 45
10.6856319052673 2.417152301965373 2.0865463476711623 70 91 38
13.097027782986201 0.4911907713520223 2.7843233079165817 75 100 59
8.630937149176342 -1.394758681028466 2.383951012268773 75 98 52
8.483445084548993 -1.010120846553981 2.4025130135287025 68 92 46
8.968355244155507 -1.1720957639456717 2.5160238651041245 74 98 52
8.125916612310215 -1.2349026047537217 2.276467193712103 69 91 44
8.841504216374787 -2.973949424397232 2.5361679768306855 80 109 67
9.602593722412493 -2.482959604777649 2.429642335453838 79 107 64
8.73869405329478 -2.2277536531263435 2.5533810145973668 81 108 65
8.621955028510556 -1.7339434743623012 2.3850529261089273 81 106 60
9.599381537893738 -2.519651640675416 2.609044057286788 80 108 67
8.193273342975676 -2.482959604777649 2.2694834016286807 77 104 59
8.922799686961874 -2.883235875168618 2.2026282186020794 84 111 65
9.181261208760727 -2.7542816823558303 2.182175488565922 82 108 62
8.8347181218774 -2.5693815581922466 2.2099451132224353 77 104 59
9.548846224244315 3.121448006180565 2.155438692991186 86 114 67
9.4402745683907 2.9764175947528737 2.2971896044699336 82 111 62
17.823238256542172 -1.074341043531256 1.2434944593200445 37 52 0
18.59380279117559 -1.152628989614182 1.2004401292016202 42 57 1
9.156576083991439 -0.43954979406468875 2.3250650312230037 46 71 28
11.281404898140833 0.7953703835086287 2.2710674315760784 0 10 1
17.1003218870332 1.8435657660247047 1.0350120587421698 32 44 11
18.67663500057419 1.699448985083572 0.9587865864928978 28 39 6
17.27308103241822 1.763696065342135 1.1068105688501972 26 38 8
10.373673467914376 1.7614807275319098 1.5003695621310693 57 69 26
10.388601269548188 1.3727703629523844 1.5004709284834459 23 34 0
10.443172554817696 2.0671663802618587 1.500839019394339 78 94 48
10.845592960292224 2.6191149543256445 1.8770688815798304 68 91 44
10.508256180738025 2.3420936568009174 1.887236799213597 72 92 39
9.854067743316282 2.417152301965373 1.9090546749709862 68 89 37
8.247762063105228 -2.166839660324561 2.1149784915437295 76 100 50
18.164355278645466 -1.5091899150545676 1.1912439066593647 31 44 0
18.045465062190253 -1.3922654870434465 1.247672551944214 36 49 1
18.240512413044105 -1.3354064643449701 1.2512511001602982 37 51 0
16.8874696567949 -1.568495689137806 1.6460722426288155 31 43 0
17.662217672764168 -1.2800554833235884 1.4726909415611844 42 59 3
8.161730349811886 -1.565854548294046 1.8526427483022379 71 93 47
17.835709852026813 -2.94093814998664 0.9252924915814665 67 84 43
16.487395724946712 -3.081527035680576 1.0127921100349329 47 64 19
16.940365291328632 -3.019249063075146 1.096957610144841 29 45 7
9.42556467840379 -2.9391216697135842 1.8140239022151385 74 99 53
10.158963289252645 2.905024810300081 2.0045947261376225 67 93 45
10.442555875248933 2.9280201784429636 1.7899274463340558 68 93 45
10.196415795891026 2.9280201784429636 1.5972812315674028 69 91 44
9.073016492964866 -3.036520128975367 2.0607992105752517 75 101 55
18.322062586228338 -2.8100131949481058 1.3657846075481914 16 29 0
17.148213989196602 -3.0335559300296944 1.4697404095655013 30 49 5
11.286386175610232 1.3518051456830904 2.1598065168390606 75 88 41
11.6947673943577 1.5665670720161986 2.2416401984866283 72 86 38
10.946052053095652 2.0761064722048053 2.2971769226733167 69 90 37
11.65801624723489 1.6880514709804013 2.3594213079519557 68 84 35
11.027094511100012 2.0227157697886504 2.175600785938771 73 91 43
11.424505660073223 2.117053792000933 2.151750664549134 75 93 45
10.852854397117246 2.566491729931063 2.077832380128325 70 94 49
11.71349942556993 1.565385802205587 2.483886014460953 66 82 33
10.724714180312727 2.4280794409602 2.3156651310695793 69 93 48
13.38028295948769 0.7973257153367089 2.5723057863147263 72 87 49
13.635630436402703 0.5601939487818378 2.6902214171849095 78 100 57
8.991740651176539 -2.7865150872074533 2.512432361477769 81 110 68
8.178411519497551 -2.2567218746796702 2.2710109161690752 80 106 59
9.24827568078873 -2.6217483303066387 2.475261350998018 80 108 66
9.617757591269255 2.996856211430515 2.1507041161917555 80 108 62
8.771382509262686 -3.021561832216965 2.2153224723729594 87 115 70
8.8347181218774 -2.5693815581922466 2.2099451132224353 77 104 59
9.472924932078325 2.949340185743613 2.4456543047491075 75 103 59
9.566564954138286 0.23461378947437736 1.810368246883356 52 73 32
9.141081377856926 -0.10406708362147496 2.056831739524751 56 80 35
10.553668488241074 1.2504931126866459 1.9873382597014055 22 33 0
10.239538412608471 1.5669833166719072 1.695147492968127 30 41 4
10.454075375318874 2.8343689883532877 1.5966283161569714 70 95 46
8.043912930249833 -1.0373960489516045 1.7293455448727668 54 75 27
8.063170424727046 -1.5651320384381682 2.1288908268027824 73 96 48
7.35036913664246 -1.0909873920527176 2.031834665559367 61 83 36
17.000931264192403 -1.6867409774253515 1.6455689211836746 27 41 0
17.116465226744065 -3.01058262975864 0.9661667659396371 52 69 27
8.785864121438282 -2.4596723867199928 2.078315014485419 75 100 53
10.13329697591491 -2.9589745464217256 1.5974462410981356 71 93 46
17.050009875644733 3.13213618209435 1.4691563440125048 45 62 11
16.668515425244607 -3.0890386228069677 1.2830756349862353 49 67 16
11.814200641766972 2.1422488844222927 2.4729286357151112 69 91 43
11.782693199820903 1.8066613693296454 2.348827712260966 69 85 35
11.286167248644885 1.9789458658174475 2.056629194260224 73 89 41
8.951059192443319 -1.955822056231447 2.518703847718773 81 108 64
8.106823402015834 -1.8948144657613102 2.2784756144556115 82 107 60
8.69221916233054 -3.0016699985406765 2.3765272006461347 80 108 66
8.771382509262686 -3.021561832216965 2.2153224723729594 87 115 70
8.653061356314232 3.1146923347825646 2.3812520255216745 78 107 64
10.294210807946786 0.8701739999787124 1.9985172770478785 21 32 3
8.333187300593426 -0.5663479235535891 2.1087867500022335 45 69 25
8.708633143990559 -0.3834551196414541 2.083253540027851 50 74 32
9.681993676893594 0.14336048428207768 2.1463643692969128 51 73 30
8.887184573827167 -0.5663479235535891 2.205564541494431 55 81 37
8.553639173880635 -2.0957551105280414 1.963075773515087 75 98 49
8.59620162562175 -2.637547023151231 1.961028173786347 77 102 52
8.180393369586007 -1.8159379830297966 1.7266785091796577 69 90 41
17.336557299562322 -2.8471941732184733 1.2944600690909098 19 32 1
17.194701907239118 -2.9655288596631566 1.2310572999417502 17 34 0
10.779267725412014 0.8852208664226684 2.3110086056481673 8 20 1
11.332853938495212 1.9629378744782653 2.3887356973241607 70 90 37
8.24042267542052 -0.6511470522216319 2.2646865431403724 63 87 42
9.355306481727895 0.2625448415504313 2.044772291982 51 69 27
10.819817455045206 2.745957205121355 1.503278053404584 70 94 49
9.485801683259076 -2.8347267052033915 1.7050859538503504 75 98 52
8.801067682330368 -2.914509019340446 1.9514722057640042 77 103 57
11.212616477761399 2.417152301965373 2.164208699289198 72 94 43
10.250910912551214 2.602902618780735 2.228947018348782 70 94 49
17.272358914269557 -2.89037790215808 1.1067896472002459 11 24 1
11.046958755305784 2.1422488844222927 2.4167806830997125 69 90 37
8.45600010787826 -2.1199057645702934 2.406081131387961 82 108 62
10.568230991189207 1.5665670720161986 2.092855640030287 81 93 50
