11.257458263105192 0.6619310645793177 1.9853801107947642 12 26 4
12.428109807705226 0.5287804101100909 2.1244427287365246 33 50 5
11.912540255837193 0.4042815587007468 1.9613042581536255 46 66 4
11.186654644926794 0.7996037301178541 1.9881672938950292 30 46 0
11.999405705335874 0.6065775387570717 1.9583260935940077 51 67 15
12.311574297462542 0.4846914995520231 1.9479982365729702 49 67 10
11.25473527159704 0.8632080714329227 1.797948208436696 32 48 0
14.234710453722707 0.5462289031729776 2.5154865345094164 54 75 22
13.256844646856353 0.4897999920587757 2.373477271802074 53 72 15
13.484103675261082 0.7264387557210987 2.356184470477318 52 71 18
12.764717004883064 0.6619310645793177 2.2021872947911683 52 70 25
12.152474212235923 0.7264387557210987 2.2395465393061995 47 64 7
12.604002470661667 0.44322239323051005 2.211543624705134 60 79 18
14.57028579116831 0.6423651104620397 2.4843055868944726 52 73 22
13.616540541777951 0.5806987012422858 2.3465051814989293 52 71 17
11.31183510348529 0.11923410471918941 1.7068796703140237 49 68 12
11.237943186964573 0.029927491306961086 1.7077800680606265 46 64 15
11.25278279975424 -0.059857926720481854 1.7075982844939543 54 69 27
12.393693823145542 -0.05493265111914125 1.3705371924227072 51 66 19
12.126347297850089 0.13087912688419656 2.139899350739479 53 70 14
12.071280218687615 -0.06575199460607016 2.1428203011833356 55 70 17
12.645185037622081 0.2066745084219781 2.0238184724172243 40 59 2
11.751426970992604 0.11923410471918941 1.8763077660692795 45 64 10
12.645185037622081 0.2066745084219781 2.0238184724172243 40 59 2
12.46987328514748 0.29102946895575926 1.9429740062006837 47 66 9
11.88946244796225 0.29102946895575926 1.7856258175154884 49 70 15
12.908811842643354 0.029927491306961086 2.1015839907747953 49 66 21
12.74407459648941 0.27954220843456806 2.4160808107587313 55 74 21
12.71210434324362 0.2502511921658952 2.3068606219155368 54 73 16
12.933052353118807 0.3501216039590676 2.2914906685740486 50 69 13
11.860690526391071 0.16257486411887243 2.3739802606187754 56 75 17
12.627401303361777 0.0328804753915544 2.210162526945954 55 71 21
11.92297477898025 -0.09328990599912315 2.49756414771128 60 81 28
11.13948456424865 -0.09328990599912315 2.443637689961802 63 82 29
11.854520091739367 -0.07293130940979294 2.2595678658166087 55 74 17
13.613708326226806 0.3501216039590676 2.346709250376497 54 73 19
11.790238904611913 0.04096330081435916 2.380192139407367 59 78 22
11.97872364862786 0.18489823490156782 2.491390978080111 60 81 27
12.836812546194633 0.22642054720150137 2.198086518871398 54 71 12
12.836812546194633 0.22642054720150137 2.198086518871398 54 71 12
12.71210434324362 0.2502511921658952 2.3068606219155368 54 73 16
11.243748041562267 -0.229730860283366 2.4326542584286206 61 80 26
11.243748041562267 -0.229730860283366 2.4326542584286206 61 80 26
11.243748041562267 -0.229730860283366 2.4326542584286206 61 80 26
11.232374427234308 1.190754219304268 1.7078484098554896 38 54 4
11.174627866906436 0.9898285608385081 1.5291368605949203 31 47 0
12.0125045673512 1.3015217029662807 1.3640918326466918 41 55 7
11.401629628191113 1.4716192872419058 1.6177020511919347 41 57 11
11.84776253997769 1.3015217029662807 1.4467934508795297 42 58 10
11.588798781342064 1.7345247407000337 1.70360788071892 28 44 0
11.379209845462114 1.6476152282767274 1.6177945347972003 38 54 6
10.946441015112885 1.0684083297662532 1.8044629897740907 34 51 0
11.12627144412422 1.367725331772215 1.8940791705047115 37 54 4
11.089638215963614 1.2768777005399354 1.8013906992775346 38 54 4
11.609342523625072 1.1543959575547456 2.067735551471882 37 53 1
12.182139171984373 1.3466554475778851 2.237623714389139 48 64 11
12.69717902894062 1.450553055262981 2.3079260040232654 55 71 18
11.765847587598934 1.0191753281108065 2.159625289847928 44 61 4
11.731211743346647 0.9367433144298624 2.0621100793317497 36 52 2
13.525457161536266 1.1120716087602585 2.5921334769129207 52 73 20
13.318390356077984 0.8901919882160376 2.4832084841224327 54 73 23
13.791060951364274 0.9931838439510783 2.56144689029249 53 75 26
12.983284684142824 0.8018833849330257 2.395542401950217 54 72 19
13.734441831125238 0.8018833849330257 2.4449816185157105 52 72 18
12.169367488837123 0.8747115859018209 2.2384500435627643 47 66 13
12.812599904056595 0.8747115859018209 2.2997778762445726 52 71 16
14.108077732300364 0.7161802852518429 2.5280071722869324 54 75 24
13.346019639950295 0.7016101934018527 2.614499812885567 57 78 28
13.832890769027982 1.2884031024696585 2.556848956520426 54 73 22
12.622132195673052 1.1108878889405422 2.3133370227270493 54 72 22
13.479263014130305 1.436287784489332 2.467929526417949 56 75 22
12.716964498382179 1.0581164882682217 2.418487828075552 55 73 26
13.59948168643912 1.3208087542863576 2.4569307005828085 56 75 22
11.722695817220579 1.5584400558509235 2.062498825152269 37 53 3
11.963030455608173 1.8190139783929797 1.7842841889650785 39 53 4
11.075407745191596 1.9640813447049905 1.9926256756743619 51 67 15
11.870587843560964 1.7500469308782822 2.055838066303864 44 59 9
11.644151913855314 1.841923092977153 1.9708111777536934 45 60 10
12.677050675199888 1.663989975474822 2.3093683979109962 53 69 17
12.652006731914303 2.156168631149086 2.7181552367037476 54 75 24
11.61311240280594 1.9441188752746006 2.396331960065421 62 80 28
11.801158611266596 1.9965889006395112 2.511440902023508 55 74 21
11.801158611266596 1.9965889006395112 2.511440902023508 55 74 21
12.074187208706663 1.791809425558482 2.355827476644806 62 78 26
12.151967308067377 2.0648296941441364 2.6197564847879855 54 75 26
12.35249026778764 1.7694542021088548 2.775652811952663 55 76 27
11.839807892348668 1.7329260844573042 2.6676187620515672 55 76 27
14.233633655968212 0.9121291364756902 2.647992601342406 56 77 28
14.203937197690156 1.2466823174173798 2.651892689842757 54 75 26
14.63771066073208 0.9931838439510783 2.598903160774016 53 75 24
13.889927311448119 0.809674500534898 2.6961595154432785 59 80 31
13.432026624673167 1.1143519398616892 2.7739799366965467 56 77 28
14.565806105919195 1.4182119314311827 2.607144947434158 53 72 21
11.105857677977559 2.051924366418177 1.8946950678249264 49 64 12
11.127095347601943 2.0998842699022213 2.091394270738293 64 81 28
12.864728227257519 2.318458049623558 2.4055679065432964 51 72 24
12.440120702665558 2.226559547768869 2.444076493361707 52 73 24
12.403023261535786 2.4042761360203615 2.4476531272109474 52 73 25
12.14215883350779 2.318458049623558 2.3502491177193425 51 71 24
12.603652980135662 2.4641256982494353 2.211564302773772 45 67 22
12.389242174158843 2.4147007905749187 2.587356436965517 54 75 26
13.926175429177691 2.502717590399683 2.0592170902637816 46 68 24
10.610308001220066 -0.6207973742643498 2.505409413297755 54 75 25
10.307515812054483 -0.47959304194616953 2.5463247451008115 56 77 27
10.726542905481084 -0.5736251457143448 2.665690218765404 60 81 32
11.01782539197858 -0.7263476623263876 2.6167044869533975 56 76 27
11.389742316362094 -0.8466311603358625 2.5627971816082655 54 75 26
9.357197921278969 -1.2724429974993547 2.7191492415236187 65 85 41
9.357197921278969 -1.2724429974993547 2.7191492415236187 65 85 41
10.382839301820807 -0.7060408648220751 2.7345717950735806 65 86 38
9.792390239517054 -1.3337050394427326 2.6291610831300374 60 81 33
11.228700149423059 3.0557770482860853 2.7881471203997057 66 88 45
10.704879659157172 2.9655146756451067 2.962995026651518 63 85 43
12.113660952594289 2.4594087484939573 2.8311490634143786 56 77 30
12.113660952594289 2.4594087484939573 2.8311490634143786 56 77 30
10.720457181577581 -2.7994248975608556 2.9551175393061913 65 90 48
9.980161332527716 -2.913460456934064 2.8416582085067166 71 93 50
12.345324135453318 2.2820717097806003 2.7771706257184245 55 76 29
12.151641812738639 2.082600521805846 2.821549965701356 55 76 29
11.800488258787903 1.9285871780669082 2.928911582970494 55 76 29
12.38892291277639 2.599326789691496 2.7680538985873278 57 77 33
10.952068598649818 -2.1702426521702978 2.464294568214102 58 78 34
11.346859229569043 -2.735106381552065 2.7609228834981696 77 101 60
9.468088908197977 -1.723529678721963 2.491106492864419 59 80 33
11.045659107149195 -2.615765483972108 2.8362122107735446 71 95 55
11.346859229569043 -2.735106381552065 2.7609228834981696 77 101 60
11.536245838255077 -2.5384885020951096 2.721802549578283 66 87 48
9.428683805772327 -1.5482682623604946 2.4966185126393055 59 80 33
9.468088908197977 -1.723529678721963 2.491106492864419 59 80 33
8.905669761929204 -1.7555801923582754 2.579320381139502 61 82 35
10.924720155802335 -2.3834370633091657 2.631614422931399 62 84 43
9.329866637128525 -1.8043456073902293 2.7257142434697346 63 85 44
11.299701949502703 -2.263412765889745 2.575107815937891 60 81 34
11.645453348871245 -1.4654691362465493 1.970763927108386 58 79 27
12.017920959471729 -1.5588266310900403 2.0493878133404717 54 75 26
9.767216007854758 -1.977597702357247 2.303705452419229 58 79 33
9.521233075594044 -1.8445822543052255 2.3272123863941396 59 80 33
10.47531680709923 -1.9292508738290526 2.2444041525829657 56 77 30
10.2334300458278 -1.8445822543052255 2.3983433828584837 59 80 33
10.098438554476774 -1.7009003002247498 2.4130055921869014 59 80 33
10.714163052794463 2.884447772676482 2.113635505388917 60 81 34
11.838953880303736 2.695005197622642 2.6677594036348977 57 78 31
11.276967707952494 2.9183579508199733 2.578285451650558 59 79 35
12.075888179134383 2.541621540065015 2.630819763003741 54 75 29
10.21977078189056 -3.0448573582886778 2.3997987876443228 64 84 41
11.43836732323289 2.7634082966942644 2.5563236456953637 56 76 32
10.20342889274888 3.09315735272684 2.4015482048419754 60 82 37
10.728134914881425 -3.0055672233170125 2.665402383397702 82 102 59
10.461474744957322 2.8143060120007504 2.374921536967098 55 75 31
11.68308960185448 2.8745174240432396 2.694474567274304 61 81 37
11.20284581484565 3.084925641946537 2.5888500982589866 62 84 39
10.57292013616058 -2.814960204460648 2.237057608475105 62 82 38
10.45459911579672 -2.3739960925790253 2.245986819235842 58 78 34
10.57292013616058 -2.814960204460648 2.237057608475105 62 82 38
10.589065330890707 -2.955883474246994 2.1207782040085617 61 81 37
10.86832065549371 -2.70568234853549 2.215864055960371 59 79 35
10.569272362434624 -2.5450428367897175 2.2373289741082583 59 80 33
10.333318368238995 -2.9036383759334408 2.387884813878959 63 85 41
10.492952418558959 -2.8650142240366123 2.520710386113369 69 91 49
11.178415732820811 -2.2019115178054363 2.3104493169539824 58 78 34
22.0346802327039 -2.3262642292977516 2.1217207072126207 65 92 60
22.26313571784427 -2.320956611188556 2.343079557453832 59 84 46
22.343597212442017 -2.2328372330877184 2.3395776635074466 62 87 51
21.98323430516028 -2.3642383379809986 2.1775326269404776 59 84 50
21.49667615358153 -2.2428014128204863 2.193329583722633 66 91 55
10.978644888491484 0.8632080714329227 1.619510637124289 40 56 6
11.979384393985992 0.4846914995520231 1.870311884389807 52 72 18
11.932673722570046 0.5287804101100909 2.053097865429331 34 53 0
12.773565910998911 0.3713353739058951 1.9337095326325806 47 66 9
10.53578756898277 0.7996037301178541 1.8137504763341132 36 52 9
12.556859430917381 0.4897999920587757 2.318118205276412 52 71 11
13.792172302188511 0.6423651104620397 2.439992668767323 54 73 21
12.276585238700328 0.22642054720150137 2.1320902332169624 48 67 13
12.02077371647262 0.029927491306961086 1.9576006415007259 41 59 17
11.906396692096692 0.2066745084219781 1.8722054557033956 45 64 14
12.4993783165685 0.11923410471918941 2.0295048108711784 41 58 2
12.964477762558943 0.3891785608486136 2.397113287655804 53 72 19
11.80438423183631 -0.08186664476422498 2.3789357168576544 61 80 23
12.500604151940662 0.036479717571964554 2.3222962238410876 54 73 16
12.599412327005101 0.16257486411887243 2.429123405559503 59 78 23
12.01425095866661 0.27954220843456806 2.3608250786769576 54 73 17
11.91058937565432 0.14502729799837294 2.25569844925532 55 73 19
11.243748041562267 -0.229730860283366 2.4326542584286206 61 80 26
10.758966477979213 1.0684083297662532 1.713919494603302 38 54 2
11.139884382278037 1.190754219304268 1.6188049964663218 39 55 4
11.54050768775239 1.3852161266298908 1.5304583593300636 42 58 12
11.398594078015948 1.4716192872419058 1.5299558700093498 42 58 12
11.346443823628338 1.5595302385534744 1.617930355684258 39 56 8
11.359986222880107 1.2768777005399354 1.8871941754211032 38 54 4
11.81484973743732 1.2474416086437703 2.1568578869918253 47 63 11
11.340535998607272 1.4620934543187238 1.9821583942663605 36 53 3
12.69717902894062 1.450553055262981 2.3079260040232654 55 71 18
13.211170521209924 1.1676433523896053 2.4937729324488633 55 74 23
13.075800426314425 0.9605739877172427 2.3879185135169365 55 73 24
13.318390356077984 0.8901919882160376 2.4832084841224327 54 73 23
12.331376663996377 1.2117348740238663 2.33519744444194 57 76 23
13.318390356077984 0.8901919882160376 2.4832084841224327 54 73 23
13.318390356077984 0.8901919882160376 2.4832084841224327 54 73 23
13.361403961756633 0.9121291364756902 2.61252487440102 55 76 27
11.285051439848012 1.5584400558509235 1.9843042929982808 37 53 3
11.749827654228469 1.869352460278554 2.1605361410565163 53 69 17
12.647647392194239 1.5571162970443968 2.311487116490664 54 70 18
12.083541444153695 2.1195839828746066 2.480069133726471 53 74 24
11.801158611266596 1.9965889006395112 2.511440902023508 55 74 21
12.91580054076065 2.300094495918498 2.6749007731280656 53 74 25
12.32231254884732 1.5413375680964074 2.7820980657116547 56 77 28
11.204454369644612 2.056637596441781 2.308330863066316 65 82 28
11.95515287196404 1.9084265750079161 2.6491422534679465 54 75 26
14.203937197690156 1.2466823174173798 2.651892689842757 54 75 26
14.38774487720775 1.1120716087602585 2.628438042152265 52 73 20
13.889927311448119 0.809674500534898 2.6961595154432785 59 80 31
12.773392970740185 2.3110719036664786 2.540521652887557 53 74 25
12.656091434658627 2.3970028397955803 2.3108772348253077 46 66 22
12.656091434658627 2.3970028397955803 2.3108772348253077 46 66 22
10.683496882221485 -0.8645885316411888 2.6735679252248272 59 77 31
11.916213845433429 2.2470554449080624 2.8878341615088003 56 77 30
11.916213845433429 2.2470554449080624 2.8878341615088003 56 77 30
12.61553238169973 2.430886467225622 2.7246165372544353 55 76 29
10.92424266397196 3.0261312342633233 2.873707394382745 64 86 43
11.243551961486851 -2.9710489558140893 2.784583993817098 81 101 59
9.428683805772327 -1.5482682623604946 2.4966185126393055 59 80 33
8.984022362038205 -1.886919391310239 2.823955366114308 69 91 50
10.828755969502671 -2.4141759622295798 2.9079788883186404 69 93 55
9.289875252246162 -1.5359891041682385 2.7355718445773243 63 83 41
8.942484472298194 -1.5229546211809866 2.838401720868159 68 90 48
10.828755969502671 -2.4141759622295798 2.9079788883186404 69 93 55
12.070037072180087 -1.4654691362465493 2.0471489380685077 55 76 27
9.37599328153971 -1.7009003002247498 2.341932913610139 59 80 33
12.017920959471729 -1.5588266310900403 2.0493878133404717 54 75 26
9.336199481114868 -1.5516464665928873 2.3460837373382106 58 79 32
10.2334300458278 -1.8445822543052255 2.3983433828584837 59 80 33
10.780183163168779 -2.0970001338795687 2.3446982032834294 58 78 34
10.098438554476774 -1.7009003002247498 2.4130055921869014 59 80 33
10.541681250486915 2.992451834992086 2.1235362900403043 61 82 35
10.461474744957322 2.8143060120007504 2.374921536967098 55 75 31
11.61156045972985 3.0733282705243914 2.7074987232345977 67 89 45
10.612408992814707 -2.280945650646895 2.3602671357704637 58 78 34
10.631749631649596 -2.4700762958833367 2.3584348092916443 60 81 34
10.48927683512247 -2.4964331790627305 2.521200477082498 61 82 39
11.028707827167194 -2.2929127952047375 2.204965860358782 58 78 34
22.01934864877408 -2.2860428019057153 2.1763947157677968 63 90 56
22.133950267249848 -2.2801044704794062 2.287185428182565 60 85 50
12.79655581405107 0.7264387557210987 2.3008981708388396 51 70 14
12.135883346134824 0.7996037301178541 2.1393967696064173 38 55 2
12.201179819660299 0.6619310645793177 2.1359808078659297 32 48 1
12.79655581405107 0.7264387557210987 2.3008981708388396 51 70 14
12.888916157977654 0.6065775387570717 2.102490303566638 0 12 1
12.74407459648941 0.27954220843456806 2.4160808107587313 55 74 21
11.908970312969872 0.04670252971761065 2.499132009701896 59 80 27
12.057448007479756 0.0328804753915544 2.1435590711894354 54 71 15
11.906396692096692 0.2066745084219781 1.8722054557033956 45 64 14
12.640609848466335 -0.06575199460607016 2.209385784350184 53 69 16
13.055650220542008 0.3179448074637148 2.1859873605700764 51 68 7
12.533113924755073 0.04096330081435916 2.4352690225933498 61 81 25
12.693207238958218 0.13087912688419656 2.2063131609471798 54 70 19
11.46977017773796 1.6476152282767274 1.7049944350823947 31 47 0
11.782922081960315 1.8190139783929797 1.4461075245812962 36 50 5
12.07433293076896 1.9000410136050547 1.6982375273073622 43 55 6
12.966269738871674 0.9931838439510783 2.5191595347724505 52 73 20
12.349266402409206 1.0191753281108065 2.2270156412263376 53 69 18
12.463091313157285 1.9786599115835068 2.7531530323155526 55 76 26
13.761235808081727 0.6155009551903137 2.5647622810403212 55 76 25
12.426380757108907 2.198817042650329 2.5825464573858277 53 74 25
10.972338108583488 1.9027296501210647 2.2087498260150435 64 80 28
11.754413064351153 1.6550159008773038 2.061054221747942 40 56 6
13.832890769027982 1.2884031024696585 2.556848956520426 54 73 22
11.311178656953253 2.1195839828746066 2.4257315500334955 56 75 22
13.976442906427202 1.0403891399517895 2.683365263948783 55 76 27
14.38774487720775 1.1120716087602585 2.628438042152265 52 73 20
13.626250767603707 0.9455832030284266 2.738587587089081 58 79 30
11.702013069358047 2.0114046668829806 1.7891223530750857 44 59 9
11.314393169973197 2.1324035305142606 1.7967296319324864 47 63 13
8.905669761929204 -1.7555801923582754 2.579320381139502 61 82 35
10.839753362113223 -0.4104931606052373 2.4772839291909143 57 77 24
8.863764699281672 -1.5434432325396255 2.5868684960524413 60 81 34
9.495022329880278 -1.3743664148062085 2.4873879895217126 59 80 33
12.38892291277639 2.599326789691496 2.7680538985873278 57 77 33
18.3175535638178 0.254354353024455 2.848161042478852 61 80 34
10.792446037548848 -2.0384922400008425 2.221164639375895 56 77 30
10.106588831470411 -2.0970001338795687 2.2738743833548924 56 76 32
11.591428426429795 -1.5588266310900403 1.9727351114908347 55 76 25
9.767216007854758 -1.977597702357247 2.303705452419229 58 79 33
11.034508873615565 -2.640783832988569 2.6140993728592012 64 86 44
10.619182444903034 2.7634082966942644 2.504278857205419 55 76 30
11.838953880303736 2.695005197622642 2.6677594036348977 57 78 31
10.381151034116638 -3.0285142411741495 2.53593026390587 70 90 46
11.725862170431837 -2.811962301711325 2.686926665762823 77 100 59
10.492952418558959 -2.8650142240366123 2.520710386113369 69 91 49
10.462351420778635 3.104063916645941 2.1282205227603264 61 82 37
10.540930801612673 -2.771420754855156 2.367127386190517 63 84 42
10.714163052794463 2.884447772676482 2.113635505388917 60 81 34
22.044001645727096 -2.4015843378009145 2.121460935311455 61 86 52
22.359843967337202 -2.264607197008266 2.4722032867043557 60 82 44
22.038000501744314 -2.442335826224634 2.1758088329613794 59 84 48
12.032940914729874 0.44322239323051005 2.144873020297598 38 58 0
12.276585238700328 0.22642054720150137 2.1320902332169624 48 67 13
12.034648079924912 -0.059857926720481854 1.9571310953069276 17 31 7
12.34766916321841 1.976825252347662 1.614105940105941 45 57 8
12.603652980135662 2.4641256982494353 2.211564302773772 45 67 22
13.703375006360208 0.805034446176011 2.5712845143944825 56 77 27
11.293897367347071 0.9367433144298624 1.9839606230461848 39 54 2
11.81484973743732 1.2474416086437703 2.1568578869918253 47 63 11
9.495022329880278 -1.3743664148062085 2.4873879895217126 59 80 33
11.045659107149195 -2.615765483972108 2.8362122107735446 71 95 55
9.855656553581705 -2.039917065575013 2.441054755901194 59 80 33
18.41735634933344 0.4270083943023369 2.8307286025177447 59 80 33
10.83635697164408 -2.811962301711325 2.646388820446944 69 91 49
10.284756074131327 2.9499877715037375 2.392929336292249 60 81 35
12.936033592365838 0.5806987012422858 2.2912882741452263 64 83 27
12.012975494647787 0.3179448074637148 2.049601412175942 42 61 3
13.04346816044029 1.2117348740238663 2.3905635377129864 57 76 23
13.134622749766404 2.3916400749460207 2.1817447982802793 43 65 19
12.038179658104035 1.8267662740878552 2.8513294844683577 56 77 30
10.837203321401152 -2.6514492868629222 2.3395691219615222 61 81 37
22.022671229295494 -2.4052779982072705 2.232644718662873 59 84 46
11.574238348309402 1.0684083297662532 1.9733665264588152 34 50 0
14.274443688885617 1.436287784489332 2.5116476450578116 56 74 21
12.428427708983182 1.1676433523896053 2.445199882506495 57 75 25
10.47531680709923 -1.9292508738290526 2.2444041525829657 56 77 30
10.478289503390814 -3.066569929700717 2.1272726254393683 61 81 39
11.183746052923908 -3.080332248651675 1.799415634000777 60 80 38
10.964269960316159 2.1572458053169736 2.209295477921442 61 80 26
10.382839301820807 -0.7060408648220751 2.7345717950735806 65 86 38
