7.821690258439208 0.677670399378712 1.325021758699474 32 46 1
7.088513982858773 0.5661986046073291 1.726167168031445 39 54 5
17.359766587371315 0.047522919252527794 1.1618442326894616 56 73 27
7.729686788873207 0.37957871266881116 1.8455207510951412 52 69 14
7.810501319338847 1.4539783726041846 1.5832059148563526 46 63 5
7.802028990111313 0.8645810994883844 1.3243895720785104 35 50 0
7.357420665113337 1.164087132937831 1.5839701582486228 39 58 0
7.045045508180443 0.9741275245781358 1.727133680617009 39 55 1
6.78277123285071 1.1027216991926116 1.8850999243821607 48 65 9
7.150782725074931 0.7695112096099306 1.868414357620395 49 65 9
7.617109469954845 0.9741275245781358 1.9894978870028448 48 64 11
7.6741545914343465 1.2952648711197903 1.9861923263329162 49 66 8
6.91478091500441 0.6530733959871655 2.035177902606242 54 71 13
8.284661975525534 2.2947828148501297 1.953914068148967 54 73 20
8.715223607426228 2.216400065151681 1.8137849961938821 52 71 18
7.720786572802218 1.8707495281149267 1.9835299634920296 54 71 12
9.471968492083828 2.280946384526448 2.4177332462410157 57 73 20
8.785810851808053 2.505759170403759 2.3377583649444835 56 72 20
6.631843854660362 0.3435668652511872 2.2366939526107434 60 76 27
6.514700436629486 -0.24799764012028044 2.250899857382843 60 76 28
6.4395659171565605 0.15289736325378547 2.260373460510921 58 74 25
5.8104062041944395 -0.049514508873399164 2.1329337055777327 60 76 29
6.484403608738792 0.7583017730629441 2.475153571245646 57 73 21
7.296666046455452 0.7583017730629441 2.5599776370318894 57 73 21
7.296666046455452 0.7583017730629441 2.5599776370318894 57 73 21
7.7499587896396775 0.6140629437435182 2.476247690503583 57 73 21
7.8702439905944885 -1.064090985797303 2.275252292031264 71 89 44
7.699000586459136 -0.8262243648307047 2.2943123122356175 60 78 32
7.236959019793035 -0.9300145258284636 2.012999201400559 62 78 30
7.699000586459136 -0.8262243648307047 2.2943123122356175 60 78 32
7.522798670215133 -1.4260187137462481 2.1467094606856625 69 87 45
7.707984540734889 -1.2738727065922797 2.131186476958869 68 86 43
8.265231990473248 -1.2214193679661465 2.40039280212276 80 100 57
9.497731210222264 2.4425702516615484 2.8500428091804126 61 77 29
9.497731210222264 2.4425702516615484 2.8500428091804126 61 77 29
9.158109730999477 2.645210772637921 2.4574056113204534 61 77 27
7.44609156641292 -2.8464594262256737 2.5301286148134654 69 87 41
7.345585295032494 -3.08216545151247 2.549925202434655 66 82 34
7.945885569210027 -3.0938214202962677 2.4454252890146027 64 80 32
7.744158728143829 -3.0630011908419323 2.729844695487401 67 85 39
7.676648741750114 -2.639881624204276 2.488513717924164 67 89 44
7.312944887570006 -1.587909182164662 2.3419634510803675 71 91 50
6.974544142876306 -1.9500535018872904 2.1986520977248247 69 90 51
7.316483383222837 -2.2001596411329127 2.3414934979732633 71 93 52
6.953521046534148 -2.0284066020844125 2.3935163860788444 73 94 55
7.716560125928167 -2.0284066020844125 2.481782918670188 71 93 52
7.565587752490818 -2.331946995360867 2.5079491626591643 69 91 48
9.096532647931278 2.304325009859893 1.5814514251677336 52 71 19
9.25685934617414 2.4784850357517856 2.1538915613458034 57 73 20
8.93392960578385 2.3843023754434602 1.9247907397362767 57 73 20
8.600458414009088 2.654331950638384 1.9391586392528906 56 72 21
8.838589913617344 2.927764114369994 1.9287800629374647 59 77 27
9.186898912981814 3.0585395078275073 1.6904826189525537 61 78 29
9.59442159466852 -2.8996299821680114 1.7911312267171504 63 81 35
8.639929771264283 2.770756269306578 2.0648341121184295 56 72 20
8.53972051232516 2.927764114369994 1.8188826539940122 56 74 22
9.86577013974495 -2.566522101340323 1.784975321395039 64 84 45
9.71317336366331 -2.7988620880193387 1.6839691963526038 64 85 39
7.310326649176186 0.5661986046073291 1.8617269878076663 51 66 12
7.440454783757417 0.37957871266881116 1.5838231323281218 33 48 1
8.103551661189314 0.21852867350143984 1.5827571226650479 5 16 0
7.432006064508356 0.24893896602943705 1.856828243369121 70 86 32
7.729686788873207 0.37957871266881116 1.8455207510951412 52 69 14
7.214646943192709 0.9741275245781358 1.3038577332963932 39 55 3
6.837104878257149 0.7695112096099306 1.5849727749389269 40 55 4
7.15540570685257 1.1027216991926116 2.0184025362782676 55 72 16
7.106684052938508 1.2952648711197903 1.7257667072794787 45 63 5
7.218976894924441 1.3330723848939663 2.576555663666221 56 73 17
7.149235810326839 1.7578824242622364 2.1810281013827733 57 74 17
9.220808777632307 2.2947828148501297 2.1564726025119736 56 72 19
6.399583227852608 -0.049514508873399164 2.265536488438925 60 76 26
6.4395659171565605 0.15289736325378547 2.260373460510921 58 74 25
6.514700436629486 -0.24799764012028044 2.250899857382843 60 76 28
7.292132619821692 0.3435668652511872 2.344741177412678 59 75 27
7.296666046455452 0.7583017730629441 2.5599776370318894 57 73 21
7.236959019793035 -0.9300145258284636 2.012999201400559 62 78 30
7.368832253230748 -1.3989054643733552 2.3346181637509416 79 99 57
7.5577916499379105 -1.2214193679661465 2.3109387909614867 80 99 55
7.7179933328965085 -0.9300145258284636 2.130372943370812 60 78 31
7.977965242789156 -0.9696340642363345 2.440627795929883 61 79 33
7.977965242789156 -0.9696340642363345 2.440627795929883 61 79 33
7.44609156641292 -2.8464594262256737 2.5301286148134654 69 87 41
8.058865117639224 -2.513591361294915 2.647998133824007 67 89 44
7.744158728143829 -3.0630011908419323 2.729844695487401 67 85 39
9.158109730999477 2.645210772637921 2.4574056113204534 61 77 27
7.945885569210027 -3.0938214202962677 2.4454252890146027 64 80 32
7.336466462358615 -2.1032889169062114 2.163291558581336 69 90 51
7.316483383222837 -2.2001596411329127 2.3414934979732633 71 93 52
8.607760346184678 2.5506487362532515 1.6985779314986207 58 74 21
8.616630716663439 2.813171611639698 1.6984456674798367 57 74 22
7.260948314903294 0.10906520099866562 1.86376387151415 64 80 35
16.805902292295137 1.4995612333562787 0.8648362019776649 54 73 18
8.0492247735509 1.999693436709376 1.9657310478839318 53 70 12
6.4684873491611725 0.19114668854063305 2.4782884501830487 59 75 27
5.936958526598382 -0.24799764012028044 2.1195620006028486 61 77 29
7.190788928412044 -0.7126662327374416 2.0160414471472707 61 77 26
7.839556792031948 -2.7590140262175065 2.7028132702395653 66 88 43
9.480788201680069 2.548498507667231 2.5944888582598455 58 74 22
7.295460709273297 -2.4711095873595195 2.3442954199747907 67 89 46
7.393147981815245 -1.775712231037923 2.3314728919234855 70 91 52
9.331645790460845 -3.114829498213689 1.7974426753115265 63 80 30
9.099514997096133 3.048329212045531 2.0378251381905415 59 78 27
9.156540377503397 2.770756269306578 2.161135516432936 61 77 27
9.071263940112503 -3.11152309751434 2.039396119324435 60 79 28
17.359766587371315 0.047522919252527794 1.1618442326894616 56 73 27
9.480788201680069 2.548498507667231 2.5944888582598455 58 74 22
8.906676595322077 2.8987075738377377 2.180053734440306 63 79 31
8.483483577371272 2.115095500138326 1.944486246211729 52 71 16
7.674717626430591 -0.7126662327374416 2.133908744129961 62 79 29
8.919967678532739 2.706848968267004 1.5816623441433735 58 75 25
9.13307377918684 2.4595938949425724 1.581408792861856 54 73 20
7.645468727288791 0.8645810994883844 1.7147667288005028 40 56 3
9.410965383393652 -3.005652537977294 1.7954994426372202 62 80 32
7.917061694079405 0.49794456093122047 1.45648026502737 31 43 0
9.59442159466852 -2.8996299821680114 1.7911312267171504 63 81 35
7.977965242789156 -0.9696340642363345 2.440627795929883 61 79 33
7.810501319338847 1.4539783726041846 1.5832059148563526 46 63 5
8.01458367776053 -1.134602006725939 2.1073575165957132 66 83 39
7.610204705799191 0.10906520099866562 1.9899016878567068 63 81 33
8.163944826418616 2.188490896081797 2.096510938701223 54 73 19
7.161920242632939 1.5946791723751241 2.589249021641286 56 73 17
7.522798670215133 -1.4260187137462481 2.1467094606856625 69 87 45
