8.393361688215405 0.4324119753836465 1.5849259758148246 51 67 14
7.961398261053762 1.2354126718421947 1.5856926667014155 22 37 0
8.264652204995299 0.9541054623732593 1.8300338980673032 47 63 3
7.336501346291142 1.1885370237482933 1.8637424284250808 26 42 0
7.954459754357551 0.7761438832222751 1.7118884028704664 50 66 12
8.036972577903395 0.9541054623732593 1.4609060480146656 46 63 3
8.066430031454196 0.9541054623732593 1.709917075366324 49 64 7
7.738603281388093 0.36332736530807674 1.9855794958686188 47 63 11
7.738603281388093 0.36332736530807674 1.9855794958686188 47 63 11
8.007511095739087 0.4210713142840593 2.2642847740540724 57 75 23
8.142396283558465 1.1885370237482933 2.1011292282221343 47 62 5
7.7784801709495 0.990099166914947 2.1287901088281784 50 67 10
8.0695293873231 0.4988389919048236 2.4313964521124545 61 78 25
8.30996845904317 1.4759373029247078 2.2343977559089807 41 58 5
7.9688031946046385 1.127423885388124 2.2683291650906425 58 74 20
8.361114673655052 0.9305211646080094 2.5894309147122794 61 77 25
7.931656069291161 0.770957856609033 2.451856753526376 62 78 26
7.740419718402663 0.6506582189565887 2.293321286418074 54 69 17
7.7270926541415905 0.8951831620208629 2.294842724970322 55 70 17
7.85581438914616 0.6770090496636584 1.979019071381108 50 65 12
9.792976041785403 1.3962865145327477 2.768311667353761 62 78 27
8.04692538531404 -0.1922167855482765 1.837216499381601 50 65 16
8.092085642049945 -0.3150025192047056 1.709473144960028 48 62 17
7.925967395814707 0.06774185068726324 1.8413837218209048 50 65 13
8.092085642049945 -0.3150025192047056 1.709473144960028 48 62 17
8.884792276760871 -0.5317851328626869 1.4714286847698255 50 65 28
8.668322300278787 -0.6917263632214053 1.700200757776971 55 70 35
8.271092407901822 -0.5952502154819843 1.8298274042626645 57 72 34
8.379182055530853 -0.42873005570714257 1.5849498882444601 45 60 21
8.837584884154943 -0.8565783219507536 1.8128790565906574 60 77 44
7.466597534439502 -0.22037964204126675 2.001678324589819 59 75 30
7.811609108233634 -0.07283290030120738 2.126145241450894 56 72 22
7.813783485686803 0.07793598639285339 2.12597258435535 54 70 18
7.942870253412486 0.22526121887822326 2.115923489779628 48 64 12
7.530425950330069 -0.6012030356386621 2.5192515517595604 67 85 45
7.815582449921311 0.3172573763176252 2.4700629151629565 62 79 27
7.9968966756873225 -0.4160245611037291 2.265388570445933 63 78 37
7.684357717478077 0.11143716628702832 2.4918504406592157 61 78 28
7.729059521005397 -0.5150617385382219 2.741478398232122 68 86 43
8.000778000500844 -0.13264329988942294 2.6675658631426384 64 82 35
7.981502714269479 -0.7585494463485063 2.672294881147078 69 87 47
7.729059521005397 -0.5150617385382219 2.741478398232122 68 86 43
7.809059003968315 -0.31060474348004996 2.4711147243752563 62 80 37
7.809059003968315 -0.31060474348004996 2.4711147243752563 62 80 37
7.616974953636464 -0.0857337087611149 2.307699695844697 64 80 32
8.448317270509232 -0.7730559166415522 1.9488772084232022 61 76 38
8.978050372399629 -0.9872622563297763 2.320614307018869 66 83 47
7.673850520224883 -1.2835022721357223 2.3009945504542393 66 86 49
8.328757762845408 -0.9872622563297763 2.2326350568388653 64 82 42
7.04633232182305 -1.2835022721357223 2.195061784716958 66 85 43
7.220770667894572 -1.4754431756335702 2.017385514544987 65 83 44
8.404722719441628 -0.8914957256023059 2.3861883631207457 67 84 46
7.725041676752616 -0.6459858179872121 2.2950775159654264 64 80 41
7.916649511760098 -0.7661069555463071 2.454157925283542 68 85 47
8.088899680663431 -1.135431174226353 2.6467521293931227 70 90 51
6.832411380721148 -1.433355962882786 2.417594218681622 69 89 52
8.784751954878129 1.6153769059425283 1.8143643784250898 45 60 10
8.509850486893354 1.9933514572577262 1.8224000669716256 50 66 14
9.093494534189437 1.8432809755293806 1.8059359667157997 46 62 12
8.132863442553612 2.1625379898099406 1.8343338754936531 63 78 28
7.931348256005248 2.1625379898099406 1.7123022993913546 60 76 23
7.3372613923600785 2.4431688377101772 1.8637111841913678 62 76 27
7.786667941037642 2.3436187903639567 1.714949746890099 61 75 29
8.451567340330964 2.2609093748171194 1.584828659000796 64 78 30
8.579758542159388 1.6212980616742292 2.0714918551843566 43 59 6
8.681713230063291 1.7523515668284053 2.0650768951166865 50 66 13
8.62178865968016 1.9209395426247637 2.206421747313199 59 75 22
9.55679393293985 2.049241284350083 2.2656001100156073 64 79 29
10.501756975689966 1.7794598769452716 2.4544628361816856 64 80 30
10.417629846042422 1.6290309596005232 2.4643645944629933 66 82 31
10.719116117454341 1.6784100583541708 2.805274967908523 61 79 29
10.269183569833295 1.867292179180021 2.6636798044524266 61 77 28
10.664437103053691 1.6395557726764534 2.59643713808976 60 76 27
5.462388512642323 -2.625863242683332 1.9690949616294553 76 94 50
5.983620372457939 -2.469774100995598 1.9327105767984616 73 91 48
5.577530491318487 -2.8151171462903997 2.164138169830709 67 85 41
5.401555089443567 3.0241010419505012 2.186276494308837 62 79 30
5.878109009717562 -2.508000363020419 2.3471268799168152 73 91 51
6.031583913047059 -3.0317582812514687 2.3224358146236552 64 81 35
12.135562989403708 2.2045753517443316 3.0886996672787244 65 86 43
12.21907789365213 1.8162074075950674 3.013256830041491 64 83 39
6.8680838029370515 -1.6399804866763916 2.213886362950457 67 87 50
6.457033411271604 -1.8173520174555027 2.0748463957657286 65 85 45
7.204124999305998 -1.6293354547170034 2.0184922388789843 63 83 41
6.995031314545011 -1.8173520174555027 2.200355024180443 69 89 54
6.942738739863826 -1.8694084701470597 2.3997994474971778 75 95 58
6.81481718336647 -1.655346215207251 2.4205190475342593 72 92 55
5.895617190886007 -2.1702264237247992 2.3442147191138507 80 100 62
6.3431535304893165 -1.9480162350799948 2.5097616179936892 82 102 63
6.8680838029370515 -1.6399804866763916 2.213886362950457 67 87 50
6.741896501844036 -1.9803138905535038 2.0516868135079624 66 84 44
7.789914866728403 0.4883437280986292 1.8462316871224573 50 66 13
8.29993434686227 0.3190279248732869 1.8289067065669649 50 65 12
8.091944544733474 0.5987604661892967 1.7094755786562565 50 66 13
7.53838055683349 1.0637555999019506 1.7197324883033793 43 60 2
7.804936055634935 0.5591688524682504 2.1266758336299443 51 66 14
8.396362006180274 1.2851765945032925 2.3872463109505913 63 78 27
7.8426834173877005 0.8736489444259319 1.9797433510449007 49 66 7
8.080937238589359 1.0637555999019506 1.9670006614058495 48 63 4
8.0695293873231 0.4988389919048236 2.4313964521124545 61 78 25
8.161812669822215 1.488495353130639 1.9628590414153746 31 47 3
7.727619506675061 -0.3588357253780339 1.986205451964952 60 75 33
7.981502714269479 -0.7585494463485063 2.672294881147078 69 87 47
7.711308160434914 -0.9926965687803315 2.746956895423402 71 91 51
7.744955257648173 -0.2579975788466751 2.2928051603614055 61 78 35
8.122713408211887 -0.3888108802326199 2.639092020388479 66 84 42
8.122713408211887 -0.3888108802326199 2.639092020388479 66 84 42
7.512205232776221 -0.9258640971535755 2.522640262978781 71 90 51
7.916649511760098 -0.7661069555463071 2.454157925283542 68 85 47
7.789685380237017 -0.5548128779934145 2.127892528775921 64 79 38
6.994423300609482 -1.2240225621593528 2.3917708783046154 68 88 51
7.754419594977443 -0.9872622563297763 2.130727933270985 62 80 40
8.404722719441628 -0.8914957256023059 2.3861883631207457 67 84 46
8.809558326321394 -0.8706066076913922 2.1907863088798933 64 80 42
8.328757762845408 -0.9872622563297763 2.2326350568388653 64 82 42
8.224493504539458 -0.7703446219889167 2.242549818752325 65 81 43
8.480431613833545 2.4286037077675955 1.4666738742818162 62 75 29
7.896715145548135 2.5255190308602904 1.7129271145194513 62 77 27
9.174363056540853 1.731423019208895 1.9176330045391055 46 62 12
8.448707024889222 2.1625379898099406 1.948858885424678 63 78 28
10.183135235458433 1.6547132475683037 2.6802600634142735 60 76 26
9.940302054090933 1.9209395426247637 2.3690442482194696 63 79 29
10.501756975689966 1.7794598769452716 2.4544628361816856 64 80 30
10.800895254874407 1.944703796175228 2.7842480340684665 60 79 27
9.780708958060348 1.6784100583541708 2.771527315051452 61 77 27
5.983620372457939 -2.469774100995598 1.9327105767984616 73 91 48
6.81481718336647 -1.655346215207251 2.4205190475342593 72 92 55
5.577530491318487 -2.8151171462903997 2.164138169830709 67 85 41
7.204124999305998 -1.6293354547170034 2.0184922388789843 63 83 41
6.741896501844036 -1.9803138905535038 2.0516868135079624 66 84 44
12.207857184497371 2.7831341187140453 3.020587740294384 66 86 43
5.922404146985776 -2.625863242683332 2.125363306985906 71 89 47
7.325251188384238 -1.7805217131757198 2.01056665132821 64 82 40
7.770516897581293 1.3585238538896072 1.7152514696416887 20 35 3
7.931656069291161 0.770957856609033 2.451856753526376 62 78 26
8.373432696174113 0.6075577053343539 2.5870477222508383 63 79 27
8.63635953152969 0.05990323217262561 1.5845283900978786 51 66 15
7.751532651484574 0.2636409556792315 2.29205816806164 62 79 27
8.058996651327353 -0.4931506738498459 2.4329177420950976 63 80 39
8.268684011840765 -0.8706066076913922 2.0921969509337943 60 77 40
7.744955257648173 -0.2579975788466751 2.2928051603614055 61 78 35
8.490998042257283 -1.061533685189387 2.0772210749784126 61 78 40
7.682146707061233 -0.10416841650288597 2.492229335350213 63 80 32
7.6192048762110565 0.0917316193704148 2.307434149958957 65 81 30
8.10445110655816 -0.48433268743424496 1.9657872573528592 59 74 34
8.128985152896057 0.3968209392784574 2.637689890552082 63 80 29
7.067743868728444 -1.394619078020732 2.6173562812678672 71 91 53
7.901387215145356 2.1625379898099406 1.4590125385956356 59 74 21
10.269183569833295 1.867292179180021 2.6636798044524266 61 77 28
8.417716141703814 2.049241284350083 2.0820563911386243 61 77 24
7.703679308684867 2.2418074969641757 1.9875765729674904 61 74 27
5.3984091992864505 -3.0317582812514687 2.1866886169509026 63 79 32
5.768969354363234 -2.3411775624308993 2.1419230811240455 73 91 51
6.536384823441585 -2.0588420978032707 2.2524813132114994 75 95 58
6.422385219700623 -2.2168173606700208 2.0778245328852205 70 88 49
6.1924170562693 -2.8151171462903997 2.2984272338802976 65 82 36
12.290880869101173 2.308923209323543 2.9739588496391787 65 83 37
8.102575364971099 0.3190279248732869 1.7092924542174324 51 67 14
8.04394377592083 1.0451788851173622 2.4351035342856067 60 75 24
8.443677387429796 1.3271454466191293 2.222075243908163 60 75 21
7.923823802821756 -0.06330227806495153 1.841458763720491 50 65 14
7.466597534439502 -0.22037964204126675 2.001678324589819 59 75 30
8.549852464758118 -0.9516371973152092 1.9441647155390038 61 78 46
6.885541892753775 -1.4581879888894553 2.2119877374423877 66 86 49
8.784751954878129 1.6153769059425283 1.8143643784250898 45 60 10
8.579758542159388 1.6212980616742292 2.0714918551843566 43 59 6
5.577530491318487 -2.8151171462903997 2.164138169830709 67 85 41
6.8680838029370515 -1.6399804866763916 2.213886362950457 67 87 50
7.204124999305998 -1.6293354547170034 2.0184922388789843 63 83 41
7.541696924444138 0.6075577053343539 2.517171508223977 60 76 25
7.7784801709495 0.990099166914947 2.1287901088281784 50 67 10
7.404142258804748 1.3271454466191293 2.00555935570148 23 39 1
8.05325615269196 0.19650914703820835 1.8370019692715047 51 66 14
8.285241265148843 -0.6733253550359798 2.0910493998753843 63 78 39
10.74663234191471 1.8158938996963905 2.583953625474302 62 78 28
10.74663234191471 1.8158938996963905 2.583953625474302 62 78 28
8.007511095739087 0.4210713142840593 2.2642847740540724 57 75 23
8.47908308481333 1.8774199935716482 1.9474364445812737 49 65 12
9.792976041785403 1.3962865145327477 2.768311667353761 62 78 27
8.002900981184974 0.14185289848240132 2.6670490579066457 62 80 31
7.220770667894572 -1.4754431756335702 2.017385514544987 65 83 44
7.662303198203683 0.774118377832534 2.138281947462765 51 66 13
8.422894009951476 0.8951831620208629 2.3839003129587635 58 73 21
