13.544024601950706 1.3681037838335868 1.907210902426896 61 75 25
13.973194039932702 1.528399680450578 1.8218248940635315 52 66 19
14.107788069727258 1.5250187517761904 2.0473044402682334 45 59 12
14.24937516449957 1.6023114974749524 1.889951430854053 45 59 13
17.894437732578098 1.8666314068241674 2.128533519344644 52 67 29
13.190284475454055 0.234238368237097 2.1729246038337395 7 18 5
13.190284475454055 0.234238368237097 2.1729246038337395 7 18 5
13.110053450962178 0.6503937686998542 2.1771366481060825 57 69 17
14.20779881154563 0.7202227012760691 2.2095784337818096 57 70 17
13.781244736187581 0.8989294336796713 2.0595743799443937 65 77 33
14.340820824171617 0.9666174086028405 2.2027072446922773 59 73 27
13.32553540198444 1.041269799910166 2.165965609356633 57 72 22
13.910851457793324 1.041269799910166 2.225526549626931 54 68 20
14.204236849974581 0.8443106745566764 2.20976467980826 57 71 23
13.907103643858363 0.9916483634902961 2.319944277230408 53 68 18
13.978715170588034 0.7815345309114465 2.4174438961380282 52 68 15
14.270812449556043 0.7820463762742336 2.2964954712950725 53 67 15
14.47240922830232 0.8526453659162943 2.3796712819157224 52 67 15
13.978715170588034 0.7815345309114465 2.4174438961380282 52 68 15
12.642284225410503 0.5722799021860112 2.2030312465750264 0 10 5
12.87334820147001 0.48544687236537426 2.2889853286805426 31 43 6
12.642284225410503 0.5722799021860112 2.2030312465750264 0 10 5
12.873693890776979 0.1577677776977114 2.2889618634629945 60 72 26
13.259875432879175 0.3526161517797933 2.2637866878773423 38 50 4
13.618679445002181 0.17581144488786926 2.447862953731513 59 75 25
13.701096305613673 0.2576838456591082 2.3340202875117906 59 75 22
13.701096305613673 0.2576838456591082 2.3340202875117906 59 75 22
13.022007769368631 0.28620235525781246 2.3851805949497726 58 74 24
13.022007769368631 0.28620235525781246 2.3851805949497726 58 74 24
13.89794472828455 0.7808381860894094 2.541653633084736 59 77 32
13.164808229457194 0.6026666298786646 2.490420833276137 57 76 24
13.164808229457194 0.6026666298786646 2.490420833276137 57 76 24
12.628201921347133 0.4354005104366236 2.4188339620834527 58 74 26
12.855583404395219 0.4919820798163315 2.522673173663695 57 75 29
14.41833029517529 -0.12692465391009827 2.1987775859751397 62 78 26
14.41833029517529 -0.12692465391009827 2.1987775859751397 62 78 26
14.203131360824557 -0.04507433418049675 2.3007311573738787 54 70 18
14.271747944867016 -0.13878145732830127 2.296437317817431 56 72 20
14.268932746267314 -0.40051703561280333 2.206400352278904 55 71 18
13.69892503761699 -0.40051703561280333 2.147623712543046 55 70 18
13.9952136920164 -0.36909253921487967 2.0514609525193563 64 80 28
14.757911315586815 -0.2918389394942115 2.1821709700248615 62 78 25
14.409602296760095 -0.2301047401020484 2.287982202144516 56 72 19
13.989580581888841 -0.6757771157613912 1.821524529973623 43 55 5
14.058389131429085 -0.6154926902515392 1.9705146670927358 51 66 14
13.989580581888841 -0.6757771157613912 1.821524529973623 43 55 5
14.346423081527368 -0.44199707117425235 2.0387372527253786 61 76 23
13.986649010858729 -0.5495976610767391 2.051780291016523 53 68 16
14.396939647157955 -0.1705884489895202 2.492715605587577 60 79 28
13.547525079202188 -0.15306267000231727 2.344921184497203 59 74 21
14.396939647157955 -0.1705884489895202 2.492715605587577 60 79 28
14.877462053381148 -0.4374167249323858 2.3515467899651243 61 77 27
15.145067638775675 -0.2531709673376029 2.4301256570644574 59 76 25
13.753932842090187 -0.06288828859334812 2.557136296588165 60 79 27
14.195896637898022 -0.04977508110635817 2.400311071580815 59 77 24
14.254526422143682 -0.4812265991918816 2.3958290484905795 63 79 31
14.456350314676202 -0.5338618243349634 2.4873161879212042 67 84 41
13.51633667678604 -0.676705177529933 2.5842672695557636 67 86 46
13.47693354861025 0.0545825781929649 2.350055258051042 59 75 24
13.908383575008568 -0.34836386724391044 2.319858696002739 57 73 21
14.191440470175888 -0.4374167249323858 2.3014685359519644 58 73 23
13.51633667678604 -0.676705177529933 2.5842672695557636 67 86 46
14.456350314676202 -0.5338618243349634 2.4873161879212042 67 84 41
13.908443489098904 -0.7247128900988831 1.9750735886994524 54 66 20
14.539554643744614 -0.780319504340787 1.956574519400546 51 62 18
14.193546234369535 -0.780319504340787 1.89125151115174 37 48 8
13.68266905084853 -0.6469755626117419 2.238393108558278 59 75 27
13.748089803899834 -0.7074987951261666 2.3307555222599476 62 78 30
14.183837129696395 -0.7797238003328272 2.125536644656812 53 67 19
13.89976539144889 -0.5684663691589973 2.320435377560911 61 77 31
14.035598271479797 -0.6260962494656735 2.412873358994971 65 81 35
14.309797955381717 -0.9111870770841862 2.294080968979383 62 77 28
13.907154167415918 -0.5196382686171326 2.225730661459318 58 73 21
14.260951595282123 -0.6630401296915925 2.1221894421507526 54 69 18
13.668519414793863 -0.9111870770841862 2.239209470347425 60 74 26
14.246537200494458 -0.7789697818322562 2.2980082260443226 60 76 28
14.183837129696395 -0.7797238003328272 2.125536644656812 53 67 19
14.331318669986642 -0.7247128900988831 2.0392699649553183 54 67 19
13.012929950571236 1.3510531059306368 2.004708835213508 61 73 23
13.012929950571236 1.3510531059306368 2.004708835213508 61 73 23
12.711605016985821 1.1607947423131384 2.0157210873369156 58 73 23
13.675219264107971 1.3068450686915012 2.335832005009005 49 63 13
13.541212451275811 1.1230544310812551 2.246655511970039 50 65 13
13.966199161971781 1.173768384456449 2.4184577393590017 60 74 27
14.856142172290037 1.516334159156086 2.352969603827804 51 65 20
14.244662837085622 1.4223510726431685 2.2981253295363633 47 61 14
13.15955865179193 1.3309304201947356 2.1745301647506734 47 62 11
13.744357584174594 1.2775370775090473 2.4369391734951322 58 72 25
14.991599559544207 1.407027510467345 2.4420835338067373 56 70 25
14.313187004710608 1.5210523539203518 2.204121304198491 48 62 16
14.254896445154028 1.0782814811230281 2.395800947585405 49 64 12
13.527953061725512 0.8791526046254864 2.5828909745543864 60 79 35
13.527953061725512 0.8791526046254864 2.5828909745543864 60 79 35
12.98887242141678 1.1347281140428171 2.6533029874802514 61 79 33
14.495257561764449 1.8481366813106654 2.4838244859741963 59 73 28
14.914870099780247 1.6155338409490854 2.4482197934652747 59 73 28
14.695752384675167 1.9530303813345942 2.4663608788825115 58 74 28
14.695752384675167 1.9530303813345942 2.4663608788825115 58 74 28
13.256714931601888 2.195668791864917 2.36660033758855 55 73 30
15.635101663689602 1.6939496454762752 2.304611379433661 50 66 22
14.921858568317253 1.607776803578701 2.2584203492911206 48 64 18
14.976848682654012 1.7194666853499356 2.443254843584958 57 71 28
13.861006462021722 1.916167461256059 2.323041640239394 54 69 25
13.477248764417178 2.2646678692672726 2.4605792110710087 57 75 29
15.572395485099294 1.6112873571433532 2.398856139173549 52 68 24
12.808024976184129 -1.40624426863757 2.293450944767923 60 77 29
13.508353351294875 -1.0760159000215304 2.3477602890013105 62 77 30
12.968458004058624 -1.2760311454568185 2.3895666312262986 63 80 33
12.807558290822984 -1.3872434665070763 2.4030955330721344 63 81 35
13.563754786344324 -1.3872434665070763 2.452746533112946 63 83 41
13.509176602554492 -0.8750273926218193 2.5851182842668536 72 88 47
14.598375360154877 -0.06288828859334812 2.594940332186477 59 79 29
14.313382109890355 -0.3603428958180846 2.628598380093509 62 81 36
14.787408438424078 -0.4181845932941585 2.7164361188426325 68 88 47
14.66514275774208 -0.19259059085418037 2.5875038115232125 62 80 31
15.061904029902772 -0.221002711451366 2.6778219509657935 61 82 34
14.599955965926718 0.06895543952124333 2.5947624461538714 58 77 25
14.107138638887601 0.07940392422210035 2.6551827888709583 58 78 28
14.653108863848576 -0.2590289860669778 2.737154158772455 61 82 37
14.095368130790467 -0.5577443078381362 2.656764362721443 65 85 44
14.66514275774208 -0.19259059085418037 2.5875038115232125 62 80 31
15.116098941319166 1.503589035068068 2.541017916761651 62 76 31
15.116098941319166 1.503589035068068 2.541017916761651 62 76 31
13.65130008646371 1.4672983802300341 2.722689154779577 60 78 32
13.65130008646371 1.4672983802300341 2.722689154779577 60 78 32
13.729724967416054 1.2932241050773972 2.71003986124688 61 79 33
14.032150851543628 0.7798356542951177 2.6653876100837794 59 79 35
19.854689936031654 0.40288057255054427 2.9446655608434598 61 81 37
19.854689936031654 0.40288057255054427 2.9446655608434598 61 81 37
14.017342760355039 -0.7747084144880796 2.667439810951964 73 93 57
13.7236490931193 -0.8971272091598947 2.711002275411633 77 97 59
13.730697327969176 -0.6499993403538823 2.709886105644775 68 88 49
19.803094743118677 0.1453369762701002 2.9581827270833654 63 83 40
13.711224822007873 -1.2910048640014724 2.7129792463570666 71 90 50
13.861639143688905 -1.1315068795986967 2.6898170242984656 71 91 52
17.423393247716565 -0.986514151461477 1.4829246802494027 6 13 0
13.434741725900334 -1.291841662153588 1.8321164530371608 49 63 17
13.501363862317534 -1.3673745183024488 1.908316100729562 49 64 19
12.972080470185418 -1.3501978092086386 2.0061684799798085 53 67 22
14.020069369590345 -1.31159170574327 1.6759070284590694 48 61 16
12.972080470185418 -1.3501978092086386 2.0061684799798085 53 67 22
14.152950731832199 -1.2689327690956709 2.1268894846887503 54 69 23
17.669034139723923 1.9633004545182187 1.8856052251408082 53 68 32
12.310881956147249 2.4680160536283644 1.772881441741852 54 69 29
13.086179691547345 2.5825366449812517 1.919472695696571 53 71 26
12.55883579171936 2.2875380747592207 2.0215292238356874 54 71 31
12.304285942291402 2.536251724363562 1.9426736064011643 53 71 27
13.17372331941622 2.3487230590890444 2.373053921371742 55 73 28
13.029025256559866 2.216846857103654 2.181455952413514 54 71 28
12.9445739387146 2.349722591780627 2.1860294931308637 53 71 29
12.212935634703967 2.732280980391752 1.9455925765989162 55 73 29
13.456252397031857 2.694207157135296 2.251728478774303 56 74 30
13.610629114612333 2.5945380932378987 2.4485744840664583 61 79 33
13.235368717659426 2.6115900944176915 2.17058541713656 55 73 29
13.470067912848792 2.4316403969788207 2.4612373474485256 60 78 32
13.072458770603479 2.9041660378436114 2.179132403615276 57 74 31
12.546377440682031 2.502125437377257 2.3119925007508906 57 75 29
13.519797401934532 2.9965387996789183 2.2479262488615914 54 72 29
13.239148828210691 2.6228591098180156 1.6821320762641185 50 68 23
13.15722994049243 2.6913420390564164 1.8377614851828201 53 71 27
24.116465401019457 -2.308265675601786 2.44324571184716 53 65 40
24.201345128272315 -2.2178084969624337 2.4390781154449055 52 66 29
23.661924188054698 -2.248138241749156 2.53725912011271 47 56 47
23.70129230798971 -2.2584077237269478 2.4643800142973507 52 66 37
24.121370301668726 -2.2041065445841914 2.5102018534091095 47 59 40
23.822566093456746 -2.353985143814424 2.3940740909294367 47 58 54
17.734274246482578 1.8881082608158748 1.7677876416232716 51 66 28
17.330381445915528 1.9070835249665288 1.8919751627278136 53 68 32
14.737946076953166 1.6001427825019836 1.739250761378916 47 62 12
13.756276506354922 1.4457894051003801 1.9798110665275723 53 68 19
13.036006040669903 0.14306005704104136 2.1810812043249905 35 50 1
14.541447067332765 1.041269799910166 2.28010200768864 49 64 12
14.337185406878932 0.9138146045078872 2.2923956794515035 54 68 20
14.47240922830232 0.8526453659162943 2.3796712819157224 52 67 15
13.531693043349389 0.6817178868827531 2.582449012557972 58 77 36
13.55263402164607 0.1577677776977114 2.3445526854382313 58 74 22
12.556947991660596 0.3898826095232054 2.311222276747481 56 69 20
13.552305650609462 0.48544687236537426 2.3445763579216647 75 91 40
13.918014926653989 0.5722799021860112 2.3192154287837305 43 57 19
13.012343224627962 0.1984541851787694 2.505955255245787 57 73 24
13.02989429905134 0.2576838456591082 2.2785338731534543 52 67 17
13.012343224627962 0.1984541851787694 2.505955255245787 57 73 24
13.325306220434845 0.6300858750679607 2.3613586371053814 60 75 27
13.918014926653989 0.5722799021860112 2.3192154287837305 43 57 19
13.166898922925752 0.3215742661760281 2.490212498801063 56 72 23
13.02989429905134 0.2576838456591082 2.2785338731534543 52 67 17
12.855583404395219 0.4919820798163315 2.522673173663695 57 75 29
14.554796372665178 -0.21083317025566398 2.1919870251822338 62 78 25
14.271747944867016 -0.13878145732830127 2.296437317817431 56 72 20
14.484747178202776 -0.36909253921487967 2.1127145266390386 63 79 26
14.614735279839033 -0.31769058537900313 2.2758057057663876 56 72 19
13.700233955645919 -0.6154926902515392 1.9032263167342727 54 69 17
13.553023870033782 -0.5495976610767391 1.986320835398304 59 74 22
13.543348137543493 0.06093394849533929 2.4545785076984017 59 75 23
13.547525079202188 -0.15306267000231727 2.344921184497203 59 74 21
13.676409246925479 -0.5338618243349634 2.442802580338278 66 82 36
14.191440470175888 -0.4374167249323858 2.3014685359519644 58 73 23
14.26454802308374 -0.15306267000231727 2.3950687875199677 60 76 23
13.47693354861025 0.0545825781929649 2.350055258051042 59 75 24
14.328922578300531 -0.05556932892544253 2.4990004220020934 58 77 24
14.1765925603722 -0.8416138751718641 2.211214193313177 56 71 23
13.87886752922021 -0.9891586024377143 2.321838014018439 65 81 34
14.1765925603722 -0.8416138751718641 2.211214193313177 56 71 23
13.87886752922021 -0.9891586024377143 2.321838014018439 65 81 34
13.87886752922021 -0.9891586024377143 2.321838014018439 65 81 34
13.68266905084853 -0.6469755626117419 2.238393108558278 59 75 27
13.683542713438799 -0.7797238003328272 2.0633754821939583 52 64 16
13.309052813762529 1.4350685445884088 2.078539584281869 47 62 13
12.859993896145731 1.2434129758137908 2.0980759562522486 57 72 22
14.919809104794957 1.5106283302450378 2.4478215400932526 58 72 27
12.9391862232266 1.1230544310812551 2.186323800213295 55 70 19
14.38587906430051 1.3068450686915012 2.3859964948296195 54 66 20
13.60031340855784 1.4223510726431685 2.2431759357120056 43 57 9
13.223394436000351 0.9965014432924698 2.6208978332620525 60 80 30
13.223394436000351 0.9965014432924698 2.6208978332620525 60 80 30
12.828228761198396 1.2932241050773972 2.677427729413429 61 79 33
14.695752384675167 1.9530303813345942 2.4663608788825115 58 74 28
13.631938194519886 2.1026176252578828 2.4466942295057126 57 75 31
13.135600615503952 -0.7747084144880796 2.6326734597518975 71 89 51
13.203342631062629 -1.1718285173046508 2.370736430876516 63 78 31
12.968918899459588 -1.3056189531863056 2.2825635791760837 60 75 27
14.653108863848576 -0.2590289860669778 2.737154158772455 61 82 37
14.799333128689714 -0.3160793854442647 2.573018481851136 64 82 35
15.061904029902772 -0.221002711451366 2.6778219509657935 61 82 34
15.116098941319166 1.503589035068068 2.541017916761651 62 76 31
14.644017283933318 1.2932241050773972 2.7386070654439667 60 78 32
14.221594057309892 1.444636598146304 2.8152395968626345 58 78 34
14.38566677535312 0.8791526046254864 2.6197475054694404 60 79 31
13.879938807901546 1.1347281140428171 2.687107565599136 61 79 33
15.69698202281473 1.6155338409490854 2.4889481063228396 57 71 28
14.42681826779975 -1.0490551773164707 2.7755287253699734 92 111 72
14.644928939518618 -0.6499993403538823 2.7384610709183286 77 97 58
14.364072890839362 -0.7716764587911188 2.7870986766827253 84 104 66
14.42681826779975 -1.0490551773164707 2.7755287253699734 92 111 72
16.361481505637652 -0.8677795339369387 1.5995842040238606 31 38 4
13.206900671814322 -1.2689327690956709 1.9979140037940377 52 66 21
13.93408270348163 -1.3501978092086386 2.136681900288851 54 69 24
12.47770867389793 2.350486247003137 1.85268663716652 53 70 32
13.162987246588495 2.561392200113345 2.2699144252443437 57 75 31
13.668616346959842 2.9041660378436114 2.239203870315014 55 73 30
13.459568222423753 2.648956351879939 2.351330501067943 58 76 31
13.470067912848792 2.4316403969788207 2.4612373474485256 60 78 32
13.390042897169613 1.4457894051003801 1.9112352871023242 59 72 23
17.66696503657776 1.9283693770934258 2.0708577973776334 53 68 30
12.942860380044957 0.5383655038304054 2.391683381418007 59 76 30
13.704575732883354 0.6503937686998542 2.2371335608859724 50 63 14
14.606485761204457 0.9916483634902961 2.370098468476819 54 68 20
13.252125768966994 0.3898826095232054 2.3669539808446345 60 76 28
13.325306220434845 0.6300858750679607 2.3613586371053814 60 75 27
14.32476941250624 0.8637213793236568 2.499387827090937 60 76 32
14.211467327096436 0.7824384701861027 2.12433236558644 60 75 24
12.618235756885339 0.3664763726427198 2.549593140222597 58 75 27
13.9952136920164 -0.36909253921487967 2.0514609525193563 64 80 28
15.085706244059104 -0.2301047401020484 2.3379614462965757 58 74 22
14.614792298204629 -0.6757771157613912 1.9544846368141096 46 59 9
14.26454802308374 -0.15306267000231727 2.3950687875199677 60 76 23
13.475221216092683 -0.04977508110635817 2.350180787760911 58 74 21
13.824779114825127 -0.19259059085418037 2.54943479090041 62 81 30
13.824779114825127 -0.19259059085418037 2.54943479090041 62 81 30
12.933480782237206 0.06895543952124333 2.514266830688799 60 76 24
13.546324437212025 -0.7247128900988831 1.9071515311766827 41 52 9
14.183837129696395 -0.7797238003328272 2.125536644656812 53 67 19
13.609826845804326 -0.7171732955031741 2.1518891511552494 55 70 20
13.76302624621496 -0.5948032332822213 2.144596321984692 57 72 22
14.53791015130868 -0.5196382686171326 2.2803108468771676 60 74 27
13.247026063561496 1.2700700477431601 1.996535820333977 61 75 25
13.84870542068025 2.1377382873012842 2.323873182709602 58 74 29
13.23695890378086 1.2117933592285306 2.2652251384801114 48 64 11
14.360248894140433 1.8202720819235887 2.3878928869343676 55 69 25
14.851181993804094 1.6112873571433532 2.3533015034710845 52 67 22
13.490270505879653 -1.40624426863757 2.349079158199039 61 77 28
13.204184899069011 -0.9926677449106618 2.62344025504364 71 90 50
14.653108863848576 -0.2590289860669778 2.737154158772455 61 82 37
14.996903148884554 -0.07242375027912627 2.686564375171708 59 80 33
14.032150851543628 0.7798356542951177 2.6653876100837794 59 79 35
14.081633192923755 -0.9926677449106618 2.658619276579142 72 91 52
16.363257088002772 -0.8677795339369387 1.538458941369347 25 31 2
20.40887161539437 -1.2920770426961699 1.6921662979333991 47 55 9
12.766888220271216 2.8157359442771557 2.10232756841597 56 73 30
13.24211015719568 2.502125437377257 2.3677270853219445 60 78 34
12.14861956071123 2.412766145332578 1.9476760868898675 52 70 28
13.014164966436512 2.482825909794246 2.18225536181755 55 73 27
23.70129230798971 -2.2584077237269478 2.4643800142973507 52 66 37
23.822566093456746 -2.353985143814424 2.3940740909294367 47 58 54
23.359409429763385 -2.308265675601786 2.415717888812731 49 59 50
13.758933721272182 1.528399680450578 1.7513645349084126 59 74 24
13.769892407690834 0.7110077956482599 2.3292518187152225 49 63 11
14.278116157601042 0.8989294336796713 2.1214502540580185 61 75 30
14.278116157601042 0.8989294336796713 2.1214502540580185 61 75 30
14.183415713572881 -0.7171732955031741 2.2108557542119383 58 72 25
14.05753876520451 -0.4779257913892139 2.1311134527713134 54 69 16
14.456350314676202 -0.5338618243349634 2.4873161879212042 67 84 41
13.44458842177266 1.194997386260535 2.592889819452799 61 79 33
13.391091723237336 1.2434129758137908 2.1626547141994177 54 69 18
14.254896445154028 1.0782814811230281 2.395800947585405 49 64 12
12.968458004058624 -1.2760311454568185 2.3895666312262986 63 80 33
14.914013295975293 -0.7747084144880796 2.6980590852852915 76 96 60
13.882562940376882 -0.4181845932941585 2.686720849795801 64 84 41
15.298836109754868 1.8481366813106654 2.5237958286242903 63 79 33
15.116098941319166 1.503589035068068 2.541017916761651 62 76 31
14.017342760355039 -0.7747084144880796 2.667439810951964 73 93 57
13.501363862317534 -1.3673745183024488 1.908316100729562 49 64 19
12.963697705835493 -1.4217067946907889 2.1849873135296436 55 72 24
13.092381788963698 2.5165519341131133 1.7606667864560455 52 70 27
24.121370301668726 -2.2041065445841914 2.5102018534091095 47 59 40
13.89794472828455 0.7808381860894094 2.541653633084736 59 77 32
14.350414612539655 -0.0411843881465419 2.2022179324759965 60 79 28
14.191440470175888 -0.4374167249323858 2.3014685359519644 58 73 23
14.607704412426276 -0.34836386724391044 2.370012694271155 60 76 26
13.744357584174594 1.2775370775090473 2.4369391734951322 58 72 25
17.550851986220138 1.9873878428870961 2.010503306305562 54 69 32
14.254526422143682 -0.4812265991918816 2.3958290484905795 63 79 31
12.39015106460882 2.4208559476205904 2.218020982621072 52 70 26
13.773788417851652 0.9666174086028405 2.144091383334878 61 75 28
13.966199161971781 1.173768384456449 2.4184577393590017 60 74 27
