17.305655061155527 0.7729278142851026 0.8527635157521103 41 46 15
16.80135847721018 0.7149557095327821 0.8262318416521622 43 48 15
17.376575474933368 0.6649930450989697 0.8563234548033491 43 48 17
15.280230528883399 0.41404745916330005 0.7300951009526673 47 53 17
14.546590784612256 0.3778396467317268 0.8695106532878014 43 48 14
16.80135847721018 0.7149557095327821 0.8262318416521622 43 48 15
14.109149744901108 1.54740600556674 1.5434725330303198 71 74 70
14.230206257780322 1.4767580635602349 1.4732808206218986 72 73 74
14.762658489946286 1.2728549932755893 1.612435852059121 71 73 74
14.397587281505315 1.6886961191784609 1.404343524645575 62 65 56
14.206328713259547 1.251576881492293 1.3301740755171272 71 72 73
13.915183765576925 1.6976032722785792 1.2501742499628712 39 43 29
14.167664994664303 1.5456212158942788 1.1808661201207233 62 63 55
14.226118935161823 1.4696267504777822 1.1825541906380566 70 70 64
13.5956092118074 1.4696267504777822 1.3191365150235925 72 72 71
13.5956092118074 1.4696267504777822 1.3191365150235925 72 72 71
15.339132024694818 1.7458169499363063 1.5456639978775764 70 74 73
14.58280690539772 1.8254386709999944 1.6129497000735975 70 73 72
14.41734566116927 1.7579511086968158 1.4745505361344515 44 47 34
14.858312950748335 1.8906389073678587 1.544850529151032 39 43 28
14.34156964312695 1.9792836484129288 1.4740404171921369 40 46 19
14.523499831604354 2.135765915768421 1.4057998987121916 41 47 19
15.192738153433897 2.1004898651720785 1.6112564574004369 32 37 26
14.019341891063036 1.8439557033191691 1.3268999804557788 39 44 15
14.720834976902822 2.135765915768421 1.3387412957872347 42 47 16
8.520456312425601 2.152609678356956 1.6429833659671815 44 49 16
8.350951849917726 2.319687046741261 1.6444512200152117 45 50 17
8.016102814228791 2.047887095331683 1.6475338671374786 44 49 16
14.014781057423434 2.28016247877324 1.25253328385288 42 48 18
14.734184036871307 2.386558390513656 1.1225589056892713 43 48 15
14.037090341872972 2.4354463450058477 1.6145895153542487 41 46 11
14.15278535581279 2.233900907598643 1.4727456638246545 41 47 24
14.48596574084367 2.233900907598643 1.3349080871821615 42 47 16
13.996416835683785 2.334453556780049 1.6147168598811346 43 48 18
14.095904729491354 2.492273604050927 1.2544287922326376 41 46 13
13.901993194701074 2.5544598923175297 1.172999483115403 42 47 14
13.607081245649606 2.492273604050927 1.394574935911032 41 46 13
13.730329420476643 2.595024903895559 1.4697186722800795 41 47 11
14.616569188629782 1.4767580635602349 1.82067878889882 71 73 72
15.61617621548171 1.680953413314391 1.8043753074266857 70 72 74
14.195993674514494 1.54740600556674 1.6847745062729003 71 73 72
16.536927236955655 1.618287860881896 2.118732946064488 70 72 72
15.42066567986807 1.9531432133346243 1.7411666431274162 68 70 69
15.621331407779147 1.9531432133346243 1.804296791657754 69 71 71
16.691374517205755 1.8906389073678587 2.0445116893630857 68 70 72
14.116266156718275 2.4354463450058477 1.685421071864145 41 48 13
15.318182282853138 2.192536032202956 1.8090063117237085 45 49 45
15.905564431807578 2.245038964064181 1.8000487371524163 42 46 39
9.066596859866577 2.112434866095558 2.238589442704757 45 50 17
14.788782441314963 2.0417527461801357 1.6801871430071875 43 47 36
15.604694403384668 2.1004898651720785 1.8045503720261735 65 69 64
14.951851542100078 2.2874594936797643 1.7465634150304323 39 44 27
14.519211126281233 2.6928956122040875 1.82239051043942 38 41 15
9.123167933605803 2.1945762512851887 2.3818682353354337 44 52 18
14.96651262887096 0.131298265750567 0.5960752679370109 47 52 21
14.953140119660583 -0.10762447798729763 0.594755725289164 49 52 23
14.689250738742034 0.10608998525762615 0.7855330629651348 56 60 29
14.86145790894516 0.18327313766559214 0.8872704424939732 54 59 27
13.985816078266174 -0.086904144204714 0.8351446808011014 54 58 29
14.117875517416756 0.22139664138767098 0.7442068874524244 62 65 32
13.369490356882704 -0.20089734052123887 0.792585453201938 51 55 26
14.113936468009738 0.20056324844634724 0.843330990055195 56 61 29
13.961171451326154 0.010720560663750846 0.731935557677879 59 62 31
14.296966567737043 0.29155146025645245 0.8546724218345503 49 53 20
14.095811267493755 0.008828226618091017 0.9336666190281212 56 60 30
14.525177782681167 0.16870136716379058 1.0374012719541392 55 60 30
13.439942927725525 -0.1818972447970265 0.8970457902081304 53 58 29
13.554368661587842 -0.07926741536913977 0.9945535727751528 55 60 31
14.227083502105286 0.24631855640017894 1.1053465531900426 51 56 24
14.1383148113479 0.09678740140688649 0.9358897056186262 56 61 31
14.1383148113479 0.09678740140688649 0.9358897056186262 56 61 31
14.098114354637241 0.2285006797168412 1.3282901785132166 51 56 24
13.862616480314376 -0.563885259494153 0.9211586893081716 20 22 1
12.875258713059337 -0.3013600910613941 0.8615192520215307 51 55 26
13.025401353737628 -0.2736919637667406 0.9679310257576204 52 57 28
11.880581839042787 -0.36099886341811116 1.1927246451602542 49 54 26
11.923809767000815 -0.44291815132835416 1.2829112377011858 53 56 25
11.976448506400425 -0.5189414037529961 1.4548540712320597 47 50 17
12.680674316305817 -0.7589167552464396 1.132167130088566 38 44 7
21.193219960022606 -1.0064975721271934 1.5997970459662076 54 64 26
21.490457582334525 -1.0064975721271934 1.7397920243823384 53 63 24
20.729734891188876 -1.0473941234907573 1.6487601433699792 59 69 31
6.394764346865973 0.29441874176139765 0.05392901762710142 48 51 22
6.45700864456388 -1.2194754193651725 0.14899749546981722 48 51 22
5.81914497748355 1.8796902976131706 0.38851128783265876 48 53 20
6.394764346865973 0.29441874176139765 0.05392901762710142 48 51 22
7.020887394341375 -1.457535832825298 0.42872675767985285 48 51 22
8.05560419658703 -1.503578160205464 0.6556136939345667 45 48 17
12.711593077538538 -1.1718912651702356 0.7401918171362446 31 34 1
19.627211278646836 -1.6754526954823399 0.9519622456773977 14 21 0
12.181592674598663 -1.0312133849547316 1.0190327896634261 40 46 7
12.073130748026092 -1.158502441029541 1.1084263241410015 45 48 12
11.032185139171537 -0.8952929235525451 1.1619884039113353 38 41 6
12.207316065612869 -1.1926748270664356 1.289781272699154 45 51 15
20.863181794265177 -1.9563165757316352 1.3590154913012253 44 51 10
21.459972834265074 -1.9386834753329525 1.4594071996589437 45 53 12
22.913861410149174 -1.9640295870983597 1.729202325126524 47 53 16
16.80135847721018 0.7149557095327821 0.8262318416521622 43 48 15
14.477912673857785 0.32102558662123265 1.1140292703082695 49 54 21
14.167845110685553 1.4767580635602349 1.5435857596233231 72 74 73
14.129311480362935 1.618287860881896 1.614303498851457 70 73 71
14.21024215175248 1.3218802707360815 1.2570616639564793 70 72 71
14.167664994664303 1.5456212158942788 1.1808661201207233 62 63 55
13.729541813058283 1.3947848579345428 1.3216438416180574 71 72 68
13.534432433015017 1.5456212158942788 1.3179741789660984 63 65 60
14.86601926151658 1.8906389073678587 1.6121461741959013 69 72 71
14.110679765467987 1.9132484397353826 1.4009265033141671 38 44 15
15.18519764959942 2.1004898651720785 1.5454091736324507 32 37 20
13.35493387101674 2.4443222039828214 1.2362104081831136 41 46 13
16.210322866054085 1.8092278574386447 1.8594546244388006 69 71 74
16.555436440788363 2.0417527461801357 2.0487256557149887 71 73 74
14.931080035883271 2.0417527461801357 1.746810490002403 53 56 49
14.168843093758678 2.492273604050927 1.9025289427919763 39 45 12
13.908206417810726 2.595024903895559 1.759906367855207 42 47 15
8.961829340129322 2.2242024027646634 2.111698584913312 45 50 17
13.989791202064056 -0.09616419547113604 0.7342097721707399 54 57 28
14.747379188721725 -0.09616419547113604 0.6887622778763032 52 55 26
14.926367604148654 0.012007446631883077 0.5920990187057781 50 53 22
14.868938905781718 0.22139664138767098 0.6986338220499188 63 66 33
15.042785466789212 0.32079240029366096 0.7122821913006835 52 57 23
14.418689179036528 0.08233679227433446 1.1880105898473698 56 61 31
14.41460159707923 0.08898074407883672 1.0328654860591 57 62 31
14.372915110948911 0.008112255864739005 1.0311341828038048 57 62 32
14.43232644228679 0.26707849281177565 0.9508151908781454 49 54 21
13.143436549839821 -0.1661501841592195 1.0634845287458612 56 61 32
13.912468434481822 0.1562585601943101 1.3249878940280473 53 58 27
12.678648350760511 -0.5189414037529961 1.217604967641115 46 49 17
13.095420746787989 -0.44291815132835416 1.0614453424537904 55 58 27
13.283863519698421 -0.36099886341811116 0.981263396271964 50 55 26
21.3450392868393 -1.0064975721271934 1.6935937063179265 52 62 22
20.729734891188876 -1.0473941234907573 1.6487601433699792 59 69 31
6.394764346865973 0.29441874176139765 0.05392901762710142 48 51 22
6.45700864456388 -1.2194754193651725 0.14899749546981722 48 51 22
7.288471987562058 -1.503578160205464 0.7393567564047608 48 51 20
7.020887394341375 -1.457535832825298 0.42872675767985285 48 51 22
20.222393038012008 -1.6082166532298474 1.088163805408756 49 55 18
12.056624136316312 -0.9772744205592857 0.9114945270182382 32 35 1
11.471322962318311 -0.9772744205592857 0.9804531741031011 34 37 2
12.46676440040745 -1.0769247610021795 1.1241026561068166 44 50 11
12.068524332190442 -1.0769247610021795 1.1989023452926093 44 50 9
21.251179403134888 -2.000892930732947 1.3629393405113952 44 51 12
21.750856774675974 -1.9816829858747356 1.5070560272411238 45 52 13
22.415969939720448 -1.9225283816129572 1.6876994618970171 46 52 15
16.66477608721774 0.7729278142851026 0.8979701225567209 42 47 16
14.35119781664249 0.29839808506541066 1.3326502930383832 46 51 18
14.679649074576202 0.34721685331886315 0.9627917336657875 45 50 17
14.41734566116927 1.7579511086968158 1.4745505361344515 44 47 34
14.051389765976888 2.334453556780049 1.472035823922855 41 48 14
14.285386532617965 2.233900907598643 1.4030238094691307 42 48 18
14.898305730065315 2.192536032202956 1.6120565130287041 34 39 28
13.703407388551652 2.386558390513656 1.3211585581804335 41 46 14
15.877469084661538 1.680953413314391 1.865685707540274 70 72 74
15.754530492421638 1.7458169499363063 1.8022864266486018 69 71 73
14.724671269805567 2.334453556780049 1.889554791512688 39 44 20
14.797774754388206 0.20056324844634724 0.7928382801999787 54 57 24
14.76093810595701 0.11736184169884001 0.6898772948956634 61 64 31
14.117875517416756 0.22139664138767098 0.7442068874524244 62 65 32
14.300855203142607 0.32079240029366096 0.7579990737156603 53 58 25
14.720232448977093 0.010720560663750846 0.6865191201720121 56 59 28
12.792938680714725 -0.6367845979215075 1.1362798202238866 22 27 2
6.657467561276761 -1.4864160314843653 0.6284557130530942 48 51 22
8.05560419658703 -1.503578160205464 0.6556136939345667 45 48 17
21.594012343841722 -1.9386834753329525 1.413368798806983 45 53 11
14.550412707453576 0.41404745916330005 0.7759477013057499 47 53 17
14.183769351843795 1.618287860881896 1.4729605391790055 70 73 66
14.358220596414576 1.4070377269089882 1.4741529740144668 72 73 72
15.196996408085107 1.680953413314391 1.5454288881321876 70 72 70
14.553976338157115 1.3388852029389575 1.4754568388041904 71 73 73
14.354169725682612 1.3947848579345428 1.1862001042816788 71 73 65
15.209825775709874 1.9531432133346243 1.6112109773067702 41 45 31
14.765530511035728 2.0417527461801357 1.4768268865354408 37 43 19
14.523499831604354 2.135765915768421 1.4057998987121916 41 47 19
13.410438279561484 2.492273604050927 1.616637315734931 40 47 11
13.957188176386536 0.009682806981964845 0.8332865492146598 57 60 29
14.188999718057888 0.1562585601943101 1.2565758891839782 56 61 32
14.393092520373028 2.135765915768421 1.4743878528518055 37 43 22
17.494472891125245 0.7149557095327821 0.7841842851892065 43 48 15
13.546997184893607 1.6219070747356943 1.3182137897281512 48 51 41
14.004083644041117 0.11736184169884001 0.7353398791566247 62 65 32
15.042785466789212 0.32079240029366096 0.7122821913006835 52 57 23
11.426383328961995 -0.9130832830438675 0.8680023011611551 28 31 1
14.574950850644717 1.8254386709999944 1.5443459816950273 38 42 26
13.885595188105903 0.008112255864739005 1.0929557342623575 57 62 33
8.768803892270979 2.0531086492771142 2.425422437456274 44 51 19
15.339132024694818 1.7458169499363063 1.5456639978775764 70 74 73
11.262740784225139 -1.0312133849547316 1.17083973598016 42 48 8
