22.110645499115623 -0.34945479946393243 1.524966608325321 45 56 18
23.19282426213471 0.7113156548082169 1.8768082764303644 33 47 5
22.811756797310363 0.7418724756728755 1.9285038541066442 36 48 4
10.836947104281345 0.6930003348424356 1.9475575737817195 57 69 20
14.12044375622861 0.1627954471881287 2.4624218121060513 57 68 19
14.28218886431193 0.056384490519782796 2.5667892899543223 53 61 13
14.69750580757589 0.04483883753119924 2.415152827560865 59 70 22
14.093199764205126 1.002208187197691 2.4648199658730556 46 57 12
14.523804859059691 0.7511491788154512 2.6774132528270096 62 74 25
14.35230066933103 1.1523327066215423 2.4426516134920275 59 71 26
14.35230066933103 1.1523327066215423 2.4426516134920275 59 71 26
14.372978862641526 1.2163514574090677 2.557109923832349 48 62 15
14.215400530857986 1.3393954314549665 2.5740835143924845 49 63 16
13.963477941989767 1.3660115496531295 2.4764690437895065 54 66 21
15.06823388162366 1.3393954314549665 2.6097643644221344 53 65 14
15.216983322739559 1.2163514574090677 2.5933778899361406 49 60 11
14.570901224465642 0.9667481951061234 2.6709984480060527 61 72 21
15.146288605114357 0.8688576157216661 2.7478053269998157 61 73 22
14.600565340732537 1.3050141799470867 2.6670201743198056 58 71 16
15.257139752211273 1.102208268092356 2.7306710938249705 61 74 19
15.108785665475665 1.2590214348279045 2.7538230925133123 59 72 19
14.93000835151121 1.0156128237433648 2.7842798322825915 60 73 20
14.7540305476918 1.16675907374202 2.6471557966564783 54 66 17
13.972341883423665 0.3464334822092768 2.601986884225831 34 44 0
14.614056680982094 0.5386420597759621 2.665226305661285 69 80 24
13.972341883423665 0.3464334822092768 2.601986884225831 34 44 0
14.839150843827586 0.3464334822092768 2.636618281868251 64 74 28
14.884048322519853 0.7416332279192432 2.792644617407068 59 70 21
13.832974143869574 0.2097658758333653 2.6190536268377134 59 70 19
13.90379140584009 0.2937419506188997 2.7764250695828743 60 70 28
14.552819877346245 0.3658569363166258 2.861832286595449 62 72 30
13.836193530548847 0.09181606896935791 2.7894254444200928 62 72 26
13.765028500611727 0.06471291536160925 2.6276890210832926 59 68 13
13.84070400566715 -0.11779476575543721 2.7885397175743947 60 72 27
14.972128758396968 0.4739222791666771 2.7768189060311013 61 72 21
14.839150843827586 0.3464334822092768 2.636618281868251 64 74 28
14.842151983984888 0.2937419506188997 2.8004876379706243 60 70 30
14.663900754365581 0.8956317778338718 2.8365728929707945 60 71 19
20.996808385365966 -0.42833099818028064 1.7618438182569585 40 49 15
21.765336397319174 -0.3062736732993258 1.5702004264497809 38 49 10
21.945374620368437 -0.45085733854527676 1.5702053151725137 45 53 9
20.384107268596466 -0.49409000499207256 1.7178630972855677 34 41 9
20.77161402623385 -0.49409000499207256 1.8132535603137057 27 35 2
20.911318308856888 -0.44940630553680816 1.9114748666776227 22 28 2
20.21195406345626 -0.5906691508659909 1.9237682180342977 5 12 0
20.422533537230418 -0.5625444010521834 1.8174832488075685 17 23 1
20.87767277014834 -0.5186774035738438 1.9633653110529348 9 18 0
20.68946437532627 -0.5625444010521834 1.8643709865631917 13 19 0
13.637225296746962 -0.23394645811183223 2.1965132581063496 56 66 21
12.700449028826974 -0.40128953240483917 1.9743245782835726 24 31 3
13.308819996278052 -0.3199303155505877 2.1235025701998858 48 58 19
13.040820202121985 -0.3865428181130308 2.331106273943166 55 65 16
12.376452220896867 -0.3199303155505877 1.9855287362979472 59 69 29
12.64172929739816 -0.1766512422679153 2.3615761789121126 53 64 16
18.178326948527562 -0.73211933125949 2.0879195713189556 32 38 8
17.616093059752902 -0.6830105768700477 2.1061673997246766 0 5 0
13.334853231240407 -1.1095572295287777 2.2129967889273714 55 67 23
12.449305533754847 -1.315876232377688 2.072491805839847 56 68 23
12.759643115396198 -1.290531700648695 2.2471586346672927 58 71 26
12.267041172978777 -1.4063799201459568 2.080659926346138 56 68 21
13.07851704036666 -0.9205055000376992 2.3283686016379 58 70 26
13.291634015410878 -1.0640945412282272 2.3133097328982415 55 68 24
12.714468786905035 -1.2597717114663651 2.355810038855507 60 73 27
11.811275929422814 -1.4063799201459568 2.006696079597163 54 66 19
13.524504266145124 -0.28480662527751116 2.4015497632624005 56 65 17
12.739013719831929 -0.1988744375036139 2.4718347755980705 54 65 14
12.24200307019571 -0.4944964667710899 2.684832915337088 60 72 28
13.148249215660856 -0.3626920944215011 2.56006930192959 58 69 24
11.619699439734937 -0.6432421006246904 2.6050698666296266 60 72 28
11.96420707892777 -0.7649995773848951 2.5584609904218816 61 73 28
12.4389074939916 -1.2655875986557172 2.653607577502743 61 75 31
11.603333223442426 -0.8825031985369893 2.607446308628427 61 73 29
12.4389074939916 -1.2655875986557172 2.653607577502743 61 75 31
12.917091607702153 -1.3098416547213994 2.5878851328614307 60 73 28
13.090308045840324 -1.173655607295426 2.5668377188228884 61 73 28
12.917091607702153 -1.3098416547213994 2.5878851328614307 60 73 28
12.860479110159282 -0.9440175605113215 2.459995571789647 59 71 25
12.649190942541132 -1.3430835412867572 2.4808538394005244 61 73 28
12.917091607702153 -1.3098416547213994 2.5878851328614307 60 73 28
13.398386428989586 -1.0097338944692447 2.411916767925502 57 69 25
14.00770153757308 2.8183663123994074 1.4984179327883793 54 64 21
12.622126472469454 1.6897563500089345 2.157422141683381 55 69 25
12.893226995042497 1.8474514745023791 1.9679493814682316 51 63 20
13.201974729017167 1.6897563500089345 2.2205465278648373 52 63 16
13.333687697422095 1.782889798491968 2.213062172588722 49 62 15
12.933575065002712 2.000942948353846 1.8038519512691606 49 60 19
13.259085537371966 1.9572773393860834 2.125817956247067 45 57 11
13.147068528904603 2.110158188680439 1.9598644932192513 50 61 17
12.63187372262971 2.2804691869076947 2.064581339479619 54 65 21
13.191560294175705 2.208152606966129 2.221146517509232 55 64 22
12.549552887238114 2.225683763377969 1.8941022701662154 53 62 20
12.861698025992247 2.078254610325346 2.145091538576523 52 62 18
13.430607376267297 1.9022123425981698 2.3038546082157207 47 59 12
15.029161472845354 2.2025653602165036 2.7670071904234073 59 70 21
15.174180958206367 1.9627456634923277 2.7434045662338677 59 70 19
15.00885025639332 1.6162898256870242 2.770464571531901 59 71 20
14.514530620580802 1.4544396422040025 2.67869111144302 57 69 17
14.98488448998152 1.4699701393227493 2.6192952400080034 57 66 17
14.548600649867758 1.7622146247571164 2.674020584226356 58 69 18
14.284886269054692 1.864258929312157 2.5664978471825064 56 67 18
14.668226605016368 1.9066948311441487 2.6581182198837143 59 70 19
14.109138669184324 1.6040670976292501 2.5860101023623416 50 62 14
13.873492966921207 1.4818526813543484 2.484782630181435 53 65 17
13.13354212610495 1.7175885997925642 2.43475848717318 45 57 7
14.475947864875884 1.9824846614741334 2.5464442252267174 56 67 20
14.034211046708132 1.8311246830511227 2.470069323611767 54 65 20
15.27647817540537 2.334317290361777 2.7277754642827943 59 69 22
14.693806107567275 2.5921871277289124 2.5248866311309603 55 67 16
14.583143840676076 2.2547024236564472 2.5356725930708555 58 69 20
14.972079853668495 2.3412145561240365 2.4991348943139173 57 68 18
13.931626576597203 2.2694543018183126 2.3700849688507457 58 67 21
14.267767458911218 2.1852337784165856 2.4497307543785323 58 68 22
13.746825138136648 2.037166536491991 2.3840070183389495 56 66 21
15.026080725495001 2.497921759205245 2.494348009350872 55 67 17
15.403313642229996 2.425399549262975 2.5738783691013634 56 68 18
14.706185413877858 2.2339347326884296 2.653224862969908 59 70 21
13.813163164461352 2.969022166129057 2.4904683780298758 59 69 23
14.217647068597469 2.706730936991508 2.7224652312237723 60 70 25
14.218214017314528 2.8171456606750414 2.5737731719393424 60 70 24
13.95272878867582 2.854221184870535 2.477451874751486 57 67 21
14.423341287110638 2.698707586946749 2.551853032364563 57 68 17
13.95272878867582 2.854221184870535 2.477451874751486 57 67 21
14.42258946607864 -3.051812426963546 2.691632687603323 62 76 38
14.815928694357524 2.638573478684447 2.639461044938839 59 70 19
14.483142441875817 2.9154259754062064 2.6830527241263282 63 74 28
14.018991323031276 -3.0641466967041158 2.5964561690396875 75 89 47
13.745119590811894 3.0885863225089767 2.4969930929435815 62 73 27
14.418261023762664 3.071666219700449 2.692254624364983 61 73 28
13.249878460852392 2.3460243676567822 1.6453589127373005 54 62 19
13.009694928271877 2.513765811129005 1.802463332169666 54 65 18
13.310867967635565 2.45275974179999 1.645016641786772 54 64 19
13.400366994969003 2.723761900570304 1.5698284448903914 54 65 20
12.741705464457485 2.580690346975243 1.8890535759518658 54 66 19
12.997075395410382 2.6217488918717318 1.646811985159217 54 66 20
12.675100600927902 2.4019616360797107 1.7282120520561943 53 64 21
12.731685706344669 2.765803905758164 1.8893128671698867 53 63 17
13.17280950420771 2.73293304784274 2.129884051636658 54 64 18
12.872652849242579 2.4642496191650043 1.9686198619662183 54 65 21
13.054654886968947 2.653747920117997 2.0472296963092207 54 65 19
13.637299567163398 2.6941816459233143 2.290289614525394 54 65 17
12.759470498159232 2.5334623038576702 2.0592064027318235 54 65 18
12.840035967578237 2.945133646870718 1.80558152860924 56 66 23
13.32532439745419 3.033498771471418 1.5698229941866855 57 67 23
12.875077771897926 2.86795796595277 1.7257471351733011 54 64 20
13.259484990480054 -3.0991636278724184 1.5698181611436113 56 66 28
13.25477673350543 3.1085734814796435 1.569817813687233 57 67 26
12.840035967578237 2.945133646870718 1.80558152860924 56 66 23
12.232173119049865 -3.0808493907897736 2.2822726722866786 61 72 31
11.876371247410006 3.098917424297071 2.0991506297076032 55 66 25
12.693569843966284 2.785692674263719 2.2513437394231195 57 66 20
11.876371247410006 3.098917424297071 2.0991506297076032 55 66 25
12.974993154434491 2.9873715473629416 2.3359424079575533 57 67 22
12.316414282256819 -3.09163064768874 1.987675901556559 70 81 44
12.232173119049865 -3.0808493907897736 2.2822726722866786 61 72 31
12.521535684547137 -1.7005269893112793 2.2625172007825753 58 69 27
12.48193391129085 -1.492269403239254 2.2651478281065494 58 72 27
12.48193391129085 -1.492269403239254 2.2651478281065494 58 72 27
12.435750812344917 -1.4831427565863737 2.3784637750699757 62 75 28
11.284752762706962 -1.5966778724807889 2.1300356215858525 55 68 24
12.475499188420963 -1.7154783954841473 2.37513827361182 60 72 28
12.614799676057864 -1.8274949017465425 2.3637364050406284 60 72 28
11.746978832078275 -1.6883633716321083 2.0092470513418395 52 64 23
11.683168269545622 -1.594228473298447 2.011809550234912 52 64 24
11.503730988204534 -1.8016456693840257 2.11816535882948 56 67 25
11.76958207877613 -1.4716235368138788 2.4396373206970705 61 73 27
12.186198167441642 -1.9764150500207822 2.4001219913884024 62 74 29
12.1350754949978 -2.4869916486653048 2.2891913619964046 62 74 29
12.815385960941242 -2.4869916486653048 2.347972016054222 64 76 31
12.156524506514177 -2.54823251523165 2.1831017337048433 62 74 29
13.02322434103699 -2.6363074753172193 2.3323920260206155 65 78 36
12.173387127599208 -2.201143979453871 2.0849670874885033 61 73 28
12.064891589545532 -2.3349368336927063 2.0900539000335727 60 72 27
11.839562174482507 -2.0312937538798557 2.202031797154903 57 70 26
11.556188272632347 -2.1774151244553783 2.2200771499178167 58 72 27
11.911073867844431 -2.145238091756118 2.425704229994616 60 73 28
11.660094507249127 -2.469490595489212 2.012743818447288 59 72 27
12.078485102040224 -2.3316191542618716 2.293294706498426 61 73 29
12.442712696567 -2.0726928865507848 2.0727824578315324 56 70 26
12.581735509901879 -1.9888094714725346 2.159557470531535 56 69 26
12.055123739826653 -1.9888094714725346 2.0905170899758008 55 67 23
11.790863267137896 -2.0825512520216574 2.315007109692331 59 72 27
12.442712696567 -2.0726928865507848 2.0727824578315324 56 70 26
13.217059485234566 -1.6152701876401874 2.7067497295571625 63 75 29
13.607936435645241 -2.0992464866450304 2.6485254735055723 64 77 34
13.230687740207323 -2.189400304528343 2.704537432116485 63 78 39
12.886462522558993 -1.8377112043009005 2.7657626804176823 64 78 37
12.800056145787964 -1.6085001307053663 2.602856832988758 62 74 28
13.20328405873541 -2.0303317220040036 2.5537585127347255 63 75 29
12.800056145787964 -1.6085001307053663 2.602856832988758 62 74 28
12.529653356514675 -1.6035182785109823 2.493226528882492 62 74 29
12.38356369859108 -2.0303317220040036 2.5089615904275 61 73 28
12.858325248729 -1.7586591663576898 2.595322633487973 63 75 29
13.437347603623675 -2.5108363838757373 2.5281113284889765 65 80 42
13.510965507529423 -2.3204691911906616 2.662053217046017 64 80 42
13.38626369497936 -2.327074730152382 2.533552162217882 62 77 36
13.758150266799195 -2.752368766762651 2.628575356196065 64 80 44
13.026778759338205 -2.2229542017558104 2.5744115478197416 63 77 36
13.635709205233859 -2.6847404219553535 2.507744150957916 67 81 42
13.56157969613932 -2.545186911098225 2.65492510345486 67 84 48
14.637648678063718 -2.752368766762651 2.6621121882975123 76 93 59
13.433301766054505 -2.7338612177117603 2.409015215674946 65 79 40
14.094571780402383 -2.9292632227269157 2.5876771116039468 88 103 68
13.046222611258216 -2.954370903044412 2.4426318432343237 106 121 86
14.496065771951075 -2.896533904821308 2.6812500000078794 73 89 56
12.682576266036813 -2.145238091756118 2.477474567406721 62 74 29
18.145024709344497 -1.9315050116521535 1.7923353664357928 63 78 44
17.825454575857105 -1.877625176848765 1.7963751876766068 63 78 43
17.480563920979307 -1.8960169552102388 1.9203690345573838 64 77 42
18.60256400595831 -2.058128012264892 1.8984674858062616 59 74 40
17.806324883653584 -1.9525527833527534 1.913707851911459 63 78 44
11.91619119393316 -2.9175955370035194 1.8241684766461412 62 74 36
12.551596843428335 -2.935348685543915 1.649515406619278 59 70 32
11.964379986838658 -2.834860154627288 1.737648243821292 60 72 34
12.512734443812287 -2.935348685543915 1.5697597849355696 56 69 29
12.50567101042023 -3.0147081148947024 1.7303629161518224 63 74 36
12.989417047377025 -2.9742184306925723 2.3348766092835085 109 123 88
12.391430015823959 -2.8070251999133258 2.075055468005651 59 73 34
11.923811593948242 -2.6832668821761136 2.0968298438121966 62 74 30
12.485020269498326 -2.8712828583370356 2.2649420036162096 73 86 50
19.88019831817158 -2.1248689522242157 1.7727185096423876 62 76 46
19.44126526201443 -2.270064365306485 1.777342577335646 63 77 46
20.027819923474055 -2.237556944586895 1.7204989038598386 66 79 48
19.670710588247765 -2.270064365306485 1.8271195969340521 57 72 38
20.210706534862517 -2.1069571446909627 2.031598542612972 58 73 39
19.83851305258321 -2.1966200252032366 1.8249033847322087 67 80 49
19.945999938519574 -2.1839999081250676 2.0381978466754904 56 71 37
19.786323523579128 -2.1069571446909627 1.9863146239882663 59 74 40
20.452284537377064 -2.1365744213601414 2.1379138726695417 56 71 37
22.650769528386085 -0.39131919106595836 1.4373824633957522 45 57 16
23.180817678378588 0.7418724756728755 1.9689233534667636 39 51 4
13.879205698605919 0.41736731347241507 2.4842489622010544 59 70 21
14.053887996938942 0.04995375637534485 2.4683095462646847 59 67 17
14.347685625151769 0.1833530376957907 2.5597799072404137 54 65 16
14.25700164533646 0.2716196961683278 2.45064272415104 58 69 20
13.665913316785819 0.3046395788118438 2.5047433313950886 52 60 12
14.85988127901286 0.8525321580162084 2.634100292385466 48 59 8
14.64559468359351 1.0578385313870708 2.419151008529303 56 70 25
14.123867224300055 1.2554670998878648 2.4621216182120014 55 67 22
14.881055631818208 0.6570721253230289 2.631547292756433 50 61 7
15.257139752211273 1.102208268092356 2.7306710938249705 61 74 19
14.600565340732537 1.3050141799470867 2.6670201743198056 58 71 16
14.364780565709513 0.757266934442922 2.55797313364643 32 43 0
14.59751453224701 1.1035343632003527 2.534253186514644 46 56 10
14.488250492732824 0.11608790145940338 2.8777885951645974 62 72 28
14.707998970749145 0.2097658758333653 2.652992830718331 60 70 28
14.68535768801002 0.5760916379952797 2.831965852317508 61 73 26
14.644113823691992 0.06471291536160925 2.6612637916387665 61 72 18
14.492558031550605 -0.14877260917135224 2.8766904004693186 62 74 29
14.181026117654046 0.47089018796992027 2.5778974815465814 38 48 6
14.250113808027459 0.6262111786286869 2.717380388525944 62 72 26
14.411644202957772 0.4008083738060948 2.693207646581338 58 68 30
21.765336397319174 -0.3062736732993258 1.5702004264497809 38 49 10
20.825829790735337 -0.38332746355233516 1.812609757839499 26 36 7
21.114708279231508 -0.3036429692244301 2.0634767836669483 70 79 47
21.30024658206782 -0.47249941135391166 2.058806447100077 10 16 0
13.732002791919882 -0.35022565854178367 2.2842629409865585 50 60 18
12.355444750394783 -1.4203764495567917 1.8993708870481272 45 58 14
13.07851704036666 -0.9205055000376992 2.3283686016379 58 70 26
12.967753300645604 -1.1577590107583144 2.3364786753236255 58 71 26
12.581875190092097 -1.3895428631969158 2.2585517039570124 59 72 26
12.89989560080837 -0.31922533972594186 2.4562380335758567 57 65 16
13.135149122466942 -0.4307435692062336 2.4346152466716386 56 65 17
12.618689661660714 -1.1112927916184712 2.627409999143774 60 73 29
12.917091607702153 -1.3098416547213994 2.5878851328614307 60 73 28
12.860479110159282 -0.9440175605113215 2.459995571789647 59 71 25
13.07714990995017 -1.1101951649331887 2.439822792042258 59 71 25
12.826025909613904 -1.2217352026551331 2.463313311695971 60 72 26
12.52545463484742 -1.0513629117143004 2.493669110735135 59 71 24
12.861505417124 2.1777338690198387 1.7259119735049055 52 62 20
12.973367273787057 1.872441377193489 2.1395320187357934 45 57 10
12.835744355271192 1.9263784804513278 1.886640826587801 50 61 18
13.792431863250208 2.4788274773552783 2.2804767765912746 55 66 19
13.733581101735018 2.343254460806495 2.284163470514912 56 66 20
12.861698025992247 2.078254610325346 2.145091538576523 52 62 18
12.804073840774137 2.155551336590958 2.0573563470065586 52 63 19
12.454364877184743 2.3448054030198273 1.89666423597447 54 65 22
14.162022625778064 1.736984624965672 2.580023893906425 52 64 17
15.017887498301603 1.736984624965672 2.615490023000319 57 68 18
14.218214017314528 2.8171456606750414 2.5737731719393424 60 70 24
13.931047964700587 2.0896888679071455 2.479442619412489 58 68 22
13.265934556033013 1.8311246830511227 2.423151588143032 46 58 9
13.813163164461352 2.969022166129057 2.4904683780298758 59 69 23
15.025661221791884 1.4332892409964528 2.767600166705315 60 72 21
15.058574862370453 1.796323458483727 2.762069901651767 60 71 20
15.025544259497932 2.3384112156871737 2.6146131430534214 59 70 21
12.964531941601908 -3.073505896421584 2.4501623625195097 73 84 43
14.081279977326218 2.9457799680172845 2.5892051529501523 60 71 24
13.686292353373501 2.887704026416341 1.5698486652727288 55 65 23
13.064024326988118 2.793981062108472 1.6464216830274006 53 63 19
12.902530112939512 3.0943092018497977 2.341349668131018 58 68 23
12.774768762737894 2.8449791885446745 1.9718419769250084 55 64 19
12.01958105751644 3.0144689456603366 1.9089132590769078 57 67 23
13.484252771944734 2.5573406094469977 1.5698344661028434 55 66 21
12.619074115075547 -3.0957040179645947 1.8097720089171667 61 71 34
12.485888759203801 3.002216712637155 2.1646923154277227 56 66 22
12.116043995088871 2.908062786839842 2.0876424361742663 57 66 22
12.48993661484859 -2.0825512520216574 2.373938449912571 61 73 28
12.757552591938374 -2.54823251523165 2.2472901703480397 64 76 31
11.307101929700863 -1.492269403239254 2.128798989969609 55 69 22
12.72555035346144 -1.6883633716321083 2.1520297524685823 56 66 24
11.74014129028074 -1.898190142203727 2.105937346214375 54 66 22
12.442712696567 -2.0726928865507848 2.0727824578315324 56 70 26
12.233982317717087 -2.120616554390318 2.1786617697161557 59 72 27
12.017105856585907 -2.4057649466962294 2.191273788292422 61 73 28
11.683168269545622 -1.594228473298447 2.011809550234912 52 64 24
12.455893887715595 -2.0312937538798557 2.26688987152418 59 71 27
12.442712696567 -2.0726928865507848 2.0727824578315324 56 70 26
12.461691900886088 -1.5966778724807889 2.266501142546155 58 70 27
13.236146364008356 -1.4363378001830793 2.7036555303378824 63 76 30
13.230687740207323 -2.189400304528343 2.704537432116485 63 78 39
13.273498118544579 -1.791426440535919 2.6976841035359014 63 74 30
12.735849951140583 -2.0992464866450304 2.6113517490960905 63 77 34
12.727230451593716 -1.8596817078579233 2.4730048256459662 62 74 29
12.993522196420766 -1.90076278794703 2.57844233005624 63 75 29
13.20328405873541 -2.0303317220040036 2.5537585127347255 63 75 29
13.409240454701767 -2.8017528352744656 2.5310945921685013 64 79 41
13.203361707542292 -2.840358918994228 2.428588958300352 66 81 44
13.156114222246424 -2.579755217127987 2.4327519046797006 66 80 37
13.808951682814302 -2.4141422066352884 2.490868732601567 62 76 35
13.826712714202856 -2.954370903044412 2.4891833977037434 109 124 88
18.18131724405573 -2.006636123328911 1.9063539292335354 61 76 42
20.814751528218288 -2.0325928874838795 2.244562961368805 55 70 34
11.904799606778958 -2.7227204091530828 1.912305468063303 61 72 31
11.50452079699437 -2.6000694014446126 1.9246998250298688 61 73 28
12.170474457803984 -2.834860154627288 1.8187621449369495 59 72 32
12.727944338638233 -2.7738848311123765 2.2491592626461268 64 78 40
19.91190161175453 -2.3089490459127133 1.7213770337926857 60 74 43
20.027819923474055 -2.237556944586895 1.7204989038598386 66 79 48
19.900241942949446 -2.153110002165348 1.9295449177149504 61 75 43
19.06699972367318 -2.1069571446909627 1.89019909029974 59 74 40
22.29198340817556 -0.34945479946393243 1.4352220411021 44 55 17
22.29198340817556 -0.34945479946393243 1.4352220411021 44 55 17
22.938096177415122 -0.4317863796944034 1.482926667818336 43 55 12
11.085243954237399 0.761530697115791 2.141340437442464 29 40 0
14.215400530857986 1.3393954314549665 2.5740835143924845 49 63 16
14.93000835151121 1.0156128237433648 2.7842798322825915 60 73 20
15.06823388162366 1.3393954314549665 2.6097643644221344 53 65 14
14.276565574056505 0.24489168119999885 2.7132963865717197 60 70 33
14.552819877346245 0.3658569363166258 2.861832286595449 62 72 30
14.41239659494819 0.9348668122284957 2.5529888120810234 37 49 0
14.972852985835576 1.043046645979854 2.620692926985417 45 57 10
13.963477941989767 1.3660115496531295 2.4764690437895065 54 66 21
20.951889690816504 -0.3540830882215225 2.0141114589073053 31 38 25
13.507148652458314 -0.25693841527974814 2.2987637087704975 55 65 19
13.336456570926721 -1.0513629117143004 2.538938876059177 61 73 27
12.3248690613139 -0.3626920944215011 2.515486310047235 57 67 20
13.090308045840324 -1.173655607295426 2.5668377188228884 61 73 28
12.663788860522894 -0.41906183448856454 2.6211400897622967 60 70 26
12.649190942541132 -1.3430835412867572 2.4808538394005244 61 73 28
13.120907766901006 2.4077876073059614 2.1323609430453168 55 65 21
13.03441375341113 1.597020065655983 2.3315738173479614 55 67 20
13.038448577952513 2.037166536491991 2.331279277560276 57 67 22
14.437069257122966 2.6479712975747787 2.435694351277332 54 66 16
13.749659942100747 -3.073505896421584 2.4965539399270558 85 98 55
14.616312087321331 2.7695921961762866 2.6649273473547965 60 70 22
14.228639097620054 1.9382098288100664 2.453056770669507 55 65 19
14.616312087321331 2.7695921961762866 2.6649273473547965 60 70 22
15.174180958206367 1.9627456634923277 2.7434045662338677 59 70 19
14.968027727288126 1.6040670976292501 2.6212550621320365 58 68 18
14.127020319922208 1.4699701393227493 2.583974535682311 50 61 11
13.745119590811894 3.0885863225089767 2.4969930929435815 62 73 27
13.917979231706589 2.4153111952238593 2.3710936734297166 56 67 19
15.104537512604113 2.154033124964914 2.605693474443086 58 69 21
13.469945595276135 2.9596255098865045 1.5698334444569129 55 65 23
13.123475583850984 2.883862686484399 2.325133273079714 57 66 21
12.61412682527335 3.105879704014933 1.8098675627960474 55 66 25
12.845112880347077 2.69127564615033 1.8054869894193872 53 65 19
12.303201678913661 -2.2453152570498704 2.3897955449907897 60 73 28
11.704756723133556 -1.4996776175984206 2.0109391291845298 53 66 19
12.83075452706687 -1.9333131721869954 2.3467944439227875 60 73 28
12.043279381435227 -2.2612687659316 2.1897215510540042 60 72 27
11.284752762706962 -1.5966778724807889 2.1300356215858525 55 68 24
13.051545180959137 -2.2453152570498704 2.4421467899395815 60 74 30
12.159669362704125 -1.90076278794703 2.534524660877733 63 75 30
13.002585118115302 -2.425921230651497 2.577339289755309 64 80 43
13.021367332661148 -2.0285237750850333 2.740323838276138 63 78 38
12.81976390065538 -1.4566337138503818 2.600290376694786 62 74 28
12.858325248729 -1.7586591663576898 2.595322633487973 63 75 29
12.81976390065538 -1.4566337138503818 2.600290376694786 62 74 28
13.978967584250123 -2.6233650212283104 2.6011959866665237 67 83 46
17.95182056628599 -1.9315050116521535 1.7379653244414368 64 79 45
12.455976195648748 -2.6832668821761136 2.1663147037003436 62 76 35
12.141775071190127 -2.8965651648589104 2.086438323163453 66 79 42
19.682222544647058 -2.228459931442326 1.9337017543015635 57 72 38
11.787942551600482 0.6779490648013327 2.3152352917285888 34 45 1
14.21074102740685 0.07592253327694587 2.72355735469909 60 71 21
13.346439288851256 0.47089018796992027 2.537852632421608 1 6 0
20.88378455920378 -0.4027112645601392 1.9632441361322162 3 11 0
13.012048323208 -1.1968441362690585 2.2316842243773096 56 69 25
12.536060282240182 -1.3689161813437516 2.370133718068809 61 74 28
12.063263414308707 -0.5544802427444313 2.546127912108199 60 71 26
12.210916952449313 -1.0279622764741236 2.690040965570671 62 74 31
12.739013719831929 -0.1988744375036139 2.4718347755980705 54 65 14
12.14440471967019 -0.7594245254594002 2.7014688796572925 61 74 30
14.115298165718409 2.8183663123994074 1.4276993664588014 53 63 20
12.801224583809164 2.110158188680439 1.8875221587203108 51 63 19
13.183261916924947 2.0707401606613565 1.7220966230881722 50 61 19
13.127238098531242 2.036645420782134 2.0443782448982173 49 60 15
13.10397922531583 1.7648293465722393 2.045288082671068 53 66 23
14.854358370622657 2.0380108673845503 2.6347693214685908 59 70 22
14.475947864875884 1.9824846614741334 2.5464442252267174 56 67 20
15.079353670452779 2.5239926014819476 2.6085123842010436 57 69 19
14.693257509885964 2.4396299462286386 2.654883511075698 58 69 22
14.014538228480353 3.0812892757664176 2.5969803579182646 61 72 24
14.668226605016368 1.9066948311441487 2.6581182198837143 59 70 19
14.047422280215056 2.5587094905621295 2.361646035137243 54 66 17
14.161702040809008 2.7466874045584215 2.4588210112010627 56 66 19
13.374492269550732 2.6100413780254574 2.2107818050536165 54 66 18
12.277582272626496 -2.4141422066352884 2.3920300603860754 61 74 30
12.589174083362137 -1.7342903085744643 2.4870115557803647 62 74 29
14.094571780402383 -2.9292632227269157 2.5876771116039468 88 103 68
12.518257990279245 -1.954796996727767 2.641796823538411 63 76 32
11.55852143311918 -2.8070251999133258 1.9229742891143407 61 74 35
12.035150047725827 -3.003564048067262 1.9084584309764332 77 88 52
19.064148661291576 -2.228459931442326 1.8354676657596536 62 76 45
15.318927791827996 0.4008083738060948 2.7215104521208304 62 71 17
20.21195406345626 -0.5906691508659909 1.9237682180342977 5 12 0
12.570831065488383 -0.23394645811183223 2.067196917951458 59 70 28
11.62054594911924 -1.315876232377688 1.921013475082732 52 64 19
13.855284117259727 1.6001263463479014 2.486489067511457 47 59 9
13.400736719824781 2.7466874045584215 2.4117206823795496 55 66 17
13.072958552050457 1.9937060750378 2.228066601375187 50 60 15
12.690084649803422 2.2890055314485265 1.7280246327022477 53 62 19
13.400736719824781 2.7466874045584215 2.4117206823795496 55 66 17
13.397620392692478 2.1271815405918693 2.3060738485341896 57 66 23
19.773152701872228 -2.058128012264892 2.0426146354067756 56 71 37
12.28026781362477 -1.898190142203727 2.176041820562258 56 69 26
12.500877008445398 -2.9902903479943896 2.163882972411501 89 102 67
13.046222611258216 -2.954370903044412 2.4426318432343237 106 121 86
11.733449544279104 -1.4831427565863737 2.3195223393010735 61 74 28
12.38356369859108 -2.0303317220040036 2.5089615904275 61 73 28
12.15637945363847 -0.22738358373279693 2.5349144139592505 55 67 19
20.585793936344775 -2.0861118441888684 2.1923466318497673 55 70 35
12.415433505662003 -1.5996989685588403 2.380176322883494 61 73 29
14.161702040809008 2.7466874045584215 2.4588210112010627 56 66 19
12.054455056433328 -1.8016456693840257 2.189061344922503 58 69 26
14.497126956833727 1.6092305603314332 2.681102404975221 58 70 19
19.289155224393237 -2.153110002165348 1.8323074723129917 61 75 43
12.025039862153948 -1.2040658436890794 2.7230428239710713 63 75 32
17.480563920979307 -1.8960169552102388 1.9203690345573838 64 77 42
15.329406781350118 2.5616518796697 2.7199826601140247 59 70 22
14.449110649468237 2.1091844790179066 2.6878473718545606 59 70 21
