12.697357995900331 1.2966040383940878 1.6914686239801737 25 41 20
13.298081880072766 1.4636222229665434 1.6859925827772821 40 57 50
12.47508259183045 1.4548657486385739 1.7748946726052781 44 59 48
12.856123323614765 1.2966040383940878 1.7687638638865124 34 50 30
12.073968189600645 1.193437786776193 1.6977318815390763 29 48 23
11.432723279338335 1.623463286016923 1.7938038882164147 35 50 37
12.168344624305439 1.2733509976713944 1.8649959846307769 38 55 36
12.495023718737015 1.2733509976713944 1.9416643265642577 39 55 31
11.107609239671422 1.5300601282480373 1.9907233304650853 27 46 20
11.694621345638438 1.623463286016923 1.8772927463886555 32 48 23
12.026940004560593 1.5337152813664805 1.9568440675192202 32 48 23
11.115433972712614 1.6286491941704464 1.9904090484620354 28 47 20
12.102619406260784 1.4445593798027325 1.9543038344069157 33 49 25
12.663195250340172 1.357371423578505 2.02259055981894 36 52 28
11.73469325119083 1.213202093423788 2.160773506066743 26 43 12
11.32522995205739 1.0737030824607074 2.1851819271836646 25 43 12
11.173160181632351 1.3987940253583333 2.3101392206281384 27 46 14
11.098976853990383 1.6428295520830116 2.3162511484883423 29 50 16
11.234976361392265 1.5256061303501753 2.190860537614884 29 47 19
10.648817596890696 1.244636300402093 2.3560155230644746 27 47 10
10.629794476607337 1.0168257584173586 2.232130432719493 25 45 10
12.903376789642705 1.858218336956142 1.7680293191100205 39 53 56
13.625396205456966 1.8373958284622325 1.6095941733747734 43 56 61
14.280833087769885 1.9729848838527055 1.5377742838210289 44 58 61
15.06395012871572 1.8846023339241156 1.4059842418494777 45 56 65
11.78719889534244 1.7123722462746318 1.8748081512927046 34 50 37
12.898156596801261 1.9958289628795431 2.101520309395121 30 49 24
12.824949362089901 2.0746360873153313 2.016479138802436 28 46 26
12.543637566324175 1.8824546739333718 1.940157701966537 34 49 35
13.250424129503795 1.9615795297356304 2.0011939391405993 30 46 24
13.181445211543515 2.105015177908521 1.7638155586739352 39 53 49
12.909534631169214 2.2134336486215114 1.7679340007620485 26 43 32
13.816829847874455 2.0681284712312644 1.6090563608034498 44 58 61
14.137547498847635 2.227744120268097 1.4665231819402902 35 49 43
13.481593627520848 2.1689379054950733 1.535815836699657 40 54 55
13.181445211543515 2.105015177908521 1.7638155586739352 39 53 49
11.33898022760612 1.7428167524055134 2.1843266968488986 30 49 21
12.343029405525312 2.383267035845962 1.860710655200137 28 48 29
10.846348484582872 3.010274163625688 2.2166845163834004 43 67 38
12.116244006228987 1.8467854240657704 2.2412687419112114 32 51 26
10.91908517972686 -3.0599897134797254 1.804484825225327 40 63 35
11.915857442166317 2.5723899633138116 1.8714224399187076 31 51 25
10.99598009733917 2.8979938229968 2.2064669518141597 35 58 29
11.842165679852762 2.791626367438893 2.2597593102114244 34 58 29
12.36839755986925 1.9449903337387162 2.225203084436626 33 52 27
13.016985807188295 2.1955656395506007 2.0961710908166116 29 48 23
13.252227987414638 2.380376033914719 1.6106872501292986 26 44 29
11.900627809422417 2.7693067999920635 1.8718192104103837 34 56 31
11.946400581651242 2.602717226455839 2.1489550887700757 37 60 31
10.943629510645119 3.034872303076591 1.8039509896099253 41 65 39
12.286672480226166 2.3163349263114688 2.230316058380104 35 55 27
12.323469769702882 2.4616817318583464 2.2280030153623946 40 63 30
10.88552819178733 3.1289219302916487 1.805218691178418 40 64 38
12.421372677648705 2.321401374948052 2.03205982023503 31 51 28
12.539607650240262 0.6522350699078436 2.56737929171078 25 45 6
13.363692295667011 0.3212545606954497 2.6113285275271023 23 43 4
13.813731139330429 0.37554836658997176 2.7068064842517368 28 49 10
13.694921143900068 0.206533853264292 2.7258792370043703 27 48 9
12.87714136960143 0.018094669330456288 2.5280473000125205 40 61 22
12.72004590358849 0.4545783037156783 2.5458099728913597 24 44 4
12.926293850317908 0.15181656572912125 2.5226681177032644 25 46 7
12.261407062034126 1.711828429022395 2.794091979091846 33 57 19
12.192120924129444 1.503560832826528 2.6130636733160166 29 53 13
12.714029480023285 0.880653777043185 2.706318549554353 28 49 10
11.688752945399793 0.8607845665177164 2.5238459410688754 26 46 7
11.835080804589301 1.0630510956264452 2.506651746951695 25 46 9
12.200731192638811 0.9841045098978652 2.6118563822232637 25 46 7
12.254314087716233 1.4712138523810103 2.7956935785611043 32 56 18
11.798543147186827 1.3022194111972871 2.673335454775597 30 51 12
11.986876960418995 1.375258040875526 2.4896576249004325 28 49 12
12.421756472721377 1.1960094427629613 2.582215362603841 27 48 9
11.917759773767186 1.6528839795519117 2.4972942233749134 32 53 18
12.633701199290979 1.684623811555544 2.720199235623947 32 55 18
12.145424236465514 1.244636300402093 2.4727412724042326 27 47 10
13.018166393098584 0.7527787398925859 2.6585169763595173 26 48 7
11.800181949501955 1.6428295520830116 2.378559944934284 31 52 17
13.138079729674063 0.9146659418232276 2.835779086156918 30 54 14
12.73594729049769 0.6175387805529498 2.7026323625208515 28 49 10
13.357965773379295 0.7428249909751812 2.7873372390931657 29 51 11
13.331344812813933 0.25155516490181123 2.7927762691340225 30 51 12
13.357965773379295 0.7428249909751812 2.7873372390931657 29 51 11
12.787287652653562 0.9859509666892744 2.9400672291204577 32 56 16
12.73594729049769 0.6175387805529498 2.7026323625208515 28 49 10
12.991652256882967 1.1472296290907862 2.8737733867189634 32 56 16
11.954075075401466 1.439759752724754 2.8739592751771634 33 57 19
13.453366023795194 0.4504413515418664 2.7686362331475705 30 51 12
13.76850508761368 0.9859509666892744 2.95460556619728 32 56 17
13.461483946556534 2.5045440268410553 2.5990653759923763 37 61 28
13.078136742781805 2.408067220745286 2.649846280499238 36 59 26
12.288026342321805 1.8239523842645218 2.5998471807134087 32 56 15
12.319332862734537 1.9861184535584682 2.3354486403900663 32 53 20
12.349736536517696 1.9373139185658181 2.7748546531081324 36 57 20
12.719445560772927 1.8705768697980913 2.705403765821992 34 58 20
14.006751263958504 2.1806117229072384 2.6780223540731916 35 58 22
13.312643899918298 1.9698924765832033 2.6179060897992183 33 57 20
13.149237427612379 2.2351636762746745 2.381312593102749 34 54 26
13.427805610559213 2.299963190840417 2.6032401149321522 36 59 26
13.890984549831582 2.2351636762746745 2.4309424371485924 36 57 24
13.542539532396855 2.0999270750635857 2.589217708248711 34 57 25
12.816547672507623 1.7896760042819526 2.534793250504212 33 54 17
13.519821092868053 2.142203676178781 2.4634603636042307 35 56 26
13.011713818912236 2.0395026707721384 2.868211138583109 34 58 20
12.797240241975357 2.542178925457647 2.692539536657714 33 58 24
13.188754573170785 2.630360345458569 2.634409479147298 35 60 27
12.969590704170484 2.451810536694872 2.8800438614535366 31 56 20
13.011713818912236 2.0395026707721384 2.868211138583109 34 58 20
13.403450125481545 2.423461808409576 2.7782731018875024 35 58 23
13.403450125481545 2.423461808409576 2.7782731018875024 35 58 23
12.811648552592102 3.117585676533962 2.6902113666778344 41 65 34
12.807669329476212 2.2101857261232696 2.932420840533037 31 56 20
12.987491841740162 2.776708762174866 2.6630393171258326 36 60 29
12.861051336776528 2.941313865268762 2.6823509432436743 38 63 31
12.862554766939725 2.6426708524704217 2.4050479370827986 41 65 36
13.438628480616151 2.479512430054531 2.4709955597550506 43 66 35
13.107556273240105 2.3917733575290105 2.3846623312666724 39 63 26
12.57684428942562 2.749846167682277 2.4304594898403185 36 60 31
12.808595931478811 2.6974814991472362 2.5356881573106187 35 59 30
11.47098076628099 2.9932042198869886 2.4090630614641406 41 65 36
12.627501585527176 1.374492566049282 1.7723969799204662 42 58 40
11.687184393059026 1.5337152813664805 1.8774941326196768 36 51 37
12.102619406260784 1.4445593798027325 1.9543038344069157 33 49 25
12.449591909493114 0.712643190396661 1.532914814588524 53 74 37
10.946228037278681 1.3125174384294915 2.100247966063217 27 44 13
10.629794476607337 1.0168257584173586 2.232130432719493 25 45 10
10.974275504445732 1.1735120240916304 2.20792700880152 25 44 10
10.693062067789809 1.634966363247703 2.1141596143691634 29 48 20
12.577303137601005 1.9109823836046549 2.1165591060111755 32 51 26
13.44351251689555 1.9322115144550787 1.8363762058248314 40 54 57
12.865330651631107 1.9615795297356304 1.9304956057636433 36 51 42
12.93830940390732 1.8824546739333718 2.0122975323823025 31 47 22
10.99598009733917 2.8979938229968 2.2064669518141597 35 58 29
12.291428036681063 2.386942917582946 2.1307450976268614 35 56 27
12.047487197014213 2.5018442885533556 1.6980124056558639 28 48 25
11.361704826049047 2.9426751382725294 1.8865795779687031 34 57 32
12.540655091503064 2.119741258937576 2.1183347724970853 29 48 20
11.942758451797475 1.7428167524055134 2.2528419005224363 31 50 24
10.787723235092155 3.125971205171798 2.2207870076164005 42 66 37
10.943629510645119 3.034872303076591 1.8039509896099253 41 65 39
12.411959317847977 2.1726423921629934 2.2225133108959025 31 51 25
12.14517150315913 2.6928979955556076 2.239381321856864 36 60 31
12.207000606435916 0.572602318935576 2.466384659821681 24 44 5
13.052102342413368 0.2803108739957387 2.509261488402206 19 39 0
13.240844720832726 0.1750405204175395 2.627374080961507 21 42 3
12.913642443314343 0.37554836658997176 2.6741827529091897 27 47 8
13.116038426515669 0.5248341385651941 2.644478195280147 26 46 7
13.116038426515669 0.5248341385651941 2.644478195280147 26 46 7
13.694921143900068 0.206533853264292 2.7258792370043703 27 48 9
12.72004590358849 0.4545783037156783 2.5458099728913597 24 44 4
12.654095956926186 1.0630510956264452 2.553541492695854 26 47 10
11.720900553137076 1.4905167363883527 2.6866072601903537 30 54 16
12.32859782699966 1.2414447150431185 2.779344696595052 32 53 14
12.731457295265173 1.6528839795519117 2.5444891896365758 33 54 19
12.141484645728623 0.7527787398925859 2.6202499523833866 26 46 6
11.962714754050891 1.0168257584173586 2.364455133971578 25 45 8
12.482805574044681 1.042457165352441 2.7480350952500765 30 51 12
11.12663928636073 1.5129625829825006 2.444160793910903 30 51 16
12.261407062034126 1.711828429022395 2.794091979091846 33 57 19
12.991652256882967 1.1472296290907862 2.8737733867189634 32 56 16
12.927908072258708 1.7559258249863487 2.8923732013116945 31 56 18
13.159291270836233 0.5588082638014984 2.830714161423475 30 52 13
12.73594729049769 0.6175387805529498 2.7026323625208515 28 49 10
13.138079729674063 0.9146659418232276 2.835779086156918 30 54 14
12.936028607389769 0.7241396939645555 2.889918555120483 30 54 14
12.808595931478811 2.6974814991472362 2.5356881573106187 35 59 30
12.816547672507623 1.7896760042819526 2.534793250504212 33 54 17
13.171126978575957 2.260837387468198 2.827929400129886 32 57 21
13.205459947090265 2.604874343747714 2.820010756413992 33 58 24
11.415563800720593 3.123912618559734 2.414476375010135 41 66 34
12.882475878260587 2.0375351114238396 2.6789991806558042 34 58 20
13.171126978575957 2.260837387468198 2.827929400129886 32 57 21
13.188754573170785 2.630360345458569 2.634409479147298 35 60 27
13.801443869953072 2.398403265438019 2.5594952821640846 38 61 29
14.041825963815274 2.8353507873532755 2.8703672510677496 35 58 24
14.02386108882278 2.0366694937872007 2.535821824475337 36 56 28
13.389912581590629 2.8991978655516237 2.780941682045792 38 61 29
12.589720209709487 2.70611593182796 2.728061792380399 34 59 26
12.601262908289375 2.828268048874261 2.5598598292076034 36 60 31
11.043464959425767 -2.9671435890421503 1.801804720673602 39 62 33
10.947071155921806 -2.927629665478747 2.2097674546623147 42 65 34
11.432723279338335 1.623463286016923 1.7938038882164147 35 50 37
12.358820021958905 1.1600962998788482 2.034577020665866 31 47 23
11.091140510556814 1.5200595264641716 2.316903582784816 27 48 15
11.315953537397686 1.4173127787309272 2.185760361800039 30 46 18
10.779787875048392 1.0737030824607074 2.109307305102263 24 41 11
13.595768140730028 2.0022910918662244 1.7578626860442605 42 56 59
12.907215372989345 2.147153945932164 1.9292755485407052 26 44 27
13.92211590011306 1.9067921372872318 1.6087668794915695 44 58 61
12.457772101201385 2.4483432085470618 2.030608128306552 32 52 26
13.431795095480522 2.4864700616525237 1.4610227600378505 26 45 30
12.034792822251934 2.690056408577184 1.7824730113757066 32 52 28
12.24706199276862 2.616452593068669 1.6139632175800807 28 49 27
11.913344739132063 2.521295397601738 2.0533691429012504 34 57 27
12.70833565865988 2.2639269962219455 1.9351454156751506 27 45 26
12.633701199290979 1.684623811555544 2.720199235623947 32 55 18
13.192864210213711 0.02091543846438883 2.6338491652668985 21 42 3
12.161219028973138 0.9471527720058738 2.4710997498574327 24 45 6
12.145424236465514 1.244636300402093 2.4727412724042326 27 47 10
12.797240241975357 2.542178925457647 2.692539536657714 33 58 24
12.923595764038913 2.3163349263114688 2.2915049085839945 37 58 26
12.517582909727416 2.1299346880553824 2.7413970019808 35 59 21
12.516253878403566 2.5466700614954356 2.3204622059753524 45 68 37
13.154945770527984 1.8239523842645218 2.639054065400356 33 57 17
13.311955319013691 2.036182613722975 2.2661603249230002 31 50 24
11.891937748821743 1.7634725932223978 2.37052472851279 31 52 17
13.841035595902188 2.2128697819310608 2.5551634449486356 35 58 26
12.646732841463479 2.084257672374105 2.3108995888881014 32 52 26
12.066154018673528 1.8787157636391463 2.355777806394076 32 54 13
10.821583513741471 -3.0410991807898586 2.218410550473324 42 65 34
10.91894806432145 1.1245687397188993 2.3315807471756846 26 46 9
10.705541192671083 1.2824090540916169 2.2266357069714506 26 46 11
12.295078446874559 1.7990890722327944 1.9479959241146096 33 49 22
12.259669943040896 1.357371423578505 1.9491404037153306 41 56 42
12.543637566324175 1.8824546739333718 1.940157701966537 34 49 35
12.200731192638811 0.9841045098978652 2.6118563822232637 25 46 7
14.203807790431805 2.309542735525716 2.5177654999850754 37 60 24
12.927908072258708 1.7559258249863487 2.8923732013116945 31 56 18
12.72251957250237 1.839185646686286 2.9667284802089644 31 56 18
11.910462150761552 1.5129625829825006 2.498110253702091 31 52 17
11.056208973322182 2.825626342444726 1.9928000014624863 32 56 31
12.804363644918118 1.193437786776193 1.9322867890847197 31 48 24
12.102619406260784 1.4445593798027325 1.9543038344069157 33 49 25
12.73594729049769 0.6175387805529498 2.7026323625208515 28 49 10
12.199250059290316 1.666190645385728 2.612063761072706 31 55 15
12.10177904434272 0.7589609360009552 2.4773175080511036 27 44 8
13.089248740396124 2.58110571729664 2.505398364325787 41 66 34
12.266781291279926 1.3443872623552715 2.6027319713550647 28 49 10
12.75651032011586 2.142203676178781 2.4142625206805115 33 53 25
11.521580720280369 -2.8772317841988904 1.8820493335580264 38 60 32
12.124152120222655 1.7123722462746318 1.95358734033961 32 48 23
13.254833916586758 2.035870522561764 1.9194674570382892 30 46 30
13.67189738545229 2.2854411527526284 2.729710701029586 35 58 24
13.702029839704172 1.3796146929896709 2.982274687764481 31 56 18
11.959587409920521 1.1314347791202621 2.647374873623485 28 49 10
12.47090710540992 2.9710828303408965 2.575951599409845 40 64 33
12.57684428942562 2.749846167682277 2.4304594898403185 36 60 31
