11.56107699865247 1.6644004650219293 1.681694849380945 28 35 5
11.847588595345014 1.7501413186480974 1.7644039220239465 36 41 13
20.592976003461043 0.657710887600086 2.406808262908129 43 53 23
10.338772741521046 -1.1811302641556118 1.5978318402513205 76 78 79
10.001905618213918 -1.2737848784830548 1.598742637553831 2 3 3
10.618388586478588 -1.6721450994126714 1.5971197427366703 33 34 31
9.835902101558208 -1.3719926305339434 1.7012486407363512 22 24 22
9.645763761419735 -1.578531029022855 1.7038352596833195 20 23 18
10.691545077040841 -1.6721450994126714 1.690755960070063 150 151 146
9.886739234798105 -1.6826620742830798 1.8034487877897134 96 98 92
9.828254756004787 -1.5805770642833243 2.2638913645716405 55 58 48
9.615053865197671 -1.4630347074609789 2.032061293312993 58 61 53
9.886479947067674 -1.7119042063985193 2.2590098041029782 53 58 44
10.01642932891316 -1.8769928377225265 2.3843807785344424 58 62 47
9.84302666442544 -1.4305614932811785 2.4032083992576636 51 59 39
9.986855346992348 -1.2852261648374417 2.387519108864586 52 60 40
9.630423107025658 -1.6956018235524293 2.031268244393833 48 51 43
9.928824405259684 2.020515678569805 1.9074165786928146 40 45 14
9.270406721888222 2.134859453194947 2.1766915901481774 38 48 13
9.896749305264425 2.4860515315471585 2.0179631756451486 41 46 13
10.368442832566007 2.4860515315471585 2.1050366368149174 41 46 13
9.734874336294528 2.3214147737135615 2.271884945753218 44 50 16
10.479750159847056 2.403089388490832 1.9914498179478017 37 44 12
9.583837001105472 2.1693422581302317 1.9200414747038583 38 45 13
9.896749305264425 2.4860515315471585 2.0179631756451486 41 46 13
9.20856952063736 2.4112200945702646 2.054123711825029 40 48 14
9.874178484824336 2.134859453194947 2.260034721250248 41 49 15
9.880540985726789 2.581110738289621 2.134512493701659 43 47 14
9.389176712319422 2.6263110044774582 2.30338962570438 44 49 16
9.799803872360092 2.5103947206237422 2.266305054938138 44 49 16
10.432158173407931 -2.475436361862825 2.101427066763903 63 64 48
10.573913197663572 -2.1879051172546697 1.69209702526781 40 41 33
11.896094230631514 -2.207823955049943 1.5942919120555075 37 38 31
10.639139781082765 -1.9736273611995065 1.7867245231698872 114 115 109
9.677664110740816 -2.1618864062687297 1.9165129931399805 64 66 58
9.720047025221369 -1.9569740237088764 2.1449849955384863 57 60 52
9.668602673037986 -1.9155512429913413 1.9168505770823696 27 30 24
10.03143917112185 -2.014990924794428 1.9038391760767552 45 48 42
11.309206401741717 -2.0587279120618605 1.8650056211811474 0 1 0
10.612475907666072 -2.1265181358192535 2.3266856502633146 62 66 53
10.016169451396586 -1.4057621016841306 2.543855878094075 56 61 44
10.81806381173952 -1.5840948023290415 2.601724408342067 56 61 44
11.014821515782689 -1.9278087803127246 2.5726182144039775 58 62 41
10.61790573828986 -1.7330624112425255 2.4650880108616233 56 62 43
11.150679691664777 2.801886556139797 2.7436759266820614 54 63 35
10.423925087352188 2.6020056057147993 2.668601770312268 52 60 28
10.301779703633533 2.545835898761052 2.504273965828854 46 53 21
10.673640045458171 2.8651052650247006 2.6247484036496025 51 58 27
11.06608065145663 3.0340649601940273 2.762275935692515 54 62 36
12.005731312332365 -3.0049316704111684 2.791987253778017 59 63 42
12.041382651967291 -2.890154476922342 2.5938060983297317 57 59 37
11.772163369789 -2.9245066562687603 2.47876620252371 52 56 34
11.104749110705917 -3.0496160568170794 2.5600780727073436 52 57 32
11.477217370853479 -3.0316227503878674 2.680669266184621 55 61 36
12.041382651967291 -2.890154476922342 2.5938060983297317 57 59 37
11.186838420326893 -2.7943335519632453 2.4040287800817257 57 59 38
12.041382651967291 -2.890154476922342 2.5938060983297317 57 59 37
11.713985714935319 1.6644004650219293 1.7666405998746164 37 44 12
9.828254756004787 -1.5805770642833243 2.2638913645716405 55 58 48
10.75860277303701 -1.3903920737385707 1.503774638600096 4 5 6
9.630423107025658 -1.6956018235524293 2.031268244393833 48 51 43
9.570640262045858 -1.5794345476216731 2.0343691189316138 54 57 49
11.251419173203777 -1.0158985979655617 1.5956384133010353 72 74 76
10.83057189473001 -1.0950118440564922 1.6892088107333596 74 76 78
10.07953748723604 -1.2737848784830548 1.698078085177309 85 88 88
9.689833040165226 -1.4742325791118955 1.7032266293118041 26 29 26
9.799646325833944 -1.5820678575080016 2.4080853174287586 52 60 40
9.928824405259684 2.020515678569805 1.9074165786928146 40 45 14
9.95885757050189 2.213606267121462 2.390517127926051 45 51 18
9.751324780975702 2.238121444748932 2.1429114468052055 40 48 14
9.789590527419232 2.759642351552002 2.409225777070697 47 54 20
9.922057332167599 2.4227565604142463 2.394498316271672 44 51 17
10.27018747131484 -2.0089871328001223 2.3585879503677027 60 64 51
10.638898830625884 -2.065050157303545 2.2021496934872404 62 65 57
9.97354223302487 -1.5840948023290415 2.5501629067974996 57 62 45
11.435242436741307 -1.9976255230846702 2.6881167808517734 61 63 43
10.673640045458171 2.8651052650247006 2.6247484036496025 51 58 27
11.471967363071746 3.055138829207563 2.681591666592099 53 59 32
11.569226507258742 -2.8432688729804534 2.664904088838557 57 61 39
12.041382651967291 -2.890154476922342 2.5938060983297317 57 59 37
9.87150937567757 -1.4489136192897347 2.2602575543221137 57 60 49
9.799646325833944 -1.5820678575080016 2.4080853174287586 52 60 40
9.500578794465909 2.0717883855515113 2.038059061959967 38 46 13
10.449117193886018 2.581110738289621 2.2154954034510537 42 47 14
9.962234532183222 -2.247610936218339 1.801653579395219 59 60 52
11.79177864582084 -2.136792380775043 1.8526282904297977 36 36 32
10.032933076467884 -2.1058561185736804 1.6986725634799018 47 50 42
10.03143917112185 -2.014990924794428 1.9038391760767552 45 48 42
10.27018747131484 -2.0089871328001223 2.3585879503677027 60 64 51
10.236146619952638 2.801886556139797 2.705810966035534 53 61 31
11.569226507258742 -2.8432688729804534 2.664904088838557 57 61 39
11.953008523909842 -3.0496160568170794 2.606048399858949 52 56 34
10.085415177180305 2.6263110044774582 2.3771711643650546 44 51 17
10.75860277303701 -1.3903920737385707 1.503774638600096 4 5 6
9.792494238710292 -1.8084928954154966 2.0230751234994964 26 29 20
9.516706631038824 2.545835898761052 2.4417070447212024 44 51 18
11.23873726017709 -1.9736273611995065 1.9614354098195381 3 4 2
10.012349797157174 2.6933899447038065 2.5444164546781813 49 56 24
11.071523128412833 -3.0049316704111684 2.761044648617118 56 62 39
11.772163369789 -2.9245066562687603 2.47876620252371 52 56 34
10.044420338606493 -1.8385328936923544 2.2461468925444583 54 57 47
10.83775946998441 -1.7647202710343592 1.6891299111263847 163 163 158
9.248209287377385 2.238121444748932 2.051875430168014 38 46 13
10.081032108239478 -2.065050157303545 2.1219897882495657 66 69 60
10.87098886163116 -1.7615944001845305 2.593654399627683 57 61 43
11.648042883121454 -2.611419520098108 2.4925382740984547 60 62 43
9.713738342026145 2.4112200945702646 2.1454051843739306 44 49 16
9.896749305264425 2.4860515315471585 2.0179631756451486 41 46 13
12.093720177941744 -2.7758439308029925 2.7725482524084675 60 64 43
