9.020609691496862 1.0002079625033244 2.2089526706399267 45 52 20
9.557504177595542 0.3730961868961444 2.0461145089633637 47 52 21
9.792765412649821 0.2591030537930055 2.151657046344038 48 52 21
8.672272665184861 0.1378141049144091 1.970367733216377 50 53 24
8.310880835017961 -0.11355229698406154 1.8604451826941593 47 52 21
8.810397753580892 -0.23593351898418582 1.9637564883563239 47 52 21
8.501138124377064 -0.4562842157986333 2.2550792226827316 54 59 30
8.399033461864631 -0.26853878694318273 2.118514625808488 50 55 26
8.603095081324478 0.012324572625845544 1.9737658011757135 50 53 24
7.648533367847564 -0.6712256331957261 2.1795402993712223 55 57 31
8.326274358036528 -0.5833291665247 2.123853565903878 52 57 30
8.649750099124617 -0.11355229698406154 1.9714675595351097 47 52 23
9.078988951160815 -0.3515438400217111 1.9515241249295232 47 52 22
8.756787996689509 0.0141070612542349 2.2314880583396124 51 54 25
8.259881899597175 -0.8971236681914483 2.2791449216165045 55 57 35
8.32364969654853 -0.9853298787679917 2.1240482343900267 54 56 32
9.611569244415625 0.6059615733882714 2.2957888258522336 47 54 20
8.436121959747478 -0.7840003516626977 2.427254571990024 57 62 37
11.478891698405164 0.01984806265038299 2.699179662080242 53 60 30
9.403657402436721 0.0141070612542349 2.3155509486003254 48 53 24
15.704048199456599 -1.252316423988547 1.5309054744844848 51 53 26
15.276342422066328 1.4257345907733707 1.0480960138147535 51 55 36
15.720650598945607 1.6535696373371043 0.9899604226810023 45 49 28
15.433516119227086 1.3519216421779758 1.0539536584450517 51 56 34
15.45585200014287 1.3670055663055654 1.1982129780318826 50 55 30
15.694239150741392 1.4358954220231355 1.1349132367122396 51 55 33
6.606719580651026 1.4221051286364694 1.9383016823206285 43 50 18
7.226545657990002 1.2667298245015397 2.0565225977878097 43 50 19
7.0528445416269605 1.747149726659308 2.0695695643601733 42 49 17
7.462974272142915 1.393494946537348 2.374671399532163 46 53 18
6.54411969374063 2.163608016533681 2.534223308635852 46 53 17
7.033363522851115 1.9593257837716371 2.2419029575880534 43 50 15
6.928110894016129 2.3544278602691207 2.4585243895824647 46 53 17
8.802954466142081 -1.3332422802942763 1.9641070083779275 54 56 30
8.59292984496748 -1.5817556312112542 1.974270155938499 56 61 36
8.660927277971677 -1.7074419651950576 1.9709209744416691 56 61 36
8.392527155595708 -1.300382252184851 2.11898757341726 54 56 30
8.748050329554063 -1.5833432126927152 2.232264584154352 55 60 35
6.454075716939287 -2.1941005201913963 2.554597119291697 54 59 28
6.070433391528851 -2.402323598136332 2.6577804968436083 52 61 29
7.567361294267585 -1.9731957087426604 2.3604618896126164 58 64 37
7.533725586792483 2.3511925228259485 2.935125153043009 51 60 29
7.65472333247019 1.8300159172255601 2.5546751011528506 44 52 16
7.57770224427448 1.5919300380015857 2.570137616362459 46 53 17
7.453989067344319 3.0520724858742505 2.994703427736043 52 62 32
9.06667143747769 -0.987960253087353 2.7480891146077098 60 66 39
9.32905745300096 -0.7835196627838193 2.6850801549896666 61 67 40
8.895192707597149 -1.2573170601418353 2.369618727444083 55 57 33
8.734853822421444 -1.4172667508716543 2.388661920466144 55 60 35
8.552561225300382 -1.0346003236234949 2.411692346664811 56 58 36
8.855133766199815 -1.588460904186371 2.5547722203633225 58 63 36
8.687398304029323 -1.5854686321184808 2.3945095158818166 57 62 37
16.980743414065163 -1.5759203270100228 1.4748771941607102 74 74 69
16.816026627704446 -1.3896019481572148 1.2920906864512443 44 46 26
17.092752118786677 -1.5168099163615623 1.7101194162170261 77 77 77
15.99863252466954 -1.639019872994178 1.656766918260443 76 75 69
15.42139429173229 -1.709909627806944 1.7913487439416451 73 72 68
17.031585249320795 -1.9363408644255344 1.5927407466717733 75 73 68
17.414020618417297 -1.990009859586416 1.5922587427845376 81 79 71
8.969433911296107 0.8925289879377131 2.0801634193811576 45 52 20
7.992279159254393 1.0002079625033244 2.0065813384225635 42 49 18
9.557504177595542 0.3730961868961444 2.0461145089633637 47 52 21
9.042161329115231 0.012324572625845544 2.0756767035747643 51 54 25
8.2612044643935 -0.6712256331957261 2.279007783803223 56 61 34
8.625902281389354 -0.5138917282785348 1.9726389243932425 49 54 27
8.802628460747526 -0.12980483217557265 2.227446983481407 52 55 26
7.847254816931784 -0.5833291665247 2.0152042313995553 52 54 28
8.680362601442331 -0.39748555902994087 2.0988621136086705 50 55 26
8.203962120711829 -0.7842851582662442 2.1330835622159827 54 56 32
11.279824311951968 0.3408639084404906 2.5517286512745296 46 52 20
10.789237901829939 0.4034801511116352 2.6235753377838127 47 55 22
8.900104164231887 -0.31126389043674035 2.3690520311066736 54 59 30
9.03080734674245 0.6951035015532606 2.3543128686640324 47 54 19
9.88757920102854 -0.4562842157986333 2.412464716220105 57 62 33
9.466986888308552 0.1574409216497519 2.309401640666857 50 53 24
8.838023446686156 -0.6381520519680052 2.5576900616901623 62 68 41
9.166067091897958 -0.4562842157986333 2.339717318110114 55 60 33
17.19180886877744 -1.3139942280183279 1.1111850823787321 54 56 29
16.4344197552122 -1.329503812405912 1.654481848549502 44 46 25
16.950883819459726 -1.329503812405912 1.8317717012877481 50 51 38
16.20759764515974 -1.1930462460661113 1.7177821543707483 51 53 27
16.783855865931393 -1.1093286552819792 1.960325519717157 51 53 27
15.683291658970953 1.5774088489599973 0.9883961042931417 47 51 31
15.183538974494857 1.5011714193589674 1.044570917133242 49 53 34
8.344060909129938 1.3387593444498043 1.4956684872803783 36 41 10
8.349720665620445 1.2667298245015397 2.26996365714267 45 52 20
7.504454321135794 1.584999309781033 2.192986493159646 43 50 18
7.4861486075437425 1.7808166149567246 2.371464538796717 45 52 17
6.3461117421275794 2.041804848309316 2.3311759237868452 44 51 15
8.814851250145516 -1.7269382061515148 2.2263786881332717 57 62 37
8.594371661442208 -1.943162742337005 1.7313241741367666 60 62 38
8.795178598222433 -1.4392324842707307 2.2281000051745687 55 59 35
8.95443736819064 -1.300382252184851 2.214444834459985 55 57 33
8.67532674103001 -1.1714017648590138 2.0992007541102176 54 56 30
8.436172581586984 1.5919300380015857 2.6342932117467255 47 55 19
7.65472333247019 1.8300159172255601 2.5546751011528506 44 52 16
7.742873460033738 2.048772474041255 2.8315587601172636 50 56 20
7.387349936847547 2.163608016533681 2.6115553019274698 47 54 18
7.65472333247019 1.8300159172255601 2.5546751011528506 44 52 16
9.32905745300096 -0.7835196627838193 2.6850801549896666 61 67 40
8.83678721238393 -0.9295060400721193 2.5579018158216384 58 63 36
8.83678721238393 -0.9295060400721193 2.5579018158216384 58 63 36
9.321681180771474 -1.0346003236234949 2.483285151013735 54 59 34
8.754662031548252 -1.7528520050199747 2.3862505245858667 58 63 38
15.99863252466954 -1.639019872994178 1.656766918260443 76 75 69
18.297690704033513 -1.4001086456920944 1.9265901403074244 74 74 73
10.39277171997173 0.30284805426471595 1.606763522077161 38 44 12
9.108004704805001 0.1378141049144091 2.0716858433399263 50 53 24
8.310880835017961 -0.11355229698406154 1.8604451826941593 47 52 21
7.717354336470305 -0.7842851582662442 2.023234798296824 51 53 27
10.301926997588065 0.6059615733882714 2.3685096406012303 47 54 20
11.279824311951968 0.3408639084404906 2.5517286512745296 46 52 20
15.847268677184813 1.3670055663055654 1.139406181682907 52 57 33
15.433516119227086 1.3519216421779758 1.0539536584450517 51 56 34
7.407374904812642 1.5877850634549173 2.3824917849199756 45 52 17
6.606719580651026 1.4221051286364694 1.9383016823206285 43 50 18
6.18476224574134 2.3544278602691207 2.356293033674942 45 52 16
6.961323520637601 -2.061809187744365 2.4526823109446516 54 59 30
8.22239199084989 -1.4392324842707307 2.1316717776811114 54 59 32
17.341752896519512 -1.458074305605133 1.766587949599905 75 75 75
8.969433911296107 0.8925289879377131 2.0801634193811576 45 52 20
9.042161329115231 0.012324572625845544 2.0756767035747643 51 54 25
9.634257052020626 0.2945746270065179 2.2937044404852904 48 52 20
17.446551047686977 -1.0006766484777052 1.2424408936441607 57 61 40
7.5593396976344875 1.4221051286364694 2.187788703064962 44 51 19
8.497281847042085 -1.1122908272066905 2.2554494951259016 54 56 32
7.533725586792483 2.3511925228259485 2.935125153043009 51 60 29
9.283462756318448 -1.340880256905373 2.695184811970013 59 64 39
8.895192707597149 -1.2573170601418353 2.369618727444083 55 57 33
9.051174925321105 0.9160613851166286 2.352073548041626 47 54 19
11.1372962745677 0.183513275665573 2.5711298733719836 47 52 24
6.459161394572452 1.9593257837716371 2.120360015750829 43 50 14
8.22239199084989 -1.4392324842707307 2.1316717776811114 54 59 32
15.298907772913118 1.4358954220231355 1.1942003981409253 49 53 31
18.017415586795906 -1.9164420563792708 1.6471143027870943 77 76 72
9.611569244415625 0.6059615733882714 2.2957888258522336 47 54 20
7.274327056308249 1.9005103620676294 2.05305817699792 42 49 15
9.641539848883854 -0.31126389043674035 2.4415060144475276 56 63 34
