12.58514455141178 0.3707148516348601 1.8794034860801418 35 51 25
10.371831170157076 0.03746842040852588 2.054388277196919 42 62 21
9.962023682165473 -0.07137190867988026 1.9646048195946124 46 64 21
10.07739894005688 -0.17855071997032476 1.9598523117243982 49 64 20
10.654239214237936 0.04204601721497603 2.265758456758601 48 69 22
8.168750806465273 -0.3775313194232024 2.5592858034870174 54 74 27
8.168750806465273 -0.3775313194232024 2.5592858034870174 54 74 27
9.514979123715365 -0.08006605084789035 2.102303837673649 46 65 19
9.020726648634081 -0.3775313194232024 2.620289017344076 55 77 30
8.891650899374268 -0.15581906699659454 2.646151336329986 55 77 32
6.674783391356668 1.3541782481100402 2.180566689087195 44 66 15
6.921332311922851 1.1841004419015322 2.15589239567582 43 65 16
6.94575788425644 1.543052096999946 1.989268075807837 41 63 18
7.179090282594133 1.850753992966665 1.9748589295382692 43 65 18
8.375676278298435 1.1063999673035305 2.5227704896129506 46 71 20
8.110884626994848 1.899707727731615 2.3715252046974538 47 69 23
7.7939973912568545 2.1472303834112614 2.414410405900452 47 71 26
7.07823253387939 2.1472303834112614 2.320354661768702 48 72 27
7.426307854904202 2.3050951130876904 1.8187416465400228 49 71 24
7.151725353898759 2.191890659226719 1.976495608568209 50 72 25
7.151524503166079 2.0569328569928573 2.134715660642535 49 71 24
7.9950138829445185 -2.9035163528662444 2.0692998391729716 62 86 46
7.936251402858539 2.947131918545871 2.073334900023013 56 81 41
8.518187652505583 -2.8109053729112743 2.499650547822546 59 86 47
7.7404458109367695 -2.8109053729112743 2.4222195041860806 63 89 49
9.47260579201885 0.400309593521546 2.7689567942671047 50 72 23
8.762031009229839 0.6357860439663315 2.6742610149335517 49 74 24
8.603569120942804 -0.48062867451786395 2.712195325784034 58 79 32
12.893952678072756 1.4405429448786826 3.036274734459664 53 77 36
8.863218832065757 -2.732908661018275 2.652120466849379 61 87 47
15.982579858615845 -1.2740242274057862 1.1050585930009245 47 61 22
10.673710298585485 -0.2553115697979842 1.7423846265077807 48 63 31
10.673710298585485 -0.2553115697979842 1.7423846265077807 48 63 31
9.822166933391308 -0.7478201400632606 1.654634660411833 52 66 22
9.40818342187039 -0.3141001718903617 1.9891933429323092 51 67 19
9.257743059735597 -0.9098332835858923 1.9964307322330255 53 70 23
8.891613297306211 -0.9098332835858923 1.8938197470262348 51 67 21
9.257743059735597 -0.9098332835858923 1.9964307322330255 53 70 23
9.057525740416024 -0.8296795172219483 2.132266519302294 53 70 24
9.856923192903903 -0.3141001718903617 2.0820270960788263 49 67 19
9.166282394260499 -1.0714456570181696 1.8838055808999101 53 71 23
8.716626455715296 -1.059140651324943 2.3022839469391005 57 75 29
8.202155903626975 -1.3657881722570193 2.3601177979202914 57 78 31
8.863874623894246 -1.5396796070254508 2.449164856552641 58 79 32
8.319797985275445 -1.882745790582736 2.345966832148842 60 82 37
8.502617428752346 -1.2548199371844513 2.1738734273847014 57 75 27
8.303155754843255 -1.3959112843826553 2.190512878182717 57 76 30
8.845072490935287 -1.5443522045563591 2.2893242259125635 58 79 32
8.419386707924584 -1.8382598362022666 2.180697370657879 60 80 36
8.900346380764056 -1.715454559993563 2.444238949205284 58 80 35
8.939819964554813 -1.3657881722570193 2.4389849157013916 57 77 32
8.863874623894246 -1.5396796070254508 2.449164856552641 58 79 32
9.256923882766202 -1.2191298207800485 1.6597671249306967 53 71 25
9.03189465449497 -1.7784722816928464 1.773977401863727 58 76 30
9.106281122511968 -1.5504602580892282 1.8859388400391852 57 75 29
9.12438759820189 -1.4183762261152588 2.127663970945983 58 76 30
9.180221322645457 -1.4357578672889952 1.8833142029619192 56 74 28
8.637675006098023 -1.4183762261152588 2.0292245866642586 57 75 29
7.45510982854169 -2.534515264260807 2.4670765639427437 64 89 50
7.867065279292699 -2.378639918705384 2.4040332823924606 63 88 48
8.239407945382922 -2.228485310197176 2.546388374651798 66 89 48
7.972131290453202 -2.1159918891341603 2.389642221008998 63 87 45
8.59458730046166 -2.0338684953378503 2.3151035596085983 59 83 40
7.951220744892375 -2.0338684953378503 2.222462363889123 58 82 37
7.867430441070307 -2.5810127648377947 2.0781489847953836 57 80 39
7.84775643163442 -2.7704124535682406 1.9386978567787576 57 81 40
8.260284531510365 -2.7704124535682406 2.0518997655618008 59 83 43
8.01432640483877 -2.713716657800626 2.2164693703769687 61 85 45
8.01432640483877 -2.713716657800626 2.2164693703769687 61 85 45
8.63458044015889 -1.9241667247355254 1.9038013220360483 60 80 36
8.460077831745515 -2.1725536884412486 2.7508804080000937 65 89 48
9.215321576131508 -1.5046084914759403 2.8485661502415534 63 84 40
9.467120314677947 -0.8844038944098371 2.7704419030836096 59 81 35
8.850618914622546 -0.6964667116090413 2.65479961608193 58 79 32
12.191630257882943 0.3174953373529585 2.068697444750262 37 61 13
10.56583884082463 0.03378935610195474 1.8412155175458893 41 60 19
9.635708654674707 -0.1998424078274892 2.09495307934996 47 65 18
10.043295958148171 0.04204601721497603 2.189207029748941 44 64 22
8.874085990303982 0.08218248495917078 2.649826603407532 55 77 32
6.674783391356668 1.3541782481100402 2.180566689087195 44 66 15
7.7323555434702325 2.0569328569928573 2.244237099101535 46 68 23
7.151524503166079 2.0569328569928573 2.134715660642535 49 71 24
7.151524503166079 2.0569328569928573 2.134715660642535 49 71 24
7.994474875427096 -2.732908661018275 2.5932758812169334 63 88 49
8.463398009111005 2.947131918545871 2.1770682174510902 56 81 40
9.236574770961044 -0.6505185152284927 2.841033680760335 62 84 40
10.044303731002323 -0.37915329229857214 1.7532541033445743 50 66 20
9.419544630746035 -0.9763080187625816 1.765506025415049 50 68 22
9.11717366385379 -0.8227848752878623 1.661134584303421 50 65 21
10.289121583016373 -0.281751823761224 1.9514310349441508 49 65 16
9.508569539072065 -0.8227848752878623 1.8721765746885446 52 68 22
9.1286189765491 -0.9348014212552599 2.2624741477417913 53 71 25
9.1286189765491 -0.9348014212552599 2.2624741477417913 53 71 25
9.1286189765491 -0.9348014212552599 2.2624741477417913 53 71 25
8.458841793887006 -1.94416072447971 2.509095245261212 62 86 44
8.811731429762238 -1.1255792572122691 2.1499106438527504 56 74 27
8.863874623894246 -1.5396796070254508 2.449164856552641 58 79 32
8.863874623894246 -1.5396796070254508 2.449164856552641 58 79 32
9.141785833833634 -1.665697964112361 1.8846729601275225 58 76 30
9.127630843326402 -1.177559581275714 2.0029026361937707 55 73 25
8.829583068384768 -1.293871725089567 2.018526719968337 55 73 26
9.109530814045298 -1.3245081993669636 1.7722218749756478 55 73 27
9.04999123710537 -1.5478049229824047 2.132790274484771 57 78 31
7.387617464565748 -2.0338684953378503 2.1146309376985526 57 81 38
9.01115968723363 -1.9241667247355254 2.008871644115024 59 79 35
9.250407780253711 -1.8716004800624624 2.836245989497975 63 87 46
9.215321576131508 -1.5046084914759403 2.8485661502415534 63 84 40
10.05881937684484 -0.08006605084789035 2.1881094062938162 48 66 20
8.518524902805977 -2.9035163528662444 2.172587987018721 60 85 45
7.425727567125752 1.899707727731615 2.2776343944024786 46 68 19
7.849088700953874 -3.0457512055760456 2.079448453311363 62 87 46
7.828634710328963 3.051881674415265 2.629011271260792 58 82 42
8.603569120942804 -0.48062867451786395 2.712195325784034 58 79 32
8.762031009229839 0.6357860439663315 2.6742610149335517 49 74 24
9.236574770961044 -0.6505185152284927 2.841033680760335 62 84 40
8.731815075461187 -2.9716891013037956 2.681165918148171 58 86 46
8.863218832065757 -2.732908661018275 2.652120466849379 61 87 47
7.455495167461777 -2.713716657800626 2.1091350376401343 59 83 42
8.74946321549848 -1.8046733292217667 2.0229291751396685 58 78 34
9.03189465449497 -1.7784722816928464 1.773977401863727 58 76 30
7.847024260024012 -2.386827282183954 2.6248621920151125 65 90 49
8.76797126322614 -2.7704124535682406 2.153177712923843 59 83 43
8.900346380764056 -1.715454559993563 2.444238949205284 58 80 35
9.109530814045298 -1.3245081993669636 1.7722218749756478 55 73 27
7.273916261614031 -2.1159918891341603 2.295597628143317 60 84 44
8.921177894226561 -1.3959112843826553 2.281888371184393 58 78 31
9.28839380097826 -1.153956995165824 2.823527717048478 63 84 40
19.118296025948016 -2.7648607810969463 1.2417725878604218 55 64 28
8.168750806465273 -0.3775313194232024 2.5592858034870174 54 74 27
10.173096913380066 -0.1998424078274892 2.180157683561383 48 66 20
6.992241767571685 1.699951917725562 1.9863134105198192 42 64 17
8.363083128467512 3.0912284903156735 2.185409552383044 59 84 44
8.731815075461187 -2.9716891013037956 2.681165918148171 58 86 46
8.88162145778369 -1.6939592597027264 2.2857313239758796 59 80 33
7.951220744892375 -2.0338684953378503 2.222462363889123 58 82 37
8.691027838353797 -1.972047692362399 2.159019501973626 60 82 37
7.432551631787647 -2.228485310197176 2.4708811912192155 65 89 49
8.891650899374268 -0.15581906699659454 2.646151336329986 55 77 32
9.125376082616505 -1.2035210122729854 2.4152998448227656 57 77 31
8.319797985275445 -1.882745790582736 2.345966832148842 60 82 37
8.014147172661756 -2.638294949601274 2.3840531874698114 64 88 48
9.1286189765491 -0.9348014212552599 2.2624741477417913 53 71 25
8.738060363120992 -1.0104662787331957 2.023563078429097 54 72 25
8.825246198958174 -2.033553565267436 2.6602597864272233 65 89 48
9.125376082616505 -1.2035210122729854 2.4152998448227656 57 77 31
