17.491522296439154 0.7678663223085134 1.1604611048450708 47 47 26
17.309723847346262 0.7210189632672231 1.091812681965161 49 46 25
15.903637112496325 1.0151306704891225 1.1165933390359066 43 48 25
15.9312128305134 1.0767764956949544 1.0463235999536038 40 46 23
16.367070466995475 1.0151306704891225 1.0616621234669363 41 46 23
16.45475203449568 1.0767764956949544 0.9936951676195017 39 46 23
16.14547349107517 0.9168695500220626 1.05398397635169 42 46 24
19.48357360826626 -1.7622347520722683 1.2045315597236828 22 31 0
19.714015730815355 -1.707751076276047 1.1541789258431505 28 37 3
19.516274495578642 -1.9024429830851126 1.0341597549352237 24 33 5
19.734295899927172 -2.0965600522021752 0.8531416021149947 29 35 8
20.177401322735086 -2.1189214244656527 0.9352495390335414 29 35 8
19.738660982801687 -1.9367847029479954 1.1547313807809183 27 34 4
20.31969652903363 -2.0884422183292486 1.000065370480104 29 35 8
20.14944902816471 -1.9809727850347083 0.9342258556249542 28 34 7
19.335257807970073 -1.9576843034407105 1.087934661446488 28 35 5
20.34116120165999 -1.9576843034407105 1.0007426834274769 27 33 6
19.281769709455002 -2.0609095520550373 1.2005139687511388 29 35 8
19.312675177219013 -2.0884422183292486 1.087321544506397 28 34 7
20.1375189120258 -0.19499223955673417 1.4223857832855058 43 20 2
20.144173707016297 -0.19499223955673417 1.7214003900755481 63 33 16
19.940135992538934 -0.19499223955673417 1.5217468488414103 49 21 7
17.47354693691705 0.810829585870698 1.2819272031984472 46 48 26
17.21538614992467 0.810829585870698 1.3376368247575385 47 49 27
16.561765209981015 0.8559315477224868 1.3282539864505385 48 51 27
17.453529289201047 0.7692868101405255 1.572076232590249 50 50 28
16.87594709589591 0.8948560195197489 1.6314130855895508 50 53 30
16.87120584597521 0.810829585870698 1.6909545130744716 50 52 28
16.7780676328993 0.810829585870698 1.5124931144048663 48 51 28
17.806613473698018 0.7264432740517541 1.2284492040906827 49 47 26
16.609717156814217 0.680071527398524 1.328968200107866 42 37 17
15.550689948043415 0.629942567588988 1.6365861239657846 43 35 16
16.773298715754567 0.7264432740517541 1.572128138394385 50 46 25
15.517064159363507 0.629942567588988 1.5722359596194087 37 31 12
15.30661503612585 0.4853695065417014 1.5722557530014614 54 41 26
16.243169634036313 1.2201084660656816 1.448740092245951 51 56 34
15.65542980231463 0.957863768832454 1.2472286671508317 45 49 25
15.663391760731791 1.0499569665681014 1.3140381429450063 48 52 29
15.795842818266813 0.9945798497175449 1.4452655329562627 48 54 30
16.079381918181586 1.1376845330534033 1.3208246726434905 49 54 30
16.965513776830047 1.163134845403238 1.3341377196288147 49 55 32
16.146619824594115 1.0810138690954676 1.448006569573938 50 55 31
16.267476186988777 0.9429171103265308 1.510660961187874 50 55 31
16.492645895953448 1.163134845403238 1.5721508016413779 52 56 34
16.550674257672448 1.027569244305808 1.632605900395438 52 56 34
11.138455927459605 0.8237943739661736 1.4829097419327495 36 38 15
10.814886802199775 0.7583158991319606 1.8540290030497972 33 36 12
11.888958545180698 0.8811690569542256 1.4884706668147079 35 39 18
11.444893212299252 0.9111014744423753 2.231380659039486 31 36 12
11.542228456741949 0.9733844482633262 2.1197157388968653 32 36 13
12.770079722135 0.9111014744423753 2.3553674502731705 33 38 11
15.812751332680676 0.3996610681112998 1.5089294790665146 32 24 14
11.120023526784953 -0.17459464863623295 1.846051474359368 11 15 0
16.276027509993632 0.3996610681112998 1.323908118585231 39 26 11
11.02305474761198 0.4943338255186199 1.7553059143837895 28 31 15
11.502306488190383 0.37440376113596086 1.7475353039333528 30 35 26
11.982436362440106 0.09856975706890415 1.8257811746006525 36 44 41
11.611881869890714 -0.0743020746064032 1.4865016435765044 14 19 6
11.105319025620595 -0.2649033110811572 1.7539235861436004 12 15 0
11.709409685204095 0.28966683832615564 1.921451704073482 39 43 40
11.548144194237917 0.4095801179338682 2.0207284488165063 34 41 31
11.160838487833042 0.5419535979335508 2.0375578078605874 27 31 12
11.910161394012466 0.24568240419437581 2.3098258964653784 42 50 28
11.805572259707711 0.4515553729537091 2.207853672067063 41 49 31
13.012220681161159 0.6419998581193672 2.5812554120759006 37 45 21
12.238986938003423 0.8369236921633737 2.399683955542118 31 37 10
14.312336386553312 0.36886945517745157 2.7137624610529425 40 49 17
12.72257232165313 0.27672251052361935 2.4779610282185263 33 41 9
12.552105168533615 0.7481806231915928 2.495527263900649 32 38 11
13.85192219614172 0.3164409046933834 2.6217924793832674 37 48 15
13.604426851159444 0.5158845355914091 2.6545223364938266 39 48 18
12.928494936409242 0.3947833538114364 2.4578487238441147 38 46 14
12.60542034863574 0.24568240419437581 2.3684948440924227 35 43 22
13.40888866041787 0.36886945517745157 2.6828155432833274 39 48 16
13.364131917049582 0.7481806231915928 2.540592164490609 34 43 15
10.83290887792145 -0.3230875466630068 2.160277681631808 32 38 13
11.04798071450231 -0.38442629210084023 1.9434401771703813 29 34 7
10.78105259084893 0.014787837180686016 2.0553897772056713 6 14 0
13.712379224801518 -0.1306129864183799 2.6398603960514313 44 51 17
12.474553592202602 0.13284730545228524 2.379306963499236 30 36 13
13.732939003975023 0.1727693297727395 2.6371379464267837 37 46 14
13.354559316276186 0.018710183346252646 2.5416384663678113 36 47 15
14.151985838027386 0.025463782024966707 2.7393299388081633 41 50 16
14.197212332031695 0.2031736165889977 2.7319072695157978 41 50 18
13.13089473677491 -0.4121844509641605 2.5670119272417296 45 52 20
13.381409480726383 -0.11344681595164119 2.538711502780088 39 48 17
13.381409480726383 -0.11344681595164119 2.538711502780088 39 48 17
14.151985838027386 0.025463782024966707 2.7393299388081633 41 50 16
19.066157362406305 -0.3727875780919866 1.4139791751981754 38 21 2
19.626297256298752 -0.421264648771672 1.366712614647621 42 26 8
18.8599328605788 -0.3727875780919866 1.625029828561729 34 14 0
19.791037503306153 -0.35436111606201093 1.5213770278990733 34 17 1
19.469377385193546 -0.3061043776946176 1.623330583459018 34 14 0
19.67602630705285 -0.3061043776946176 1.7250120168898884 55 27 7
20.359410588162458 -0.2437379502500734 1.7197962714086887 65 33 14
19.483185022587143 -0.5375557332862414 1.4173626559755232 44 26 9
18.428412863636233 -0.5653837545264705 1.5177195737419966 35 18 1
18.98220919259843 -0.609940479080106 1.5192694536569247 51 31 10
18.984562710273792 -0.609940479080106 1.6246734504571727 39 18 1
20.17197447274673 -0.35436111606201093 1.7715442990532972 79 55 39
18.789732117270123 -0.68422839660025 1.625232651583298 47 25 6
11.240977492316215 -0.5508140743064504 1.6618696796557701 28 28 2
11.649800508169607 -0.7439651104316688 1.658665267022412 44 46 20
11.487641170882366 -1.058940442576172 1.7477633155680379 47 52 25
12.614477727388158 -0.891486679440116 2.3677592222142803 54 59 30
10.957032741753501 -0.7382176020456128 1.9466869427695515 50 52 26
11.033719560549116 -0.5173485589828508 2.043371745285729 49 52 23
10.986217649505788 -0.876838323426816 1.945638756182274 51 53 27
12.589068138520727 -0.7306205596607622 2.369827029339167 50 55 26
10.67665748872965 -0.891486679440116 2.170097952197089 54 57 28
10.258509488186437 2.161675789682603 1.8698518047866073 30 35 13
10.245435594105365 2.161675789682603 1.2759080552362343 28 32 10
10.217925043519728 1.9327639268297767 1.2750901583934018 32 34 13
10.15157724201613 1.616250670836341 1.5729968602375042 31 36 12
10.206696412428238 1.5177229404091357 1.6711281154455424 34 39 15
11.374666651547775 1.1099362477539767 2.028107567255426 34 39 16
11.325983805943517 1.616250670836341 2.0302238994691604 33 37 14
12.42425723317079 1.299896061039779 2.2727355513955647 35 40 14
11.325983805943517 1.616250670836341 2.0302238994691604 33 37 14
11.894431207410936 1.4202127049031044 2.101703484163383 36 39 16
13.93607068574412 1.2685110338062935 2.4831098934607194 36 43 15
13.601815494171069 1.1107183392556825 2.51555903108828 38 43 15
14.211847489027122 1.2292205545231647 2.5791175770926174 39 46 16
12.935586268503297 1.4040285565602504 2.3426740136352713 36 41 15
12.657099356084208 1.1607586404184922 2.364319061184901 33 38 12
11.18384212143387 1.8088960623691912 1.9386958067180604 31 35 13
12.249585875207128 1.7293131873438852 2.2848558052118775 34 39 13
11.480770523112227 1.9327639268297767 2.1229931011734013 33 37 15
10.569708431911101 1.9327639268297767 1.9611910153903347 32 36 15
9.848835454637317 2.223683340811783 1.9915051410699036 27 33 10
13.228869057030817 0.605376640092251 2.7111848343478777 39 48 18
13.198774865443074 0.8636698106746831 2.7161782513809913 38 47 21
13.545840423898287 0.9679487891293614 2.662752534197729 38 47 17
13.545840423898287 0.9679487891293614 2.662752534197729 38 47 17
13.956071353743576 1.0480308954865836 2.608897576843062 40 46 18
13.409127612074087 0.9343221390045651 2.535715136376208 37 44 16
12.981624261848847 0.8475446359568098 2.585023236193207 37 46 19
10.080146936003233 2.306259774209143 1.2709236328581799 25 33 10
10.436575414954868 2.306259774209143 1.966446184859933 31 37 12
10.572863872225064 3.032946778451945 1.6676422465527772 40 51 23
9.969076979782926 2.8210497485434622 1.5730371446687788 30 40 14
10.450124222012606 2.452948694198971 1.180315703223897 29 37 14
10.512055727569981 3.128108743257713 1.668204235860102 41 54 27
11.394919772854571 2.9397145651633863 1.214214416752095 31 43 19
9.700534056832787 2.919043080248591 1.5730991780400891 33 46 19
10.172111447363712 2.8210497485434622 1.770942004811232 34 44 18
9.691601719485654 -2.9475858609790957 1.4697473004028643 45 57 33
9.93651671949593 -2.8481443232222365 1.6738657670963704 52 62 38
9.948846224415863 2.5956038425419314 1.472368680626086 28 36 13
10.163323293100927 2.8210497485434622 1.3749588848649619 32 42 16
9.634907345643427 2.6864494792942275 1.7822660150420193 29 38 11
10.467211573790538 2.452948694198971 1.9652240168466248 35 42 18
10.916701267902651 -1.6132494997738458 1.664582820930595 50 60 33
11.59865759426172 -1.2557672252016439 1.7460518325772996 45 51 24
11.055272240293423 -1.6132494997738458 1.7547620544237936 49 59 32
11.376230873287458 -1.4300320142782441 1.8396965806268133 48 57 28
10.452847156808723 -2.1232387637556744 1.4771288135727627 53 63 38
10.036077892392491 -2.178099935207566 1.87669202153183 54 64 39
11.0003435256994 -1.7045615271072803 1.481803397214584 48 58 31
10.494512169867662 -1.9084328914301942 1.4775017745333625 51 61 36
10.498768554085304 -1.9084328914301942 1.6683279068141945 50 60 35
11.14919792158436 -1.097330780661564 2.0380839839129825 50 55 29
11.281482110456734 -1.1907616375878183 2.1339140853979854 48 54 27
12.050157145711584 -1.3988199656342093 2.2992888984785305 51 59 31
11.475020897779494 -1.0470668305293431 2.2293421480939006 50 55 28
12.655967428459915 -1.5100594272446353 2.364409968869913 54 63 37
11.565350989314943 -1.5162071035336053 2.1184933887072592 51 60 34
11.616584094866925 -1.2261829121876178 2.017884938738846 47 54 28
11.562001992975416 -1.617549577526684 2.1186700709536215 50 59 33
11.257427089046171 -1.943268493132781 2.135263633789233 54 64 39
10.807969972706221 -2.178099935207566 2.0540790656930565 54 64 39
10.755695557741282 -1.943268493132781 2.0566313441058974 53 63 38
12.202314270433343 -1.841791244055263 2.2882179531163125 60 70 44
11.160544741665246 -1.7179432337239433 2.037571070539833 56 66 40
16.090577900125087 -1.4120612928750822 1.50999902735983 42 42 10
16.52457575857714 -1.2920534850312522 1.511597687580596 43 43 12
15.53667971531869 -1.2743430149987045 1.5722341420355868 44 44 14
19.809514410414366 -1.7523111568270333 1.3167977083194573 26 34 0
19.40376810429264 -1.7523111568270333 1.4167296675044858 30 37 3
18.702447601402557 -1.884068692742736 1.2454687586610325 25 32 0
20.15832619557547 -1.7433559367676175 1.571904497758247 33 39 3
19.633780660059543 -1.852671355198056 1.5719341041997696 24 31 0
18.675317342642217 -1.8675662909791713 1.5719924977677808 23 32 0
10.181914187655142 -2.3982320045034573 1.474628781476368 53 63 38
10.201413496063799 -2.6203180781024247 1.2745970484107012 54 63 39
10.214543735474562 -2.6203180781024247 1.871179078159889 54 64 39
10.291780005408807 -2.535957876297065 1.572966882783916 54 64 38
10.72635860312611 -2.535957876297065 1.856432040518938 53 63 38
10.61345401090939 -2.258902137808631 1.8595574620978383 53 63 39
10.903887618489474 -2.3982320045034573 1.9486112103754352 53 63 38
18.89029441038706 -2.1087043622483908 1.3586420214232213 30 37 5
18.67513514396541 -1.9874550789745717 1.41066766328573 30 37 5
19.09451934349651 -1.917940094077092 1.4670380666979466 24 33 1
18.89078955899915 -2.035952120982952 1.6249411554327686 29 38 6
19.567162088832927 -2.0821995205305077 1.7258769394571403 27 38 5
18.888424357093452 -2.035952120982952 1.5190133839866402 30 37 5
20.167147257965148 -2.0132519014799946 1.7715930064532288 28 37 3
16.40131478956645 0.957863768832454 1.1313559976599556 42 46 24
15.9312128305134 1.0767764956949544 1.0463235999536038 40 46 23
20.337227818601736 -1.884068692742736 1.0580058937918304 24 31 1
20.06209135144873 -1.8155926451700897 1.1618437129036803 24 31 0
19.712482383197504 -1.9874550789745717 1.2089819609017107 30 37 7
16.833822427186433 0.2604465884822269 1.2706143507335408 36 38 40
17.424552637492162 0.3195185142040011 1.2206240210452257 38 38 34
16.74957406110729 0.810829585870698 1.5721300248178163 49 52 28
10.814886802199775 0.7583158991319606 1.8540290030497972 33 36 12
10.870439639912423 0.8941205470653395 1.8525418891823395 33 37 14
16.61078002926293 1.163134845403238 1.4514543442069319 50 55 32
15.81498507513219 0.4853695065417014 1.3165539988971746 49 39 22
16.642400551541726 1.027569244305808 1.692614651776696 53 57 35
17.565202224291323 0.7692868101405255 1.4579673705046643 49 50 27
17.152338365417922 0.8559315477224868 1.2148215971857677 46 48 25
15.826281142506408 0.4853695065417014 1.8277709190489184 53 39 24
11.402559200768888 0.829401157222376 2.1272247416540537 32 37 8
15.864777863968316 0.1462155334820198 1.1844698286218727 17 22 18
11.539610614563076 0.012224953109705469 1.5727321703762878 9 15 6
15.396839512798532 0.2127779423538099 1.3094900523788566 32 36 41
10.919649957396105 -0.2649033110811572 1.5728420776070915 15 19 0
12.2061212527609 -0.3227400515820976 1.4906144668879182 20 23 0
12.036806890431144 0.22080088455843827 2.1937117161661264 49 57 45
11.103786874697278 0.5023101931662819 2.255479189233568 26 32 12
12.423057292135047 0.016519393711220548 2.3836582935907615 32 41 15
13.6861783871844 0.021570796056001106 2.6433614815959166 41 51 15
13.524367793507736 0.27672251052361935 2.5235228568244983 36 45 13
11.899688452916134 0.11905894748906269 2.2020136597036397 39 48 36
11.665405349346143 -0.4731073393407105 2.329117217158345 44 50 23
11.00168188188418 -0.4731073393407105 2.2630800691183444 45 50 21
11.514174646919537 0.5985118382208295 2.2267136015149953 29 33 11
13.811126281505906 -0.27698774343274174 2.626977377184933 45 51 20
13.13089473677491 -0.4121844509641605 2.5670119272417296 45 52 20
13.6861783871844 0.021570796056001106 2.6433614815959166 41 51 15
13.402476986475456 0.1502204999480542 2.536431764983261 37 45 13
11.31290129947623 -0.08132275200846657 1.9343022605524776 13 18 1
12.662964216222987 0.5645556225652257 2.4840044152565888 33 41 17
18.789767013002827 -0.49175751480705576 1.6252325503859801 36 13 0
18.86587689983702 -0.49175751480705576 1.4657759671104214 40 19 2
19.254312032048535 -0.5375557332862414 1.5719565278013994 32 12 0
19.669213121769406 -0.3061043776946176 1.4188251367523776 36 21 1
20.235140764595798 -0.2437379502500734 1.6709053779006604 48 20 2
19.18982634469111 -0.25633066275404276 1.5198274152928797 40 17 0
18.78735419291451 -0.68422839660025 1.518734556460531 50 30 11
11.677254112958364 -0.8657367224044243 1.658458152850879 49 50 25
10.787561217950472 -0.6013768452367081 1.8547663497313402 44 49 22
10.876245319336617 -1.0120432979628913 1.8523873884072017 50 54 29
11.433376303743694 -0.6390709324924708 2.3485204596791798 47 51 20
12.439212022924808 -0.7201115446684114 2.5076615553532133 49 56 22
11.852119411651588 -0.6606693551892933 2.204950642831393 47 52 24
11.609239064761875 -0.8061909161198654 1.92460960092239 50 53 24
11.794623617839722 -0.8092937495022123 2.2085407508562076 49 54 25
10.218507437158175 2.0248361357755096 1.47497422457855 29 33 12
11.41937856075786 1.4335515476152336 1.3967340556498784 35 42 18
9.803212928223386 2.161675789682603 1.5730750579296715 30 34 12
10.202901461593893 1.616250670836341 1.671165559471514 32 38 14
10.370724538159422 2.0248361357755096 1.7670584548932158 30 34 13
11.806779422321332 1.5177229404091357 2.1060679026236464 35 41 17
12.855035538239882 1.5119296473384594 2.3487911554863397 36 42 15
12.170858948100364 1.6212152046286308 2.290475177603482 36 41 15
14.067663474468167 1.3585655009639404 2.5955919496155238 40 47 17
11.786866545406303 1.8338131599419183 2.209028528447199 32 36 13
12.369215120176497 1.0046243658745972 2.388268364830153 33 38 12
12.057982562688602 1.2014389795100342 2.192450807380491 34 38 15
13.736610725004235 1.178790551071544 2.636654017699376 41 48 18
12.600001015179036 0.9343221390045651 2.4905026254521365 34 40 13
12.144047543609487 0.8475446359568098 2.5415086459247345 36 43 15
12.981624261848847 0.8475446359568098 2.585023236193207 37 46 19
13.501300358451866 0.7396158083768184 2.669146622819063 40 48 23
9.684424256966201 2.306259774209143 1.676558657571838 27 33 10
10.572863872225064 3.032946778451945 1.6676422465527772 40 51 23
10.936486616967168 3.032946778451945 1.2950464822419412 35 47 21
10.322579792829028 -2.8481443232222365 1.2781772601529002 49 59 35
10.104744174230106 -2.9475858609790957 1.8745466893901501 50 60 36
9.350953300465559 -2.7137024254756312 1.4660528769492844 54 62 39
9.879678683401533 2.6864494792942275 1.2646435924283574 28 37 11
10.160432775767859 2.919043080248591 1.8728291524674516 36 47 21
10.447513223777813 -2.9475858609790957 1.96600894868495 47 58 34
10.243085229943352 2.6864494792942275 1.9743491191335374 31 41 15
10.369097262615723 -2.0373121186946603 1.866565386490186 53 63 39
11.958363635470725 -1.4417646707068148 1.572664381727901 45 54 25
11.813620684406231 -1.174893725793854 1.6574437029939018 47 52 25
9.971400231303269 -2.0373121186946603 1.6735039179465911 54 64 39
11.333640393467775 -1.3411298774554454 1.7501938828178443 46 54 26
10.40705008241909 -2.1232387637556744 1.572942841336969 54 64 39
10.956835100418902 -1.7045615271072803 1.5728351347589582 51 60 34
11.266460135501562 -1.1393547652651224 1.8423825399420923 48 54 28
11.489252246335102 -0.986222730074318 2.3437424351285623 53 58 29
12.040511906679962 -1.7342734309192749 2.300003842426784 61 70 44
16.24896391511931 -1.3512550955032012 1.572171114402346 45 47 16
16.278333777769593 -1.3512550955032012 1.5107011196340472 43 43 11
10.973889884296845 -2.6203180781024247 2.0461608560883144 54 64 38
19.410148568270948 -2.1087043622483908 1.2577421977096956 30 36 8
18.487656647922623 -1.9367847029479954 1.3539485869975405 28 35 3
19.354910772396543 -1.966543740380071 1.5719504975585767 27 36 4
19.508815026960022 -2.035952120982952 1.3127941823391145 29 36 6
19.0991984097936 -1.917940094077092 1.6768812549511327 25 34 0
15.9312128305134 1.0767764956949544 1.0463235999536038 40 46 23
19.863659351044927 -1.7622347520722683 1.1575102285810144 25 34 0
20.368433129195385 -1.8450192015625646 0.9421502663028771 22 31 3
19.778902334537985 -2.064668953758506 0.9203047777489639 29 35 8
19.256672059693024 -2.0105483677629508 1.143644344006926 29 35 7
16.286573795043896 1.0499569665681014 1.1949821588308454 47 52 28
16.018756792844552 0.629942567588988 1.3198582919317627 44 38 19
16.270222400538874 0.9429171103265308 1.6336727140217882 50 55 31
15.951926924513423 0.9945798497175449 1.3830302868171156 49 54 30
11.174100367697417 0.6964955209751813 1.4831908133207046 36 36 14
17.09551776941165 1.2402414089744618 1.6306336020715722 54 57 35
16.001493822791236 0.957863768832454 1.1879427807776306 44 48 25
17.198643800038962 0.680071527398524 1.2158224795093775 49 44 24
15.68496060717078 0.2127779423538099 1.247859986117396 4 10 14
12.12988372872923 0.35249747523472075 2.293439884603943 61 69 48
12.254258645817615 0.31811283551444125 2.18102262913027 64 69 59
14.177325852171931 -0.15385210228737733 2.735149482942132 43 52 18
12.46528934391214 0.5023101931662819 2.3800856585039116 31 38 16
11.43738059638022 0.6835818426108003 2.125332204740809 30 36 13
19.996596620294433 -0.35436111606201093 1.7225204403631837 49 26 10
19.369827893619583 -0.609940479080106 1.3639714785459978 47 31 13
19.243845176983857 -0.421264648771672 1.519970612126317 36 17 1
19.854236045998114 -0.3061043776946176 1.7748019304235387 71 42 27
18.06883942464543 -0.7980051875803457 1.4611251336342785 38 25 5
18.027106801100718 -0.7193546307438258 1.6275379700347254 44 24 6
10.629626951516617 1.8088960623691912 1.7622181336241076 31 35 14
10.29234615361163 1.7139059015669613 1.4756637545688538 29 34 12
14.60072910754634 1.3839920097992773 2.538185047343097 38 45 16
10.378372693656491 2.3781193696513716 1.6694630009748508 31 37 12
10.73330260876576 2.8210497485434622 1.1911515020075587 29 39 14
10.351727012174045 2.5956038425419314 1.8670767253787834 29 38 13
10.601459807096433 -1.8154446698813334 1.859893569139915 51 61 36
11.58615824691039 -1.2917033779361933 2.2219410047335444 47 54 27
10.928660840919903 -1.8154446698813334 1.947711715598842 54 64 39
12.201617706718395 -1.4159710319249985 2.184042592865397 52 61 33
11.562001992975416 -1.617549577526684 2.1186700709536215 50 59 33
10.174053903855809 -2.258902137808631 1.5729919987804983 53 63 39
11.183093225305722 -2.32634951492942 2.139478076561047 53 63 39
19.332351098806775 -2.0821995205305077 1.5719518444060008 30 38 6
20.31969652903363 -2.0884422183292486 1.000065370480104 29 35 8
19.39103396384208 -2.0361549474174945 1.0303132887634017 28 34 7
17.035536874569253 0.7264432740517541 1.3951026749517024 49 47 26
16.350435609026217 0.8559315477224868 1.3876592354891883 49 52 29
15.252251587482531 0.5758645797840793 1.7702734997309957 48 41 23
12.27143511770461 0.6662997713706063 2.3968036673129642 30 36 13
13.195196309060876 0.4478280119814832 2.5595284970847056 39 46 15
11.481643625147331 0.20043396211633066 1.9287173788712233 36 43 40
12.993501098379475 0.3164409046933834 2.5835558435171864 38 46 13
11.33833795324917 0.11905894748906269 2.1307515907838677 10 17 7
11.548144194237917 0.4095801179338682 2.0207284488165063 34 41 31
11.748734502375974 -0.6234047927725358 1.5726977129095592 33 35 11
11.123446646277172 -0.4711314081145014 1.8459645624884249 27 31 3
13.116484301198163 1.0046243658745972 2.4404452900574523 35 41 13
11.385558423426453 -2.754323607846216 2.027636859654991 54 63 39
9.761278075947597 2.381597468586075 1.1510882479343287 30 36 11
9.663529748130058 2.452948694198971 1.5731079963054742 32 40 17
9.774457805838267 1.9327639268297767 1.573081761657682 32 35 14
13.388309894985337 1.1607586404184922 2.4167274480598726 36 41 13
10.86487138509934 -1.9084328914301942 1.2931808837380032 52 62 38
11.284554730331989 -1.5212255821235598 1.8419360511521432 49 58 31
11.35198540400024 -1.318766485946128 2.029091029246377 49 58 30
11.444606756903008 -2.0871037986235326 2.231400108327388 54 64 40
12.655967428459915 -1.5100594272446353 2.364409968869913 54 63 37
19.93613896577068 -1.7005725094597888 1.266270908869562 32 37 4
19.40407479612037 -1.8030863412356217 1.5203906639910585 27 34 0
9.6906570278523 -2.475913222665002 1.3652733495803695 52 62 37
20.162884783432464 -1.9008732013258338 1.7212595652769578 25 32 0
17.44768919515715 0.629942567588988 1.0959147775802673 45 41 21
19.734295899927172 -2.0965600522021752 0.8531416021149947 29 35 8
20.492019000531087 -2.0361549474174945 0.9465280570812938 28 34 7
11.210652404422747 -0.21436121914646716 2.247721006409812 34 40 16
16.635776742306327 0.3195185142040011 1.3908351169563975 30 29 24
11.715458531550816 0.012224953109705469 1.7442867314570316 12 19 14
19.85006779447206 -0.1452903043443068 1.6728541065774762 65 35 19
11.194886686898503 -0.9349585785491754 1.7524420295916316 49 51 27
9.500208232695607 -3.051056797181514 1.5731477371246603 43 56 29
11.192851600359125 3.128108743257713 1.2074809591540072 38 50 22
19.942376459933172 -0.19499223955673417 1.6220834537309756 50 22 5
16.025064343980826 1.0810138690954676 1.5721903227217084 51 55 33
17.107299972558792 0.3195185142040011 1.2755588285341708 36 29 20
10.847313149172324 -0.9568773114974863 2.052176600549191 53 55 29
13.545840423898287 0.9679487891293614 2.662752534197729 38 47 17
19.606855005958597 -1.8030863412356217 1.4183380301209647 21 30 0
11.77469018354073 -1.1477088840533942 2.320361571989467 49 55 28
20.402373819979992 -1.694105369935844 1.3745789431113669 37 42 9
11.376230873287458 -1.4300320142782441 1.8396965806268133 48 57 28
11.569433686228821 -1.841791244055263 2.2230430184537595 57 67 42
10.710388293121564 0.6234971536759252 1.7607570376770156 29 34 12
11.410541431151026 1.7139059015669613 2.0265609771853836 32 36 13
19.094207679578986 -1.8675662909791713 1.3609417343221784 22 31 0
