11.118445930844036 0.7662549046760649 0.7061993150702955 66 82 52
10.603508246679226 1.2197241067550586 0.6471884781346944 61 74 39
10.603508246679226 1.2197241067550586 0.6471884781346944 61 74 39
11.495260653098754 0.8726212455211149 0.6043246158819822 63 77 45
10.071128800146935 1.1567558272414007 0.5735970306954828 53 68 30
10.767953049429922 1.335650027935795 0.4981524480151955 49 63 24
11.510693458150497 0.6073884933513504 0.8657996588981226 61 79 51
10.786441553032446 1.2613091737720985 1.3407750632349444 55 72 38
10.354387043894755 1.4221270292101782 0.8971735351065735 55 70 33
9.934392456974784 1.3026888988260115 0.9889895836116664 60 77 42
10.20242887871226 1.1905753788135804 1.0061737085264273 64 81 48
10.913233359161904 0.6790947576370979 0.8182376750040766 64 82 53
10.41147366295874 1.0307259729351634 0.901542325425612 68 85 54
10.465302664714345 1.2665921906678599 0.7773654940138902 60 74 38
10.118444775749674 1.4384357052452665 1.11440798036895 53 69 32
10.455171500640278 0.960479910678378 0.7763802969743755 68 85 52
9.892509646915578 1.331275887657177 1.2135585239183595 57 72 36
10.778999725308791 0.7693920213158479 0.9282354057934136 72 89 62
10.534029570662321 0.9947280305556836 1.1336870605953384 64 83 54
10.853395108005047 0.9322327292643874 0.9333564796618922 69 86 57
10.234157077391577 1.1344313870804574 1.3281192570274947 60 77 48
10.284956305978177 1.331275887657177 1.1223411425297778 60 75 42
10.30170657357764 1.4012785597795998 0.761092548692045 57 72 34
10.498418619923003 1.0471476329970972 1.4313438860574959 60 79 51
11.225439395624628 0.5734460286155234 0.7173019509889852 58 72 40
10.705750234750342 0.6562241604651989 0.6597211461859235 52 66 33
10.705750234750342 0.6562241604651989 0.6597211461859235 52 66 33
10.776247669118865 0.620927915548979 0.49956577079101583 54 65 29
10.978076495175685 0.36782309984058736 0.5322789867005833 56 67 30
11.096588018595403 0.761588590476761 0.5501420249115153 53 66 32
10.373347399013092 0.5238735063751483 0.6172329271146334 57 71 36
11.315148663241754 0.23457364201902764 0.3914373114437366 53 63 24
10.840268064290825 0.1906607649386129 0.510282406337302 54 65 27
9.979620864748373 0.1906607649386129 0.559244075565153 51 61 22
11.694687494461586 1.0315980060055203 0.20098016668011753 51 60 19
10.874030440804281 0.7389486638630675 0.27707558478525324 50 59 18
10.947780063547086 1.1910507037812763 0.2998529052204787 49 60 21
10.16526983184514 0.9388653212300656 0.3748848975849439 48 59 20
10.341279468541687 1.279869445993488 0.4160023534223617 48 59 19
10.75810690216688 0.8966649178973423 0.4964671363744818 50 63 26
10.504259259103721 1.0685585617584694 0.4498336898860344 48 59 21
10.504259259103721 1.0685585617584694 0.4498336898860344 48 59 21
10.983405106581348 0.3039616472151679 0.3101718177254074 50 60 19
11.565421037077332 0.6969293989354689 0.1355779522827615 48 56 12
11.521814611276541 0.002816303524085544 0.10422651340551431 48 55 12
4.1977177735594475 -1.2794052904351167 1.4611627255701958 49 62 24
10.403950332899573 1.7034868247427803 0.621365345942512 51 65 24
10.730983636310249 1.7295995132427957 0.4917810707678697 49 60 20
11.227904393789409 1.768341767473573 0.3721595933976795 48 56 17
10.88377171681833 1.504733460832399 0.2802055415054154 47 56 12
11.461012625446374 0.01698830550447687 0.017340475091622367 43 49 6
11.343210988961243 1.9936045671885971 0.3973884221208482 44 54 12
11.343210988961243 1.9936045671885971 0.3973884221208482 44 54 12
11.5310086589553 2.2446849910378077 0.11158970861379816 46 52 9
11.660656607633525 1.9512807004914858 0.1861121291764531 46 53 10
11.03003552631839 2.111037989452187 0.32310129432527046 44 53 9
4.111867256238407 -1.7686668613412122 1.7026782717941267 49 60 22
11.992971342849703 2.7077996674194815 1.4488153193466906 63 78 37
11.123081111769144 3.048964479710014 1.3478562688442461 19 27 0
10.811060234205764 3.141280106558162 1.5283002339204985 27 35 0
11.220484787760336 2.870386682624493 1.5298517584905247 52 63 30
11.856088876622248 2.958201203244808 1.1851931475021023 48 58 26
11.488156886239011 2.7538200036370126 1.1721577217065033 58 72 29
12.065388318600073 2.870386682624493 1.1922247798872116 55 67 26
10.924569300924936 1.1567558272414007 0.5239035107168423 50 63 26
10.335619809432497 1.0019738519523744 0.612071052748211 59 74 38
11.118445930844036 0.7662549046760649 0.7061993150702955 66 82 52
10.442077647738977 1.3737170216398003 0.626447132968288 54 68 29
10.829358605424876 0.8462735036601187 1.0424343328467507 70 88 60
10.078113784811313 1.0876502342169807 1.112442293292247 65 83 51
10.465302664714345 1.2665921906678599 0.7773654940138902 60 74 38
9.892509646915578 1.331275887657177 1.2135585239183595 57 72 36
10.517163714175034 1.3026888988260115 0.909466968511481 58 75 39
10.829358605424876 0.8462735036601187 1.0424343328467507 70 88 60
10.09520725749681 1.0812410732853983 0.7393686153405571 66 81 47
10.913233359161904 0.6790947576370979 0.8182376750040766 64 82 53
10.840268064290825 0.1906607649386129 0.510282406337302 54 65 27
10.341279468541687 1.279869445993488 0.4160023534223617 48 59 19
11.711377600472769 0.4281215792980942 0.20785919709108944 51 59 17
10.705750234750342 0.6562241604651989 0.6597211461859235 52 66 33
10.75810690216688 0.8966649178973423 0.4964671363744818 50 63 26
10.504259259103721 1.0685585617584694 0.4498336898860344 48 59 21
10.504259259103721 1.0685585617584694 0.4498336898860344 48 59 21
10.705750234750342 0.6562241604651989 0.6597211461859235 52 66 33
10.908883434916522 0.4511846666517074 0.6833694480868854 58 71 38
10.702869304011084 1.5311038451832288 0.4868547009484062 50 61 23
10.374949834357057 1.5377102331834287 0.6174505120089265 53 67 28
7.473585749134066 2.007385706845405 1.0895675060381942 39 54 10
11.504262626191906 -1.3740029192425087 0.08845114917855577 40 46 3
11.227904393789409 1.768341767473573 0.3721595933976795 48 56 17
11.912715161912153 2.7077996674194815 1.5322322038205722 61 78 36
10.995113780407904 2.958201203244808 1.5290120183315457 13 23 0
11.528487788977634 2.7866513527908547 1.5309462490963586 61 76 35
11.778929870906415 2.7866513527908547 1.3604616831809864 59 73 30
11.305656016964411 2.870386682624493 1.4413591365108738 58 69 29
10.284956305978177 1.331275887657177 1.1223411425297778 60 75 42
10.049944392806314 1.142354069263873 0.8727542718637747 67 83 50
10.895320676500765 0.8571076700095757 0.8166970760852463 70 87 56
11.096588018595403 0.761588590476761 0.5501420249115153 53 66 32
10.947780063547086 1.1910507037812763 0.2998529052204787 49 60 21
11.20379022305283 0.5238735063751483 0.5655505404037932 54 68 33
11.20103738999473 1.521203720732868 0.365965620816726 48 58 20
11.20103738999473 1.521203720732868 0.365965620816726 48 58 20
10.911419946451984 1.8315227413369164 0.2888799323244669 46 55 11
11.856088876622248 2.958201203244808 1.1851931475021023 48 58 26
10.786441553032446 1.2613091737720985 1.3407750632349444 55 72 38
11.510693458150497 0.6073884933513504 0.8657996588981226 61 79 51
10.778999725308791 0.7693920213158479 0.9282354057934136 72 89 62
10.427373221008507 0.7539151093483035 0.43431286992806256 50 61 23
11.447241637159012 0.44519445463243024 0.4185107526226989 55 66 28
11.119439714460551 0.5595402524357881 0.3463118290686223 53 63 24
11.521814611276541 0.002816303524085544 0.10422651340551431 48 55 12
11.694687494461586 1.0315980060055203 0.20098016668011753 51 60 19
10.233658035722533 1.5424317952379396 0.7540858795911789 54 68 31
9.690064520798025 1.545974306716299 0.9723125604936651 55 69 30
11.487271602284713 3.137379628025698 0.06981271486028456 43 49 6
10.651278559664531 1.471936682733904 0.1901545938472251 48 55 11
9.929052360415659 0.0006493764112966299 0.5510532938659141 48 58 17
11.504849509180314 1.375293569228012 0.0890245136750017 47 54 10
10.129145296241257 0.36782309984058736 0.5824027538879177 56 68 32
9.929052360415659 0.0006493764112966299 0.5510532938659141 48 58 17
11.504262626191906 -1.3740029192425087 0.08845114917855577 40 46 3
10.161650882130433 1.2294273239648805 1.2234264697772144 59 76 45
20.739275031785635 -2.5475762877899153 2.1039464095868174 64 80 34
11.565421037077332 0.6969293989354689 0.1355779522827615 48 56 12
