11.14379773212713 1.4277696539058806 1.6957763909824806 10 14 15
10.966033210637464 1.5182093129590322 1.6062887684777485 10 14 15
10.26031539354795 2.030138567368744 1.805805057251044 40 52 29
10.729491489557699 2.115935403124514 1.795348103287726 40 54 27
10.325612791423344 1.713027422304224 1.804291198371712 10 14 15
10.510289965924796 1.8098948034257556 1.8001142799200813 49 58 48
12.14010060154464 1.190439232907396 2.2251603047842186 10 14 17
12.09431053393396 1.1478113016399147 2.3373301381049396 8 12 9
11.462303119341044 1.095232931319351 2.3918857927023285 6 14 2
9.999232929778124 0.5716831261322842 2.5661974543742154 50 67 31
9.582931432154425 0.6887579580399148 2.6371089543571626 49 67 25
10.817795432809575 0.6156136035694442 2.4582926312919025 57 67 43
9.93582051593847 0.8342865866879502 2.576113275025331 50 65 27
10.759208528841715 0.8240275003729517 2.4650088163112973 63 73 50
9.751753929031878 0.4017150305345354 2.606592975006424 51 68 31
10.259083245737633 0.33545407422815166 2.5282473531073304 51 69 28
10.857520468399322 1.624114204422648 2.319314881153904 12 21 6
11.660539378178614 1.374944897834047 2.3738008197128693 4 8 1
11.685645663140898 1.6317746687062695 2.5039065622042473 51 62 34
11.006703884301363 1.5064795641096371 2.1901097018860085 6 13 9
11.884021131967016 1.2903664925127858 2.241797157216602 11 15 18
11.958702589170844 1.2155590572927113 2.47370144137338 30 38 22
11.600060104252268 1.3173131494327837 2.0539540231949345 11 15 18
11.203315389755266 1.8059281947473236 2.5645268548222697 53 68 30
11.120537760059678 1.6420013557025088 2.576063854968153 51 66 28
11.407129924949174 1.1618433575771325 2.5376324848612035 51 62 33
10.983216783097163 1.4136116375263563 1.9819002344816452 10 14 15
11.407129924949174 1.1618433575771325 2.5376324848612035 51 62 33
11.612959719627312 1.2622002465965008 2.6783654877672105 52 67 29
11.593298943697114 1.8512251688307064 2.6817724301978316 54 69 31
11.10121654671826 0.8519543831444424 2.7814740938219313 51 68 26
11.203420277145641 1.9172777282121782 2.7579775912001807 52 70 30
11.777567630165894 1.3775695887539772 2.884050105972518 51 67 27
11.771109333131925 1.7138215548667908 2.886141453103427 52 70 30
11.120643428189938 1.6778801303857904 2.7768628880312223 51 69 29
11.407232938302867 0.9922039385422746 2.715891272544307 51 69 28
10.573105100549437 2.169868855071844 1.9988733350739418 40 54 23
10.478708071769455 1.866954260343952 2.226509833996137 39 53 26
10.836597614287582 2.0934104751497973 2.4561642354535307 51 66 30
10.924716013958415 2.3104819531065353 2.3136168786494773 50 65 29
10.253524223923836 1.835454560889653 2.0131420470569266 46 55 41
10.32864251210516 2.2339077035583 2.119715538219319 40 58 24
10.421669715579359 2.1380443574686754 2.230726883495517 41 61 26
10.425623603841057 1.906645438975574 2.358516826394256 48 63 31
12.040678759366369 2.590980213649449 2.4651171731664787 53 71 29
11.538198704167058 2.5128831167581542 2.5213597340461114 53 71 29
10.884587124929025 2.0266417646396886 2.6111985764024928 53 68 30
11.49652417815919 2.300740831601677 2.526453048158022 53 70 31
11.146287483339055 2.4024561727480367 2.4228571280468088 54 71 33
11.751169750058327 2.7118736968967307 2.496418935164687 50 68 28
11.751169750058327 2.7118736968967307 2.496418935164687 50 68 28
11.235749856830733 2.6443150176052934 2.560107438366255 50 67 29
11.541318642300599 2.8477397545831615 2.520981362218772 49 67 27
11.4579432653273 2.727571486028557 2.7062332789558865 50 68 28
11.805375544208795 2.46564266013074 2.8752538119875273 51 69 29
10.843829239370708 2.46564266013074 2.8509794543518887 51 69 29
12.251217926341724 2.995690476444235 2.5830114437991427 48 66 24
11.331218353729165 2.9313669184174667 2.7309363206156845 50 68 27
11.669293824522105 2.554424290745161 2.6687918340513086 49 68 29
11.930081847902244 2.872577926269144 2.8392999877796816 50 68 28
11.37385341719209 2.1218800622610403 2.7224105602589197 51 69 29
11.066914071420346 2.259620713596689 2.789797899230729 48 68 29
12.419179516389478 -0.5200416342037834 1.7643772809157419 10 13 18
10.937075086142743 -1.2291307440687727 1.7910151748816818 54 66 50
10.680032448713828 -1.2291307440687727 1.607239636644236 11 17 11
11.826334794723767 -0.5639129465685808 1.8614460987112076 11 13 16
12.132435081967326 -0.6350261721283987 1.7690126184550161 11 14 17
12.244762200351914 -0.7541422687608367 1.8512399675001012 11 15 15
12.699133343831953 -0.8126134709696838 1.7600574649065126 12 15 18
10.18621246609398 -1.415334773207234 1.609007221562064 50 65 43
10.728173279078057 -1.415334773207234 1.8922111948028073 54 70 44
11.080999144684291 -1.6091238714899905 1.5156406278290957 45 64 38
11.651158498732908 -1.69888594125319 1.8659464495147842 49 66 33
11.319157192388928 -1.6091238714899905 1.7834653739835709 47 66 37
12.95347591168687 -0.5200416342037834 1.9164778653048666 10 12 18
9.947801302382196 -0.15922694527356074 2.408024583881516 49 67 30
10.47037122638079 -0.6554594907280248 2.2271224872752384 49 69 35
10.02579812831843 -0.5526721241837472 2.2617454771427026 50 70 35
10.352914650886282 -0.4350279822292762 2.3655978099172965 51 70 35
11.088782662479584 -0.4350279822292762 2.428805205420086 50 70 35
10.920216995417514 -0.010046708315717665 2.605661108471428 49 67 28
10.128421672119648 -0.1871690012861961 2.5468203410870904 50 69 32
10.280903222805497 -0.35325744710863205 2.5252386496228056 51 71 34
11.24754186780298 -0.9551987223727568 2.5585143301627973 57 77 44
10.811152725375536 -0.8351885126415166 2.459047686486275 57 77 43
11.204786339334518 -0.7252281219894771 2.5643252237541336 58 78 43
11.339632963738019 -0.5013549030199492 2.546314164172284 54 74 38
12.596524189957425 -0.8741479872369622 1.9267023347238006 0 3 1
11.941541567231159 -0.6884656222300166 1.947171012613913 2 7 2
11.048733206477099 -0.8205932993829551 2.0803182502876414 57 72 50
10.484389401263373 -0.9020270844501088 2.110654842576695 54 68 46
10.561656874463866 -0.9954552184394814 2.2204821884878836 55 73 46
11.03180312933909 -0.9020270844501088 2.1884887294725437 55 71 46
10.718319937152804 -1.0542178805113764 2.0976267940614757 58 73 50
12.558362174676244 -0.7541422687608367 1.9278321936352627 1 5 1
11.639542063658165 -0.9020270844501088 2.2585847048648393 54 73 44
10.988208185443714 -0.7442547743341952 2.1913101460571354 49 68 37
11.313402174404672 -0.9237091336059732 2.406131422973909 55 74 42
10.680078851105867 -1.1947115289687487 1.994307729154189 57 70 50
10.824729592488483 -1.1017179073140122 2.3221322444068337 55 74 44
10.028869007719436 -1.2613056604510053 2.1381018958660545 58 76 46
10.980336623798221 -1.612930967627006 1.9820145861907248 53 70 37
11.064163231864333 -1.7114636026209262 1.9787130343711872 53 70 36
11.263162159157647 -1.8017322929105912 2.556415037429521 57 77 42
11.260592593957119 -1.2207472031627171 2.4113295838102466 57 77 45
10.970172857130562 -1.6308087102297426 2.441405694599851 56 75 43
11.054076540568108 -1.7699291954062837 2.4324451239978435 55 74 40
10.63399838631176 -1.7267581224432271 2.102245304241216 57 74 38
10.54675334075217 -1.6175771842531277 2.107115242696632 57 74 40
10.290783239841835 -1.6233740193692598 2.2406348467241326 58 75 41
10.225772995140861 -1.6308087102297426 2.3783505240998863 56 75 42
10.946714722105785 -1.4994132826817441 2.3117730570461794 58 77 45
9.861258907093857 -1.2207472031627171 2.275623275304594 57 76 46
10.298169936449657 -1.4994132826817441 2.240066892914917 57 75 42
10.18626111802888 -1.3984895762886282 2.016272028598913 57 74 43
11.283398197140723 -1.3161999499197876 2.553713852000688 56 75 43
10.66249970966717 -1.168613477645651 2.4763843931216023 57 76 44
12.039154857872067 -1.4759627533677437 2.611865736650005 54 73 41
11.200116410728924 -2.1660584359204633 2.564965755035103 61 81 44
10.93593580652636 -2.0178447067301106 2.6032458736351733 59 79 42
12.389951778451321 -2.706542719116754 2.7368990396067203 46 66 24
12.40180037621353 -2.4995025584768573 2.5638752775361144 52 72 30
12.565312588224533 -2.271893877793082 2.7054654460663636 52 72 33
12.111672347905577 -2.6284966977265642 2.601728056490909 48 68 26
12.594560356788106 -2.5370751488688064 2.7005090231314663 48 68 26
11.341102256692142 -2.90727209601636 2.728939318352264 49 67 24
11.719917684767765 -3.1312642616806743 2.6604155137222594 49 67 23
10.898458329283866 -2.085371329551629 2.449251682763026 56 76 41
10.563903208011597 -1.8630672879361836 2.2203206521022905 57 74 38
10.115924136193504 -2.0225770735443493 2.2544003067770566 55 72 35
11.969713558368401 -3.134046585553996 2.4725361375104535 47 65 21
12.812663553882533 -3.000295302983723 2.5163968566405535 47 65 20
10.158957401861421 1.936407584672865 1.910926680404326 38 50 30
10.514210528430716 1.6134051558671847 1.898994605867649 9 13 14
10.337921148641527 0.7113479552378539 2.517495364221938 53 66 35
10.53874292922789 1.7286798184333825 2.1075671299570615 17 24 17
11.958702589170844 1.2155590572927113 2.47370144137338 30 38 22
10.982894474897122 1.7730560757138065 2.4400321390024526 50 64 34
11.567890656445027 1.4984099524301233 2.3821331095320684 11 16 3
11.783822947823662 1.3476120321618426 2.492746042898342 48 57 31
12.072646269201174 1.3116109771555726 2.6071470402141714 54 67 30
11.223764028084158 1.190628513199956 2.753511421961909 51 69 29
11.513325529512079 1.6563394386513703 2.696003664455128 53 68 30
11.519928346092284 1.4548053968997452 2.694805140380211 51 66 28
10.912603926952787 1.0792744818551734 2.8306000529103237 53 68 27
10.836008327233857 2.3949834899677818 2.2013848727608405 49 64 29
10.464296647946549 2.210623806095407 2.3548107981654534 51 66 30
10.563329598406426 1.9580092673431226 2.488444676694522 52 67 30
10.478708071769455 1.866954260343952 2.226509833996137 39 53 26
10.03809165186341 2.02889512011765 2.260733166261086 43 60 26
11.149984418356143 2.176505644406544 2.57191629599209 52 67 29
11.01608461994103 2.7974491994655852 2.59118419193577 49 67 27
10.744030809617694 2.2857326144449104 2.633949522898353 51 69 29
11.757738942045904 2.9692801108573175 2.6542903947836596 49 67 25
11.328040550493085 2.4314268352880513 2.7315810742036133 49 69 30
11.110200188207463 2.6252184465889155 2.779332738947764 51 69 29
11.110200188207463 2.6252184465889155 2.779332738947764 51 69 29
11.066914071420346 2.259620713596689 2.789797899230729 48 68 29
11.582730549267213 2.7640631599763954 2.3807846070804533 50 68 28
11.876346301304055 2.653258739153114 2.3551572115185286 51 69 28
12.12641544944463 2.8854907675572625 2.456358393594155 48 66 25
11.611294322113173 -0.6884656222300166 1.866990419260398 9 13 12
12.740016739650736 -0.69940309397722 1.7594427947948446 11 14 18
12.666873713552846 -0.9251332572035298 1.6806836782525205 12 15 17
10.388022369777337 -1.3200199441730636 1.6082645408925134 60 72 57
10.627399378744476 -1.5135755590491087 1.895370145276242 54 71 40
10.728173279078057 -1.415334773207234 1.8922111948028073 54 70 44
11.319157192388928 -1.6091238714899905 1.7834653739835709 47 66 37
12.678820897563604 -0.6350261721283987 1.9242905197594373 4 7 7
10.583123300880356 -0.5884893217894631 2.105073638489599 51 69 40
10.690878695269408 -0.5526721241837472 2.3338920681447037 50 70 35
10.83490436319359 -0.8482054484555098 2.6190705089740973 61 82 47
10.547741390212828 -0.7365266272374597 2.346952225403898 53 72 39
11.339632963738019 -0.5013549030199492 2.546314164172284 54 74 38
10.85583048077292 -0.3030247267300366 2.4540004009374163 50 70 34
11.088782662479584 -0.4350279822292762 2.428805205420086 50 70 35
11.56947555574935 -0.8205932993829551 2.1558452957453653 52 70 42
10.331035665633014 -1.1530294581132277 2.1195738646108966 57 74 47
11.59823168822835 -0.7442547743341952 2.2615146841790246 52 71 40
11.061957057557143 -0.8266383422998507 2.302282963309136 53 72 41
11.64152204319621 -1.8453214102989524 2.673477252038657 59 79 42
11.074694633103704 -1.3510422013865366 2.430278130122036 58 77 46
11.044575481101727 -1.3776011250482256 2.3036964701678944 54 75 44
10.315733080957756 -1.7699291954062837 2.3692775036995464 54 74 39
10.977102389333446 -1.489338606360416 2.4406568396462807 59 78 46
10.380179928056338 -1.7457462029974464 2.2338322923392955 56 73 38
10.290783239841835 -1.6233740193692598 2.2406348467241326 58 75 41
11.291968601103978 -3.1289298385168722 2.7389939825868983 49 67 25
12.214924731128976 -3.1328719652615344 2.5877838222274097 48 66 23
12.781190113669506 -2.779264502018016 2.670527123896333 48 67 23
11.666568530318669 -2.271893877793082 2.669248736376785 58 78 39
12.279048616703351 -2.41291386174657 2.7585330162750794 50 70 30
12.260360178052508 -2.978661695018028 2.5818194511787813 48 66 22
11.226777089358826 -1.9016959342006545 2.4146998701377953 53 71 37
11.432704731291489 -1.9515231436844995 2.5343978935172657 56 76 41
10.279382640532445 -1.972682551038546 2.122649116779998 54 71 34
10.50058401456701 -1.9016959342006545 2.3513704955639962 54 72 37
10.813410069422837 -1.8323282215816548 2.0925193378148736 54 71 35
10.813410069422837 -1.8323282215816548 2.0925193378148736 54 71 35
10.510289965924796 1.8098948034257556 1.8001142799200813 49 58 48
10.117353139601486 0.16770159952793207 2.548439472985608 51 69 28
11.104035966588034 1.3963742605982226 2.183874851719819 10 15 16
11.49652417815919 2.300740831601677 2.526453048158022 53 70 31
10.891678998886608 2.021307007166816 2.836633859172955 52 70 30
11.692151167132145 1.4880301810452792 2.503156018862599 51 61 33
12.08388737172123 2.6443150176052934 2.6055774893403147 50 68 26
11.83724051207206 1.2572192852117994 2.358459435879709 4 8 3
12.006747984402724 3.015118514363207 2.4686448664670557 48 66 23
12.924637203867524 -0.8126134709696838 1.8361208147330788 8 13 11
13.038642874526477 -0.9251332572035298 1.8337456513613963 8 11 12
10.652113738096226 -1.3200199441730636 1.7970075602214153 53 67 46
9.947801302382196 -0.15922694527356074 2.408024583881516 49 67 30
10.882793363916635 -0.5888082371162946 2.611479701689633 58 78 41
10.103009267545309 -0.3030247267300366 2.3911382819980957 50 70 33
10.85914647168696 -0.6288806594374596 2.4536286778549994 54 74 39
10.947190708544289 -1.0373962122948581 2.4439009000763217 56 75 43
11.24754186780298 -0.9551987223727568 2.5585143301627973 57 77 44
10.103009267545309 -0.3030247267300366 2.3911382819980957 50 70 33
11.465912925965576 -1.168613477645651 2.530241551596726 57 76 44
12.032836961466678 -1.6406882820442719 2.6127631102239155 55 74 42
10.233206618589213 -1.489338606360416 2.377591479345117 58 77 44
11.698063575378898 -2.5370751488688064 2.6640060196394972 51 71 31
12.111672347905577 -2.6284966977265642 2.601728056490909 48 68 26
11.998197236336631 -2.3995559624113216 2.617724896444563 54 74 34
9.81968070883211 -1.3776011250482256 2.1517352198965543 57 76 44
10.56981054631645 2.0789174617753376 2.105819024725238 39 53 23
11.127373653450263 1.4741861168433696 2.5750966507565565 53 67 30
10.450702697854187 1.6181623598285024 2.112587539263891 4 9 4
11.600060104252268 1.3173131494327837 2.0539540231949345 11 15 18
9.999232929778124 0.5716831261322842 2.5661974543742154 50 67 31
10.167846341334752 -1.5135755590491087 1.7078447820622569 46 65 37
10.38807007654708 -1.293660153462238 2.0070162095221167 58 75 46
11.200116410728924 -2.1660584359204633 2.564965755035103 61 81 44
11.767264594890422 -2.949302281288332 2.652765014796329 48 66 22
11.379295650148128 -0.6148455016189669 1.9667756171045427 19 28 20
10.788612477786833 2.554424290745161 2.6265698191177433 50 67 29
11.37385341719209 2.1218800622610403 2.7224105602589197 51 69 29
11.03180312933909 -0.9020270844501088 2.1884887294725437 55 71 46
10.536730346739919 -1.2207472031627171 2.347978617626425 55 74 43
11.194947748921466 -0.9954552184394814 2.2916702671687417 55 74 44
11.96078479258783 2.413491208548105 2.623164898163502 53 71 29
11.127479256665904 1.425765648179113 2.775257306570982 51 69 29
11.876346301304055 2.653258739153114 2.3551572115185286 51 69 28
10.680032448713828 -1.2291307440687727 1.607239636644236 11 17 11
10.718319937152804 -1.0542178805113764 2.0976267940614757 58 73 50
10.38807007654708 -1.293660153462238 2.0070162095221167 58 75 46
11.108867304338222 -0.6554594907280248 2.2984990244297103 51 70 37
10.857520468399322 1.624114204422648 2.319314881153904 12 21 6
11.187598814218713 -1.51874128057878 1.4263069508923367 46 62 39
10.553960885906912 -1.5072731700069073 2.106709336908187 57 74 40
10.708347793211576 -0.49154542672787715 2.2101157655379344 48 68 34
10.168407524451597 -1.1017179073140122 2.250202776863662 56 75 46
