21.209501792469354 0.2954339944197792 1.6195412394857858 47 52 19
10.026063513007339 2.1828307825427586 1.4742422300864837 31 40 4
20.58212213901973 -2.8604727656273377 1.008867515252136 27 32 5
20.56271502917073 -2.889156799246198 1.2251600018036497 38 44 17
10.210019220913734 0.5587163590276912 1.872455451986501 43 49 16
11.074620643941977 0.641021439373134 1.94357669042209 40 44 11
10.648151651211203 0.7785674891962785 1.8596776143745348 33 39 7
12.001913054404692 0.6182006803219352 2.304125999388305 40 47 13
11.464953909755193 0.5587163590276912 2.124982220811722 40 47 12
12.395592004245 0.7785674891962785 2.174159582326004 38 43 11
11.28042424822332 0.7038049067063693 2.1351381874487814 38 45 11
10.54666397890388 0.018119065583532143 2.0683244428778296 47 50 21
9.751837637576482 0.018119065583532143 1.8871087306446492 43 48 19
10.319766881910386 0.016354527545566128 1.671106839157062 45 50 21
10.530922011522653 0.11327303869715316 1.7651096930660533 46 51 20
10.934898009131716 0.29929871340397357 1.7578444254445844 53 53 23
10.931998047541988 0.4226731832366238 1.9486837840787148 48 51 18
11.626530953438706 0.4669962608964868 2.220496811698268 41 48 12
11.306652200479068 0.3659602498877921 2.24217067268445 44 50 16
11.119120963444301 0.1253753736591973 2.144348204879767 48 51 20
10.916442090958833 0.14035412992042576 2.270901832664292 48 51 20
11.794290769970305 0.28993647326769717 2.443262464613989 49 52 21
11.306652200479068 0.3659602498877921 2.24217067268445 44 50 16
10.114338086845375 0.023104483594105052 2.33976378793575 50 52 26
11.606467116949046 0.5207654132732611 2.3352635456591075 43 49 14
11.047099297076997 0.28993647326769717 2.3850296970544025 49 52 21
11.833747543170947 0.22981844445897395 2.2072595878386005 48 51 20
11.502457435567713 0.32941133230452774 2.122965634173126 44 49 18
10.114338086845375 0.023104483594105052 2.33976378793575 50 52 26
9.744590265854551 -0.2966094783037621 1.677049440871029 43 45 19
9.964378662040275 -0.4340784208408104 1.987541659608178 55 57 31
10.351895984229373 -0.08087126083930918 1.6707944626223024 45 50 21
9.662285928556718 -0.19519244324322008 1.7828334643711463 42 45 14
9.850249238724453 -0.21810137623921477 2.107140362682266 51 54 24
9.63445374923118 -0.4852963896801096 2.1205090253970793 50 52 26
9.238672915692447 -0.586833256936782 1.9053442319970328 52 57 30
9.317540638660823 -0.6763221270299048 1.574385902272638 66 64 44
10.578103944244376 -0.08955418050520583 2.0667109697217256 46 49 18
9.445950751032413 -0.19519244324322008 1.5743371046722512 47 51 22
10.502015085163432 -0.37163377957658866 2.304632670882016 52 54 28
10.14711766495002 -0.11401231824919242 2.336642513860864 52 53 26
9.8602955818714 -0.37163377957658866 2.2292480741444254 49 51 23
10.522347341721655 0.9980988833483457 1.9641865560113962 20 27 0
10.957027588378232 1.2285212648235648 2.048094068721863 33 43 8
9.929048786544532 0.9980988833483457 1.7770533065458998 23 33 2
10.769581347474501 0.8523940881660258 2.0571168588205246 29 36 2
10.269202828057177 1.3284333181105121 1.9744392285329648 32 43 7
12.140122608859215 0.8640676464679373 2.4099806091405975 44 49 17
11.913072282379321 1.1903585678851019 2.310865134647456 37 47 11
11.678538275127499 1.3001164739106963 2.329362042765869 38 48 12
12.606173563762761 0.7774688615700475 2.369695998122861 43 48 16
12.67747668058612 0.937136929219708 2.3639346598950857 43 49 16
11.014560472053146 1.0894285240927517 2.150492789526903 35 44 10
12.14824159666908 0.6896141095131204 2.4092365336873978 46 51 18
11.206708281115953 1.3284333181105121 2.139307572106663 38 47 14
11.837130825251787 0.8523940881660258 2.207048366345756 42 48 16
10.91107676863164 1.0338959863204034 2.271316173585248 40 48 13
9.510810369638586 1.8937411478778154 2.008753879315862 38 46 11
9.479218693464176 1.9995314853041644 1.8965364993361287 37 45 11
10.01950382008134 1.5417338492425452 1.9851074688749955 35 42 10
9.899027700022256 1.957522769328345 1.5741750431913353 28 36 2
10.295113929081895 1.9995314853041644 2.081643001044183 36 44 11
10.09571650563748 1.4335185492144584 1.9817900808106206 33 41 7
9.622404910130943 1.8605617686238165 1.6784038422034961 35 43 8
10.917381760760422 1.7799239645854983 2.2708293227635172 39 47 13
10.978353272457571 1.5417338492425452 2.152653670094814 40 47 13
11.10798106800085 1.9351220513537535 2.379240947436801 42 48 17
10.978353272457571 1.5417338492425452 2.152653670094814 40 47 13
11.056646158545368 2.1964208023547833 2.527011472661202 42 48 15
11.056058148199114 0.1842604458656587 2.5270868343976547 49 52 23
11.056058148199114 0.1842604458656587 2.5270868343976547 49 52 23
10.995480150847884 0.02678981450684259 2.5349381153952866 49 51 25
9.331931904251194 -0.8363122251754818 2.1404955132081147 49 51 25
11.364688541493797 -1.1322087675388535 2.652717106690937 52 57 30
10.574789727202687 -0.42446487733663163 2.433615717304176 51 53 27
10.805211416968564 -0.939201611326252 2.409053668327899 49 55 28
10.98878590788639 -1.200130555612036 2.5358165270708892 51 56 28
10.546029434807995 -0.8363122251754818 2.30087511474789 50 55 28
10.351908799985715 -0.28443325052532825 2.4591511964968396 51 53 26
11.097536829458406 -0.8474777006305888 2.521809774576364 51 56 29
9.950915432409005 -0.6568658485931047 2.2222219341102667 47 52 25
10.752742290022324 -0.7424051883461956 2.414494947035423 52 57 30
9.836629803312912 -0.42446487733663163 2.3674576062057806 53 55 29
11.628465192438798 -1.6959063131706642 2.6116477641270515 52 57 28
11.674214005872672 -1.3569527911771324 2.604996323681492 52 57 28
11.270492704352122 -1.9152400152644538 2.6686686189511706 54 58 31
11.094514001139483 -2.009089947583054 2.522191699500686 49 56 26
11.73406015708903 -1.8597119653826355 2.5964826665212457 51 58 28
11.745549619992309 -2.228633326414238 2.594871676155545 52 57 33
11.466951244218226 -2.0856092952161163 2.636207574411784 54 56 30
10.606050823599512 -2.1402251521775035 2.4301793617688863 49 56 26
12.067474161876568 -1.7214406615203202 2.7246042011793645 53 58 31
11.987347655764788 -2.4926338337002636 2.739960786813558 56 61 30
12.04811054104066 -1.5156963170274913 2.72824744783546 54 59 32
11.995570047024685 -2.190403036341945 2.738349941477219 52 61 31
9.955927773067126 2.1544273949218153 2.100842021190133 37 45 10
10.575902650859613 2.5524929699936205 2.0668235801812846 40 46 14
10.042596887159881 2.3249533849526327 1.7746881716914253 34 43 8
9.888723899010714 2.3249533849526327 1.6754950164873375 31 41 4
9.982569708425705 2.400003810955645 1.9867351262699713 40 45 13
10.184430530385097 2.1828307825427586 1.7718095078682485 32 41 5
10.359465078825753 2.3197077209139114 2.1924853907146966 41 46 13
10.442680239185135 2.408027909220458 2.309768861599966 41 47 14
11.14075681742472 2.408027909220458 2.3761651003306845 42 47 14
11.179684049884509 2.2253633469620877 2.3725480119328326 42 47 14
10.9720284636223 2.3197077209139114 2.266641359711016 43 47 14
11.15848010684173 2.636809377800097 2.5141965105076016 45 50 18
10.59153896219152 2.587331037180429 2.297035827275888 42 48 17
11.017284206419898 2.419645656080994 2.532092049308439 42 49 15
10.307518261455888 2.752806396409933 2.196100835997557 43 48 19
10.950422432311845 2.7018447468921147 2.3944296516162185 45 49 18
10.483522182933928 3.11665990634499 2.4438471754288855 49 54 26
10.950422432311845 2.7018447468921147 2.3944296516162185 45 49 18
10.547041072677112 2.96985183244786 2.4366947287828875 46 51 21
11.155264635415257 2.899688646273357 2.689273525299035 46 53 21
10.704013892807136 2.8301118432627055 2.4196264653705746 44 51 18
10.916768764891577 2.7800933258893763 2.5454072577802513 45 51 17
9.81006720793675 3.119882818200235 2.233215208275908 47 52 27
10.76289934160132 2.9406405016285553 2.566815417166265 46 51 21
9.79279959108036 -2.9348143545645584 1.9953111722611117 53 58 30
10.415917462890974 -2.583118468175019 2.0751544280860843 53 58 27
10.492311789017673 -2.4954511229306315 1.965374905997046 55 62 32
10.008014582653022 -2.728108017955288 1.8787420852929522 52 57 30
9.264701220678305 -3.034410382948716 2.1451506750590283 52 57 28
10.696812045751175 -2.5528168237208537 1.7620586132117435 54 59 33
9.669342992947648 -2.8280134261112235 1.8899024088014156 51 57 30
11.244216958069407 -2.772302141651773 2.673256434504374 58 65 30
11.285300573179134 -2.3458872067087606 2.4988607099776137 51 56 33
9.77248727010017 -3.0186423147292936 2.374193990093005 52 59 27
10.758969533082205 -2.427807679329946 2.166127376547166 51 58 28
10.997967044467782 -2.2525876427245684 2.389774395355449 49 55 29
10.530625171828833 -2.68153694491797 2.1808882554558005 54 59 30
11.449741349544338 -2.602418117796488 2.638930779362691 56 61 31
10.8550673950663 -2.832306406065849 2.553836540810338 57 63 30
10.89467058041075 -2.4610440942942007 2.5484031087159202 53 58 32
9.945038016647915 3.1243426756657877 1.7767169228524986 46 51 26
9.978373771507162 -3.0563135261869516 1.7760191426023737 48 53 27
10.137183203055288 -2.858447382946409 1.5740956658296201 51 56 30
21.55306000169618 2.5795744642122114 1.8065104448985758 44 56 26
15.788187245265009 -0.856124468072873 1.4459134008592902 74 73 73
16.550861562555543 -0.8960148675694644 1.4516961234825552 73 73 75
16.33810500723326 -0.8098780264199847 1.572843441004851 74 73 72
9.144141909586473 -0.9140834890888557 1.9089400807723398 51 56 29
9.328160721705908 -0.8285487677240512 1.681811971807173 55 60 33
9.866468825526582 -1.175662516050139 2.106163389640517 48 55 23
9.498214573030797 -1.012568973093103 2.1293214351184364 50 57 27
9.654667334862339 -0.9788150976364041 1.7830033415809692 53 55 31
10.786597508647693 -1.2504747959671132 2.4109741753545864 49 57 25
10.143030316953562 -1.2891026691389917 2.2078587214656147 47 56 21
11.039929853675991 -1.8709409601919682 2.1489889713066335 48 58 20
11.352652022262834 -1.7886158548621087 2.3569308170021053 48 58 21
11.293628643883396 -1.5406294126910247 2.243087198511306 46 56 19
11.243475570310316 -1.6641750079155022 2.3667033085784723 49 59 22
11.222690313010576 -1.536780503967292 2.368596555462024 48 58 21
10.687307704340633 -1.8192795440639349 2.421403485854598 48 57 25
11.329232444324695 -1.5318063890275104 2.493699851958818 51 58 27
11.314283582461906 -1.6536537206677324 2.241634907941701 48 58 21
11.396689990480384 -1.3874990982059798 2.4859194867070826 51 58 28
10.5680108933129 -2.015623463179122 2.1784173858380624 47 57 20
10.492167752994517 -2.070920279018445 2.3054794178485096 47 56 23
10.933887343067855 -2.2027107479637413 2.049188929713619 50 57 25
10.755736923249906 -2.418001465630676 1.8567062024334058 51 57 29
10.44427725563028 -2.11442359163429 2.073656246232872 48 58 20
11.358675725357468 -2.26898693692623 2.238537073638774 49 56 24
10.407508909439578 0.7785674891962785 1.7674438602800875 37 43 9
11.743564672928732 0.5087342277931559 2.0137535199641725 43 50 15
10.778732733154532 0.7038049067063693 2.056668058438819 36 42 9
10.803269670145086 0.5087342277931559 1.7601509034224763 47 52 19
10.92259347996483 0.20810677947458778 1.8522184746550392 49 52 21
10.336193944296973 0.22981844445897395 1.9716727707754846 45 48 17
10.336193944296973 0.22981844445897395 1.9716727707754846 45 48 17
10.173547425822086 0.1253753736591973 1.9784583819117243 45 48 17
10.591163452746427 0.32941133230452774 1.9614914436508957 50 51 19
11.502457435567713 0.32941133230452774 2.122965634173126 44 49 18
11.652015136358882 0.1593631575742378 2.45793716763778 48 51 20
10.833592516895704 0.023104483594105052 2.4061459347342606 49 51 25
11.0681771739491 0.2564772397085334 2.2594077163111757 48 51 20
10.855084978782408 0.02031035737015009 2.275673398525765 49 52 23
11.606467116949046 0.5207654132732611 2.3352635456591075 43 49 14
10.895070667545431 0.1593631575742378 2.3999306070775797 49 52 23
9.624171660418043 -0.33006422083736553 2.003245083908973 44 46 20
10.027677175377624 -0.3921245160937829 1.5741316959927256 41 43 17
9.785831557971099 -0.08955418050520583 1.8859719642081814 41 46 17
9.575251252230547 -0.528971658914853 1.5742892911771473 64 62 42
9.238672915692447 -0.586833256936782 1.9053442319970328 52 57 30
10.084223918394585 -0.33006422083736553 2.0934030786312934 50 53 25
9.33568735264138 -0.4340784208408104 1.7903707375972104 50 52 26
10.267917996399735 -0.10031888186329015 2.1988879778611006 50 52 23
9.62087662276899 -0.2469789892828915 2.248646835192534 52 54 27
9.8602955818714 -0.37163377957658866 2.2292480741444254 49 51 23
10.864202170130506 -0.11401231824919242 2.4030372588158286 50 53 24
10.269202828057177 1.3284333181105121 1.9744392285329648 32 43 7
10.886808377432319 1.135230620819045 1.95033207306956 27 36 3
10.49376218365739 0.9163708525410813 1.765806623817787 26 34 1
11.450910245897894 1.2285212648235648 2.125741407425649 36 46 12
10.747917906525984 0.937136929219708 2.166823984188621 40 47 12
11.271680189173146 0.8523940881660258 2.1356293278611993 36 43 8
11.985471334064306 0.937136929219708 2.305362590602512 42 48 14
10.042779587297934 1.6506316230307945 1.9840884672193448 35 43 9
9.549377105508832 1.7576714835445066 1.785379485569856 36 44 9
11.047953454665546 1.4335185492144584 2.1485151008084937 40 47 13
10.085654399751832 2.0509923569084774 2.212075000908095 38 44 12
10.516144619654115 1.8937411478778154 2.18185116749675 38 46 13
10.072312471805613 2.1151086567614485 2.3438092008610263 42 48 16
10.794367532042745 2.1151086567614485 2.410171190928305 42 48 16
10.407706352503304 1.9351220513537535 2.312835155880819 39 45 14
9.082081493407909 -0.7495055827756864 1.9113440206233474 55 57 31
9.505606554640577 -0.5488447583154645 2.2584488933535907 49 51 25
8.560579921449214 -0.7495055827756864 1.5747033084433575 44 44 26
11.270492704352122 -1.9152400152644538 2.6686686189511706 54 58 31
10.222419177077994 -0.13200983117601445 2.474890699987839 49 51 24
11.23772444451896 -1.0602359379185842 2.504536114681783 51 57 30
11.270492704352122 -1.9152400152644538 2.6686686189511706 54 58 31
9.378370117234018 -0.6568658485931047 2.1373269856531563 45 50 23
11.824563738949957 -1.200130555612036 2.583989175823708 53 58 29
11.608369295182557 -1.5251295766470343 2.6146102415113823 53 58 29
10.805211416968564 -0.939201611326252 2.409053668327899 49 55 28
12.262163993011157 -2.3431626935863097 2.690098028052486 54 60 33
12.04811054104066 -1.5156963170274913 2.72824744783546 54 59 32
10.591642844461267 2.6072715288416064 1.8612635905034212 40 46 14
9.915772893574369 2.096021796557622 1.881702279996904 35 43 10
9.667144308775859 2.2454647285121 1.889977554986761 36 44 9
10.920155220131042 2.6072715288416064 1.9491143267290947 40 47 15
9.496776732275476 2.096021796557622 1.6798329597105732 34 42 7
10.128085405169864 2.79362007665359 1.9803976637307705 44 49 21
10.76289934160132 2.9406405016285553 2.566815417166265 46 51 21
10.483522182933928 3.11665990634499 2.4438471754288855 49 54 26
11.482487375279488 2.513011600432711 2.4762658360281375 43 48 18
11.017284206419898 2.419645656080994 2.532092049308439 42 49 15
11.303794368034856 2.712108666049191 2.662942665679019 46 51 18
10.679171936829142 2.5517984911420712 2.579035199485817 46 50 19
10.045351894362705 2.8682789437379306 2.2150734938376977 44 49 18
9.877917627359835 2.9917042279228796 2.2278686715331353 45 50 20
10.713571973731504 2.513011600432711 2.418613880223684 42 48 16
11.155264635415257 2.899688646273357 2.689273525299035 46 53 21
10.045351894362705 2.8682789437379306 2.2150734938376977 44 49 18
10.186148731036557 -2.636232962998933 1.771775136875491 53 58 26
10.98899823361043 -2.4413034422385333 2.3906477060345286 52 57 27
11.067820477526785 -2.682792920783623 2.5255823724615922 55 62 31
9.907858972330988 -2.875938316727301 2.3601320289547623 56 61 30
11.463954123670545 -2.347669520540101 2.3472543677792306 49 55 28
10.209304801906214 -2.790550197309523 2.203063523654178 53 60 30
10.26189607569528 3.022173742929762 1.8708828571538088 46 51 22
10.460719156140081 -2.7665282881047975 1.5739936213641585 51 56 30
9.958173186287944 -2.955544791540118 1.6747621858145028 50 55 28
21.551569787699695 2.512870106108927 1.8545424121409808 45 58 30
10.26383871273868 -0.9788150976364041 1.9746624481760875 52 57 30
10.767913256419124 -1.2891026691389917 2.2825802676127562 47 57 20
10.492167752994517 -2.070920279018445 2.3054794178485096 47 56 23
11.349822589625038 -1.6777452700090356 2.4913067842695935 50 58 26
10.894287999024174 -1.9513847336943615 2.4000090285241815 47 56 24
11.222690313010576 -1.536780503967292 2.368596555462024 48 58 21
10.832944913456968 -2.3489263269334013 2.0540270986172526 51 58 26
11.088280551203388 -2.280912658539791 1.9430949735109806 49 56 26
10.2706210770466 -2.176695156014585 2.1986968667302254 48 55 21
10.362954335376749 2.0474061413722136 1.477390437608317 22 30 0
12.693022053577998 0.6182006803219352 2.362691618845144 44 50 16
11.035285562820945 0.5087342277931559 1.84926750070118 48 53 19
10.512537211966027 0.641021439373134 1.765453871301329 41 46 13
10.92259347996483 0.20810677947458778 1.8522184746550392 49 52 21
10.277556075141138 -0.2469789892828915 2.3245082670197927 50 53 24
10.895070667545431 0.1593631575742378 2.3999306070775797 49 52 23
11.817037068813704 0.4226731832366238 2.1066460026634206 44 50 15
9.37872689536613 -0.21810137623921477 2.0153591830314594 47 50 19
11.286019710604323 0.4111180520587758 2.3628611319550084 49 52 19
9.785831557971099 -0.08955418050520583 1.8859719642081814 41 46 17
10.502015085163432 -0.37163377957658866 2.304632670882016 52 54 28
9.52099905284274 0.8523940881660258 1.5743091947373054 31 39 6
10.181006909569854 0.9980988833483457 1.8733422576503513 21 30 0
10.194246897060436 1.2285212648235648 1.872936900630182 30 41 6
11.592559436105699 1.0894285240927517 2.2227250626110626 39 48 13
10.601475310757424 1.7576714835445066 2.06551867705524 39 47 13
10.484479659295245 1.6506316230307945 2.071548425569535 39 47 13
11.526283932041649 1.416961439858525 2.341956340305834 39 47 13
10.169731946258642 -0.5488447583154645 2.334506319287488 52 54 28
11.094514001139483 -2.009089947583054 2.522191699500686 49 56 26
11.097536829458406 -0.8474777006305888 2.521809774576364 51 56 29
10.660651829347579 2.312346350765036 2.42425790567592 41 48 14
10.346582582421805 2.468341075002908 1.8683511609751156 38 45 13
11.285300573179134 -2.3458872067087606 2.4988607099776137 51 56 33
10.696812045751175 -2.5528168237208537 1.7620586132117435 54 59 33
10.587441627086468 -2.5524125569870515 2.432220863358894 54 59 31
11.737152079733617 -2.4610440942942007 2.5960484030516033 54 59 34
10.267899407163744 -2.682792920783623 2.469281786799129 54 59 30
10.415917462890974 -2.583118468175019 2.0751544280860843 53 58 27
9.264701220678305 -3.034410382948716 2.1451506750590283 52 57 28
11.557294497238512 3.112313584996478 2.622255475953872 51 56 26
11.244216958069407 -2.772302141651773 2.673256434504374 58 65 30
9.861149828784907 2.898279848262812 1.9921804593501498 43 50 20
10.731650673596382 -2.9974722134790417 2.571326574178305 53 60 27
10.713571973731504 2.513011600432711 2.418613880223684 42 48 16
15.752324573909574 -0.7657416887005599 1.4456275925739304 74 71 67
9.682455112257726 -1.1248098478109196 2.2435369690292717 51 58 28
10.335222730450148 -1.1248098478109196 2.319284271679865 50 57 25
10.875788757137768 -1.9065898172308762 2.2740551463442635 48 58 21
11.422783287044822 -1.764603877606378 2.234119024963799 48 58 21
10.602590293706072 -1.410475231275161 2.2961104488233217 47 57 20
11.169142586980783 -2.015623463179122 2.2519905957403177 47 57 20
11.476676970898565 0.641021439373134 2.0248147966462113 40 45 12
12.465221818891148 0.7038049067063693 2.27112462856815 42 47 16
11.265337655782139 0.38564405940537044 1.752295841845475 54 54 22
10.891339489844972 -1.8597119653826355 2.5488569168518116 50 57 27
11.382232028908195 -2.1402251521775035 2.4875726292625338 50 55 29
11.987347655764788 -2.4926338337002636 2.739960786813558 56 61 30
12.067474161876568 -1.7214406615203202 2.7246042011793645 53 58 31
12.067474161876568 -1.7214406615203202 2.7246042011793645 53 58 31
11.912856607887615 2.6928733975789325 1.5736038807346084 41 47 16
21.311996954122993 2.553082828020458 1.9071241065362725 47 60 32
9.84131859462881 2.2253633469620877 2.2307407194264197 41 47 13
11.293628643883396 -1.5406294126910247 2.243087198511306 46 56 19
10.23552529230717 0.02031035737015009 2.2011881171367746 50 52 24
10.944710387532622 0.9980988833483457 2.0486761929978674 21 29 0
10.083932857683065 -0.939201611326252 2.3426856469176136 50 55 28
10.888183925494715 -2.176695156014585 2.2730903158266362 49 56 26
10.80380763766927 1.6603565163561447 2.279717793305257 39 47 13
10.413915869122603 2.486987991191737 2.1887442619569004 40 47 14
10.124913770091535 2.64727683948247 2.091089683951242 41 48 18
10.526918206390642 -0.9140834890888557 2.1811344432119513 49 54 27
9.861149828784907 2.898279848262812 1.9921804593501498 43 50 20
10.621565367307594 -1.3874990982059798 2.4284864953880785 50 57 26
10.314495279589552 1.135230620819045 1.7692407203137035 35 44 11
11.058888414801746 0.018119065583532143 2.1478706287472757 48 51 22
10.944655396943011 2.400003810955645 2.1546804265242243 42 46 14
