6.808737892580938 0.8945160981422183 2.0501144629014285 41 60 22
6.923349951727837 0.9277268006486868 2.4074677254810934 55 74 37
7.544810047807694 0.6838196049695845 1.7224764569718838 44 64 29
6.818945777884017 0.6601253676102825 2.0493365684257063 36 57 21
7.814298976194517 0.5008078010755407 1.7172071278809713 37 58 24
7.246021514261926 0.18605623328521823 2.5817968668182605 52 73 32
6.861216233733733 1.0375447958881665 2.2185463430747077 49 68 28
7.265621852403853 0.7727366014341152 2.5775067160998195 54 74 34
6.913222088349637 0.10457759781181063 1.7364565168881003 18 38 1
6.703713341211553 1.1176460488711901 1.8957113385458662 36 53 15
6.798057693543103 0.28786237728155883 2.050931189348689 29 49 11
6.6066891433688735 0.4250893003230989 2.462274993892882 55 75 36
7.0863377418580455 0.2472590396456047 1.7323734724659103 23 43 5
6.36454412916494 0.14777959989522838 2.279013805653389 56 76 37
6.734768151666546 0.4385882063151879 1.8941584745808475 28 49 14
7.834277436843381 -0.5171375107240179 2.1275687059919663 54 73 29
7.226726993739795 -0.18773013812658818 1.8714294742428352 19 39 2
6.7789504823211635 -0.5441896993064241 2.431392856315209 52 72 31
6.387586049474029 -0.07607707430995989 2.505946300306002 51 71 30
7.2487537524320835 -0.9954089768966485 2.35900232114963 52 72 31
7.2487537524320835 -0.9954089768966485 2.35900232114963 52 72 31
6.45448185948454 -0.2631796604043596 2.267140215852651 56 76 36
7.116637675471659 -0.0498138422662518 2.1916594842155552 55 75 36
7.1168199352578725 -0.04247770017485548 1.8762209340191593 18 38 2
7.815501864249407 -0.32543374830193156 1.9842424873722282 24 43 4
6.705816423988557 -0.8687203391676123 2.444171449716433 52 72 29
7.128341334191433 -0.6024388137166132 2.1904857052102917 56 76 33
7.178483592857608 -0.7157614525037523 2.3688958228020183 53 73 31
6.705816423988557 -0.8687203391676123 2.444171449716433 52 72 29
7.509962712790843 2.1095522720820346 2.527996450445308 56 77 28
6.8852405879937635 1.9412965869831813 2.0443481314996017 42 60 11
7.317311910768206 2.0108768215815855 2.3496243319075805 49 69 19
6.564639845157565 1.4348477931291297 2.0695398009249653 45 63 18
6.564639845157565 1.4348477931291297 2.0695398009249653 45 63 18
6.090738090213004 1.2684861145271278 1.7590786373360094 33 51 9
8.051278339266707 2.0108768215815855 2.4381404074092625 49 70 21
7.016481450238708 1.4064673231962792 2.392875923328093 51 71 28
6.149346875868635 1.4348477931291297 1.9262405118896386 27 45 1
6.6309268383271975 1.7810061017415206 2.064102933190873 35 53 6
7.810966416316048 -2.048256571778867 2.4752315591832676 60 81 39
7.529884109260301 -1.3905707345840417 2.5242499112421806 55 77 35
7.474642258449358 -1.797292305449819 2.3290578416572707 57 77 34
7.377867555905848 -1.6121237957540089 2.3415557763494665 56 76 33
7.415900650169158 -1.4241093259946414 2.336587151891883 54 74 31
7.842616745596598 0.989595122974375 2.7150758780092077 49 69 27
13.199554008032969 -2.9093501773319295 3.046575759106357 58 80 39
6.5070452471875475 2.8729818424062104 1.4382463379338333 53 73 22
6.318076835565519 3.027631453459152 1.434257424733205 54 74 24
6.504724061869202 2.5233574794258 1.7469656624132694 48 69 20
6.676650368819895 2.3010351262266533 1.8970770453708579 44 65 18
6.97955412561407 2.420026152652075 2.2057785446781595 52 73 25
7.269379971762757 2.08395711676993 2.0174510057492054 40 59 8
6.896655412371311 2.08395711676993 1.886302247114215 40 60 10
6.131954408530841 3.006039700563545 2.1083940273090924 57 75 26
5.894436234302841 2.8246417043962406 1.9423426878301187 55 74 24
5.91697587849274 2.5702942530380946 2.1301977638128444 56 75 26
6.877822119974626 2.8246417043962406 2.2167207146829866 57 75 25
5.990650396428063 2.662365843505626 1.7622630075832826 53 72 24
7.0359045190820195 -2.655197278007681 1.5906976615734911 56 76 35
6.284469106557303 -3.0952769250775676 1.4335226409329032 53 74 27
6.408666710200858 -2.9373269717660793 1.4361993001071096 55 75 30
6.225253325819593 -2.8995810771806814 2.099482698247378 57 78 35
7.4181806696383585 -2.479510856352875 2.3362916608096698 61 83 39
6.09732088047401 -3.0864184822023195 2.1117837707287572 55 77 33
6.723654114196405 -2.7890075151230693 1.7411722484206258 57 77 33
7.043455495611969 -2.7283688672348223 2.1991105374296525 58 80 36
6.528909845914553 -2.5793422423235928 1.9047440293004898 58 78 35
6.898699676612065 -2.3455054917304166 2.4114362158281017 61 84 43
6.202366149595346 -2.479510856352875 2.1016396281086482 61 82 36
6.384808032191316 -2.3480183803784707 1.9125850700872464 61 81 40
6.77410399849131 -2.214670776096966 2.2283129291654147 62 83 40
15.142989383484183 -2.2001169473692266 1.1734456553630719 24 37 2
14.847681338184632 -2.244831042925853 1.0905202739432716 26 39 5
15.561703435561073 -2.160291626109077 1.25317873834597 22 35 0
15.530048920193863 -2.5899508737003507 0.8829208071286474 33 48 7
15.862388308915422 -2.460128095332445 0.9781559845619803 40 54 28
16.165845137578362 -2.6975668272740676 1.1325517862609742 31 48 10
15.543898117135079 -2.5053055177201946 1.1137162720879714 38 51 37
15.99251969352996 -2.7331348543057894 0.9836252963505966 32 51 7
14.338568986663084 -2.3524361848890396 1.1497814639801545 21 35 8
15.386802401437919 -2.603763350546803 1.1800864308861647 29 46 14
6.941535329929864 -2.117550934601258 2.0401967104889076 59 79 36
15.278960799518673 -2.160291626109077 1.3153947037631517 17 34 0
16.64918734293993 -2.785523786913302 1.146114115902329 31 51 9
6.72423958808028 0.7761158986327497 2.234051522170512 43 64 27
6.617404737199026 0.1224991582343213 2.065201885620695 37 57 18
6.923349951727837 0.9277268006486868 2.4074677254810934 55 74 37
6.420654054554855 0.18605623328521823 2.4989983883703273 53 73 34
7.146332958432535 0.1224991582343213 2.1886906949979528 48 68 28
7.176519026786522 0.9860151828075462 1.8735992213543256 35 53 17
7.265621852403853 0.7727366014341152 2.5775067160998195 54 74 34
7.410908478085444 0.7780714011212179 2.0083244343395967 38 58 21
6.5098166326401845 -0.32834939906785854 2.4809189964505602 52 72 31
6.703951040858756 -0.21924402130572196 2.058255700832139 56 76 36
7.128341334191433 -0.6024388137166132 2.1904857052102917 56 76 33
6.705816423988557 -0.8687203391676123 2.444171449716433 52 72 29
6.725830292653729 -0.44636206464547545 2.2338667446907907 58 78 36
7.1967815530440475 1.2093467211819653 2.366291357625831 54 73 31
7.078538435310037 1.8238942631554724 2.3834883171929038 48 69 22
7.158856056111404 1.7810061017415206 2.1874479438328702 44 62 15
7.3925740490220075 1.1233472802523181 2.5509180863181107 52 72 30
6.090738090213004 1.2684861145271278 1.7590786373360094 33 51 9
6.103426432674038 1.609062364989177 1.929034846484572 29 47 1
6.75700740545114 1.2684861145271278 2.05409767092668 43 61 19
6.490493714478253 1.9412965869831813 1.9067982519748519 39 58 9
6.92688805905704 -1.177085725839173 2.4069018637348116 53 73 32
7.492429640523799 -1.6217461207880892 2.5313269980338773 61 82 41
7.474642258449358 -1.797292305449819 2.3290578416572707 57 77 34
7.073018790744919 -1.9680413048748484 2.196077152751853 57 77 35
8.347428900229328 2.1095522720820346 2.5970319592483277 55 76 27
12.26884891769671 -2.3284562409505054 2.996545382377307 58 80 39
6.838507205361599 2.730383851026357 1.4447061819810123 51 70 22
7.11033458213765 2.2851646624350095 2.3787771787560326 53 74 25
6.654609423558644 2.08395711676993 1.7429575590561883 43 64 13
7.060997765495882 2.3010351262266533 2.0316338701129046 46 66 17
6.362244375521865 3.027631453459152 1.7509536513725643 55 76 27
6.896655412371311 2.08395711676993 1.886302247114215 40 60 10
6.549938659460564 2.8729818424062104 1.7457369505259797 56 75 24
6.7559649372605195 -2.453754266437623 1.5915224073176146 59 79 37
6.452214162300155 -2.9373269717660793 1.7484145830065199 56 77 32
6.272689572998571 -2.5793422423235928 1.75355455864933 59 78 36
6.763828438874038 -2.479510856352875 2.2294864805246934 63 84 39
14.639396746501552 -2.403856615814597 1.2323945949857875 27 41 17
15.51632309304743 -2.5654624389642753 1.0396032608572081 31 48 18
14.678489191343328 -2.40929186296619 1.0057245285220247 26 39 8
6.550181939441797 -2.117550934601258 1.9036175359452667 56 76 34
16.279450420006526 -2.177313557845858 1.4562927083397164 22 40 2
6.500045953379936 -0.7157614525037523 2.261293864842752 53 73 29
7.058828121382077 -0.848132351542071 2.1975292044952677 53 72 29
7.189252424864386 -1.074325936371157 2.5945271552450553 53 75 34
8.164467309093075 -0.45149042610170076 1.9655655415548032 32 51 7
7.225717557294871 0.3437944127540535 2.3622135494376986 52 72 34
6.36454412916494 0.14777959989522838 2.279013805653389 56 76 37
7.189252424864386 -1.074325936371157 2.5945271552450553 53 75 34
7.848824871622138 -1.9099897847869771 2.126415414522709 54 74 31
7.12628807293908 -2.655197278007681 1.7314597648275913 56 76 33
6.45148565415913 2.8729818424062104 1.5925007294069826 53 72 22
6.3288711904274955 -3.0952769250775676 1.7519141480661737 55 77 31
7.181271624191284 2.5702942530380946 2.3684976779905496 56 76 26
7.049849042490488 2.170098780080487 2.198451795589383 48 69 18
6.131954408530841 3.006039700563545 2.1083940273090924 57 75 26
6.784821903889807 -2.8995810771806814 2.2270937725427546 56 78 35
14.644147190373872 -2.301419772840801 1.232508759086361 23 35 5
15.830892978476676 -2.6663010879483933 1.0512381677015983 31 46 6
16.614810427096355 -2.7252011061701586 1.2103451076963514 32 49 11
6.331183066635449 -0.060209265543967855 2.2835354050122034 56 76 37
6.933389098121106 0.6221423612131937 2.4058645560967493 53 73 35
7.750166328700319 0.8738389574972596 1.8505563361031794 39 58 23
6.881461172582521 0.515921465136141 2.216322153768066 39 59 22
6.954546567051797 0.5517034875644928 2.6527517830403617 53 73 33
6.506169074178095 -2.7283688672348223 2.0744413170537115 58 79 35
6.785705777943054 -2.3480183803784707 2.0518793955458046 61 81 40
6.012829383794819 2.420026152652075 1.9346819363777747 50 70 23
16.26278151682938 -2.7610367731872874 1.0663631934136268 31 51 9
6.860189601040433 -2.2441625751286844 1.7377491329487949 57 78 36
7.118394914441466 -0.6884366723144555 2.6110963314018427 52 72 28
6.976271150181354 1.6171731117273374 2.3990998346571155 50 70 26
6.202366149595346 -2.479510856352875 2.1016396281086482 61 82 36
15.61729156991693 -2.630712793549737 0.9675498289900749 31 46 5
7.052032831740233 -2.048256571778867 2.3874662428447273 60 82 39
7.0577526743868075 1.609062364989177 2.197639549343139 46 64 18
7.032278961775668 -2.6445994387021736 2.3904614698234425 60 82 39
7.587743349475414 -1.8476865934679534 2.513588392905181 62 83 40
