19.19817195665796 1.203267930700842 0.6177784859631926 34 38 14
17.965760882762847 0.6553597760998447 0.5133873508331834 42 49 19
18.31085149706453 0.8883678959200669 0.54588301426294 40 46 16
17.321158842048956 0.6306541627874279 0.4429222707970452 44 51 21
17.44201926234307 0.7392112785387077 0.5736795720815606 40 47 17
16.40744904181839 0.3276062922119484 0.4671173526734191 46 53 23
16.581896665698018 0.44979353454784965 0.4875638099819425 43 50 20
18.45851956959602 1.157064901002384 0.7384975837125762 36 41 27
18.16461227833505 1.0468993755051614 0.7205457735446729 41 46 19
18.634952987593614 1.1221511645872961 0.6662544887677442 41 45 22
18.39212780938419 1.203267930700842 0.6492768249431379 35 38 19
18.39830610058723 1.0019385712823612 0.6497190931258322 39 46 16
17.90929240363464 0.9496261253328447 0.6128787213676662 39 46 15
15.615831433730982 1.4835163194697605 0.8203267143405109 71 73 78
15.00419794308838 1.7616005212712398 0.7816066048770504 48 49 34
15.218091873609241 1.8289729895895628 0.8839583557647315 45 48 43
15.616400877939144 1.6588519324907054 0.8203607159979053 70 73 68
13.516360342620239 1.8289729895895628 1.0564387177964916 50 53 50
13.559057033665995 1.808926073744072 1.2207688765427287 71 75 73
13.373075006718102 1.7313458139698477 1.2156871842432218 71 73 75
14.090594688933672 1.9390707848583646 0.9098491573565114 35 39 24
13.605910158537549 1.5711555486805282 1.1425895239035713 72 74 78
13.71002408865663 1.5711871218050641 0.978864149171613 72 74 76
13.516360342620239 1.8289729895895628 1.0564387177964916 50 53 50
12.129436145927198 1.5721127762885858 0.28218144321128813 42 48 17
14.924060001861186 2.122638368938314 1.1089849362441582 37 42 25
16.212442775756514 2.3885324501836362 1.0080351595828727 42 49 19
14.406725901283219 2.0201369482485774 0.926801865816185 41 46 18
14.096445719590275 1.9851828279580506 1.0795442137546676 36 40 27
16.318663321746506 2.3378954824018785 1.0828970976861283 43 48 22
13.829472516116438 2.0201369482485774 0.984660200212805 37 41 20
15.824327529261998 2.3855094749126957 1.272561209261141 34 37 32
15.91393449222124 2.4358507999623416 1.1397130516841116 41 46 18
16.078161914770853 2.532302491630986 1.1444059032423421 42 49 19
16.313824658968933 2.720440321399592 0.937871323407026 43 50 20
15.16416839222456 2.7494950428353246 1.1890190053699798 40 47 17
16.01720591330186 2.7494950428353246 1.0728822295952314 41 48 18
16.01720591330186 2.7494950428353246 1.0728822295952314 41 48 18
6.597645695139761 2.7645831012983 1.7769134853747022 43 53 22
14.159066925381259 2.0224623356791205 1.8096790730028216 70 73 79
12.555531476308321 1.7313458139698477 1.5190254491465196 73 74 76
12.843274671210331 1.808926073744072 1.4419903020021316 75 76 78
13.611279528928776 1.9550208024519364 1.3748743674808561 75 76 78
14.009847355397364 2.0224623356791205 1.3805174746085571 72 74 78
12.9542062112389 1.9851828279580506 1.2851890359268021 47 51 52
13.372372679154566 2.0563962533739173 1.294359061212259 42 47 46
14.754481546091775 2.1448450637444023 1.526746610572725 73 75 79
14.38186830992404 2.1838912717709356 1.3142180308145401 48 52 53
14.749494481852977 2.2402890063198924 1.3901674760079321 51 55 54
13.556169252824022 1.9550208024519364 1.7450502636694507 74 74 78
14.508691391176727 2.3378954824018785 1.4568441979454858 42 46 46
15.012186420604706 2.6255623966276755 1.6608636051131707 42 48 20
14.724421640176832 2.6856497828965966 1.3898565018704394 41 46 15
14.642786712671674 2.532302491630986 1.594720246656095 42 44 31
15.050282803869765 2.838638373040553 1.7952827966440292 37 41 20
15.185937410290157 2.3855094749126957 1.6598303463146662 60 64 66
14.498610636758894 2.6856497828965966 1.5259687063020466 40 47 15
14.555207117163038 2.590535761154953 1.317341228823335 41 48 18
14.731262164328072 2.532302491630986 1.458573191478136 41 47 20
14.48302338528526 2.590535761154953 1.8042353082599887 35 39 21
15.215486137199317 2.3855094749126957 1.4621589793195715 37 40 37
14.138809570669189 -0.2565876501710901 0.8196202651550593 55 60 35
16.292620141887777 0.19441741858542025 0.45294332147884125 51 57 27
15.052473465298617 -0.20021196932577984 0.572821824122177 58 63 36
15.42353043408359 -0.22790942720123764 0.4843167805230728 60 65 38
15.342591599698617 0.053904356912655375 0.47419193795135545 57 62 33
15.878952656276278 0.17060315058837006 0.5362886942160503 46 51 24
14.619001441287681 -0.06220169870691819 0.7546887339545872 56 61 34
14.977712455363097 -0.07770444181199322 0.5650354933424716 57 62 33
15.192828717901714 -0.31694311199977043 0.5869905044593352 55 60 35
14.723398036457988 0.04193573902394279 0.6579645213626116 47 53 25
16.246219410798545 -0.08875750225832303 0.4470390731262088 64 69 40
14.807721762510774 -0.1784529704567069 0.6652980907186002 56 61 34
12.602256931927581 -0.06220169870691819 0.9185011660194995 53 59 32
14.357960269607474 -0.34769229163127835 0.8337799852709067 56 61 36
14.147722386880654 -0.828263229622233 0.8202083785017639 51 56 29
13.927214933394568 -0.6770118145236105 0.7002675600216821 50 54 33
13.978733942618188 -0.4746817915886529 0.8088728920808806 52 57 32
14.357960269607474 -0.34769229163127835 0.8337799852709067 56 61 36
12.329061028290456 -0.6917475403606956 1.001127308211405 52 57 32
16.044896749641822 -0.41233886717502066 0.42010655403473796 52 57 32
13.847275523344068 -1.3433659719174593 0.6933892882385624 29 32 3
13.543626297447853 -1.1368676946449798 0.7777535234296012 39 41 16
13.434770555708226 -1.1963509890916526 0.6555736424231029 36 38 12
13.134338388298156 -1.4409249463589708 0.625226835152314 29 31 5
13.629009480888541 -0.9421808478947477 1.0611033097184088 20 24 1
14.143879968058078 -0.9421808478947477 0.9993487279994813 6 9 0
15.197547464202472 -1.091945506552022 0.7943444655815789 34 37 7
13.892583595754564 -1.056951136317912 1.071676931226187 46 52 14
13.49121089717034 -1.1312073599862384 1.055384992532339 39 44 10
13.153769953090508 -1.2110273850614184 1.0407918078209197 38 43 11
13.54161951881001 -1.1772313025077843 0.8779227065699808 34 37 7
11.393884658536502 0.1246247240308804 1.3360910229962304 47 53 25
22.65458689187233 -1.1594775426160497 1.45356622866983 52 63 28
12.139824293568774 -2.6464226596153315 0.28511813039511913 48 50 24
11.931740919573457 -2.461102608895546 0.2178524622890126 46 48 23
11.931740919573457 -2.461102608895546 0.2178524622890126 46 48 23
11.676038381785014 -2.561774968651335 0.4224175058633672 48 53 26
11.676038381785014 -2.561774968651335 0.4224175058633672 48 53 26
11.65583468920461 1.5825752946545277 0.03239139022399597 41 48 18
11.699033071539052 2.7821333742001064 0.09184832494431515 41 48 19
12.108324756125587 -2.223395518551384 0.27610377485877424 47 49 24
11.730873593815826 1.5740241877492405 0.11769361018346297 41 48 15
11.653041183664469 -1.7847631207247499 0.4180051744850222 43 48 23
11.99212882860996 -2.147140061911927 0.4776901006943649 47 49 25
11.643284193645622 -2.263193858653246 0.4161145516649171 48 50 26
13.249057416247371 -1.8279376804335117 0.6371244967987354 43 45 20
24.75613198858681 -1.8632288061806164 0.77710951235424 15 22 1
5.363312711345234 2.8729972564068063 1.8252970092994323 49 58 30
24.09119720196018 -1.7227283656596033 0.9684403231443063 52 58 28
25.156530144081717 -2.041565517089418 1.3032832664365275 45 50 18
16.926686553707164 0.3775171246645931 0.39091969893138695 47 52 23
19.19817195665796 1.203267930700842 0.6177784859631926 34 38 14
18.440474181171947 1.0330951248260056 0.5573467358596863 39 45 13
17.831964247383592 0.8119627379560653 0.606684715799189 40 47 16
17.10172865461053 0.6553597760998447 0.5421094920912319 41 48 18
16.81410746973823 0.5591373015996606 0.5130010412729775 43 50 19
18.92756139450947 1.0468993755051614 0.6856797613129655 40 46 17
18.39212780938419 1.203267930700842 0.6492768249431379 35 38 19
18.09714231247034 1.0813170355455606 0.6274884346891787 39 45 15
13.751472874874072 1.4109470025491573 1.14741588751848 70 74 75
14.584607673045786 1.490536286976844 1.018661024054984 71 75 78
15.584065062543841 1.5711871218050641 0.8184242819147989 72 74 74
13.815097543959155 1.8836957289903902 1.227526382854445 62 66 65
12.129436145927198 1.5721127762885858 0.28218144321128813 42 48 17
12.129436145927198 1.5721127762885858 0.28218144321128813 42 48 17
15.874486810219404 2.3378954824018785 1.1385698299748983 39 43 31
14.78386430205593 2.095335497959707 0.9458195247322659 41 47 23
16.51818169139076 2.7494950428353246 1.0196684141672785 41 48 18
16.032835641465702 2.590535761154953 1.0734120829941374 41 48 18
16.11199388204073 2.653252568763769 1.0040975719495493 42 49 19
14.26732189523541 2.7494950428353246 1.7362822624117284 39 44 17
14.466676032469707 2.0857674936285147 1.3865961609194015 73 75 79
15.365699982737267 2.1997331446391195 1.6587860291232464 73 75 79
13.7648205106542 1.9550208024519364 1.8166602338333067 71 74 80
6.8980637001481035 2.6292088271428513 1.6215975610411195 44 51 21
16.619247306962297 2.2854728264894746 2.168344869897835 72 74 78
14.911572273259932 2.4358507999623416 1.323526651836978 42 46 22
15.233600105444111 2.7749706247499946 1.3959678590800544 40 47 17
15.239981589766622 2.2920688718908515 1.4623342822898513 60 63 62
13.85024344829716 2.122638368938314 1.3041341104797888 41 46 46
15.560539132018622 -0.3586717681254794 0.5007952845026105 54 59 34
14.950374939242002 -0.2836752969994925 0.6773664475269651 55 60 35
15.350576667445514 -0.08875750225832303 0.47520444072198215 63 68 39
14.950374939242002 -0.2836752969994925 0.6773664475269651 55 60 35
14.969528495165061 0.047173275238798135 0.5641725723505135 52 57 28
14.73171873095448 -0.06909552231160232 0.6586949984871667 53 58 30
14.695587438695718 -0.16092288873486618 0.7602143566705444 56 61 34
14.403449473345285 -0.38283504825182946 0.7386371735233347 54 59 34
14.586558550898642 -0.42540379566052633 0.6457288834632191 52 57 32
13.052185297975969 -0.6128762563363442 0.8463741086507507 51 55 34
12.407715009082283 -0.7615194970024497 1.098043023428334 52 57 28
15.912059096128525 -0.26429377589985303 0.40100847389490635 54 59 32
15.841355297155177 -0.10346342918557012 0.39034728460432433 58 61 33
15.833617736409021 0.06287308992504688 0.3891578965909034 52 57 28
15.888938403642523 0.22582745218511083 0.3975623771150912 48 53 24
13.24771498755252 -1.3147464394350261 0.6369875633601076 31 33 7
14.95698731001026 -0.9632083004920976 0.7784210335398691 20 23 6
16.49026639453186 -0.6568032269573405 0.4769789634990907 47 52 27
13.28302321731841 -1.2364311416654974 0.7576249291836337 35 37 11
14.352525438337668 -0.9884289208981923 1.089065606797042 46 49 11
14.398031812915043 -1.056951136317912 1.0106582102412467 43 49 13
11.591597636249215 0.034314626821769764 1.2504880758304093 50 56 29
11.66704970130488 0.1246247240308804 1.2526326581807652 44 51 21
12.313424418361558 -2.4239603797542 0.3298246035065868 48 50 25
11.804979833312919 -2.1251103078826903 0.1623634557728136 46 48 25
11.804979833312919 -2.1251103078826903 0.1623634557728136 46 48 25
11.70950305678873 -2.586750234353393 0.10109222034041956 45 48 24
11.676038381785014 -2.561774968651335 0.4224175058633672 48 53 26
11.65583468920461 1.5825752946545277 0.03239139022399597 41 48 18
11.781437150665413 -1.9799489254635965 0.441900103687859 45 49 24
24.030169146789994 -1.7826032512031302 0.9151916389190344 47 55 25
5.363312711345234 2.8729972564068063 1.8252970092994323 49 58 30
18.753880990191345 1.0858079217647267 0.7556376148989055 41 47 23
14.481666838877835 2.0563962533739173 1.0937221781120698 37 41 26
15.264024337668323 2.2854728264894746 1.1200398057849583 41 45 23
13.746768821015504 1.6588519324907054 0.9806602590160165 71 73 74
12.129436145927198 1.5721127762885858 0.28218144321128813 42 48 17
14.903592298787517 1.6672869302961284 0.7747812685181705 60 62 52
14.725634105480506 1.9390707848583646 0.8562154911140576 40 45 20
15.052621956546728 1.7451837987326861 0.8749102251116283 60 62 57
16.31248847638087 2.4909118261621708 1.0118992196779104 42 49 19
16.39029616696183 2.551005139110004 0.9412897899333003 42 49 19
16.11199388204073 2.653252568763769 1.0040975719495493 42 49 19
15.691011740385102 2.532302491630986 1.202463104571483 42 49 19
11.661013755741637 1.6588519324907054 1.7737366512398185 73 75 77
13.85024344829716 2.122638368938314 1.3041341104797888 41 46 46
13.134338388298156 -1.4409249463589708 0.625226835152314 29 31 5
15.841355297155177 -0.10346342918557012 0.39034728460432433 58 61 33
14.074931425891187 -0.8891971316064304 0.9089834886749673 29 33 14
14.782873966586973 0.15194611041517084 0.6631529348931419 44 50 21
14.02246193530563 -1.2959342963390255 0.9060652401557681 36 41 10
13.869627489061028 -1.091945506552022 0.897399681509321 35 38 9
12.363519540478102 -2.0761892356728273 0.34146315448883724 46 50 25
11.837286612388986 -2.8404567401281833 0.1782547743571448 44 48 24
11.676038381785014 -2.561774968651335 0.4224175058633672 48 53 26
24.57239964750548 -1.7942363831002177 0.8263317525842717 45 52 21
25.00377731562011 -1.9871728769951296 1.424306189988984 46 51 20
13.559057033665995 1.808926073744072 1.2207688765427287 71 75 73
15.847881947392215 2.2920688718908515 1.2730180654771033 35 39 35
15.584065062543841 1.5711871218050641 0.8184242819147989 72 74 74
14.090594688933672 1.9390707848583646 0.9098491573565114 35 39 24
13.717213640639368 1.8836957289903902 1.8935087917781734 72 74 78
14.009847355397364 2.0224623356791205 1.3805174746085571 72 74 78
15.597044345732929 2.4784422795469285 1.7872856246873612 54 56 59
14.610616554834062 0.0377445043122807 0.7540782695959773 51 57 30
14.357960269607474 -0.34769229163127835 0.8337799852709067 56 61 36
15.831339536382373 -0.07770444181199322 0.5312071537483493 58 63 34
16.79803478954032 -0.753303222379367 0.5112998920312618 49 53 31
11.983431724381159 -1.9365662024865367 0.23654991182077814 46 48 24
13.249057416247371 -1.8279376804335117 0.6371244967987354 43 45 20
17.866592944404587 0.6732913166857185 0.6094719091476473 41 48 18
13.329782609054737 1.7451837987326861 1.0485112283503937 71 73 74
16.35703983437693 2.4358507999623416 1.08414178603015 42 49 19
14.720666543769795 2.653252568763769 1.1768936202648845 41 48 18
14.090594688933672 1.9390707848583646 0.9098491573565114 35 39 24
14.138809570669189 -0.2565876501710901 0.8196202651550593 55 60 35
14.096571791257958 -0.524190315385337 0.7144052819521026 51 56 31
14.357960269607474 -0.34769229163127835 0.8337799852709067 56 61 36
14.260353227687538 -1.013583418644276 0.9190732193260416 31 34 3
13.63499034500076 -0.7580142357319661 0.7845341778150424 51 56 31
13.642935305464665 1.6517701512599559 1.143827926584635 71 73 79
15.331642911758877 2.2920688718908515 1.7246991608554492 70 72 73
14.221926823778796 2.095335497959707 1.0028734559478456 41 46 22
13.952913416910464 -1.2689997691998347 0.8071057588300458 31 34 4
12.58037192893527 -1.4215856085167164 0.5613548892426586 36 38 12
11.730873593815826 1.5740241877492405 0.11769361018346297 41 48 15
13.773194597422053 1.9092190480866744 1.0669452505772483 38 41 35
18.634952987593614 1.1221511645872961 0.6662544887677442 41 45 22
17.095836646957963 0.5130173600833325 0.4142679936345452 44 51 21
14.337175910995468 2.590535761154953 1.3849130374628902 43 50 20
13.276220769019194 1.8836957289903902 1.3698630185457785 75 77 79
