21.85134065255553 0.8208864136567438 2.1430708100606943 26 36 3
20.839952146160826 0.7438908682433333 2.0621931615260727 27 36 3
21.93911089353392 0.8974641179510793 2.1404958090542667 20 31 4
19.85197107268028 0.558167450957902 2.2094147420427346 35 42 7
12.490195368699723 1.5210051207801314 2.149702690729427 31 40 7
11.924856056509334 1.309950655891313 2.181014683164192 27 36 8
12.940431064443077 1.5157419447925313 2.322148701040028 35 42 8
13.019042447067118 1.4111479821589323 2.3165230294680303 31 40 5
12.969072041841958 1.6275511149897848 2.4313852293237677 37 44 10
13.062590188429555 1.616697806487002 2.213909167585098 32 41 7
12.36238140695535 1.4111479821589323 2.257066198966011 30 39 10
13.049070841878004 1.392614322474041 2.424284947387067 36 43 9
12.93885798780833 1.6215512218055192 2.3222622759232454 32 41 7
11.650195236954875 1.3692782146754503 2.431386222790794 36 43 9
12.34314915820651 1.5009895182956914 2.492572551392183 38 45 11
20.087553886696057 0.5362919883935267 2.330435777793425 33 40 5
12.8168877451896 0.7741596829631624 2.747313615203155 36 48 5
12.113948752660823 0.8776577617952358 2.5179385257105062 31 36 3
12.551117001283513 0.7766674382309158 2.612271312510556 35 43 7
12.888603879301437 1.0547085708123964 2.7341479154546295 36 43 7
12.730883702736902 1.241033313487807 2.763880931722357 38 45 9
12.614916358801171 1.4901972304288407 2.6036890241582107 38 45 13
11.853684349474698 1.339034201246733 2.549138829676675 37 43 6
11.842271249415411 -1.7243857625258163 2.185899383330725 37 47 10
11.2947950914229 -1.7243857625258163 2.1135273425236987 36 47 9
11.611688043813762 -1.6267848170152315 2.311248346917719 41 52 13
11.611688043813762 -1.6267848170152315 2.311248346917719 41 52 13
11.635398575211429 -1.6341740963356295 2.4328664039418078 37 50 11
12.265569348932381 -1.830985348184113 2.653533168379692 42 54 17
12.187108420923048 -1.4774439811336872 2.6658019064219625 41 52 14
11.831078179360865 -1.4916143580119312 2.5519835029940285 40 52 13
12.76696487935383 -1.8846965669306168 2.7568206865731817 43 55 17
12.69000009202467 -1.6756442862284915 2.7720858941395794 41 52 15
14.917759284033693 0.2829861340416245 3.0352550698327576 39 50 10
14.853101472815593 -0.8202003602689171 3.090207006738549 40 50 12
14.922791450232765 -1.8694667192477146 3.032141283971082 42 52 12
13.999357212911889 -2.3304389651366284 2.9875067301939104 46 57 21
14.924155412353226 -1.2484355632885766 3.0313127350700633 40 50 10
14.992368888104512 -0.7975930086799193 2.9958828081726976 42 53 12
14.992368888104512 -0.7975930086799193 2.9958828081726976 42 53 12
15.08990983007529 2.5468338613928716 1.6260597783783801 35 40 9
14.794871539879491 2.357988824498128 1.5595419255117529 27 38 6
15.516843508627032 2.312318354108653 1.5600655939851142 25 35 5
14.367083245120941 2.5075027157871084 1.6987631318352672 29 38 6
13.629406433102512 2.0540586431459134 2.0959879918285647 33 44 6
14.00964788381381 2.086066508014221 1.9230478556703883 31 42 7
13.060789157682757 2.013781860974576 2.21401250996354 33 44 7
13.801029744592542 1.9760486865850146 2.174386942793158 32 43 6
14.54920271041792 2.1923761516402647 2.0597266700877492 31 40 7
14.596118611527638 2.358178482420264 1.9819430792302972 28 39 5
14.385058586914694 2.3079200352924247 1.7690677789812257 26 37 4
14.520841203029002 2.208571501021313 1.7671894372074537 27 38 5
14.75625512612312 2.5075027157871084 1.8335988512939152 36 41 10
15.462482504087612 2.3025426022406292 2.178867896258528 30 39 7
15.441712198140017 2.6371390251123907 1.4951818986585506 35 44 10
13.568238398705343 2.9226026548960204 2.6303696834607058 45 56 23
13.568238398705343 2.9226026548960204 2.6303696834607058 45 56 23
14.050781568761321 -2.4703761833302456 2.7222708787875463 48 61 24
13.76463485886839 -2.3450758996326497 2.7716630994119185 47 60 23
13.387814981442794 -2.7206390110079823 2.8528240458490592 48 61 28
13.621461572221104 2.7723824304447757 2.013360189129764 37 47 10
13.592697736861542 2.6989070135301225 1.93434698408946 35 44 10
13.795905151939525 2.8502788538294284 2.089008522871917 39 49 12
12.95729869974611 3.016624560250619 2.0377960261654864 44 53 21
13.893956122023855 2.6056761381714963 2.4650263938969026 38 48 10
14.494920890010455 2.4919035685456876 2.3163922964509567 36 45 11
13.607270414415945 2.7102919778747463 2.491710280418774 39 50 12
13.817340910733448 2.740671653776881 2.173573319634879 37 47 10
13.309789354608842 2.912645457321427 2.2000622812472272 42 52 15
14.245217629450552 2.5125898092086913 2.4348799842920337 37 47 10
14.245217629450552 2.5125898092086913 2.4348799842920337 37 47 10
12.769591126114241 -2.9021913108782833 2.135467669105192 46 58 31
13.062644698713411 3.1061814308882045 1.8686511203670595 44 54 24
12.953901128946404 -2.8410501047658183 1.9531772958579063 46 58 28
13.176253576237832 -2.9940142524209943 2.207460152229283 47 57 30
13.637021229111836 -2.6975920215971034 2.4888451936672644 45 58 24
13.713098397962058 3.099430700583761 2.270727257823106 50 60 30
13.091297700560077 3.099430700583761 2.2122668550399816 52 62 32
13.637021229111836 -2.6975920215971034 2.4888451936672644 45 58 24
13.234230400763755 -2.8486216177890866 2.408390218130349 46 58 30
13.09571941112839 -3.0884067335486036 2.212014714309411 50 60 32
12.921094463152963 -2.0690466848079225 2.7283605546551675 45 58 21
13.814215569873166 -2.4477678481118237 2.599473656069216 47 61 27
12.076931753195959 -1.9322959841571574 2.522211625360895 41 54 16
13.798447102629225 -2.2668589016586136 2.4736931230336703 42 56 21
13.819878918650971 -2.249183041445954 2.5987936679934402 44 58 25
14.240500051121597 -2.5285767399306573 2.5516539108627154 45 60 24
13.792774953895591 -2.4326182423542697 2.4742146179634688 46 61 26
11.887013072852582 -1.8878174888661885 2.408519648411086 38 52 13
12.135088367590745 -2.0022640419527526 2.38609453875677 38 52 14
11.863805418877348 -1.8528225524195912 2.2919948848041063 38 51 12
12.9326081546351 -2.7636392872588837 1.8717393269840765 47 59 27
13.761411160238262 -2.648389078141125 2.366806041193105 45 59 25
13.303448344665863 -2.421763518863647 2.2969526154374904 45 59 24
13.276823248306084 -2.4833022807289153 2.2018710614357473 45 59 25
13.447127438376777 -2.561402910312496 2.2875038591175763 45 59 25
14.9064722695048 2.9082044075228874 1.62674055093732 37 47 10
14.70777709009186 2.9745073365014973 1.6274971367598203 38 47 14
15.512490074964912 2.782081237813637 1.495527554430451 35 44 9
14.96316314806136 2.6957698483001327 1.626528375129524 34 45 11
14.57513287562574 3.0423247298699643 1.628013716303688 40 49 19
13.942280061423057 -2.883532204005096 1.558853670100599 42 54 26
14.7047839765128 -2.966742017975536 1.5594729734759138 43 53 25
14.491345312816094 -3.103082049147021 1.5593061879261845 44 53 25
13.989045764874849 2.962366879371653 1.774758610829036 40 49 14
13.785527760760882 -3.100228249562758 1.777813170763162 47 56 26
13.862054936156625 -3.0265292129579535 1.7766538387914108 46 55 27
14.472795811146241 2.8232584966162304 1.7678499611149545 36 45 11
13.862054936156625 -3.0265292129579535 1.7766538387914108 46 55 27
14.284855045820082 -2.3406622155743726 2.889541710779408 49 60 24
14.284855045820082 -2.3406622155743726 2.889541710779408 49 60 24
21.012396861292572 0.7824959601184679 2.0046763909356455 29 38 3
20.228746388800367 0.6576364986905852 2.135954680900091 29 38 9
19.817341838730606 0.5932482408695605 2.2752126407074384 34 41 7
12.970641454123182 1.5092361344838445 2.431244528230976 36 43 9
12.425539877472772 1.3692782146754503 2.4838821199797256 37 44 10
12.279566928279815 1.5157419447925313 2.262602757679243 32 41 10
12.313052328681573 1.392614322474041 2.3708724505040695 33 43 6
12.579026248794435 0.9387761302349424 2.795579380666473 36 46 4
12.2185357655816 1.2983728767036449 2.660834097198885 37 44 8
12.185438094644011 -1.6568827746079933 2.6660680006428583 41 52 14
11.829357581086846 -1.643806393095068 2.552200958029344 39 51 13
11.050954571185944 -1.7420019438609047 2.237453723491926 36 47 9
18.22281575589051 1.976781619149976 2.934513360012129 41 51 13
14.924155412353226 -1.2484355632885766 3.0313127350700633 40 50 10
14.851730985202526 -2.2809175400271373 3.092033657835151 43 54 17
14.922791450232765 -1.8694667192477146 3.032141283971082 42 52 12
14.922791450232765 -1.8694667192477146 3.032141283971082 42 52 12
14.922791450232765 -1.8694667192477146 3.032141283971082 42 52 12
14.00964788381381 2.086066508014221 1.9230478556703883 31 42 7
14.872687757515457 2.5664226114125936 1.973849601034814 35 44 10
13.710627331883353 2.781167255787107 2.61215125065902 42 53 16
13.961396310786736 3.0610858429502894 2.736873287551946 49 61 27
13.604304041813268 -3.017690448715069 2.8033548648261983 51 62 29
13.54065660843888 -2.5076943182942313 2.8169821383335663 48 60 24
13.106326647238992 2.931983922479438 2.032071188597358 40 50 13
13.501307799390382 2.872466591471123 1.8586920338564614 39 49 12
13.621461572221104 2.7723824304447757 2.013360189129764 37 47 10
14.071969827827855 2.590415929991708 2.0778577145361656 35 45 10
14.558088406893727 2.665062136978566 1.8372626658521984 34 45 10
14.245217629450552 2.5125898092086913 2.4348799842920337 37 47 10
13.817340910733448 2.740671653776881 2.173573319634879 37 47 10
14.245217629450552 2.5125898092086913 2.4348799842920337 37 47 10
13.163065147387755 3.004841500684005 2.2082011510500363 46 55 23
12.888877857093414 -3.093032170203068 2.0404743776293004 49 58 29
12.884385162077294 3.1030996585184445 2.040651368531565 47 57 28
13.006853921623435 -2.814297591976025 2.123953931467316 46 59 28
12.97069635082821 -3.0067072906344543 2.037275300743716 46 56 29
13.207465767817366 -2.8780389692641104 2.3034247586076004 46 59 31
13.747303473236204 -2.9787074956106885 2.3678548319067554 48 58 30
14.175624967571679 -2.3491050987115583 2.558525300007332 46 60 27
13.52884930181076 -2.1301664144206427 2.6355840819049448 43 57 23
13.448913038452519 -2.347536293755782 2.6464163446963855 46 59 25
13.315180822984201 -2.7313426667829384 2.109718127405439 48 60 28
13.114943486008555 -2.693415624906031 2.2109210188892328 45 59 26
13.931408378680247 -2.594309533653718 2.46168546796557 45 58 23
13.73567380322852 -2.693415624906031 2.269343905674622 46 58 26
13.547432916843603 -2.502541868140822 2.38307550905389 45 60 25
14.70777709009186 2.9745073365014973 1.6274971367598203 38 47 14
14.564164252904877 -3.03441283749703 1.5593636396458208 44 53 26
13.842159017864216 -2.954062478310923 1.7036441219691116 42 53 26
13.84951958813295 3.035014187449877 1.7768428437147685 42 51 21
12.571622427245421 1.4262137483400497 2.1454750754229432 29 38 7
12.524742877838545 1.309950655891313 2.2464937775564344 29 38 8
12.93885798780833 1.6215512218055192 2.3222622759232454 32 41 7
12.940431064443077 1.5157419447925313 2.322148701040028 35 42 8
11.911884430109488 -1.7927084361666978 2.5419188757798157 40 52 14
12.888603879301437 1.0547085708123964 2.7341479154546295 36 43 7
11.853684349474698 1.339034201246733 2.549138829676675 37 43 6
12.613302685443548 1.6451139034159963 2.6039035075181864 38 45 12
11.637147851125901 -1.5020556077467402 2.4326910860333566 39 53 14
14.541174765582094 2.112065352141867 1.6281474830056917 30 40 9
14.803889842373126 2.6038690997524547 1.763386819323404 35 44 10
14.913798074324175 2.3025426022406292 2.123807067216326 30 41 4
13.54065660843888 -2.5076943182942313 2.8169821383335663 48 60 24
12.751221648270212 -2.7443211074763463 2.336101130160835 45 58 27
14.40082471902602 -2.5657145290775722 2.6707006726382536 48 62 26
13.62523588578457 -2.939427239468886 1.9334385673650312 43 55 28
12.888877857093414 -3.093032170203068 2.0404743776293004 49 58 29
13.607270414415945 2.7102919778747463 2.491710280418774 39 50 12
12.112356042985672 -1.9569798352625634 2.274093437130793 37 51 12
12.921094463152963 -2.0690466848079225 2.7283605546551675 45 58 21
15.146621138844804 2.8439248907321115 1.5598032968414985 36 46 9
14.51035112436848 3.1110693231536097 1.6282694454833122 40 50 21
14.651929394906219 2.757876990486391 1.6962620774346733 35 44 10
14.140059839681589 -2.5806426800253637 2.932981486553322 48 60 25
20.228746388800367 0.6576364986905852 2.135954680900091 29 38 9
12.341499950848846 1.6351574884208921 2.492748712862102 38 45 11
13.064148366265137 1.5210051207801314 2.2138197894474176 31 40 6
12.2185357655816 1.2983728767036449 2.660834097198885 37 44 8
11.637147851125901 -1.5020556077467402 2.4326910860333566 39 53 14
14.921639771375288 -0.3516953486438289 3.032845894549776 41 51 13
14.851730985202526 -2.2809175400271373 3.092033657835151 43 54 17
14.38766804782316 2.4082282792597707 1.7690313402957367 27 38 5
14.293516188429638 2.2528495052312705 1.9157574023348558 28 37 5
13.28265259571999 -2.863864795819756 1.7857713840717826 45 57 28
14.197802999106854 2.891579709632924 1.7717183149686142 37 47 10
18.169922822580034 2.3638218443798844 2.9488596495451667 43 54 17
19.731142183683115 0.6096258937434753 2.1520303104448177 31 40 6
13.120854395292863 0.900647058044167 2.6949088222041877 35 42 6
14.06129473461687 2.1261752133387803 2.0782794953124504 32 41 7
13.576116673533 2.0174234073712904 1.934811698905483 32 43 8
14.937505658380434 2.2407376591045427 2.203544997601564 32 42 5
13.637021229111836 -2.6975920215971034 2.4888451936672644 45 58 24
13.149675738237432 -2.2228388481315253 2.6903544241052777 46 60 24
12.940268229987105 -2.611309171683713 2.1271342641755657 45 60 25
13.546434324312314 -2.1794666138029664 2.8157170744289517 47 60 22
14.359242217334618 2.208571501021313 1.69883339382733 24 34 4
15.26453302321599 2.4082282792597707 1.9629290684910103 30 39 7
12.940431064443077 1.5157419447925313 2.322148701040028 35 42 8
11.611688043813762 -1.6267848170152315 2.311248346917719 41 52 13
11.719291356524085 -1.7641258400047872 2.424556663126912 36 50 11
13.47922253513254 -2.3501926053195183 2.3884307176746598 43 58 22
