7.656114530579162 -0.29862887621644374 1.8170396023756248 23 35 2
7.340153524517222 -0.026001051438679763 1.8278738116580482 15 28 1
9.142007241483656 0.7570466556871654 2.2674871239579244 58 78 38
8.282795766662655 0.2504494552018293 2.056446495320373 53 71 31
5.948615708350783 1.7249203439226577 1.7169418216747663 22 35 1
5.817779348144203 1.5541979371176249 1.5478082074036732 4 16 1
7.0689323075207895 1.3844285151441873 2.14949935135187 5 20 0
8.387102129568477 1.5507518714024693 2.5298881383402514 51 67 24
8.939949499964532 0.999327321819407 2.446577049471151 48 64 19
8.355492924955858 1.5365217614460331 2.7976994209378736 61 79 35
8.403641494948449 1.881311966727657 2.782042387330648 60 78 34
9.366956688683251 1.1993985115475945 2.8131559753222204 61 78 35
8.403641494948449 1.881311966727657 2.782042387330648 60 78 34
8.811255057676176 1.2909441803249289 2.674214733685468 58 76 33
9.288115940302026 1.346901649850593 2.5809582141548315 44 60 13
8.743291373850925 1.5455003702288388 2.6898604555166545 51 69 29
8.3097344817347 -1.106335327996028 2.543289581013872 60 78 40
8.115332125893719 -1.3145152640564512 2.579396268692047 68 88 49
5.888320388436713 -0.365367505283756 2.543529784992278 58 76 36
8.673392270876146 -1.3623676281567387 2.484297632124259 64 81 45
8.115332125893719 -1.3145152640564512 2.579396268692047 68 88 49
8.09150617788967 -1.7834366487380575 2.5840875616205112 67 86 49
8.65110340926278 -1.7433244406163053 2.487643171681996 66 84 48
8.04148890879013 -1.547730885030771 2.594144963069604 70 89 52
11.12045017372111 -1.9629444514892156 2.9273757838209216 58 77 38
8.630496962966054 2.7870048005358043 2.49076469469291 66 84 42
7.824627460765374 1.9472301186882863 2.4184336947806386 55 71 24
8.012975076958558 2.3675975773297795 2.3921910386930443 55 73 33
7.940256132019022 2.935652427413404 2.6154324985838473 61 79 39
8.362354944034436 3.0043319803973505 2.3483098321094342 62 82 38
8.845057777588758 2.371584885881057 2.666698090654922 69 85 39
8.845057777588758 2.371584885881057 2.666698090654922 69 85 39
8.947569544927829 2.0335510947497473 2.6448757114585755 50 68 26
8.579286978520697 2.5828011933684105 2.7310167529826073 63 81 38
8.579286978520697 2.5828011933684105 2.7310167529826073 63 81 38
8.845057777588758 2.371584885881057 2.666698090654922 69 85 39
8.845057777588758 2.371584885881057 2.666698090654922 69 85 39
8.057045029604685 -1.922659177503912 2.3863310454218847 66 83 47
8.549054271677697 -2.177384116624459 2.503379518251571 66 86 49
8.194816737112545 -2.631373690673202 2.564183833438603 64 84 46
8.549054271677697 -2.177384116624459 2.503379518251571 66 86 49
7.986607751976335 -2.8469613532953026 2.605523814341992 59 79 40
8.32454792652121 -3.1103400046366536 2.3527902978406017 61 81 39
7.900429444846469 -3.094347018562285 2.62417844733955 56 76 37
8.520142706584233 -2.9045580936604036 2.507968352386076 59 79 40
8.520142706584233 -2.9045580936604036 2.507968352386076 59 79 40
7.986607751976335 -2.8469613532953026 2.605523814341992 59 79 40
8.664908363251188 -2.4965589545384566 2.708878490938933 61 81 43
9.341128586584373 -2.4572741750247262 2.5719829321702576 66 86 49
9.341128586584373 -2.4572741750247262 2.5719829321702576 66 86 49
10.438891023174266 -2.830475160593332 1.6538769271287248 64 79 41
8.448223635313408 -3.114864763043498 2.1846370444391487 59 79 37
8.490196760335209 -2.992821580337512 1.9151600522535934 60 79 39
9.13641858216402 -2.9716584690383323 2.2679990026101304 64 84 42
9.13641858216402 -2.9716584690383323 2.2679990026101304 64 84 42
9.318973252426652 -2.8351188299712984 2.2517028747728576 64 84 43
9.602727760921622 -2.709382560944833 2.227988675956061 67 87 48
15.678900135064453 -3.12920965660188 1.8863793434147884 54 67 37
15.975562992415309 -3.128319116576278 2.0856345369820035 49 60 31
18.880750106674046 -0.6376317640328812 1.6698032217788037 63 75 28
17.06652604755949 -0.8879908672857405 1.0060710281307077 41 51 9
17.73090518174622 -0.7893487190869451 1.0942290126563141 40 50 6
18.232176942674712 -0.7890233202895615 1.2276801702640718 41 52 3
18.614884850174153 -0.8284086491887211 1.2913888189007066 44 56 11
18.165324821644898 -0.8284086491887211 1.397417463957323 49 63 16
18.726718460873137 -0.90694358834659 1.2931018069001519 44 58 12
18.291755585415054 -0.8711809078902011 1.2288435285031447 44 56 11
18.477622364853094 -0.90694358834659 1.3451715320660984 45 60 13
17.953011283702672 -0.7462457608516848 1.1621630409866204 41 51 5
18.232176942674712 -0.7890233202895615 1.2276801702640718 41 52 3
17.357810600330644 -0.8788380410531135 1.1472665945386822 42 54 8
18.754428680633954 -0.7127750729100686 1.456777485266579 62 74 28
17.93240912651611 -1.0005625243268839 1.2217018198417073 45 57 10
17.615443253749554 -1.0005625243268839 1.2750714137393513 45 59 14
9.241416547913934 -1.5551884260757716 2.408321703533986 65 84 47
18.93116525545876 -2.7908456731055113 1.8858566149466678 40 41 30
18.913099613693017 -2.748244166226383 2.1195958381620037 34 37 23
17.987078213719478 -2.6646381993277686 2.0862441355443013 46 47 36
17.761210495209564 -2.6335490246970705 2.1597550353822914 40 41 27
17.967304311708073 -2.694646253849703 2.220286315893456 44 45 30
18.770772787050987 -2.6923891528052124 2.062745186768726 45 46 33
17.967304311708073 -2.694646253849703 2.220286315893456 44 45 30
7.656114530579162 -0.29862887621644374 1.8170396023756248 23 35 2
7.43283066768065 -0.1653958702392384 1.824597283654176 20 33 7
7.542420430644421 -0.3440745495098888 2.1090106871893504 57 73 32
8.122427203932098 0.11440515245102079 2.066896616803866 13 30 0
8.624570989908518 0.8658911796250838 2.3188062682121373 61 79 39
5.9194280287086185 1.3844285151441873 1.548203028178236 59 74 35
8.387102129568477 1.5507518714024693 2.5298881383402514 51 67 24
8.196959992375442 0.999327321819407 2.3683711430278453 56 73 32
8.435070271695672 1.7562584204794158 2.5218273342987154 53 69 24
8.644629860124034 1.160168580112288 2.488620828543753 34 50 6
8.355492924955858 1.5365217614460331 2.7976994209378736 61 79 35
8.426584934738116 1.1993985115475945 2.774867333531774 64 80 30
8.355492924955858 1.5365217614460331 2.7976994209378736 61 79 35
9.303053582792044 1.5365217614460331 2.8339486765687942 60 78 34
8.743291373850925 1.5455003702288388 2.6898604555166545 51 69 29
8.60433970977007 -1.55217860676044 2.494767293319832 67 85 48
6.73831291512883 -0.365367505283756 2.6271857238301655 57 75 32
8.771562775769862 2.3675975773297795 2.469929455461397 55 73 33
5.918375035753149 1.9472301186882863 2.0763597958611775 42 56 14
8.385071943650985 2.5167354826053194 2.5302333882708226 59 77 33
9.248231217292055 2.379859178346905 2.8531892742094245 62 80 38
8.406379491307776 -2.9435674662859754 2.34316772318582 59 79 39
9.132346910690181 -2.9435674662859754 2.421679218490429 61 81 41
9.314981377765813 -2.7871714278850326 2.399596912398878 65 85 44
9.111089096742013 -1.9976994586472392 2.6127139885556945 70 88 51
8.96937873625993 -2.310055488138623 2.6404083044719555 66 86 48
8.528868656697645 -2.9716584690383323 2.177989709719261 61 81 40
8.528868656697645 -2.9716584690383323 2.177989709719261 61 81 40
8.686343246737254 -2.8719204636689986 1.9070729135738154 62 80 41
15.975562992415309 -3.128319116576278 2.0856345369820035 49 60 31
18.909059966307737 -0.6376317640328812 1.4577139006630357 62 74 27
17.953011283702672 -0.7462457608516848 1.1621630409866204 41 51 5
17.70297293544773 -0.9172692026006446 1.2169801534973472 43 55 11
18.152049820046184 -0.9521962791326246 1.2840654470483552 45 57 10
17.73090518174622 -0.7893487190869451 1.0942290126563141 40 50 6
18.763813252964127 -0.8646812516274925 1.456834759106256 55 71 25
18.705738196193938 -0.7887474468001465 1.4564793996626524 58 73 23
18.50047368614583 -2.6646381993277686 2.1332912082198994 39 40 28
18.789549687618432 -2.7707080025604673 2.0027561762905255 31 33 20
7.3830031689381785 0.11440515245102079 1.8263483230315778 45 61 21
5.880399687861845 1.5541979371176249 1.7186495832169002 14 26 5
7.29128765114086 1.2247876307818084 2.1297025204208153 47 62 29
8.78931580981637 1.8033053946865392 2.679185273430149 48 66 26
9.877440522731812 1.0683469413964004 2.6851554072976342 53 70 26
6.73831291512883 -0.365367505283756 2.6271857238301655 57 75 32
8.3097344817347 -1.106335327996028 2.543289581013872 60 78 40
5.888320388436713 -0.365367505283756 2.543529784992278 58 76 36
8.385071943650985 2.5167354826053194 2.5302333882708226 59 77 33
8.147626397394667 2.6203794523700776 2.3745952795054137 57 75 31
8.894737762117266 2.6203794523700776 2.452695670125259 64 80 34
8.569020873603435 2.1652877705162283 2.733777647087353 68 84 38
9.049174840844461 -2.631373690673202 2.624541407793665 62 82 45
9.095928131128192 3.02401690345613 2.271733053512989 58 78 35
8.800390162009158 -3.118245239644567 2.0256485973682135 58 77 36
8.686343246737254 -2.8719204636689986 1.9070729135738154 62 80 41
17.06652604755949 -0.8879908672857405 1.0060710281307077 41 51 9
17.95791358928756 -0.8320983764930455 1.1622812440094203 43 55 7
17.894956178061772 -0.9521962791326246 1.3376913644573467 45 59 14
18.36427188675216 -0.8284086491887211 1.3437545461612506 43 57 12
18.36427188675216 -0.8284086491887211 1.3437545461612506 43 57 12
7.195567513910121 0.11440515245102079 1.6914787211914832 19 31 9
8.073622482499339 1.517671500465097 2.91446646163996 60 78 35
8.476709019348116 2.9768017619192726 2.5149761365264376 65 83 41
7.829566903463664 -1.55217860676044 2.417719256093439 69 87 50
8.544863833940889 2.4803416920347945 2.3274968113620105 54 72 32
8.37456776034677 2.221285999239195 2.5320251167513694 51 69 27
8.724145719446167 -2.8351188299712984 2.162521273181886 64 83 43
9.06118240284239 -3.114864763043498 2.274973447601516 60 80 38
15.13679764695743 -3.0565990711597273 1.9687691601565334 46 57 29
18.823398351910843 -2.6663017479515627 1.887723104653655 43 44 36
18.337010146242495 -2.639385687392598 1.954598613444279 46 47 37
8.569020873603435 2.1652877705162283 2.733777647087353 68 84 38
8.697288460079944 -2.1095352596200407 2.700887495550326 67 86 47
18.50047368614583 -2.6646381993277686 2.1332912082198994 39 40 28
8.439414302522959 -3.103971922496548 2.5211063364745074 59 79 40
8.104230344155717 2.706265436427272 2.581574393715893 64 82 40
8.263135033597036 -1.9976994586472392 2.5516137394791 66 85 48
8.485479634135991 3.02401690345613 2.1815465921569475 55 74 32
18.610155605412864 -0.7493403277686901 1.2913159073252325 46 57 8
17.782265104213003 -0.6997962463305887 1.0957195233943122 40 46 11
18.90365424585415 -0.8646812516274925 1.4042538483896319 44 60 12
18.698421125489592 -2.7230535556181823 2.1909167040972797 36 40 24
8.282795766662655 0.2504494552018293 2.056446495320373 53 71 31
