13.080673420052296 0.11761160825692771 1.8465297297979872 7 9 12
10.906611784587914 0.8552093150467837 2.002269607070672 30 31 21
11.505890712228494 0.5984123265501307 1.532654332129378 20 20 19
11.779346915577584 0.5984123265501307 1.7899827161088389 34 35 28
12.34812937663275 0.37125719458069745 1.5352570494676698 11 10 14
12.997513230450435 0.19562513701870682 1.7691513050321048 7 9 13
12.530461233496972 0.2936120205878003 1.8589758775552063 17 17 15
11.95688377939725 0.4030463270354764 1.8732264104159553 27 27 22
11.427384967208203 0.7214730567124399 1.7078484237545182 32 33 26
12.60332463193113 0.37125719458069745 1.775441848296714 11 11 13
11.260514337509719 0.5229916715316661 1.8002586552604587 36 34 27
11.08642375202908 0.9952828243200327 1.994814963344797 26 27 16
11.078849445714273 1.1275137318138597 1.8980521708332385 23 27 10
10.424192846084875 0.9952828243200327 1.8190405239707501 27 28 19
11.961433768605183 0.7838828260591706 2.0543537011326642 30 31 20
13.32884941810706 0.6307691113836721 2.370765902290467 33 34 18
12.294985799952888 0.5229916715316661 2.0401595219355686 31 32 22
13.173814888780607 0.23166986226907024 2.1821304414128573 32 34 23
14.277274362733941 0.1397469489103812 2.3045782609551053 29 33 19
12.867832694830025 0.4847944816967268 2.298721021140071 33 34 20
12.947653744958084 0.04539099389787779 2.194426715213537 31 35 23
13.173814888780607 0.23166986226907024 2.1821304414128573 32 34 23
12.86004400371667 0.3197816526808822 2.1062185561089963 32 33 21
15.69060759850491 0.6031679066525442 2.6145351492254494 38 40 17
14.001490281072392 0.3189933305771611 2.5422659293826833 37 41 20
13.788911083418958 0.06350650240067224 2.565220667381541 39 44 16
14.213022569203417 0.050161558904664595 2.408440247186457 33 37 18
13.704995211852552 0.5381761188719284 2.4505989344963597 35 37 18
14.704094567068493 0.19444410246157195 2.5949388690638533 38 43 18
13.636884598123148 0.17204489895595426 2.4566605313094243 36 40 18
14.21251422877845 0.4341165119168972 2.520865198047612 38 40 19
14.704094567068493 0.19444410246157195 2.5949388690638533 38 43 18
14.41935060178565 0.25505980001677664 2.392689105296342 33 37 18
12.452492499960881 1.4286273065150883 2.125748260216514 33 37 18
12.371958205521038 1.5231456964078374 2.129788778574257 34 38 17
12.452586502181546 1.713038336359383 2.1257435804182068 34 40 17
12.781099887884517 1.5181264739788294 2.3047850577394002 32 37 15
12.216105615453335 1.4138593803584825 2.238210879770617 32 36 15
12.63206275892472 1.133029475652477 2.429357760211055 34 36 14
13.020123675881708 1.2840502085398517 2.3954959542597782 34 38 17
12.304516365004423 1.2840502085398517 2.3403030236743536 30 33 12
11.794488478596238 1.3129116947838757 2.160720323030244 27 31 10
10.820233756988944 0.9366105995934195 2.110599925233161 29 30 16
14.212115689230915 1.3432738875768993 2.6548066224949314 40 43 18
13.180929258370366 0.9636261981988195 2.5001814851480546 36 37 15
13.777385303290766 1.5040751994052635 2.5665089880467304 37 43 18
13.179236984043648 1.2481667587935177 2.500353458574607 36 38 16
15.041346900313552 0.5637681496010619 2.6942459710256745 40 42 14
11.874044111261636 2.014146116423788 2.0582225309286035 32 36 15
12.37886739238368 1.8287579463564283 2.2278910370212754 33 39 17
12.37886739238368 1.8287579463564283 2.2278910370212754 33 39 17
12.865719647402738 1.7459791773915045 2.4085724652809426 37 43 21
12.304674919092678 1.8576271378693916 2.3402905412426778 37 41 19
12.632278978412973 2.0086487898541336 2.429337936500386 37 45 22
14.143348388543112 2.13948291389183 2.6640745036700135 43 49 26
13.551695806303403 1.6297576562118468 2.464392862308653 35 41 19
13.777413624222426 1.6376213611149792 2.5665058166274104 38 44 19
14.143348388543112 2.13948291389183 2.6640745036700135 43 49 26
13.026719041719343 1.7688357250343554 2.5162070348906003 37 46 21
12.87412673290048 2.06627091694625 2.5328135325420096 40 48 22
14.141633325724374 1.6479006507795966 2.664308927489756 40 45 18
13.485727874897936 1.939216216002149 2.6007888230933354 39 48 22
20.71811885238775 0.18853000434442435 3.0184568652769115 46 55 26
20.621377964608524 0.30791152122383414 3.065208301069352 44 54 27
20.621377964608524 0.30791152122383414 3.065208301069352 44 54 27
12.630197256749694 -0.6698046005559056 1.8566358780170455 39 39 35
12.232953882058847 -0.7245270835291887 1.952891847026494 38 39 30
13.010615175680305 -0.6217213581852932 1.6910842704609443 0 1 5
13.516862997218688 -0.03872875936293686 1.5383310792242715 9 8 15
13.175637765880222 -0.5559120281061614 1.9243012064430658 34 36 30
12.386636492258932 -0.4842522374824596 1.8624195897774103 11 13 12
12.86008607381959 -0.37473890539875093 1.8513863275982378 0 1 1
12.86370603594063 -0.5559120281061614 1.851305228391733 1 3 4
13.017125434347959 -0.7312680128058643 1.7688484813697527 4 3 6
11.294706426679461 -0.9192868837460076 1.891571686767408 39 43 26
12.13770313496471 -0.7867771970027368 1.6997817140714704 37 37 33
12.552642451281708 -0.7867771970027368 1.8584521075876586 38 38 31
14.318522460933282 -1.0920564046831467 1.3996404706819212 4 5 4
14.603571487956671 -1.031213408019251 1.5407477010718755 3 3 4
11.73832829278714 -1.3375825956658527 1.9698834594563082 42 45 28
11.727821419040486 -1.166730435851573 1.7909615291929966 43 44 29
11.975747045622404 -1.0892142704689118 1.7015360093499692 38 39 25
11.559296822479578 -1.0470830239527935 1.883976047309192 39 42 26
14.927250935452008 -1.249583954544344 1.2688710759039714 18 20 24
14.656861903815912 -1.3175640141832685 1.2631203363840673 25 27 28
13.893194947233276 -1.1569953020220607 1.3943464710992228 6 6 6
14.937052779917122 -1.400353364425408 1.4067935520228019 25 28 23
14.379703429648357 -1.1569953020220607 1.2569895964317814 11 11 9
13.449904424879353 -1.2982952083152135 1.3122545647325339 41 41 39
15.210489147692213 -1.2703506297181506 1.5419470187164297 20 22 26
12.055859566411241 -1.275944610744311 1.6173671834356647 41 45 28
12.153715617701666 -1.4413840300061227 1.8681774496054355 40 44 25
12.403067413028783 -1.5274661671714838 1.9473864337105984 39 43 23
13.690922211988484 -0.041823678453989856 1.9890876894593414 8 10 10
13.02054031781195 -0.21598376491989144 2.0120943757393435 25 28 22
13.700479448329355 -0.2972865014756654 2.070204990783461 23 24 19
13.327070133327336 -0.13168022718165617 2.085555130299645 31 34 26
13.5508969792865 -0.37473890539875093 1.9936858039347287 9 10 10
13.327070133327336 -0.13168022718165617 2.085555130299645 31 34 26
13.034704584251323 -0.25960512920834267 2.2873691120024144 36 40 21
13.48827944483012 -0.05500825777718893 2.3586714305036374 36 39 18
12.635574704141384 -0.23583118478388435 2.1167904482905304 35 38 27
13.02820310997632 -0.14405623923677163 2.1899859411913436 30 34 20
13.264603009002466 -0.355141647068823 2.2723702036627595 38 42 25
12.074676683965356 -0.5762377734161948 2.1452654301766376 38 42 25
13.02820310997632 -0.14405623923677163 2.1899859411913436 30 34 20
13.56391727229127 -0.15897826598163567 2.3530830007852033 35 39 19
12.084881997547134 -0.7043525944495752 2.3580623803603045 41 45 24
13.409937175477971 -0.32373914297963186 2.169841488240859 30 34 21
11.99671183943616 -0.6347723033642119 2.2527059779289025 39 43 23
13.181429621987409 -0.4067611986455942 2.091815779358031 33 36 25
12.883968439566644 -0.48903718255503353 2.297605462236361 39 43 24
12.247343513159363 -0.5427026408703031 2.3448351118904966 39 45 21
12.650833668856036 -0.6347723033642119 2.314113684187784 39 44 22
12.79832163389869 -0.5266316562305283 2.109081928716732 34 37 25
13.102433312501466 -0.4842522374824596 2.0091440316238116 39 42 33
13.557669580191707 -0.049778285597450136 2.254242652766997 32 34 16
13.200121159447423 -0.6079696284739737 2.498236993391268 40 46 20
13.042388971477193 -0.2003635237949424 2.514545036099044 40 45 17
11.909860065828175 -0.7158715031418846 2.1542493311951727 40 43 25
11.911830948805513 -0.858256006969027 2.154140115220457 40 44 25
11.915034398766116 -0.7872007747710321 2.2582836852121386 40 44 24
12.075404274063118 -0.9192868837460076 2.049403712110823 41 45 26
11.567893877436774 -0.9977601418903954 2.07230456844296 40 44 23
12.577170675099195 -1.1811824131562136 2.3195106908207292 43 46 25
11.912699501917922 -1.5233544463754254 2.0565032411473463 41 45 28
12.323243815950976 -1.0470830239527935 2.0389969013461657 41 45 25
13.050229887888806 -1.2855203871753635 2.393003510955675 43 47 27
12.418317140261882 -0.9669503087437129 2.44952952485683 41 46 26
12.89313586112644 -1.4146078920216951 2.296973399764918 43 47 28
12.414091766911245 -1.3141076364407969 2.225703900329383 44 48 29
12.253092361737222 -1.0317698817963998 2.3443765791227107 42 45 25
12.896095552698252 -1.3966321044902072 2.4059601818924263 45 49 28
12.409094087947961 -1.1293938366938707 2.127917839297808 39 45 23
11.569956737279904 -1.2186286112669447 2.072206818868796 42 46 27
11.66138744816744 -1.4146078920216951 2.1683809756091006 43 47 28
11.9106304839396 -1.1293938366938707 2.0565949434750372 41 46 27
13.205484780863035 -1.2500133173483694 2.4976954698723772 43 48 26
12.662490233357358 -1.2048609118150047 2.557219022036711 44 49 27
13.507818345997412 -1.2048609118150047 2.598071699472329 45 49 28
13.205484780863035 -1.2500133173483694 2.4976954698723772 43 48 26
13.8036446690587 -1.836052867835686 2.7140685299311715 43 55 29
13.8036446690587 -1.836052867835686 2.7140685299311715 43 55 29
12.822532051566943 -1.6611494174130736 2.694332355001248 43 52 28
13.360151809927931 -1.6809785693021584 2.794020798693272 45 56 30
13.434821798665508 -1.8910926921170574 2.778990417522652 45 57 32
14.091513933313088 -1.9734070314233683 2.8663890679921824 47 59 35
13.57955960696666 -2.630619631187312 2.751862183405261 45 58 31
13.57955960696666 -2.630619631187312 2.751862183405261 45 58 31
13.429753152289349 -2.815258616725503 2.7799865656910128 44 56 30
14.231168479790297 -2.517042282239825 2.8335402098111566 45 57 31
14.018750868839902 -2.3516768303620483 2.885412718547409 47 59 34
13.507399014218757 -2.3529632654104846 2.7650818337134315 45 56 31
12.177700579749139 -1.9959067907972703 2.6204710436012975 45 54 30
12.739621350934149 -2.2545164062206133 2.5481279326432595 44 51 28
13.205085396771814 -2.3536794438800586 2.6372967027673857 44 54 30
13.282306627472265 -2.13568052017066 2.6268608287751607 44 54 30
12.252052722201409 -1.7270647235904695 2.2359008551156196 43 47 28
12.818379041808615 -1.629438997545757 2.4126837064768862 44 50 28
11.575384139259993 -1.6232930171907316 2.173446457759575 43 47 29
11.661487827417615 -1.7270647235904695 2.1683751172090067 43 47 28
12.08270909623185 -1.9230362364524072 2.14483517967397 42 46 29
12.891526876642425 -2.056610696963435 2.29708424305198 43 47 26
12.336527244570869 -1.8561565733425953 2.3377924563064973 44 48 27
12.420395832134268 -1.8916727514398983 2.4493276201071668 45 49 28
11.912732255892132 -1.6183121988014249 2.056501789728395 41 45 28
12.414248921508715 -1.827561679698298 2.225694178380542 43 47 28
12.162020825328641 -1.8040802545942185 2.0457121039984796 38 43 25
12.662644305110891 -1.9368360533096696 2.5572006268669343 46 51 29
13.28395639864857 -1.6473570558651196 2.626641289547553 43 51 28
12.503670677852162 -1.796876465975346 2.576710827584706 44 52 29
13.053273528426296 -1.7676516000984634 2.5133951704210853 44 51 28
12.976408186795657 -1.6372124626078874 2.5215965942096896 44 51 28
20.622497388700932 -0.33561773818273355 3.064502301052661 51 61 31
11.61946882052304 2.490484109485947 1.974201295738819 42 49 26
11.86576752508941 2.295150913824141 1.8756231379078603 31 36 14
11.531049644581147 2.3577618524552717 1.9774763561449424 41 46 24
10.907076855336522 2.286442783919161 2.0022499757693764 36 41 19
11.097357532849372 2.7907567633286514 1.9943702603882811 40 49 27
11.089755509728796 2.701220790168439 1.8977183509778202 42 50 29
16.489822919280467 2.72150991031819 1.2982535203721317 23 27 11
15.87711960197932 2.780449846194886 1.3524809117673542 6 11 1
16.637869232107093 2.8019450108509583 1.7253518268261547 32 38 18
15.950581215924089 2.920933660728348 1.4804730113535094 8 15 0
15.236308832781686 3.040089204050861 1.275182399782655 38 45 24
15.884412301744348 3.1108344021901018 1.3525827648507893 21 29 9
15.36551129836448 2.972408407462395 1.2777421348909255 10 18 3
15.885361593458658 2.983135364863172 1.4166648597812612 6 13 0
15.236308832781686 3.040089204050861 1.275182399782655 38 45 24
15.56049794329509 2.842132840569639 1.3479644520385587 6 11 1
16.33599895850972 2.860418520567223 1.7282314430256185 36 42 22
11.791794520473134 3.100146911892811 1.7897475677098538 33 41 21
11.86724827746504 2.929456529999553 1.7027382765562489 41 48 24
12.027589730809263 2.8479994311637706 1.6174767237908363 42 51 25
17.91014526949847 2.7675415720876098 1.7142937636766806 32 38 18
11.890247583281587 2.3580034063082964 2.2599966267756493 43 50 27
12.06232584424538 2.2748431429528124 2.359941118935784 40 48 25
12.791489449291813 2.2748431429528124 2.415040967877819 40 48 25
11.540395253951903 2.5692254358269246 2.0736114449024123 43 49 27
11.371123066718255 2.5108730984998076 2.185859037175438 44 50 28
11.534291192851828 2.1463746154627974 2.0739025142849274 35 39 18
11.361638221964796 2.286442783919161 2.0822850269165087 39 44 22
11.64320513852725 2.8580549913863944 2.277608583232102 40 47 25
11.648430927762064 2.8226303068353356 2.396418955375829 39 47 25
11.54442903614044 2.7907567633286514 2.07341929027966 41 50 27
11.28696411580629 2.753326042248949 2.1911366357732063 41 51 27
12.073172361567833 2.650433551109212 2.4847788208552077 42 50 27
11.571516712831109 3.0683566875749873 2.543257413305354 38 46 23
11.82402893517519 2.77753629402059 2.5126137642265105 39 47 24
12.230846426285233 2.6034623278421023 2.3461544725941548 42 50 28
11.477461063605423 2.94716827603609 2.4127089266976744 38 45 23
11.472157394560192 2.9695632394086418 2.2904119249100123 37 43 21
11.392027117871221 3.078092740970069 2.421147798946345 37 44 22
12.390949433754374 3.0962050284700484 2.128830309301835 34 42 20
11.973594319314872 3.00185595584441 2.053820435394032 35 43 21
15.88586552755442 -3.107858905280792 1.3526030497989334 30 38 18
12.325484590680194 -2.853055958967143 2.3386563552617283 41 53 26
12.652488172839604 -2.7024609755469555 2.4274900799567503 44 54 29
12.56836265321898 -2.7486819397886526 2.320162078285508 43 52 28
12.075811841016131 -3.0801336010970077 2.3588165782874717 36 44 21
12.163344474306472 -3.071964396114378 2.475222702426656 37 45 22
12.335973207824377 -2.354135749799013 2.457622968572603 42 50 27
12.247167761910365 -2.941249423212458 2.466566491950605 39 48 23
12.247167761910365 -2.941249423212458 2.466566491950605 39 48 23
12.237225332008222 -2.9826272274469874 2.236851537026099 37 46 22
12.237225332008222 -2.9826272274469874 2.236851537026099 37 46 22
13.200505427164416 -2.533679312946195 2.4981981691982496 45 53 30
13.57847784965655 -2.45338893717386 2.5895197938994285 44 53 30
12.893275477953976 -2.8714563871194136 2.6830267990018584 45 57 31
13.126261179130735 -2.354135749799013 2.505779794479597 41 51 27
13.278888934164591 -2.5719139031311697 2.6273160749670526 45 56 31
12.893275477953976 -2.8714563871194136 2.6830267990018584 45 57 31
13.501240769489351 -2.7713489307961714 2.598878531306897 44 57 30
13.049242197849807 -2.7115190353073912 2.659379782801179 44 57 30
12.814928964761982 -2.271340585137854 2.412985254550292 43 47 26
12.654883492195282 -2.2021140811717808 2.3138195638325016 44 48 27
11.893666369080597 -3.0918180613528716 2.05734819264332 34 43 19
12.475093853167092 -2.9975469729689426 2.1246254953513626 37 47 24
12.392812322374313 -3.0918180613528716 2.1287364801302244 34 43 20
12.873239896032269 -2.8178759245075575 2.105610573287996 39 49 25
12.636223171227314 -2.905778352933815 2.116759267342886 38 48 25
12.174434448277973 0.6668106507322407 1.4523414287307788 24 24 21
11.499971915238476 0.9696397806633518 1.532634691703283 26 27 20
11.855522242840973 0.4808017837901467 1.6181547323747376 14 14 11
12.616700268711268 0.21215009134425503 1.9406990108896256 23 26 21
11.425398819236841 0.8464933773669278 1.7078723987080386 30 31 23
12.986307622677506 0.27130342812192665 1.6140282956520982 13 12 19
11.084411710910711 1.2170522224483749 1.9948969031713792 21 25 6
13.252415148654752 0.3508624032067073 2.273147564774716 33 34 20
13.257065482544206 0.3882987827997899 2.376356938137596 36 38 20
14.281590988575152 0.15423636801306265 2.4031248860323773 34 38 19
12.858841029300715 0.12773253411696717 2.018042762363728 28 31 25
12.382864885290951 0.44040353987941644 2.129237899264063 31 32 21
12.782642997618382 0.04144855103560296 2.0209040298902283 28 31 25
13.703837937549554 0.25505980001677664 2.3429864971650556 35 36 20
13.781090383376547 0.2835623215957661 2.4439488930273656 36 40 18
14.208685112159907 0.04539099389787779 2.3089398557175 29 33 17
11.889820969351389 0.7836492759460224 2.260026192484346 30 31 18
13.781090383376547 0.2835623215957661 2.4439488930273656 36 40 18
12.625864378956715 0.5724090192687253 2.2128854232661492 31 32 19
12.612204048931789 1.8050711562340556 2.117916741314551 35 41 18
12.371989743640135 1.6185212733544958 2.1297871839592193 34 38 16
12.94481475988882 1.029054134044633 2.4018115116373906 32 34 13
11.97173561657083 0.9366105995934195 2.254400826853626 30 31 14
12.378709788598048 1.3129116947838757 2.227900859167299 33 37 16
14.141605734203626 1.4938117750315674 2.664312700177469 39 44 17
12.873914575285223 1.0754149912413264 2.5328371731326325 37 38 14
15.303461934733505 0.6832448941552502 2.6597782700534958 38 40 15
15.88455933049477 0.7828699627374927 2.7305182342798076 38 40 12
12.046353835796271 1.924612892760169 2.146788064866127 33 37 16
12.225087116558225 2.1126151379360656 2.3466163168628893 39 45 22
12.859163079269052 1.7278136058151297 2.2993220182229535 33 39 16
13.84983417050497 1.7688357250343554 2.558488003899032 37 44 19
13.336569121712744 1.798433118729721 2.6197121875517078 40 46 20
13.181195678403387 2.178047715911578 2.500154418465335 43 49 26
14.49835129276623 2.0801476353340886 2.780085674251255 42 48 25
14.703842034857201 2.2343875977774403 2.7447679761786796 42 48 25
12.385450544320694 -0.6698046005559056 1.779094298457026 14 14 14
12.308740462054581 -0.4067611986455942 1.9504188618406866 25 28 24
13.011744143472447 -0.44775119952292747 1.7689314788758308 1 2 3
11.634928772253899 -0.9719046500025985 1.7053886812352372 35 37 25
11.566725184200772 -1.4292427474606382 1.9761483483753612 43 46 29
12.146646239161141 -1.0892142704689118 1.7832515695663425 40 41 26
13.893194947233276 -1.1569953020220607 1.3943464710992228 6 6 6
12.324946408657517 -0.28856173990372447 2.3386985167984404 38 43 20
13.765446611078566 -0.12125283374847248 1.9866823720399587 6 8 8
11.911830948805513 -0.858256006969027 2.154140115220457 40 44 25
12.652025580917297 -0.43917171956896894 2.427532267675337 38 45 21
12.872603368847825 -0.32373914297963186 2.1056398667763947 37 39 30
11.990347727099065 -0.7869607900980785 2.0530877780414634 40 42 27
13.102433312501466 -0.4842522374824596 2.0091440316238116 39 42 33
12.812762015008026 -0.7043525944495752 2.4131747882502927 40 45 22
12.084881997547134 -0.7043525944495752 2.3580623803603045 41 45 24
12.713283970745456 -0.4067611986455942 2.02354181040526 35 37 32
13.02820310997632 -0.14405623923677163 2.1899859411913436 30 34 20
13.63292242453504 -0.14405623923677163 2.249755526358168 33 36 20
12.883347086341297 -0.17731276338971472 2.407054111369906 38 43 17
11.915034398766116 -0.7872007747710321 2.2582836852121386 40 44 24
12.949436547088133 -0.049778285597450136 2.194327675444764 32 34 22
12.563597669856806 -0.6545802690257978 2.120275133842239 37 39 26
12.795339326249236 -0.6017226350141517 2.02042463640884 36 38 29
13.56675938896234 -0.061464681053253624 2.4630131075159083 37 42 16
12.080507701178496 -0.9977601418903954 2.144953027023841 41 45 24
11.831617676323884 -1.3141076364407969 2.1586209869879407 42 46 27
12.659445104799584 -1.1353883405009302 2.4268562367762465 44 46 25
13.050229887888806 -1.2855203871753635 2.393003510955675 43 47 27
12.81537095487454 -1.5183813570045979 2.3023751939826678 44 48 29
12.414091766911245 -1.3141076364407969 2.225703900329383 44 48 29
12.897204291329697 -1.0783798361281416 2.530251407371436 44 47 26
13.283927025681034 -1.4943545321552598 2.6266451970612503 44 51 28
13.358964662204988 -1.3448298125473976 2.6168042944174346 45 50 28
13.05318385204095 -1.374040818410969 2.5134046287406235 45 49 28
13.58290164653618 -2.0757916135880907 2.7512635846093754 45 56 32
12.89858519212316 -2.2294153329124096 2.682193633152669 45 55 31
14.018750868839902 -2.3516768303620483 2.885412718547409 47 59 34
14.231168479790297 -2.517042282239825 2.8335402098111566 45 57 31
12.421641267867942 -2.13568052017066 2.5872178862238786 44 54 30
13.283412504011931 -2.1880134915594045 2.8103353382793372 47 58 34
13.57955960696666 -2.630619631187312 2.751862183405261 45 58 31
13.730980510220503 -1.6611494174130736 2.725835458135136 44 54 28
13.57955960696666 -2.630619631187312 2.751862183405261 45 58 31
12.173295530728806 -1.7450493588228666 2.3507987035378433 45 49 28
12.173295530728806 -1.7450493588228666 2.3507987035378433 45 49 28
11.831782567584082 -1.827561679698298 2.158611699732257 42 46 27
12.162020825328641 -1.8040802545942185 2.0457121039984796 38 43 25
11.831782567584082 -1.827561679698298 2.158611699732257 42 46 27
12.418599920857352 -2.174723402451927 2.449502051323454 44 50 28
12.503670677852162 -1.796876465975346 2.576710827584706 44 52 29
11.615427505713376 2.2249846774763182 1.974349799865922 35 39 18
11.261172688456194 2.6186365261970583 1.8002449999398684 42 49 27
15.690934465931267 2.780449846194886 1.4147394512465346 17 23 9
15.930818622188138 2.6942696754502644 1.2223923606212788 24 29 11
15.94621436532849 2.72150991031819 1.4804482089149547 29 35 16
16.80855520500717 2.7457894298360386 1.6041931962808416 22 29 10
16.445400570035215 2.8019450108509583 1.5441138945362314 1 5 0
15.55804512374327 2.9062549353566425 1.281474157982366 5 11 1
11.62022491309322 2.8218331795116125 1.8822785446309092 43 51 27
12.129416564036342 3.013868693010175 1.868791461833413 37 44 22
11.713167546705751 2.9099393993660105 1.9707895131011994 41 48 26
11.428734180448696 2.738573140661548 1.6199246558833478 43 51 30
12.398198316061517 2.538480831845475 2.45148973629399 41 49 27
11.366993457719053 2.2050497792241814 2.1861157239440905 40 46 23
12.151433868102735 3.0914352081301826 2.2424119903923483 36 44 22
11.633975655972643 2.6568360262591213 2.169985463959345 43 51 30
13.55524621281139 2.2748431429528124 2.4640671720117937 42 50 27
11.891725287411582 3.0962050284700484 2.0574345377117544 32 40 19
11.64320513852725 2.8580549913863944 2.277608583232102 40 47 25
12.465301917952779 -3.0099212588598445 1.945412800463554 38 46 24
12.966557999391387 -2.5989360274806486 2.3999760689007608 45 53 30
12.40144560985043 -2.8820079036106963 2.226487267327164 39 50 26
12.160238525923747 -2.9642958293785835 2.3518614828763287 38 50 23
12.642864493532043 -2.7864777869551496 2.2118802835652467 40 50 26
12.335973207824377 -2.354135749799013 2.457622968572603 42 50 27
13.126261179130735 -2.354135749799013 2.505779794479597 41 51 27
12.737839815095017 -2.45338893717386 2.5483352943988358 44 52 29
12.893275477953976 -2.8714563871194136 2.6830267990018584 45 57 31
13.278888934164591 -2.5719139031311697 2.6273160749670526 45 56 31
12.814928964761982 -2.271340585137854 2.412985254550292 43 47 26
13.028832035294688 -2.9975469729689426 2.189951538954551 34 44 20
12.475093853167092 -2.9975469729689426 2.1246254953513626 37 47 24
13.005775121452677 0.038135917089533 1.848159518373223 6 8 10
12.86004400371667 0.3197816526808822 2.1062185561089963 32 33 21
15.435068389806206 0.49120903548896017 2.643718682769522 41 43 17
12.379750975643061 0.3197816526808822 2.0366899667251914 36 36 31
13.772142036823876 0.23166986226907024 2.241624912241648 31 33 19
13.565057719385607 0.05605148465731712 2.4631687008185668 36 41 17
12.04662968679978 0.65115280347656 2.0506434176022235 30 31 21
12.464632457704102 0.7123560369982833 2.2225936715006585 31 32 19
13.0228863203052 0.1397469489103812 2.1902769362971126 30 33 23
12.612204048931789 1.8050711562340556 2.117916741314551 35 41 18
13.84974965180797 1.3728572619927142 2.5584972556410603 37 42 17
11.625901707072689 2.0588568939238066 2.170459833480427 35 41 19
11.886035715935341 1.1792702133110118 2.2602886471812207 27 29 8
15.632190969654356 0.6578808248935232 2.7692873320331066 39 43 16
14.837655502832023 1.9990694377554945 2.723771389115666 42 48 26
12.78113041642479 1.6235482961358818 2.30478290295512 33 39 16
11.886265506185365 1.9624010913857557 2.2602727080369194 37 43 20
12.86562866372385 1.3957027403305675 2.40858031967605 35 39 18
13.179385014843094 1.8935197711744292 2.500338411946334 38 46 23
20.71811885238775 0.18853000434442435 3.0184568652769115 46 55 26
15.007906680514981 -1.334335542588544 1.4747826599795926 21 23 26
14.027710116131503 -1.2258559418431978 1.2488353788603566 29 29 27
13.017125434347959 -0.7312680128058643 1.7688484813697527 4 3 6
13.893194947233276 -1.1569953020220607 1.3943464710992228 6 6 6
11.566725184200772 -1.4292427474606382 1.9761483483753612 43 46 29
12.403098872044593 -1.6141940821246445 1.947385430661888 39 43 22
11.893991248575919 -1.3571838767651685 1.7024398848161137 41 45 28
12.774997434690976 -0.7312680128058643 1.6147438490888544 4 3 5
12.878561806776707 -0.15897826598163567 2.297978819813801 35 39 21
14.127273593228239 -0.2747285456944363 1.9753988032078995 2 2 5
13.182573559913534 -0.23583118478388435 2.1816648260756306 30 34 20
12.79832163389869 -0.5266316562305283 2.109081928716732 34 37 25
12.084881997547134 -0.7043525944495752 2.3580623803603045 41 45 24
12.784448810656524 -0.045455835562746426 2.0208357803591324 28 31 24
12.883347086341297 -0.17731276338971472 2.407054111369906 38 43 17
12.956595417607907 -0.44437295533188503 2.193930325051982 35 39 24
13.911638645040675 -0.19917672743295908 1.9820460027136673 2 4 6
12.335625271173322 -0.7875278465846876 2.457657567163044 41 46 25
12.249977316485287 -1.0850535575665725 2.236033741908635 41 45 24
11.99641488854692 -1.712422587960352 2.052823023792864 41 45 27
12.900314282645944 -1.836052867835686 2.6819227660737806 43 53 28
12.659660856613641 -2.006289587151333 2.426836598253616 44 50 28
12.80565639496733 -1.0470830239527935 2.108739958694753 41 45 25
12.170127999738769 -1.6232930171907316 2.241191581900353 45 49 30
12.577387838244341 -1.960488588781763 2.3194946472635913 44 48 27
13.580149105358563 -2.2545164062206133 2.5893200310100273 43 52 28
12.971807637413262 -2.1098991685510318 2.3995343956740394 44 49 27
16.139930895039463 2.860418520567223 1.5436087706846389 4 9 0
11.521217927196329 2.738573140661548 1.7067252671777962 44 52 29
16.449124519788533 2.8019450108509583 1.6049232334332533 3 10 0
11.604910228040229 2.295150913824141 1.793332420078775 30 35 14
17.168085064776857 2.8766492560589367 1.6618611553822136 35 41 21
12.06427181963595 2.4414385908149607 2.3597786183270273 44 50 28
11.901250929675795 2.7075158453432495 2.373672617218706 41 51 27
11.639960399612438 2.987368754857748 2.169634365398129 37 44 22
11.82402893517519 2.77753629402059 2.5126137642265105 39 47 24
11.883152807458343 2.286442783919161 2.155733659972995 42 48 25
12.813157899664633 -2.437299300748062 2.4131401541432203 43 48 27
12.160238525923747 -2.9642958293785835 2.3518614828763287 38 50 23
12.153333470229844 -3.086588905172456 2.242287753278587 36 44 22
12.813157899664633 -2.437299300748062 2.4131401541432203 43 48 27
12.411256486597612 -2.8170902203353965 2.4502162040464492 43 55 28
12.494592245023162 -2.9114378516566344 2.5778583198089073 42 51 27
12.494592245023162 -2.9114378516566344 2.5778583198089073 42 51 27
12.654883492195282 -2.2021140811717808 2.3138195638325016 44 48 27
12.392812322374313 -3.0918180613528716 2.1287364801302244 34 43 20
13.551667013655695 1.5119267373524818 2.4643955047885218 35 40 18
11.625599644935285 1.0828075795724297 2.17047759634053 26 27 11
14.212198052968992 1.798433118729721 2.6547956729614417 40 46 19
13.761578159806788 -0.3471994984701725 1.8325573673884938 4 3 8
11.647535068548878 -1.2497374188810104 1.881523725617885 42 45 29
11.638174913993312 -0.8491880759066998 1.7926856940189073 39 40 30
14.800913324168985 -1.1845419786435116 1.405271183068764 15 17 22
11.905454236978118 -1.0470830239527935 1.963970824931805 41 45 27
13.790585130956877 -0.06963547929851475 2.5650339380958957 39 44 14
14.0882925478016 -2.731182817530955 2.867200014757646 45 57 30
13.434821798665508 -1.8910926921170574 2.778990417522652 45 57 32
13.800384360839201 -2.477403165123331 2.714587335497887 45 56 31
12.65341432261333 -1.2186286112669447 2.2112582559577447 42 46 25
12.252052722201409 -1.7270647235904695 2.2359008551156196 43 47 28
12.086824341403782 -0.8703219918682381 2.357901092683113 40 46 25
12.092181094274965 -2.063305708157714 2.482742648669328 44 52 29
12.818348601980716 -1.5122449024829476 2.4126863658629336 45 49 28
20.719233049739064 -0.2062896090590218 3.018023113761391 51 60 30
16.120921224486622 2.842132840569639 1.2266722531625442 8 15 1
11.868917658117388 2.0966784758267165 1.9652479691691638 31 35 14
11.363704187109214 2.429288087235598 2.0821829806424246 45 51 28
12.315371359365438 2.358332979176031 2.459677518740639 43 49 27
12.41243996890451 -3.0612959347770548 2.588416345498713 40 48 25
15.76105274154936 0.4231700466249712 2.748882752249739 38 45 15
13.99338361655885 1.2481667587935177 2.543114472597134 37 40 17
12.976378117670585 -1.5044834658586015 2.521599840064166 44 50 28
11.575350430715023 -1.5183813570045979 2.173448461383942 43 47 28
13.053273528426296 -1.7676516000984634 2.5133951704210853 44 51 28
12.645960405635089 -0.5762377734161948 2.2116976082241133 39 43 25
12.000624754115593 -0.9395461724491612 2.252441303410254 41 45 25
11.604910228040229 2.295150913824141 1.793332420078775 30 35 14
11.890247583281587 2.3580034063082964 2.2599966267756493 43 50 27
11.655635102712976 2.91818130946595 2.53275138213915 38 46 23
12.636223171227314 -2.905778352933815 2.116759267342886 38 48 25
12.567834871767475 -0.3929431880188326 2.3202011513137695 39 44 22
12.234872718826736 -0.8491880759066998 1.952828825170044 37 40 27
12.865719647402738 1.7459791773915045 2.4085724652809426 37 43 21
11.899172482041415 -1.4413840300061227 1.7877400112328874 41 45 27
13.690922211988484 -0.041823678453989856 1.9890876894593414 8 10 10
16.42674440473122 2.780449846194886 1.2333365167778227 7 12 1
11.648430927762064 2.8226303068353356 2.396418955375829 39 47 25
11.808577760120436 2.886552907803178 2.159921794368053 39 47 24
12.65363017725576 -1.9230362364524072 2.21124554280645 43 47 28
13.56143747759391 2.2586306008992643 2.5915631377635595 43 49 27
12.394410915963952 2.178047715911578 2.4518599826740837 43 49 24
11.66138744816744 -1.4146078920216951 2.1683809756091006 43 47 28
11.867745730541188 2.420165126514386 1.8755706929563913 36 42 19
12.050522186170554 -3.0961398982596426 1.8708029260423766 35 44 21
12.696931315526621 0.4030463270354764 2.0241684099752897 35 36 28
12.410784903157856 -0.32453387825402724 2.4502621157233815 39 45 19
12.452492499960881 1.4286273065150883 2.125748260216514 33 37 18
12.900314282645944 -1.836052867835686 2.6819227660737806 43 53 28
12.414535877973764 -0.6079696284739737 2.4498971010598707 39 45 20
12.638768012322984 1.2024813005375254 2.5600628087590938 38 40 16
12.85780140673182 -0.7312680128058643 1.6925209419186897 2 0 6
13.054458585809535 -1.9959067907972703 2.6586169334074214 44 55 31
12.073900042318167 3.085546303964423 2.358975765018561 36 43 21
12.38295532245766 -3.0961398982596426 1.9480288185630616 37 46 22
12.892136135833443 -2.644927294133357 2.530812496996122 45 56 31
