19.980472236898155 0.3502774836605868 1.2702159560610098 49 71 29
14.557947951432709 0.3383992290161871 1.2263611675627228 48 68 28
14.937287620061396 0.31573663789502954 1.3743382408917306 48 68 29
9.987580640219567 1.2734835067850474 1.5792358632976855 24 41 0
10.168307384000082 1.3717936005863371 1.2799689913746937 25 43 1
10.169297362245029 1.2734835067850474 1.3812821513951188 21 38 0
10.458395688096795 0.6905721106629503 1.3865817977409334 45 65 14
10.565851522367142 0.5562147786193212 1.6735993792319745 45 66 15
10.227826036337184 0.6754831411054911 2.0910538902723474 43 60 5
10.23267724150424 0.47134084638670604 1.7759213488449825 45 65 16
9.75708983715744 0.7574481161622189 1.7860732343212649 41 57 5
10.457622394636157 0.521050235883702 2.078509615676645 50 69 17
10.009659686884124 0.521050235883702 1.9910968140451977 46 65 13
10.978635855622418 0.521050235883702 2.1581901815499185 58 77 24
10.104272225920663 0.15481521555546907 1.6783133647599071 48 69 22
9.999910162098457 0.05525995312859849 1.6794398573622626 47 68 21
10.713860547989585 0.3433934922053386 1.3910228175147563 48 69 21
9.995003215835814 -0.045400287887474536 1.6794934058171347 47 69 22
10.84444809661604 0.15481521555546907 1.9569465727284148 53 74 25
10.603411304145778 0.42101174695582305 2.1819405164719594 56 75 22
11.098908595177516 0.2781789727096395 2.1509925913744183 56 77 27
10.4377549198308 0.37845194480217226 1.97283972418606 49 69 17
10.282161786615092 -0.05047850982047845 2.0880290146921396 61 82 31
10.583817501381194 0.2781789727096395 2.071888056012173 54 74 22
9.46962443107804 1.1403132041114936 1.6855498676233958 21 38 0
10.030177758311646 0.9052879301196649 1.2758444596067189 37 53 6
10.206468984287845 0.9259299867042271 2.209457335704266 65 81 29
9.912113261381165 1.0912491204698207 2.109399000249513 58 76 28
9.050570761190885 1.0912491204698207 1.9185469970592979 34 51 5
10.190926587428539 0.8353196107805261 2.093129504195537 50 66 13
9.916046061090428 1.2410567407647306 1.995320137268171 42 61 13
10.668344435951688 1.3492325599978467 2.177682494420137 61 80 28
10.145218077816201 0.7525798157767555 2.2139474033070665 60 77 24
10.08047322662506 0.9052879301196649 1.881750030872563 27 43 0
10.348987582905828 0.9926640032353262 2.0843593629971355 63 79 29
10.93173345910781 0.31116816902393873 2.2758151185380417 63 83 30
11.334687803005263 0.06916434446212343 2.364898276408548 61 82 31
11.334687803005263 0.06916434446212343 2.364898276408548 61 82 31
10.523751978346807 0.4735513406569427 2.309285529680431 63 82 29
10.757402422163882 0.2200438190506216 2.421143438114381 62 83 30
11.334687803005263 0.06916434446212343 2.364898276408548 61 82 31
10.65483359520147 -0.06501903911505381 2.4321788652557963 62 83 30
10.63994617113085 -0.05683447241377882 2.2993887111700704 61 82 31
10.229918950621583 0.35266677344283065 2.3357546165121623 64 83 29
10.93173345910781 0.31116816902393873 2.2758151185380417 63 83 30
10.25877547582169 0.8448306655372547 2.3330579422563145 62 80 24
11.00747446438564 0.6547159735343346 2.395632146366995 62 81 26
10.758047816629313 1.2010524072594204 2.2896344155990063 58 78 27
10.25877547582169 0.8448306655372547 2.3330579422563145 62 80 24
10.774693914353723 0.7525798157767555 2.2882833820227395 61 80 26
11.232075844436666 -0.0912931106561237 2.6855713591650283 65 86 35
10.038527691958368 0.09239189446175307 2.5070218618994558 65 84 32
10.8600468380103 0.09239189446175307 2.561637348304814 63 84 33
10.342546405656513 0.4062365862689429 2.468109120066872 62 81 27
10.956218840879787 0.2556882491857493 2.54837210890381 63 82 29
19.34984282963517 0.9237932940313633 2.9757294512403294 67 90 49
10.916523037100976 -0.4215413962202952 1.4868146654352346 49 69 20
10.22424971585017 -0.242084399688088 1.579040501960928 48 69 18
10.219575187883013 -0.6831708709590594 1.5790442730081957 61 82 35
10.631535399337896 -0.242084399688088 1.2929854533176393 48 69 21
11.392345430191153 -0.6258198462436644 1.311980577823698 48 69 22
11.045446850082337 -0.4215413962202952 1.3964758763765286 48 69 20
10.374234286956119 -0.16114693876489733 2.0829872331497548 61 82 31
9.794017143390395 -0.3689246972622366 1.785248853970721 55 76 25
10.308369354187572 -0.7499159954258002 1.9781827693786156 59 81 31
10.415317588031106 -0.5116888722004254 2.0807708575576074 61 83 32
10.664264807012318 -0.5482476386225985 1.7675086847505512 62 84 35
10.56061660487607 -0.2679864366640321 2.073091755528937 62 83 31
10.709703586512104 -0.6667954571642227 2.175003730600028 58 81 33
9.794017143390395 -0.3689246972622366 1.785248853970721 55 76 25
10.916639773930433 -0.7545278952544057 1.4868155656083906 61 83 37
10.665274598470864 -0.8278044569234225 2.1778823502848472 58 82 34
9.952697162201224 -1.2705782816213256 1.6799572859182281 65 87 44
10.291148404681516 -1.1770980115039706 1.6763536189622292 64 85 43
11.318352687201115 -1.0107573622105719 1.400720580969928 59 79 40
11.207624407364845 -1.0107573622105719 1.6676935923219982 61 82 41
10.17406441680699 -1.1359192492107022 1.9838862905743024 65 87 44
10.807331475004618 -0.9866613143018198 2.1687809571501613 64 86 42
10.615091420185728 -1.1359192492107022 2.0702750861247807 65 87 43
9.831583396007355 -1.2375043791268445 1.9992067535438092 64 86 43
10.79265440907628 -0.8989243333744202 2.0613200935404623 61 83 36
10.048734073977647 -1.3467450048985887 2.101294597968688 66 88 45
10.600148180192047 -1.043069750907916 1.966334590619232 63 85 41
10.772470330669606 -0.9592673432455161 1.8611719964059352 62 83 39
18.357468864491537 -1.0039270680601158 0.9340039143335297 9 21 0
11.413979133529761 -0.18106144700517834 2.3578546061073404 62 83 30
11.583643886756061 -0.2999093475085999 2.343265229329684 62 83 30
11.538328435243425 -0.5712003179177664 2.347099520797183 61 83 32
11.835653413720314 -0.4106527775796823 2.3227206166734486 60 83 30
11.19067187638967 -0.46226680878081544 2.3780823724800766 61 84 30
11.683228582547416 -0.3401334779135065 2.461555865738621 62 83 30
11.583643886756061 -0.2999093475085999 2.343265229329684 62 83 30
11.307799521238106 -0.6667954571642227 2.2478455635582595 59 83 31
11.381922573181148 -0.5273488461289214 2.4949865263117488 64 86 35
10.318803047146496 -0.39218124136099236 2.47099800415314 63 84 32
11.119634680481292 -0.39218124136099236 2.5269149440331047 63 84 31
10.942777955932124 -0.2401283783824185 2.5501963419634603 64 85 32
12.254885160442521 -0.7211175458677114 2.7009535694097897 69 91 48
11.31642230608711 -0.2864596556273304 2.670603633573346 66 87 36
12.011674498632821 -0.5581104899785563 2.746064074139711 69 91 46
11.786134586640207 -0.2401283783824185 2.597517103012617 65 86 34
10.72449417584914 -0.7436850091455629 2.292375356233375 59 82 36
10.773351691913698 -0.9186638210349354 2.2883921059720937 61 83 40
11.251599566805078 -0.7348016813518524 2.5104903625576265 67 89 42
11.723909224163195 -0.6442146256723646 2.4572765946569777 64 86 39
11.409792041460905 -0.7436850091455629 2.3582228681798587 63 85 38
10.851126122529292 -0.8480096892617792 2.5628934677146997 68 90 43
10.923909544878793 -0.8359650056397823 2.40394787118467 65 87 45
11.701090429041223 -0.8480096892617792 2.609652763468167 70 92 47
11.767714345880982 -1.061798439510335 2.7991097485450207 70 92 50
10.748515079295418 -1.1450002966834112 2.4220858265801577 67 89 45
10.748515079295418 -1.1450002966834112 2.4220858265801577 67 89 45
10.990781113136373 -1.0781850652389535 2.5437240378924617 66 89 43
12.098801054682292 -1.1624494024853231 2.7291583378684208 70 92 49
11.404558849158063 -0.9892793393866317 2.6556459651630506 68 92 42
11.189835023771298 -1.1624494024853231 2.693328812062871 68 93 43
11.16158177677692 -1.3178704646689707 2.380809194027536 66 88 46
10.68942857887206 -1.1966230347401408 2.2952653449064755 66 88 45
9.772102824952038 1.7846910804332183 1.5794219621891339 40 61 8
9.549717429893768 1.5785689438289634 1.579622833534051 34 55 5
10.831285950569072 1.8822580049694029 1.9574406750158775 49 72 19
11.156397297439005 1.974074118114804 1.945604417925405 48 71 21
10.427030933192702 1.4741487664903947 1.973277078392904 50 70 19
10.441257812753031 1.682820506041176 1.9726970786511262 55 76 23
10.386116665870205 1.5785689438289634 1.9749547287609213 54 74 22
12.065379331007685 2.208402404139443 1.744416893784725 41 67 20
11.24477953861485 2.059235313630404 1.8486438404995114 39 64 14
10.411285544143738 -3.0919385544029314 2.080987484093437 69 90 51
9.767283808235566 2.628516022163666 1.8920724140587792 59 84 43
10.714824139006502 2.7274594878382925 2.1746738628038864 62 86 45
11.655586223406653 2.1064536169249988 2.1199978128052703 48 72 23
11.517110902357336 2.2620736188027593 1.8419058823118668 43 69 23
9.857017234080875 2.539471096111274 1.6810211788314633 61 85 41
10.80763191432947 2.3185964512044572 2.1687620212157626 62 85 38
10.934507112040253 -3.0919385544029314 2.160879533490158 67 89 48
11.122693409120338 2.3237347713094954 1.946796790106942 57 79 32
10.709304766328746 2.867738561086492 2.065481283267746 68 92 52
17.994969774100813 1.7620175468230994 2.8220924273556514 63 84 36
17.712165965949225 1.8026900877671503 2.874533416370947 65 89 46
11.52694263119234 3.064134183626975 2.478499272403875 73 95 58
11.039833398467895 2.8357923412526147 2.267512459353175 69 93 53
11.434691017735219 -3.0858009008920684 2.356038914978893 68 91 51
11.52694263119234 3.064134183626975 2.478499272403875 73 95 58
12.647569147671945 -3.067489788252295 2.6391249965981687 76 101 64
18.678581378329902 1.8026900877671503 2.8886621577659657 65 89 46
18.452490284804433 1.3156307172311437 2.941489171791515 66 89 46
9.385312466752092 -2.0155118187201317 2.2761166815430816 68 90 49
9.385312466752092 -2.0155118187201317 2.2761166815430816 68 90 49
10.709822286740495 -1.7667225100132244 1.6722126206697647 65 87 44
9.513228513413122 -1.5786496311301161 1.6850215874493502 65 88 44
9.557880070031588 -1.4731517630550426 1.6844856446607395 65 88 44
10.348685810751716 -1.9778153248061494 1.675764562375053 66 88 44
9.43169776356655 -1.4616841855445342 2.0186574971236966 66 88 46
10.351603709977178 -1.6839736177843019 1.9763811575157357 66 88 45
10.155568205775596 -1.7868434856252258 1.8793745072348986 66 88 45
10.454380943240555 -1.4616841855445342 2.1919634736867164 66 88 47
9.840606222067375 -1.8423058030510442 2.2373538406963043 67 89 48
9.423229979433001 -2.0711842622546195 2.019089250767054 67 89 43
10.468570653962747 -1.697231029606357 2.1909937458500575 66 88 48
10.078235845164416 -1.8114812315582887 2.0995783607176897 67 88 49
10.075238775929705 -2.111533938901669 1.7791735211069897 66 88 44
10.795346036761494 -1.934402423633105 2.5708510357161876 68 91 47
10.223471145710198 -2.084309323305082 2.482842310106434 66 90 47
11.075095656704143 -1.8076147499473534 2.7153785643910155 69 93 50
11.061684011692261 -1.3657244762079022 2.7180567674912464 67 93 47
11.645924018366358 -1.3086995758084123 2.8297640936428765 71 93 50
11.410573768069106 -2.438831901883221 2.654648907836085 73 95 54
10.398286285300982 -1.7358040517684508 2.461419205951269 68 90 48
11.180163064196435 -1.4282591495211192 2.519286623419294 68 90 48
11.500553865316942 -1.4025636089106484 2.640072010502159 68 91 44
10.087909671877027 -2.3120340063658387 2.5004017958597933 70 92 49
10.326548795163554 -2.0068912612066896 2.646032287062834 68 92 49
11.216335815249842 -2.0068912612066896 2.688440722044694 70 93 50
11.023125622519121 -1.5874704964218642 2.725883881569504 70 94 51
11.500553865316942 -1.4025636089106484 2.640072010502159 68 91 44
9.823402082828324 -2.212653467817502 2.3762782291151168 66 90 47
9.452554319632682 -2.084309323305082 2.418038894916368 67 91 48
10.99444397822361 -1.5807575092315662 2.3969155990290987 67 89 48
10.28149888336982 -1.5807575092315662 2.3309499102838096 68 89 49
10.807225319735617 -2.410221746750801 2.2856596275858094 66 88 47
11.51755376395538 -2.9637896910345747 2.3488722895638845 67 91 49
10.338966731593942 -2.5092172217884534 2.3256785051648152 68 90 47
11.685714815112126 -2.8468807253839645 2.33478845763863 68 91 48
10.956398970114027 -2.579994801150532 2.273901084221369 68 90 47
12.403336550840601 -2.9392953853285877 2.520134562834728 72 97 58
11.282253217912492 -2.7376888211214734 2.249666918090756 68 90 45
11.283145459460759 -2.6877369255284074 2.3695576410541395 70 92 49
10.962712252462604 -2.544352443589404 2.547494170209996 73 95 53
11.685714815112126 -2.8468807253839645 2.33478845763863 68 91 48
11.199447272569962 -2.7580735060433277 2.5168904296073404 71 95 54
10.018509136876295 0.47134084638670604 1.5792098086880004 45 66 17
10.683233643800014 0.5562147786193212 1.390501789781736 47 66 18
9.575754006117405 0.7574481161622189 1.475021949563228 43 59 10
10.076661373055876 0.47134084638670604 1.6786091151894977 46 67 18
10.818726437613801 0.47134084638670604 1.9579133686395938 47 67 16
11.429285157691618 0.6108117250190074 2.132161190131203 51 70 17
10.759972329478328 0.6754831411054911 2.1717821978409346 53 71 16
10.580897265512514 0.3433934922053386 1.48414418563334 49 70 21
10.74727595973638 0.05525995312859849 1.9606252845187955 54 75 27
10.603411304145778 0.42101174695582305 2.1819405164719594 56 75 22
9.82901671396112 0.37845194480217226 1.784473362049762 46 67 18
10.811634016543945 -0.05047850982047845 2.1685099024399586 60 81 31
10.816170490204094 0.061436219979249355 2.1682243979435936 59 80 30
10.31184839490063 0.31116816902393873 2.2018910801579157 61 80 27
9.597406064558129 0.9052879301196649 1.579578974297251 24 39 0
9.251800186258428 0.9926640032353262 1.7980316228434852 22 39 0
10.4603330925937 1.0912491204698207 2.191556300320861 63 80 30
10.127537396787051 1.2010524072594204 2.215256443176936 61 80 30
10.131386573541592 1.3492325599978467 2.096515867026225 56 75 26
10.348987582905828 0.9926640032353262 2.0843593629971355 63 79 29
11.33035893633227 -0.05683447241377882 2.365287121727546 62 83 31
10.742657141299144 0.19301235717948503 2.2908887103577675 62 83 30
10.8600468380103 0.09239189446175307 2.561637348304814 63 84 33
10.142492405108653 0.2556882491857493 2.493226131233129 62 82 29
10.038527691958368 0.09239189446175307 2.5070218618994558 65 84 32
9.894331762027576 0.5396238139880783 2.3688443150457696 62 81 26
11.38197283407586 -0.6024562010663391 2.134777344816527 60 82 31
10.28803418987593 -0.2999093475085999 2.20358372891747 63 84 31
10.404803218136802 -0.3689246972622366 1.9741867186309066 62 83 32
10.570975996878639 -0.4106527775796823 2.184091887393676 63 84 32
9.756508846511604 -0.2679864366640321 1.8924399834307373 55 76 25
10.674523611172614 -0.6831708709590594 1.863915038478955 60 84 36
10.777839117498377 -0.46257637029931714 1.9594604847362544 63 84 35
9.554453351057344 -0.16114693876489733 1.8994950835896531 54 75 24
10.743884671938543 -0.7499159954258002 2.063745931995201 58 81 30
11.045562224359491 -0.7545278952544057 1.3964777158772157 59 80 35
9.705906764326436 -1.3697826063861764 1.6827444095246493 67 89 46
11.711338049160323 -1.1303517754366392 1.406480492655966 66 85 47
11.553899649245501 -1.1303517754366392 1.578091724974985 61 81 41
10.378292673750915 -0.9592673432455161 1.6754640124054636 57 78 35
10.615091420185728 -1.1359192492107022 2.0702750861247807 65 87 43
10.816523946063842 -1.2375043791268445 2.1682021654645487 65 87 44
10.859459897869325 -1.0903374207680716 1.7639277927696315 63 85 42
10.17406441680699 -1.1359192492107022 1.9838862905743024 65 87 44
10.807331475004618 -0.9866613143018198 2.1687809571501613 64 86 42
10.589883643887779 -1.3467450048985887 2.1828357830729996 66 88 46
11.31642230608711 -0.2864596556273304 2.670603633573346 66 87 36
11.74160065232856 -0.6111208294942709 2.6038192902467148 67 89 40
10.68942857887206 -1.1966230347401408 2.2952653449064755 66 88 45
11.4557272042949 -0.9186638210349354 2.3542048635483317 64 86 43
11.51503122347155 -0.20651225006933496 2.4798247575020156 63 84 31
10.923792885737555 -0.3401334779135065 2.403959622578654 62 83 30
11.487528012772556 -0.461705623042995 2.6421440594084213 67 88 39
11.409792041460905 -0.7436850091455629 2.3582228681798587 63 85 38
11.29817791334363 -0.9466405804264248 2.5048707003344894 67 89 45
11.62386742412985 -1.231191329899745 2.6210517523565238 66 91 43
11.701090429041223 -0.8480096892617792 2.609652763468167 70 92 47
11.524582363915627 -0.5116888722004254 2.232816059711757 60 82 31
10.967290841172051 -0.6442146256723646 2.3996056745569225 61 83 35
10.5909541603996 1.7846910804332183 1.9666970883227752 52 73 22
10.934157470086491 1.9159958660207144 2.16090094790283 54 76 26
10.150987193433087 2.67689244863901 1.5791000038486693 58 82 42
10.570571942602996 2.628516022163666 2.0725745121425514 55 79 38
9.964014514185324 2.7687698748228686 1.7815344042900145 60 84 44
10.121640954225493 2.3947245491878366 1.8804431592704185 61 84 37
11.256298010267745 2.015524726472118 2.1418551144900064 53 75 25
9.917260225232903 2.867738561086492 1.887043649803556 65 89 50
10.392052655063313 2.893766464609759 1.5789073783656722 61 85 47
17.712165965949225 1.8026900877671503 2.874533416370947 65 89 46
17.712165965949225 1.8026900877671503 2.874533416370947 65 89 46
11.446563591184606 2.476433339154207 2.2381390819813163 59 84 43
11.522685991440001 -3.0779342501501223 2.478972372273364 70 94 55
18.64781373222028 1.5871109327951578 2.895126607119415 64 88 43
18.460533262650372 1.8647084942334005 2.9393522674701287 68 92 51
9.997342281543858 -1.8852833608366526 1.6794678734979707 66 88 45
9.43169776356655 -1.4616841855445342 2.0186574971236966 66 88 46
9.50695139689592 -1.9196877701909703 1.9011997611702207 67 88 48
9.423229979433001 -2.0711842622546195 2.019089250767054 67 89 43
10.413574132914244 -1.5795788672941125 2.1947707438547077 66 88 47
9.875756688894812 -2.0200238763285796 1.8884191650599669 66 88 45
9.65465699171278 -2.2373044281817083 2.12541037968506 66 88 45
11.021131149650074 -2.9830376031511197 2.1556252235602034 66 88 45
9.52770326254086 -2.1686684363581468 1.9004528367016458 65 87 41
9.968496223195332 -1.934402423633105 2.5166281033122067 67 91 48
11.463471748312806 -1.584411965549237 2.64600406857818 69 91 45
11.98037696719476 -1.3657244762079022 2.752368469863336 70 92 49
11.075095656704143 -1.8076147499473534 2.7153785643910155 69 93 50
10.572892477189162 -2.1752467277953755 2.6045114941010925 70 92 49
9.968496223195332 -1.934402423633105 2.5166281033122067 67 91 48
10.342916047023156 -1.5823015257225468 2.4680643327354552 68 89 49
11.023125622519121 -1.5874704964218642 2.725883881569504 70 94 51
11.98037696719476 -1.3657244762079022 2.752368469863336 70 92 49
10.337198102195984 -1.7139824004944813 2.3258394750255915 68 90 49
10.531588999921116 -2.42153638189119 2.4459202999940564 69 90 48
11.282253217912492 -2.7376888211214734 2.249666918090756 68 90 45
11.459908605464664 -2.624937322789055 2.4860245673140318 71 93 50
11.771833524408343 -2.8080739944923896 2.4523015804642445 70 94 51
10.807225319735617 -2.410221746750801 2.2856596275858094 66 88 47
11.685714815112126 -2.8468807253839645 2.33478845763863 68 91 48
11.031779932797381 0.25137944487329755 1.95005231122381 50 71 22
9.897183579664464 0.6108117250190074 1.7829790878587293 45 64 11
10.046279814635328 0.15481521555546907 1.5791865509658218 49 70 21
9.820761751063007 0.9052879301196649 1.7846557589207408 34 50 2
10.370051122992887 0.7574481161622189 1.9756174318762674 40 57 3
10.050850921472929 1.0480773058006174 1.3790211606983844 21 37 0
19.34984282963517 0.9237932940313633 2.9757294512403294 67 90 49
10.973197043928584 0.8448306655372547 2.39901873938893 62 80 24
10.901718656580258 0.581161515782544 2.2781601848483444 62 81 28
10.295431753090272 0.6547159735343346 2.32966404858757 63 82 28
11.355420891922138 0.6754831411054911 2.2444792364082113 59 78 25
11.334687803005263 0.06916434446212343 2.364898276408548 61 82 31
10.855528700082083 -0.07595215526645552 2.5622729845443675 65 85 32
10.033639631596467 -0.07595215526645552 2.5076839468278926 66 85 32
10.50890899601812 -0.33460190459153255 1.5788171836319536 48 69 18
10.230279931272372 -0.8219108214956656 1.6769840315727746 61 83 35
10.880290735733047 -0.6024562010663391 2.057023364641476 61 83 34
10.404803218136802 -0.3689246972622366 1.9741867186309066 62 83 32
11.306971337485244 -1.2806919288055423 2.5038197358783174 67 89 45
11.786134586640207 -0.2401283783824185 2.597517103012617 65 86 34
11.095573223567296 -0.5581104899785563 2.7113318903646175 68 90 42
11.005245932167867 -1.085874106206714 2.2701449251909005 65 87 43
12.297664072720151 -0.9892793393866317 2.6936335054571092 70 92 49
12.03171190184186 2.1373429081471995 1.917139484660741 42 67 17
10.077420055758068 1.4741487664903947 1.8818474011856192 41 62 12
11.156397297439005 1.974074118114804 1.945604417925405 48 71 21
11.73002609491388 2.1373429081471995 1.8368641851517193 41 66 16
9.549717429893768 1.5785689438289634 1.579622833534051 34 55 5
10.79563474612431 2.3237347713094954 1.8605308693621407 50 74 28
10.328923460066301 2.476433339154207 2.0854553715213964 61 85 40
10.208384794021287 2.67689244863901 1.6772126476774962 54 78 38
11.441285835128175 2.248356075622209 2.1315017282245976 52 75 28
10.755542456565532 3.073695961094509 2.289838256677889 74 95 58
19.276017816107476 1.2224246953507871 3.000433175926605 68 91 48
19.276017816107476 1.2224246953507871 3.000433175926605 68 91 48
11.706686147987812 2.8357923412526147 2.3330735650699896 71 95 56
12.326429797751258 -3.0779342501501223 2.5289008938143906 73 98 61
9.513228513413122 -1.5786496311301161 1.6850215874493502 65 88 44
9.57339866837926 -1.6839736177843019 1.684300556683545 65 87 43
9.529816211844697 -1.9621131833811962 2.1335460624462725 68 90 48
10.295982422921279 -1.5786496311301161 1.978701991326055 66 88 46
11.604920443150652 -2.9392953853285877 2.469943285982111 69 93 53
9.823402082828324 -2.212653467817502 2.3762782291151168 66 90 47
10.531588999921116 -2.42153638189119 2.4459202999940564 69 90 48
10.326548795163554 -2.0068912612066896 2.646032287062834 68 92 49
11.033102604208302 -1.4471801694582829 2.3931218726011037 67 89 48
9.803276181197047 -1.8818936932656543 2.378417755045186 68 90 49
11.01759282414124 -2.8468807253839645 2.2692026331972754 68 90 47
10.962712252462604 -2.544352443589404 2.547494170209996 73 95 53
9.961795549162966 1.3717936005863371 1.7815820533796778 30 48 3
9.781617182215722 0.2781789727096395 1.8915847800379832 48 69 20
10.742710393064488 -0.045400287887474536 1.9607999008924413 54 76 28
10.206468984287845 0.9259299867042271 2.209457335704266 65 81 29
10.912729174621425 0.17183713785151336 2.1622165685942196 60 81 31
10.229918950621583 0.35266677344283065 2.3357546165121623 64 83 29
10.93173345910781 0.31116816902393873 2.2758151185380417 63 83 30
10.25877547582169 0.8448306655372547 2.3330579422563145 62 80 24
9.581215322264496 0.4062365862689429 2.402965605440656 63 82 29
10.28803418987593 -0.2999093475085999 2.20358372891747 63 84 31
9.581674038911828 -1.3467450048985887 2.0111512328623724 66 88 45
11.711338049160323 -1.1303517754366392 1.406480492655966 66 85 47
10.032750307766594 -0.46257637029931714 1.6790828362193015 54 75 26
10.498609744599232 -0.5482476386225985 1.483463285763413 52 73 24
10.629947585727752 -0.8219108214956656 1.8651809121809362 57 79 31
11.358416755607792 -0.7211175458677114 2.6633939429746207 68 90 44
11.409792041460905 -0.7436850091455629 2.3582228681798587 63 85 38
10.728948716397626 -0.18106144700517834 2.2920101045280328 62 83 30
11.119634680481292 -0.39218124136099236 2.5269149440331047 63 84 31
11.559136904354654 2.059235313630404 1.9319338675835713 43 68 18
9.609659114980417 1.682820506041176 1.5795677754625024 36 57 5
9.637431119024662 1.4741487664903947 1.4756367441381644 26 46 0
10.441257812753031 1.682820506041176 1.9726970786511262 55 76 23
10.649055438151509 2.9890231722741882 1.8646369286467737 70 92 52
10.750980400387306 -3.0858009008920684 2.2902097722019277 71 92 53
10.502578001791878 -1.7868434856252258 1.9702167775675186 66 88 45
11.98037696719476 -1.3657244762079022 2.752368469863336 70 92 49
11.645924018366358 -1.3086995758084123 2.8297640936428765 71 93 50
11.771833524408343 -2.8080739944923896 2.4523015804642445 70 94 51
10.742710393064488 -0.045400287887474536 1.9607999008924413 54 76 28
10.248212140633164 0.25137944487329755 1.5790212249509834 49 70 21
9.900047730632167 1.1403132041114936 1.8876126334534047 26 44 1
10.174928589891318 -0.6667954571642227 2.0940348543923717 60 82 33
10.96464113884251 -0.8842614731407952 1.48718408039719 62 83 40
11.701090429041223 -0.8480096892617792 2.609652763468167 70 92 47
11.972078165921893 -0.8675694238214332 2.754062038002062 70 92 49
10.990781113136373 -1.0781850652389535 2.5437240378924617 66 89 43
11.65472249455189 2.1885437115789284 2.0222153672719516 46 70 22
18.42940159164457 1.5917066249336245 2.9477633219269257 66 90 48
10.468570653962747 -1.697231029606357 2.1909937458500575 66 88 48
10.648523406468746 -1.765373937083554 2.592700804434397 69 91 45
11.180163064196435 -1.4282591495211192 2.519286623419294 68 90 48
11.04214677149916 1.1807434246318662 1.2082940924034895 23 39 0
10.281789658027762 0.6905721106629503 1.5789943640768207 45 64 11
10.415806907969332 1.030787499497051 2.3187607420511296 62 78 25
10.089696492912784 -0.14515122714895312 1.6784692881422218 48 69 20
9.952697162201224 -1.2705782816213256 1.6799572859182281 65 87 44
10.276589712660353 -0.6831708709590594 1.6765037195050922 61 84 37
11.251599566805078 -0.7348016813518524 2.5104903625576265 67 89 42
11.062645754724844 -1.0241074372684296 2.390250883309567 66 88 45
17.994969774100813 1.7620175468230994 2.8220924273556514 63 84 36
9.168639828912417 -2.1341062560772306 2.158594879666492 67 89 46
11.092914333088371 -2.2985250518902998 2.711854466263955 74 96 54
10.03161982022515 -0.14515122714895312 1.5791988125481293 46 67 16
10.600923655999418 -0.5273488461289214 2.438122997837334 62 83 32
11.034476594483417 2.9725129021267276 2.1548246805306066 72 96 56
11.52923047507325 2.1625967979490266 2.232501897820117 59 80 33
