13.502596304913949 0.7185571723057776 1.2907337864192694 37 42 15
12.591966137564858 1.0000714954360554 1.6716400553487114 36 41 12
12.530852798357794 1.0000714954360554 1.5921588024280282 36 41 12
12.229335643912563 1.070153983658805 1.7573044259949653 38 42 13
12.511770326331895 0.8875381740953858 1.753046473691297 35 41 12
12.363433398972747 0.772359298650226 1.4302164921070246 36 41 12
12.244393170826077 0.772359298650226 1.5926586598502779 38 41 12
11.133182360436514 1.31402028614368 1.7759173701636195 34 36 10
11.267151831267942 1.2275202360875594 1.6835452737914676 30 35 8
11.639802861836753 1.1460462982751354 1.6799209514245041 31 36 9
12.331983385414064 1.0270935303505766 2.0121403714449175 43 47 20
12.063511074055068 0.9768848816836667 2.1171275660232953 47 51 21
11.704440225678896 0.9007692400412154 1.944020698159631 41 44 15
11.999786744546755 0.8328334014134828 1.846589941122538 40 44 15
11.83178085675022 1.1553598601247255 2.2322313217413914 50 54 24
11.55226116258555 1.2574263842359183 2.251207010692382 48 53 22
11.245839826237654 1.2884570999868104 2.058287195144163 44 46 21
11.662735060858667 1.2275202360875594 1.8547783491827463 43 44 18
11.70548709715543 1.31402028614368 1.9439856779807618 42 43 17
11.35422554360287 1.3666939947682175 2.2654052458945353 48 53 22
10.741652495753861 1.3666939947682175 2.1938184303482875 46 49 17
11.245252282038505 1.1553598601247255 2.16200073497106 47 50 21
11.61860573219828 1.0617001016783338 2.140581416415245 48 51 22
11.897122086645576 1.1074055741669704 2.0294801923138577 45 47 21
11.755581119851369 0.3991903174885953 1.6788419828919268 38 42 13
12.718387385140295 0.5459685907246619 1.4341648549933286 38 41 12
12.292672380071295 0.2923906374396279 1.5925727824003593 39 41 14
12.234072238578115 0.4753427510805912 1.4287199937308712 39 42 14
11.111906425165333 0.14227198370817118 1.776315733859284 40 45 12
13.198774503331569 -0.19015137842192464 1.7434621182617933 38 43 9
13.049616949533176 -0.11366488981168467 1.7454558917330094 38 44 9
11.008756812069935 0.4352776432877423 1.7782693826039548 38 42 12
11.779491362549829 0.5901489184565467 1.5085862637832117 38 42 12
11.973405314562447 0.5901489184565467 1.7613394421372175 40 43 11
11.786050597760124 0.7103901812288713 1.7644064837427775 40 43 12
11.457642894026861 0.5161022702792374 1.770029410237658 39 44 11
11.302311326962085 0.5161022702792374 1.683193044888382 38 42 11
11.59570131440182 0.050330740489039426 1.9476953734498532 42 47 14
11.266097355222497 0.050330740489039426 1.8650696726434588 39 44 14
12.236873208015384 -0.2243829628891154 2.0158154461733457 42 49 12
11.674355686431864 -0.13454191435247392 1.9450299831308013 40 46 11
12.544371622535005 -0.13454191435247392 2.093979445357251 44 51 15
12.757038325064109 -0.20587380249464815 1.9119075732798987 39 45 7
11.592041875056873 -0.04246763034517671 1.9478203316445732 40 45 13
12.476225862387098 -0.31069370707630584 2.006685502042986 42 49 17
12.986807640348204 -0.2857661328036276 1.9056338927568341 40 46 11
13.17142754183466 -0.46909307691828206 1.9822385093189534 45 52 21
10.42718294011117 0.5291309140704022 2.1003941183952 44 49 14
11.417594926633301 0.6410378153817804 1.861050704765475 41 44 11
11.34517208136768 0.3839591466504701 2.1561000661277783 43 48 15
10.824859823590137 0.3839591466504701 2.079020983135209 42 47 13
10.892346476449273 0.34790023143082155 1.8754856831120925 40 43 10
10.966379686205205 0.5291309140704022 2.1791715842775568 44 50 16
10.761507203369966 0.6861585778468863 2.192493480931682 46 50 17
11.377321534267246 0.9179152460454868 2.1542283894232144 47 52 21
11.915525400404286 0.8394506808631863 2.1246970084008217 46 50 19
10.453499837414485 0.6197163927381265 1.9913355076482073 44 48 15
11.638099807542497 0.7706562818849664 1.946253776038068 43 47 14
10.787008485788029 0.7684416160322178 2.0809766544065096 46 49 17
11.504104299142227 0.7654439998405923 2.3726859282756365 47 52 20
12.183806984103933 -0.046809137818758714 2.2099325223353787 45 51 15
10.609352365873653 0.2546277178882145 1.8838853714523223 41 46 10
12.262149015819036 -0.1481239765715757 2.2051925863434176 48 55 20
11.708096410173907 0.15661062421455432 2.135692137175269 46 50 16
11.618720558227531 0.05547320104952411 2.1405750848305285 44 50 16
11.650714315990466 -0.27327211473005425 2.2443865316796656 52 59 25
11.3854747961693 0.2546277178882145 2.051796156919253 45 49 16
11.866807298437264 -0.24751192897768629 2.616430803151334 62 71 41
12.339915822653905 -0.30640236956911354 2.420419783036659 60 67 35
11.736150230659355 -0.3483047204871311 2.48106503598456 58 67 37
12.766343684205701 -0.052138503806599755 2.383204485719683 53 60 26
12.299369228878932 -0.27327211473005425 2.307976308655591 58 65 31
12.180245344406336 -0.18547787433941276 2.435460043339703 65 72 40
10.900475633868236 1.1705297125612966 2.4317565647832957 54 56 32
11.808536042112996 1.1074736949696082 2.3463947742985365 51 55 28
11.571212969767352 0.9409989232431601 2.3667102095983372 50 54 23
11.036671393675002 0.8603528781134675 2.4175123407530212 49 54 23
11.953744546107817 1.048243883115784 2.457977203945994 53 56 32
11.33000101106459 1.3405272484609358 2.3887011070586723 51 56 28
11.953744546107817 1.048243883115784 2.457977203945994 53 56 32
12.91585048001193 -0.36908764174950104 2.823440568762972 58 67 39
12.321532150675669 -0.29666821507323143 2.72499217441868 59 68 40
12.47939503342955 -0.47590289648760603 2.697269739222086 56 65 37
13.066535098574388 -0.577917522850197 2.7901054770010023 54 64 37
12.432634343188852 -0.428111654468681 2.0991711504641826 47 55 21
11.90186077607519 -0.37561170169795577 2.227656078201463 49 58 24
12.628720507382413 -0.5567501788495816 2.1839963457313623 50 57 23
12.82519171676162 -0.5095065098017079 2.081395267994335 48 54 19
12.849310298564586 -0.4703309945711392 2.2697707623677696 52 59 27
12.537528835003569 -0.37561170169795577 2.2908616112337694 52 61 29
12.274013491061018 -0.5399965395131925 2.561728820907679 54 64 36
12.18886684131135 -0.520952160793835 2.3162385606575158 50 58 26
11.985506584907357 -0.47229731797140356 2.4547307250846226 52 61 31
11.46346458049722 -0.7577386533094079 2.3763569531366247 51 60 31
11.335559686665347 -0.7517466045787914 2.5279832145736862 53 62 34
11.764780459923786 -0.8527167319094532 2.477939133087878 52 61 33
12.16676837806249 -0.7517466045787914 2.5753283561495017 55 64 36
11.629815328856234 -1.1658235767140581 2.492924004512254 53 61 38
12.2134250087169 -1.2153732138388065 2.432280492157565 55 61 39
12.429520971209351 -1.015079017842708 2.7057742468492862 57 66 40
11.95294098029921 -1.101395244743572 2.6041248274897146 55 64 38
13.290955019957307 -0.742442440460611 2.7466246927960043 54 64 38
8.438161725980313 -1.9797306770519827 1.8428807625553443 54 59 48
9.142339953129193 -1.9357988736558764 1.7099037492628297 55 60 51
8.68677354134884 -2.5630564012388075 2.82969771895016 50 58 37
9.666789541930532 -2.0354406494005697 2.8532351667811024 52 59 39
8.575831662201999 -2.9393752627679084 2.872702100143832 51 57 35
8.580777519442766 2.9031759577425102 2.870618311358185 48 55 32
14.022129566715993 -2.9058694228017585 2.292855914053508 71 65 62
16.900022568588923 -3.0784049774792974 2.698456024288521 22 13 7
16.481018698172626 3.0757940726358304 2.6173497146260414 55 46 38
16.47844419809612 -3.0860641217483793 2.61761998162347 63 55 51
16.005007891378693 3.066727535344119 2.6713322769273815 47 39 31
16.481018698172626 3.0757940726358304 2.6173497146260414 55 46 38
16.005007891378693 3.066727535344119 2.6713322769273815 47 39 31
9.045807125556056 -1.9130511597385371 2.723778617169671 50 58 39
9.045807125556056 -1.9130511597385371 2.723778617169671 50 58 39
8.938313348722641 -2.0348233745536235 2.201033003006117 52 60 45
9.473213415362958 -1.8404171015461854 2.631587182821221 54 62 44
9.399196330207378 -1.861585971069565 2.1657112628861155 52 57 47
13.091630367697269 0.7185571723057776 1.4380836010584692 39 41 15
12.307465945024664 0.8875381740953858 1.5925466029859585 33 40 10
12.083927794223266 1.070153983658805 1.6758951356731364 32 37 9
11.267151831267942 1.2275202360875594 1.6835452737914676 30 35 8
11.575532820496019 0.9768848816836667 2.0432463704875348 45 48 19
11.83178085675022 1.1553598601247255 2.2322313217413914 50 54 24
12.453062881726659 0.9538764381678503 1.9205861906965935 39 44 16
12.023131429596889 1.1460462982751354 1.8460404866530697 41 43 17
12.572374465765318 0.9007692400412154 2.092695204434962 47 50 19
12.187179268220332 1.0617001016783338 2.2097268884575425 48 52 22
12.311557776670625 0.2923906374396279 1.5112780363054108 39 41 16
13.198774503331569 -0.19015137842192464 1.7434621182617933 38 43 9
11.635104182494157 0.7103901812288713 1.6799651957969328 37 41 11
11.013210031491498 0.6410378153817804 1.6861564924680779 38 42 10
11.172561682676616 0.6410378153817804 1.7751841337067165 40 43 11
12.602653727168041 -0.12322985302772176 1.9162596065608515 39 44 11
12.602653727168041 -0.12322985302772176 1.9162596065608515 39 44 11
11.9962816817771 -0.04246763034517671 2.0254025164476714 42 47 13
12.467803076083996 -0.04246763034517671 2.0975253586850693 41 48 12
11.685253232710368 0.14227198370817118 1.9446637425596316 41 47 12
12.075840345449784 -0.13454191435247392 2.0221850411814177 42 48 13
13.625642502484654 -0.2644542529332421 1.8129743507188751 39 45 9
13.17142754183466 -0.46909307691828206 1.9822385093189534 45 52 21
12.411124778765215 -0.39248180078753653 1.9218191217715315 42 49 16
11.373010887344318 0.6861585778468863 2.26402993901502 46 51 19
11.257356079593686 0.4352776432877423 1.8653050152956647 40 45 12
11.353146282410966 0.8482106840026105 2.265484446623076 48 52 20
11.232922643661606 0.34790023143082155 1.9605116907893385 42 47 12
10.807824775137405 0.7654439998405923 2.3083038186933846 48 51 20
11.232922643661606 0.34790023143082155 1.9605116907893385 42 47 12
11.618720558227531 0.05547320104952411 2.1405750848305285 44 50 16
12.420766656950114 -0.2464749616523737 2.195827398883946 49 56 22
12.03063844184904 -0.4027673834362525 2.593385179955435 56 65 35
12.06002453180714 -0.052138503806599755 2.3261460976613018 48 55 19
12.841132229033027 -0.16472859167347104 2.377076690843392 56 64 32
12.063542010849801 0.061784604127195615 2.325871570622082 46 53 18
11.571212969767352 0.9409989232431601 2.3667102095983372 50 54 23
12.229858371760859 -0.4703309945711392 2.2071369044254214 50 57 23
12.432634343188852 -0.428111654468681 2.0991711504641826 47 55 21
11.859735621630332 -0.4187683209543048 2.3421702132436377 52 61 31
12.274013491061018 -0.5399965395131925 2.561728820907679 54 64 36
11.577226550501672 -0.5824043135248599 2.3661798803811536 52 61 31
12.701348125783607 -1.0425794751162347 2.512211791436967 52 61 35
12.223301450594056 -0.9665124132789136 2.568094093414959 53 62 34
12.68973174843785 -0.8690157670649881 2.6636346020241857 54 63 37
11.764780459923786 -0.8527167319094532 2.477939133087878 52 61 33
12.413051889922686 -1.15166116490725 2.2996922419139376 54 59 40
12.413051889922686 -1.15166116490725 2.2996922419139376 54 59 40
9.364901626136902 2.7268048371097526 2.997366388170198 50 57 34
8.580777519442766 2.9031759577425102 2.870618311358185 48 55 32
9.462117848966242 -2.2724608053697786 2.938511647371414 52 60 38
16.481018698172626 3.0757940726358304 2.6173497146260414 55 46 38
16.900022568588923 -3.0784049774792974 2.698456024288521 22 13 7
16.5364527347923 -2.966344002419353 2.6115808515214107 57 50 47
8.938313348722641 -2.0348233745536235 2.201033003006117 52 60 45
8.605227439687381 -1.9589904714736714 2.3867160130064917 54 62 44
12.549379765496084 1.0000714954360554 1.5124072572310396 41 46 17
10.950771598983959 1.2574263842359183 2.180164650859084 47 50 19
12.104927110559526 0.9007692400412154 2.0210205248192716 42 45 16
12.14674589265658 0.9538764381678503 1.8431676079159323 38 43 14
11.532788633759465 1.1947082081303142 2.045141410584661 44 46 20
11.814722569700894 0.3991903174885953 1.4236410876035117 39 42 14
12.132924746087255 0.4753427510805912 1.5104006893718456 38 41 11
12.699464762914753 -0.2243829628891154 2.0869494745641086 46 53 16
13.232788707790109 -0.39248180078753653 2.0642233851712755 46 53 20
10.757653321457017 0.47799093047662533 1.978726392569062 41 46 12
10.609352365873653 0.2546277178882145 1.8838853714523223 41 46 10
12.305621030536448 0.9409989232431601 2.4235955593950584 51 56 25
11.309731551847374 0.7706562818849664 1.8639005916650373 40 45 12
11.677144702367265 1.1705297125612966 2.4875962651249326 53 58 31
11.016374766254673 0.6999551518352447 1.9685987389807411 45 48 15
11.528452766278013 1.2190484571212614 2.3705055153457018 52 57 29
11.309062358477457 0.7684416160322178 2.158217788796007 47 50 18
11.036671393675002 0.8603528781134675 2.4175123407530212 49 54 23
11.147683806974246 1.1075909897932696 2.5523356688293113 53 59 32
16.443068143940415 0.3163004750780952 2.6213552273236345 50 55 27
13.229509477265204 -0.5567501788495816 2.2458529395048865 51 58 26
8.869400940324017 -2.086943152357842 1.8293404917683351 57 61 51
9.360370095646516 -2.7859362991035024 3.0007389062174954 52 58 36
8.909274965951507 -2.308097103682329 2.7597633814069327 50 58 38
9.235276188570769 -2.1439988465823716 2.6797369455487874 51 57 38
8.813066026302392 -2.0349935722924344 2.540374423584512 51 59 41
12.307465945024664 0.8875381740953858 1.5925466029859585 33 40 10
11.245252282038505 1.1553598601247255 2.16200073497106 47 50 21
11.042310135284847 1.3875807448755857 2.068084777202953 44 46 20
11.245839826237654 1.2884570999868104 2.058287195144163 44 46 21
13.260551716208637 0.6110202078083761 1.4397839836922903 39 43 16
11.234184526529138 0.5161022702792374 1.5946249375297599 38 41 9
11.804382864319205 0.8603528781134675 2.473660551692025 49 55 24
12.299369228878932 -0.27327211473005425 2.307976308655591 58 65 31
10.211498319674488 0.6861585778468863 2.112803687743753 46 50 17
12.478142919406315 -1.1029349603548217 2.4079081345972773 53 59 37
11.997804818461285 -0.6786076388282041 2.331040667072334 52 59 29
11.837022721325212 -0.6273994762546637 2.620789747170892 54 64 38
16.90253285630775 3.066727535344119 2.698143211570782 23 14 9
12.306929083944583 0.772359298650226 1.6739838960983573 38 42 12
12.326328676149808 0.8875381740953858 1.5113494425128224 36 43 11
12.113760863154152 0.4753427510805912 1.5928944569355354 38 42 11
12.617236162627524 0.3683736256128407 1.592012523133743 39 41 14
12.930257194842083 -0.31069370707630584 2.076849549675405 46 53 21
12.656642137891696 -0.34020179709352916 2.182444785995532 50 57 22
12.164613587428915 1.0070525464462847 2.318080600687675 51 56 27
11.50836584298533 1.0070525464462847 2.254297877239396 49 54 23
12.894634569229353 -0.4027673834362525 2.633812863647887 56 65 37
10.966379686205205 0.5291309140704022 2.1791715842775568 44 50 16
14.902033512292595 -2.815717494532274 2.3309203179530726 56 50 47
12.453593443136766 1.070153983658805 1.836292091743615 40 42 15
11.791149803285983 -0.6579283338930162 2.475084446346194 52 61 31
12.339915822653905 -0.30640236956911354 2.420419783036659 60 67 35
12.139165439520214 -0.16472859167347104 2.3200247138223404 49 58 24
8.627267574008116 -1.903561543842125 2.22759385396422 52 57 45
10.875505494869397 0.5636951168117306 1.875972703092954 41 45 12
11.90186077607519 -0.37561170169795577 2.227656078201463 49 58 24
