6.190581077357737 -0.2504362887589458 2.196740599612867 68 71 50
6.541440340128387 -0.2090569040158242 1.984024297316761 70 66 45
6.896191375941305 -0.04149619282078396 2.124590379800332 70 63 42
6.714931708177523 -0.05002077052780903 2.3309546627197104 73 62 41
6.306327445029775 -0.36558565213071514 1.6703578920173328 81 78 57
5.962908711794223 -0.43241801668680596 2.026983583800118 68 66 44
6.89275534837394 -0.505472832436876 1.8090648544928565 73 74 57
6.654014943947001 -0.7177183996159925 1.8177886183944165 66 72 53
6.786930774328384 -0.8326152753079505 2.1345757897208717 67 73 54
6.08971041487494 1.7662301782835763 1.8412246721869991 49 46 17
5.8398693160158786 1.9934913223525974 2.037348810272138 60 59 28
5.8398693160158786 1.9934913223525974 2.037348810272138 60 59 28
6.3323018078831765 2.0885212021591353 2.3901009878042254 64 64 32
5.463553012350915 1.9934913223525974 1.8731423599067614 53 53 22
6.732919693891208 1.8059423002300745 2.3284176435293276 63 61 30
6.767076755179017 1.6079384517521178 2.5526005206636206 63 62 31
5.139506485279662 -0.5891383128964025 2.6911354046471985 69 75 53
5.974520260502357 0.3862915385432517 2.798755342319332 68 70 45
6.3573345122501985 0.25861074340393114 2.6574897093108234 69 64 41
7.228723816593098 1.2682605907705824 2.7306282051993698 66 59 33
6.9094932054244795 1.1153488241935907 2.854569113657281 68 68 42
6.316830727498897 -0.08486203677973166 2.6698287642516507 70 69 47
6.686882160937233 -0.27560504729478374 3.0074739897222775 71 75 50
6.316830727498897 -0.08486203677973166 2.6698287642516507 70 69 47
7.18182895113244 2.4541583032890517 2.7458795659853963 67 69 43
6.949782503130469 2.146272950237486 2.8355413010101884 69 69 42
6.766544552431853 2.555447812865761 2.938028728001871 72 72 47
6.368607884947592 1.9627962458920696 2.6541340683875236 65 65 34
7.489460510884434 2.2308247306323024 2.656905767293947 64 67 36
7.004663833657605 2.801666541797518 2.8116466120173946 68 71 46
5.76424925784946 -1.6826038106782117 2.9228001996460433 75 77 54
5.76424925784946 -1.6826038106782117 2.9228001996460433 75 77 54
6.728504552965091 -2.931233362783198 2.9675290351171584 74 74 50
6.146946395701642 -2.6151842438006443 2.727262989097619 72 77 53
6.736262793910746 2.2669518187443085 2.327948295621915 63 64 34
6.176495968782129 2.4046502174017843 2.010083812866194 58 61 32
6.092911809574402 2.2669518187443085 2.208378230321707 62 62 32
6.396478799629866 2.649281496460149 1.9939832227127237 58 63 36
5.5326505997105935 2.4210460422725983 2.285683580632808 62 65 34
6.396478799629866 2.649281496460149 1.9939832227127237 58 63 36
6.396478799629866 2.649281496460149 1.9939832227127237 58 63 36
6.033372968194583 2.8122481335260066 2.0212605575719063 59 64 37
6.452109992055734 2.7402647807934013 2.3704339328828694 63 66 38
7.336971718923504 -3.0642455018063246 2.6979885445630396 68 73 48
6.6786372274929535 2.6314674935219964 2.5727256898168687 64 67 36
7.371872602334941 2.90509229442727 2.6881276895626365 66 69 45
6.336691737209386 -1.3707418904043438 2.389359854731709 69 75 55
5.884044953002381 -0.6650744092428792 2.475650540152385 69 75 55
5.8839450898642 -1.1576047190065868 2.2349519298881355 67 74 56
5.715506437157685 -1.3114844235741179 2.5141346486096325 70 76 56
5.715506437157685 -1.3114844235741179 2.5141346486096325 70 76 56
6.33313771744935 -0.8480513573123681 2.389959740246158 69 75 55
5.583832940333045 -1.603682052550596 2.2777539836189558 68 74 54
5.266758583699799 -2.0408186309748504 2.643503135348219 74 78 57
5.143885276371337 -1.6329431003610542 2.6893784056467434 73 77 57
5.583832940333045 -1.603682052550596 2.2777539836189558 68 74 54
5.652097316545126 -1.6138105336234503 2.529773067835673 72 78 58
5.764147319266076 -1.9086879055689683 2.502590597522842 72 78 58
6.118335362117636 -1.2045595075174258 2.7380279605169204 71 77 56
6.030712900478149 -0.06294746564126578 2.4452782210660455 69 62 40
6.190581077357737 -0.2504362887589458 2.196740599612867 68 71 50
6.030712900478149 -0.06294746564126578 2.4452782210660455 69 62 40
6.210940427688781 -0.6987485247145178 2.194372901053877 68 74 54
6.406475524375178 -0.5884375195510935 1.9932805247414933 68 74 54
6.862259130859132 1.7378858745228047 1.516389592184472 43 41 14
5.901771837987412 1.7662301782835763 1.677207691176285 47 47 16
6.8609414844458385 1.8653255051886315 2.532426134066046 64 64 32
5.579904718696012 -0.41003027280385557 2.548462921766566 70 74 53
6.632765884362743 -2.091653212868292 3.0992864376568465 73 75 51
7.228723816593098 1.2682605907705824 2.7306282051993698 66 59 33
6.728504552965091 -2.931233362783198 2.9675290351171584 74 74 50
6.967923920492935 -3.0283547596622555 2.827406269374199 70 75 50
6.3573345122501985 0.25861074340393114 2.6574897093108234 69 64 41
6.949782503130469 2.146272950237486 2.8355413010101884 69 69 42
5.87416034417888 -2.312691713975 2.850376412221506 75 77 53
7.7485345252776785 2.555447812865761 2.9641219056936476 71 71 47
5.556069852861482 2.2669518187443085 2.063245910705411 60 61 32
6.663539942234674 2.4046502174017843 2.1463268560629194 60 63 34
6.448061095779747 -3.0642455018063246 2.631377035851022 66 71 46
5.4681967092871195 -0.8784388407756848 2.579486950876455 70 76 56
5.715506437157685 -1.3114844235741179 2.5141346486096325 70 76 56
5.715506437157685 -1.3114844235741179 2.5141346486096325 70 76 56
6.059143326068862 -1.6329431003610542 2.7615565815569596 72 77 56
6.152734873795583 -0.3115803740209225 2.42188102271193 70 73 52
6.466060811233254 -0.43241801668680596 2.16627211400032 68 74 54
11.804771929490604 1.4977421988200994 1.6239211139971377 48 36 17
6.173337919648251 1.926646095929033 1.6725100514090432 46 47 16
5.643082852195734 2.0885212021591353 2.2688186874097602 62 62 32
5.463553012350915 1.9934913223525974 1.8731423599067614 53 53 22
6.6713518073580484 1.7532298094845773 3.02599975866934 71 72 47
6.621054042576779 2.2308247306323024 2.5864763846280407 64 65 33
6.155437669328125 2.55410101817368 2.2008741813199904 61 64 35
6.272289819358745 -0.9776684408820964 2.187354852170963 68 75 55
5.948766560446397 -1.0500069015156375 2.461922209566967 69 75 55
5.764147319266076 -1.9086879055689683 2.502590597522842 72 78 58
5.962908711794223 -0.43241801668680596 2.026983583800118 68 66 44
6.862259130859132 1.7378858745228047 1.516389592184472 43 41 14
6.725157596297192 0.721340057368188 2.97038242308596 70 72 47
6.487745645112911 2.90509229442727 2.620551592251162 64 69 44
6.23409053253584 2.4210460422725983 2.407116900263567 63 66 35
6.092911809574402 2.2669518187443085 2.208378230321707 62 62 32
6.336691737209386 -1.3707418904043438 2.389359854731709 69 75 55
5.860932784726315 2.6314674935219964 2.480685886103114 63 66 36
6.272289819358745 -0.9776684408820964 2.187354852170963 68 75 55
6.6786372274929535 2.6314674935219964 2.5727256898168687 64 67 36
5.93140292699627 -0.13005275578522452 2.819739839040011 68 73 49
6.4298362939072655 -0.5264148139167087 2.374004701849084 68 74 54
6.6786372274929535 2.6314674935219964 2.5727256898168687 64 67 36
5.826437956771906 -0.9654463396600199 2.8790807859561998 71 77 53
5.948766560446397 -1.0500069015156375 2.461922209566967 69 75 55
