12.799800022233658 0.26618720983226635 2.5083340385953883 35 51 1
12.214091228942545 0.38866671064118385 2.4385620076143395 40 58 10
12.735358863377764 0.5642952573246494 2.5152594145195613 42 63 14
12.345665171990193 1.4086026664056122 2.4260781450126534 48 66 24
11.876280267902784 1.2520113121562744 2.4728243717801908 58 75 29
12.804819359048869 0.9856459340437098 2.6548967627304063 37 55 9
12.658574110495868 0.35911741492390586 2.6772018814009213 37 55 7
11.82889917207685 0.7547978960510632 2.4779094421447696 54 72 28
12.583630045509924 1.1377975496951918 2.6892359822706995 36 56 12
12.804819359048869 0.9856459340437098 2.6548967627304063 37 55 9
12.153060892714171 1.203185607616674 2.5848883740854522 40 58 14
12.270848042551988 0.6449060898538619 2.5696510466511366 36 57 8
12.449029262763643 0.8789155283224414 2.7120209046843127 40 60 16
11.561860467271798 1.0664255883615794 2.5080282444974706 61 79 32
13.866507913156381 0.5421600942529637 2.859377799908405 49 71 30
13.38823510926663 0.607142408487274 2.7390267014825183 36 56 12
13.38823510926663 0.607142408487274 2.7390267014825183 36 56 12
13.490132334978366 1.1377975496951918 2.721642105664515 40 60 17
13.200748846496262 0.43323166345374287 2.7738076963021268 40 60 18
11.881638897423388 0.10623296815347495 2.2343307138368673 32 48 0
11.799299810610213 -0.120677769622493 2.3531544997992206 36 52 6
11.88460128140706 -0.13699758993129815 2.471938882722308 37 53 9
12.995002230619342 0.15607004610435601 2.6279233004427907 35 55 11
13.472218356183477 -0.0010215596503513255 2.5682573103298973 37 55 9
13.472218356183477 -0.0010215596503513255 2.5682573103298973 37 55 9
11.944575598330319 -0.5659834259647916 2.4656218565655617 41 57 12
12.010773429937604 -0.2680879624464298 2.4587789162608216 38 56 9
12.21775794295205 -0.39041517012356536 2.4382079579888964 40 56 10
11.93506715272725 -0.8378938741710039 2.2308357654174062 37 53 13
11.37677006767897 -0.7610136888544226 2.2695151766563013 39 53 12
11.986585295834315 -0.5155057728641044 2.6076210512321207 43 61 17
11.244861922811067 -0.7378730002126472 2.7327242654338044 52 73 34
11.244861922811067 -0.7378730002126472 2.7327242654338044 52 73 34
11.877605151122495 -0.7492922847405215 2.6233489117376836 40 60 21
11.552568996996252 -0.8807486868037157 2.6750560118535245 47 68 29
10.25694548156001 -0.9870200597244922 2.516585678841219 41 59 19
10.82705879770912 -1.138933789241599 2.607278478257699 47 66 26
11.083359414214764 -0.9870200597244922 2.569401347761743 43 61 20
11.835208629166123 -0.7562883124889268 2.4772280343876503 37 52 10
11.06509096225239 -0.7562883124889268 2.42147806197252 39 54 11
14.03248467551324 0.22645075115448754 2.821101685752867 49 69 29
13.997341066637862 -0.0017329796267924482 2.828753913803512 45 65 25
13.997341066637862 -0.0017329796267924482 2.828753913803512 45 65 25
12.068664774134623 1.5451337558905371 1.6802199008386685 59 74 32
9.985247278667202 -2.9373581835339135 1.7031735996591013 42 67 31
9.661815483970338 -2.7095934279276186 1.7076323692245692 54 79 44
11.90645276118828 1.924730360133366 2.0338088019878704 36 52 4
11.323702227489845 1.5400003836078995 2.059669204434597 63 79 35
11.445301426595686 1.7385485849605273 2.0540261000048092 31 48 3
11.503208121564851 1.6336808701698438 1.8633914562094924 53 69 25
11.79374790712479 1.8109779645955446 1.855978567242512 28 46 0
12.167596258407752 1.9603917300224967 2.2160866742215446 42 59 21
12.269200670272896 1.6476168286022215 2.3157730931868366 39 55 10
12.295696041610105 1.6571832492353529 2.430766515653161 41 61 19
12.542008519220504 1.8616830064004921 2.2958935088339256 41 59 17
12.99953984266636 2.0566050588833305 2.48769266345397 43 63 24
12.578527080397583 1.8082287891551878 2.5327034515299154 44 64 25
12.483388851105616 1.6694623517314888 2.5437208018292434 43 63 23
12.819406384884934 2.003545563957464 2.384540679300321 44 64 25
12.567928777505115 1.8956959349912856 2.4059624157753374 43 63 24
12.81021104290488 1.5194730487570915 2.6541019548953857 43 63 23
12.917824877762389 1.8460108263047816 2.6386143635535033 42 62 23
12.231869055216196 1.9930301228856353 2.5746207230023064 43 63 24
12.909447042711955 2.2075685925722857 2.639795197884889 46 66 27
12.815831171249586 2.0485994471003557 1.8326749988407132 35 51 3
12.404079260694248 1.9742336471189066 1.8415831133229101 34 50 2
12.507387617404591 2.0517199652354208 2.1957888596116444 41 58 20
13.31812233107421 2.1618109222218744 2.4570859230592217 43 63 24
13.960282806793384 2.4038025110350314 2.301591964317627 43 63 24
13.891978296730386 2.3981028594117424 2.1255996518037916 40 60 20
13.981781680958646 2.267872783603121 2.300214553083268 42 62 23
13.341738708433052 2.464136083911484 2.1513672716279455 42 62 23
13.386688822138971 2.2105700006163387 2.1491661790242422 41 59 18
11.950319487135506 2.8421206196711464 2.1278477179334727 38 59 20
14.4496342892986 2.4112947229072415 2.470704512552878 45 65 26
12.043537024724888 2.711010962770022 2.2238640293965295 42 65 25
11.535885124274806 2.9162526672601707 2.257983229329433 41 64 26
13.282975808328194 2.529922485462255 2.590714685672317 48 69 30
13.23019913882523 2.3251904347048105 2.5972430166142484 44 64 25
12.821361596676475 2.235087035203868 2.5060468336762147 43 63 24
14.064382740161284 2.500639813023517 2.506008680794709 44 64 24
14.064382740161284 2.500639813023517 2.506008680794709 44 64 24
13.23019913882523 2.3251904347048105 2.5972430166142484 44 64 25
13.48468477185478 2.7210952028892894 2.566827099664234 49 73 33
12.824480802713909 2.8048749497033265 2.652007333244998 52 76 38
13.516802731433428 2.5738619608605116 2.7172447731698997 50 71 32
13.331124740537046 2.7400179030915877 2.7492091525899314 50 74 36
16.45372914576159 1.9051380670576643 3.013040837270775 47 71 33
12.026435920125186 -1.7418297942963332 2.796636670663563 49 72 37
12.010446063177252 -1.494133516253421 2.8003610870474804 49 72 36
12.0485354017965 -2.2061416196816586 2.5989878426053625 47 71 33
12.915228632173427 -2.2061416196816586 2.6389798626935383 47 72 37
12.49137454456224 -1.8966782278520364 2.7046796591464237 46 69 35
10.398607014378058 -2.768888550334392 2.2238037017306387 56 81 47
10.61051730880693 -3.140822405055971 1.989910210520558 41 66 28
10.239608748206429 -3.026202638543359 2.116888973880773 53 79 43
10.24437173610577 -3.140822405055971 1.900625607315519 46 71 33
11.329522766806717 -3.1406221370472247 2.3952614501328235 54 79 41
12.668747743708657 -3.140281137028992 2.6756013180601523 54 79 44
11.329522766806717 -3.1406221370472247 2.3952614501328235 54 79 41
12.826809070391153 -2.802540154695232 2.651666794920959 52 79 45
13.020827995774367 -2.655522327531119 2.624418637016677 53 78 45
11.40576943339368 3.0278979255042677 2.267381117552918 44 68 28
12.708741092688761 -2.9664154701705305 2.6693825970735 53 80 46
10.805184975981138 -2.8863114884199423 2.314833842556927 56 81 47
12.707566196028662 2.968959971543256 2.6695636503785694 53 78 41
9.906594660965087 -2.499208000577737 2.1374483444243486 55 76 39
11.572191941882151 -2.3237003664715727 2.5068138941774962 49 73 35
13.235840620289279 -2.3237003664715727 2.5965393332320277 48 73 38
13.230259968822264 -2.162337124376208 2.7680615691790416 47 74 43
13.4693773110344 -2.3152683898485162 2.725106524090813 47 74 42
12.79220472674514 -2.0833054730011633 2.8684476496065727 52 78 46
12.698667468146935 -1.797008750840627 2.896109816837457 53 76 41
13.73484046507436 -2.500870268833795 2.894583972837469 52 79 49
16.351017927486037 1.270060949216402 3.0779957137704255 48 73 39
13.40411740121319 -1.8966782278520364 2.7362531500748517 46 71 37
13.181378849813267 -3.1400016259156147 2.7776405028464706 54 80 46
13.520116149061844 -2.5716032347897095 2.7167026583335656 52 78 47
13.219821449232107 -2.930091886751827 2.770081444200816 52 80 48
10.940547211128946 -3.1408944435704633 1.7842832928742143 35 60 19
12.458101626904773 0.44297181911296624 2.5467078717846223 37 55 7
11.249122562488111 0.23539203037686787 2.279086704638216 44 62 14
12.53260964839858 1.3859006432585528 2.5379779952399426 42 60 17
12.319277270954254 1.426374152959188 2.312030661313903 57 72 31
12.449029262763643 0.8789155283224414 2.7120209046843127 40 60 16
12.245126672293617 0.8588872107954288 2.5729225357773418 43 61 15
12.87311775209777 1.3559228256063018 2.644963394811599 40 60 16
12.853970893993944 0.513373852625308 2.647719019593075 32 53 4
12.751234578689159 0.7474310555563523 2.662898977643035 32 53 6
11.82889917207685 0.7547978960510632 2.4779094421447696 54 72 28
11.930107858896497 0.9856459340437098 2.6156827089638304 50 68 26
14.138447418342693 0.43323166345374287 2.799241052362174 45 65 25
12.010773429937604 -0.2680879624464298 2.4587789162608216 38 56 9
12.957044946324546 -0.001183510633841599 2.6331398243416877 38 56 10
11.647229518514491 -0.44490219899095823 2.4981171638690274 41 58 14
12.258831509677066 -0.3081146199863722 2.571175639106146 41 59 14
11.578078065833385 -0.6709793883046261 2.372329526331799 40 56 12
11.30690924765678 -1.0482995154699712 2.7202388603870604 49 70 32
11.552568996996252 -0.8807486868037157 2.6750560118535245 47 68 29
12.077519129858688 -1.255346021765068 2.7850520917992556 48 71 34
11.44802308386105 -0.646700169856991 2.5216923774337996 39 57 14
10.82705879770912 -1.138933789241599 2.607278478257699 47 66 26
11.552106681042739 -0.8471507867192475 2.3746542596294447 38 53 12
10.621703456004921 -0.8603638654347602 2.4704475239468513 38 55 13
10.82705879770912 -1.138933789241599 2.607278478257699 47 66 26
13.997341066637862 -0.0017329796267924482 2.828753913803512 45 65 25
13.44954848949056 0.1848596076235365 2.7284519781232723 37 58 12
14.03248467551324 0.22645075115448754 2.821101685752867 49 69 29
16.40034880606453 0.6491848612715155 3.0413165254114785 46 71 36
13.41287759350806 -0.0014064849754476516 2.734733779776273 39 59 15
12.751615184622015 1.9383110632052454 2.5134995359284678 44 64 25
12.578527080397583 1.8082287891551878 2.5327034515299154 44 64 25
12.253527605674927 1.536578310457686 2.316953363374412 38 54 7
12.392275313761143 1.7794345499797717 2.4217614400996688 43 63 22
12.909447042711955 2.2075685925722857 2.639795197884889 46 66 27
12.485396683318063 1.8975849887575422 2.705705997121367 44 64 26
14.012002174442685 2.339211874936654 2.038565799972771 42 57 17
13.31366105745081 2.4038025110350314 2.2456319722973883 43 63 24
13.531661859121495 2.189654237400279 2.3303590916606662 43 63 24
13.913582713491442 2.2784143972000965 2.124637642461562 40 56 17
12.91584651954308 2.13511973893099 2.1731553938472645 41 59 18
13.702435138684105 2.2540372494241185 2.4234089333595263 44 64 25
11.233394024911378 2.938835763564763 2.0639505077281313 38 59 22
13.616993631391594 2.4215815062920787 2.5519951934800393 43 63 24
13.272940012249656 2.500639813023517 2.461267601882733 46 66 26
12.886159242390443 2.4365807157489603 2.643099113731372 48 69 30
12.458560465422812 2.852209582767666 2.546653445566062 55 79 41
13.616993631391594 2.4215815062920787 2.5519951934800393 43 63 24
13.68049727902846 2.4112947229072415 2.4252459271663134 45 65 26
13.741244216919348 2.6036786544400665 2.538612168044964 45 66 27
13.203015177454686 2.4604773622221843 2.773362469674614 50 71 32
13.464942592110297 2.31712876892812 2.7258516802581303 49 70 31
12.339389011309052 -2.9921708844602133 2.561078918268923 52 79 44
10.745723886367152 -3.140733791062543 2.199320155664572 53 78 40
9.777913799218814 -2.8084884689638465 1.917003390158012 53 78 44
11.25451231067703 -2.420100891371812 2.4024969569116794 52 75 38
12.338178943339614 2.994353233412715 2.5612284621438697 57 81 43
11.783940092378034 -3.140281137028992 2.6374631745996586 55 80 45
13.777099529704923 -2.4347378898914713 2.677190937833017 48 74 42
13.33336453851203 -2.7373250829199387 2.7488034388319593 52 79 46
13.965320938146442 -2.6435927113469866 2.8359218422677293 52 79 47
12.971934560189782 -1.7418297942963332 2.8227078447587197 50 73 40
13.206407322952579 -2.4580415784874075 2.772697317021438 51 78 48
12.698667468146935 -1.797008750840627 2.896109816837457 53 76 41
12.245126672293617 0.8588872107954288 2.5729225357773418 43 61 15
12.439135477461747 1.3145965365689407 2.7137604466467717 41 61 18
11.798034348404 0.1189062440394406 2.3532611157089685 30 49 0
11.698766067496997 -1.138933789241599 2.650822548580093 48 68 29
11.578078065833385 -0.6709793883046261 2.372329526331799 40 56 12
13.41287759350806 -0.0014064849754476516 2.734733779776273 39 59 15
13.839109040470893 -0.001183510633841599 2.6683246644758074 37 55 11
14.064382740161284 2.500639813023517 2.506008680794709 44 64 24
11.71807551698543 2.770573321170986 2.3600678296352475 39 63 23
12.167596258407752 1.9603917300224967 2.2160866742215446 42 59 21
12.567928777505115 1.8956959349912856 2.4059624157753374 43 63 24
13.017387491040774 2.6575751486212607 2.6248834780287518 51 72 33
12.46798503782871 1.5268025185360075 2.5455373787401054 43 62 22
11.60638373449814 1.7235357638057902 1.8607146312831522 20 38 0
12.124982323409357 1.8339660430349205 2.11890025646367 35 52 4
12.657045393903092 2.7210952028892894 2.52386246572656 44 68 28
11.323702227489845 1.5400003836078995 2.059669204434597 63 79 35
11.503208121564851 1.6336808701698438 1.8633914562094924 53 69 25
13.865014965206832 2.337046874539503 2.214203106837636 41 61 21
12.28005679316179 1.532301056795531 2.432246997666005 40 58 16
14.147122500149361 2.3342493196688676 2.3881427834481 44 64 25
9.688865156498352 -2.661302565720288 2.0327103678198988 55 80 44
12.49137454456224 -1.8966782278520364 2.7046796591464237 46 69 35
12.665653726394265 -2.064094316585011 2.6760872716485613 45 69 32
9.759770155854689 -2.5645274891040346 1.9176740882563106 55 80 41
10.016294611373347 -3.0380183350517496 1.8043325329870943 43 69 33
9.911033891105895 -2.9146213099985068 2.0215813493767225 53 78 43
13.218691978219015 2.9331356915195568 2.7703008190828617 51 76 41
12.683525107878562 -1.4687972863741807 2.9009212666770154 54 75 40
13.56667643934555 -2.064094316585011 2.709179857472699 47 72 37
12.89881129582063 -2.875212276343163 2.8403510146025885 51 79 47
13.109353615130262 0.3059638205037115 2.612667946543797 39 55 5
12.381944223652082 1.0664255883615794 2.555859743516964 51 69 25
11.876280267902784 1.2520113121562744 2.4728243717801908 58 75 29
11.46944197665965 0.38866671064118385 2.3821620899538543 52 70 21
11.57853934478347 -0.6094764181689005 2.6706217870821654 46 66 26
12.000697652114612 1.5451337558905371 1.5972947745743364 55 73 27
9.272608204231124 -2.5645274891040346 1.7134143598765306 58 80 42
12.490114766820318 2.122990902222687 2.5429305325685387 43 63 24
12.061377864953812 1.8948371785491709 1.8494794852176344 31 47 0
12.253487816078955 2.009803207824818 2.019719695368584 38 54 6
12.659758158993286 2.065340797401675 2.6770152061534866 44 64 25
12.245985051518513 2.8881296122199815 2.4354944158814416 49 73 35
12.815831171249586 2.0485994471003557 1.8326749988407132 35 51 3
12.917824877762389 1.8460108263047816 2.6386143635535033 42 62 23
13.220123278438734 2.3304946319370674 2.4662199755452257 44 64 25
16.442045386681578 1.4175180140557138 3.0186602802520457 47 71 35
10.745723886367152 -3.140733791062543 2.199320155664572 53 78 40
12.460957103677364 -2.8501614351284785 2.5463692988616535 53 79 45
12.12349292280437 3.0132699188410617 2.447426309956291 53 77 38
11.374225990847222 -3.011361145110442 2.391021199998707 54 81 45
11.472125570798685 -3.14047711453097 2.5187548998450047 55 80 43
12.49137454456224 -1.8966782278520364 2.7046796591464237 46 69 35
13.063515320855771 -1.9703398204042382 2.802114701265441 48 74 43
16.362766684438093 2.179761303866098 3.0675734591004034 48 73 39
13.181378849813267 -3.1400016259156147 2.7776405028464706 54 80 46
12.804819359048869 0.9856459340437098 2.6548967627304063 37 55 9
12.496763332225607 0.5000264111241502 2.412276223558614 49 70 21
13.50872816624179 0.13499202491611145 2.5640850130471233 36 54 8
11.756213048996408 -0.0008985961989557379 2.35680393139813 34 50 2
11.756213048996408 -0.0008985961989557379 2.35680393139813 34 50 2
11.716727619042935 1.7567965893667037 2.2453821758472934 41 58 13
13.487194920105654 2.479761558937262 2.333494636622594 46 66 27
12.253487816078955 2.009803207824818 2.019719695368584 38 54 6
11.340660405869045 1.639954883024556 2.0588739379204184 29 45 0
12.298194599417501 -3.14047711453097 2.5662058785960102 54 79 42
12.962439896691828 -2.3009328779310114 2.824933949565607 51 78 48
10.656835683880027 3.0395426058243737 1.9879746992649279 36 60 20
11.47334667216149 -0.39041517012356536 2.3818036797120326 39 55 8
11.4217559770937 -0.8603638654347602 2.524921707369191 34 51 9
13.142356195340925 2.1016538348334044 2.3588789669683945 44 64 25
12.825203829497195 1.6857926295657952 2.6519015449879975 43 64 23
