23.17475528549028 1.5999848231437643 1.0826173966395953 49 67 22
21.55450644371513 1.4059882802452008 1.2950093086066934 56 77 40
21.965054757993055 1.5023435432365013 1.204383826293327 55 75 36
22.18274751005062 1.4059882802452008 1.2081470078208145 55 76 39
21.56573550187504 1.3237742664471517 0.9879750623299692 48 64 25
22.47764595044898 1.299973613007086 1.116226850614635 56 76 39
21.86915849917478 1.336659741077904 1.050636439611947 54 72 33
22.25846443911223 1.3482887698355595 1.1114088454543132 58 78 41
21.351857109198683 1.3094221564535788 0.9238795111638198 44 59 18
21.351857109198683 1.3094221564535788 0.9238795111638198 44 59 18
21.65709848917589 1.4258410812353581 0.8757666140202347 42 57 12
21.99051791417708 1.4949538158349396 1.0006560723789366 50 67 28
22.510241915447498 1.6031452542323112 0.9622048305660604 46 62 18
21.822214843939644 1.434037506768304 0.9400622040715111 46 62 21
21.95059412895697 1.4479447029118144 1.1044585702781669 57 75 36
22.292525553925614 1.5501062830577184 1.061480776672728 49 67 26
22.796830154731524 1.5501062830577184 1.0231731697311357 49 67 24
22.076870394606544 1.4413615228965815 1.0031619496832804 52 70 31
21.95482609773012 1.3783141720582948 0.9444659220622882 47 63 23
22.301057680147956 1.5477369449531821 0.8996092472439579 43 59 15
15.318851071826119 0.7880965800857803 1.843818219127076 19 23 22
12.957542960141142 -0.047413208081034997 2.06363767297363 22 29 29
14.100423600456732 0.10842885863373666 1.8680993705256634 0 5 8
12.515458005808389 -0.047413208081034997 1.993187092696878 22 27 28
14.581021696302052 0.4801266187438577 1.8580162083310627 1 3 4
14.652547348420436 0.6220601865526058 2.0790435791980735 4 10 10
14.169658730585489 0.5556416437252166 2.0981302776316193 0 4 5
13.886353411116755 0.29452409251895767 2.1100527044290183 10 15 19
14.168582367861616 0.3727630073139924 2.0981745176631557 16 20 24
12.620290686136617 0.04409064650085823 2.171244081392934 6 13 15
12.276327701033502 1.203974313992376 1.5814361290207697 48 59 22
15.342240084543599 0.8385307480685268 1.9818665466608505 13 20 16
11.61742001218925 1.5356710961420605 1.409181485901363 45 63 11
11.954199828372065 1.2821459213859001 1.5817228492964353 46 61 7
11.46677411816921 1.5356710961420605 1.5821873298559068 45 64 11
11.507404134810486 1.622877475707919 1.4951742374187418 44 63 10
11.708866949886266 1.3641148236971508 1.5819517993126695 47 63 12
11.73945049400214 1.4489946031456338 1.7532996666808272 44 63 10
10.924865437474283 1.5323158787123807 1.8614292887713892 45 65 11
10.93377137772728 1.6278467211233953 1.8611856683770094 45 64 10
10.463996245878914 1.6412950754417732 2.1967582030734274 51 70 18
10.777379190761694 1.6338628637868686 2.0669585731428963 48 67 13
11.279116143418552 1.528252402717527 2.145441332309776 47 66 15
15.819102252328117 0.8518942732262013 2.35127360322715 18 24 21
14.197832437939272 0.5260144153411594 2.2693349000597616 56 61 61
15.13217649913133 0.8518942732262013 2.304298258843962 23 31 25
15.03565632875353 0.7326129299450516 2.142131429451127 25 30 28
15.039399861906707 0.8444669702306488 2.1419714216902737 22 28 26
17.03047570011439 0.9725011656074424 2.6647390889500624 55 71 32
16.031615989593096 0.6354086150862371 2.5305408486075596 37 49 36
15.609913389428916 0.7174225283319471 2.460856639885752 9 19 10
16.573888721717722 1.0375753586573315 2.5917044816000665 49 67 26
16.40253679965863 0.861453910324761 2.498964458052717 46 55 37
12.852137194844063 -0.08430241555267795 2.6180464678609723 51 73 22
12.420371415968923 -0.06430061916486428 2.396658026471726 35 51 31
12.555454732876115 0.06191972424107545 2.5096299556611035 47 62 40
12.44225558041546 -0.05747800990020227 2.282953206577579 33 44 46
13.187372176063736 0.15393672359818367 2.335572669463985 0 4 5
12.438956515111098 0.048772735451381194 2.2831821902890796 0 6 8
13.335092806818599 0.25578858744639704 2.324996266779265 3 9 9
17.197958053544262 1.1561785294919475 2.787431739973197 46 67 17
15.206124198621874 1.3015058602498288 3.041895016340068 60 85 31
14.560064728617872 1.7418021352137119 2.8981130012357235 62 88 34
15.212523947636102 1.9594024563849302 3.037774220738111 62 87 33
15.334409946273082 1.4084829285647846 2.978377650797779 61 86 32
13.5751208669779 -0.15768545246111618 2.8849823985422143 57 80 25
14.35540210670175 1.8091026945022237 2.9643937092763766 59 84 30
14.210365246846585 -0.3681399398154782 3.035598703992858 58 82 27
13.037637988050523 -0.13433365562441654 2.0603413285861905 11 20 19
9.873012385417463 -0.7980420381385338 2.240746305462224 56 75 24
10.127416709019643 -0.6425532536527775 1.9909104404723748 52 69 21
10.328490011529816 -1.0067838872419677 1.7785733624600417 55 71 19
10.708328105822444 -0.6614610241175546 1.6765762826464556 49 66 18
9.987648873466151 -0.9783648205440999 2.2316862732441507 57 75 24
9.790651236943654 -0.9491253346720356 1.89626782574902 54 70 18
10.558761515860182 -1.627403412939285 1.5831669600018017 63 79 27
9.981454182905932 -1.640619749110135 2.110655042662084 65 84 28
9.432037304921502 -1.2623532550068568 2.1459410156414442 60 79 26
9.590560656693848 -1.4080229551018235 2.016060054124154 64 83 27
10.059276883131568 -1.6333217006299392 1.8872694004523307 65 84 28
9.876157021624289 -1.4248282169453643 1.7882390045913537 62 81 26
10.297081454309891 -1.146928861386705 2.2085274684250957 60 76 24
12.525646038106558 -0.16244996182570634 2.277219969915233 64 78 79
11.855057257038487 -0.20524270038905038 2.4499311757720736 54 75 24
12.932885030751997 -0.23619510511669736 2.6073301714032615 54 75 23
11.965306729414735 -0.2936655393773149 2.3178988112255277 20 36 19
12.250729345367725 -0.37780749342847575 2.5444395807369 54 75 23
13.152648929319534 -0.523456187153357 2.744772069491148 56 78 22
12.037883487747463 -1.0200854298284696 2.5709632526880477 59 79 25
11.611569838787009 -0.9277347524136219 2.6310075198736365 59 79 26
14.362914803388032 -1.4136389269346303 2.961496270041667 64 87 31
13.34230545829871 -1.4982544561303972 2.712117322995438 63 86 28
14.369690092791538 -1.801679480684459 2.958924758393956 66 89 33
13.612819239146464 -1.7379122958990727 2.8746323013844473 65 88 29
14.220099750206685 -1.3152171828846655 3.029348008612667 63 87 32
13.43728629635098 -0.5702979614478929 2.92753781016252 59 82 26
13.651592994834473 -0.4252570433797695 2.864436941280819 57 80 24
14.369690092791538 -1.801679480684459 2.958924758393956 66 89 33
13.447580431703871 -1.0664162636368508 2.9240444683646736 61 84 26
13.906506836054513 -1.7015869843959832 2.8059735248538087 64 87 28
10.395662739786985 -1.6498425905927177 2.326666511824051 66 85 32
10.975894618236723 -1.0911179443241639 2.4050124478748147 58 77 25
22.849175226485812 1.652700122591436 1.0245696544756036 47 63 17
11.117954431610741 1.9020693232220525 1.6726651606048124 45 64 10
10.835785113681643 1.8142082741106755 1.6753274561304476 45 64 10
11.781752558462168 1.7936942456236369 1.496938411423634 45 64 11
10.730652248077277 2.0232054937010693 1.7706787760693967 47 66 13
10.077537974958595 1.9728951384879447 1.9931225217343553 51 70 19
10.29654236678214 1.8387813910306368 1.8797324436658611 48 67 14
9.76535201225457 1.868709791195431 2.007535341994596 51 70 19
13.58724848110904 2.4679407751205855 1.5067672416826503 49 66 13
13.429254394306842 2.594225284322093 1.9628073528481151 46 67 17
13.404782310776794 2.6659180167408687 2.0458041205646746 51 75 26
11.174952183720839 2.2331747632938903 1.8547422505041697 49 68 14
13.092418888130315 2.5492217846529583 2.0581133075857645 51 72 21
12.254823428374783 -3.0905823784707103 2.094696977727901 70 100 54
12.120188963434765 1.813237402722209 2.560468960164386 53 75 24
12.681360170179342 1.7817599106525512 2.496191826912969 53 74 23
12.902635044731491 2.4972764803199663 2.1563344991248385 53 75 24
13.677811841759926 2.5758636894461846 2.301708936612333 63 88 39
13.031550418497336 2.5758636894461846 2.2445422008418445 60 85 35
13.345338615669558 2.706660884778328 2.2259077183459857 65 91 43
13.425020680706778 2.610853245087005 2.425851390301516 61 87 39
12.866411692962224 2.4370052059916567 2.254831612034291 57 81 29
13.425020680706778 2.610853245087005 2.425851390301516 61 87 39
13.345338615669558 2.706660884778328 2.2259077183459857 65 91 43
13.977098884805498 2.706660884778328 2.2826724372484364 63 89 41
13.436479773773852 3.0047805748539913 2.2207066126633057 66 93 46
13.366828577548134 2.9734952451539174 2.4308724230232968 63 90 41
13.294893416839123 3.088259574871859 2.4371814249921844 67 96 51
12.586755012357253 3.093807700175769 2.2730843236196208 71 99 54
12.586755012357253 3.093807700175769 2.2730843236196208 71 99 54
12.816482834771431 2.8907755115040246 2.258012108959891 63 90 43
12.781230104565 3.098310926090586 2.162646452910177 71 100 56
13.512587519716666 2.863016007075507 2.418430503510096 62 88 40
13.297980136421739 -3.0787441349141367 2.436908341335044 69 99 54
13.690923196745569 2.7956758373398856 2.3008506579019476 63 89 41
12.590015348864961 -3.0852780349857665 2.272865208370405 70 98 51
14.918521660018165 2.6069978149397084 1.3772531963090795 53 74 23
13.816297541108577 2.570039986300961 1.5078301443097126 53 73 22
13.789536185571759 2.570039986300961 1.5802685226559547 50 68 16
13.915058292213256 2.570039986300961 1.4360463330805884 49 68 16
14.866886075928546 2.5114142547528524 1.307495867495659 48 65 13
14.279551944397134 2.6678176612103455 1.4395060689116257 55 76 25
13.756777200530683 2.732677333415991 1.5075573506361035 58 79 28
13.275292575184464 2.6334409666183323 1.5806354577295372 56 77 26
13.19466441811055 2.7016521046514197 1.8103444996697955 53 76 27
13.531987847128951 2.80139403324527 1.7289045175807134 64 87 38
13.442608183965174 2.774535716216161 1.9623967114910854 56 82 34
13.855141473704172 2.774535716216161 2.0291579493325607 64 89 41
13.81850481629411 2.962685099001646 1.5802486648834464 57 81 28
14.029142935609016 3.0347042785987752 1.7958419698986359 64 90 42
13.337293963282438 3.026291560294635 1.8856781908259765 61 87 39
13.11241966113236 2.8736183467933274 1.6571282882091702 62 87 38
13.433466057096005 2.8736183467933274 1.8060050615056293 66 91 41
13.265198641805746 3.1051758486298513 1.8874489585598142 62 88 39
12.988620578714855 3.1051758486298513 1.8142207902475822 61 87 37
14.224056610438364 2.9488199467623275 2.016400674874695 53 79 32
13.981185081939353 2.962685099001646 1.7237840192420701 60 85 34
14.430582168207923 2.8736183467933274 2.009575851358542 59 84 36
13.701067140040607 2.8736183467933274 1.8770421622610716 62 87 37
12.787694038121957 -3.0986700805582355 1.7381914984892437 63 89 39
12.65953744588916 -3.0986700805582355 1.6602248430227389 63 88 38
14.325717284838042 2.774535716216161 2.091798120284085 59 85 37
14.046645879663313 2.8517380019214453 2.1032377221724405 65 91 43
13.692057184943831 3.0164489598556345 2.118566322985467 54 81 35
13.83438994723718 2.932659100756243 2.112301947456741 56 83 35
17.798025679539617 -2.2723876749747727 1.1745445179190552 53 62 25
21.772035426728504 -1.9416005584825424 1.2978356792827983 43 53 9
19.02817443872292 -2.691245967002845 1.1444303169032026 36 47 5
19.754605976928385 -2.7367331774768644 1.3217357394823035 22 33 0
20.15754305582031 -2.6897255148137855 1.326816610947796 18 29 0
19.669802797470794 -2.7857126445472877 1.2677849822614913 34 48 6
11.062491517406741 -2.101348313696715 1.5826036370305576 65 84 31
10.662181599574179 -1.7211870651461725 1.5830469623982013 64 80 28
10.416901462681679 -1.9313525681687616 1.7767844080766215 63 85 28
10.372000522487527 -1.8365833141052994 1.8774113927044838 64 83 27
11.47472635526238 -2.064584565947135 2.1344416127459764 67 86 32
10.634158630925556 -1.7556794198536085 2.1852376776574687 66 85 29
11.015514318639019 -2.1509203721269867 1.9551732578567518 67 86 32
12.146859639570126 -2.659815894297328 1.7471130663380454 65 87 36
12.212093137385562 -2.617992476714458 2.0043802553627494 67 89 38
11.94677131398324 -2.7367545202377617 1.8359390129892355 64 87 33
10.793113801986406 -2.228497196477831 1.5828983415717957 67 86 33
12.119432699990782 -2.3594791231820755 1.5815738744125383 69 88 35
11.256792311436886 -2.2895454910627357 2.0440441025210827 68 89 36
11.870553687857731 -2.3599130672185424 2.017742434211683 68 89 35
12.159090677392408 -2.4215535336106417 1.917409289847991 69 90 37
12.327046404998415 -2.5433584145148718 1.9124923642082918 68 89 36
12.840931209056551 -2.588596943727359 1.8170781858757374 66 87 34
11.000625731299536 -2.228497196477831 1.765709422056584 67 86 33
12.335772181953702 -2.3599130672185424 2.090909831395223 68 90 39
14.590316541797428 -2.36714954847264 2.8899017954621233 65 92 37
14.49827994837878 -2.7154392467890602 2.703746814427303 72 101 52
14.654854138472832 -1.9945579830769786 2.8733103097176746 65 88 33
15.00513556242964 -2.364080359538758 2.7984994055200243 67 93 39
15.60587827306964 -2.577525429032079 2.703276218757986 69 98 47
14.445852867738875 -2.1319905488229836 2.9322993287428396 64 90 35
15.075366669398925 -2.63666306702498 2.7856873955118395 70 98 47
13.985192315256844 -1.9090340576196547 2.790199664709415 66 88 37
14.351827323435003 -2.240752500808343 2.726078623187295 66 91 37
15.538045234325123 -2.362354529919085 2.7126845680933567 67 93 41
15.27675578081804 -2.872931645307031 2.751765796044149 72 101 53
14.590316541797428 -2.36714954847264 2.8899017954621233 65 92 37
15.075366669398925 -2.63666306702498 2.7856873955118395 70 98 47
14.698878605704937 -2.146620523997249 2.675447079832803 65 90 36
14.106398318138778 -2.2633793440856627 2.6059427460888966 67 92 38
12.421931928471771 -2.2093187134827605 2.2843665004037943 67 89 34
13.488287009124434 -2.8827661513493865 2.3143788947298947 67 95 46
13.596592502728512 -2.9062545253118826 2.211786275691537 63 92 41
13.067315742543295 -2.788126956126002 2.242358959888021 64 90 39
13.44564029496916 -2.9971869573704626 2.2201888833216135 66 95 45
13.25474186697191 -2.8191121521874503 2.1388199880307788 64 90 37
13.711891597590386 -2.788126956126002 2.2994828257289304 65 92 41
13.488287009124434 -2.8827661513493865 2.3143788947298947 67 95 46
13.148682756300856 -2.705439127492476 2.4503684235189365 67 96 45
12.91533094745499 -2.8188240121591654 2.4725032515568204 72 101 50
13.556189239738904 -2.7367545202377617 2.1246919908506703 64 88 35
12.430992187892853 -2.5114454646233075 2.283735671490592 66 91 39
12.674468578421205 -2.6556467873882297 2.2672425589185323 65 90 38
13.336108941402665 -2.982381856232243 2.3249246868173787 67 96 50
14.536083798376028 -2.5387523902341522 2.558052685879703 67 93 41
14.912906932421002 -2.773942824334158 2.6476840519729885 72 100 54
14.255372581937493 -2.6489882047622455 2.588588446063975 68 96 45
12.302455895074688 -2.430767026261828 2.1890452262414457 68 91 37
12.907813583988883 -2.430767026261828 2.252219127797721 69 92 38
12.345727188202392 -2.360479124072332 2.289722873726757 69 90 39
19.122279651821106 -1.8138489378922313 1.525316155687135 56 64 18
23.609397553051984 -1.989932799351919 1.6187030053697664 25 33 3
13.419007652601932 -2.79561538834393 1.5059633572887514 61 82 29
13.396462992130958 -2.8675692693664696 1.354934095934178 59 82 30
13.438460749583236 -2.79561538834393 1.6550286903567155 63 85 36
12.902698955960954 -2.695873810963965 1.6585351122414211 63 85 34
13.02648411121472 -2.9425508301134196 1.735094776113031 65 90 38
12.523495190981876 -2.8452509586720383 1.823455258627343 62 88 36
13.16663938657265 -2.8452509586720383 1.9710671657074026 62 88 36
12.868846240288004 -3.0198666365123232 1.737126012306529 65 91 39
12.774827718953258 -3.0094875468692366 1.9840804744326275 66 94 45
12.278267265986326 -2.925895524216563 1.8286151463490274 64 92 41
13.438460749583236 -2.79561538834393 1.6550286903567155 63 85 36
12.8101195258786 -2.8452509586720383 1.899112280531946 63 88 34
18.895100890610053 -2.3201059164703812 1.3645549005095128 53 59 35
17.863736351160494 1.0765617114308124 2.8541089116333067 46 67 17
18.350818370722138 2.5880682201275618 2.7748683441013937 59 83 33
18.18885976686796 2.7276652052195804 2.7987982353024825 61 86 38
22.051506950957915 1.4538935472112802 1.205887839230825 55 75 38
21.55450644371513 1.4059882802452008 1.2950093086066934 56 77 40
22.25846443911223 1.3482887698355595 1.1114088454543132 58 78 41
22.8010994650952 1.6014839076589416 1.0232873530053994 48 65 19
22.341497307472434 1.4906278586416026 0.901045962586502 44 60 18
21.38400382178982 1.3783141720582948 0.9823623771988796 47 63 24
21.863742916703174 1.4988375761442339 1.1024579930468037 51 69 30
22.184634951427327 1.5463364644800628 0.8362426350407118 41 56 9
22.505917430277783 1.54898576196618 0.9620709303455814 46 63 21
21.65709848917589 1.4258410812353581 0.8757666140202347 42 57 12
13.028190591052681 0.12725740435777474 2.060727731265166 0 4 7
12.623542361244782 -0.05196316134334373 2.17106769712911 52 62 64
13.886353411116755 0.29452409251895767 2.1100527044290183 10 15 19
12.620290686136617 0.04409064650085823 2.171244081392934 6 13 15
11.599718420391811 1.4489946031456338 1.6684205170517192 44 64 13
14.79778553852602 0.9380799220548593 1.8536920016099185 0 5 0
11.954199828372065 1.2821459213859001 1.5817228492964353 46 61 7
11.577176101920411 1.4489946031456338 1.4956308506335225 45 62 15
11.49894248217484 1.5356710961420605 1.4951184834413953 45 63 10
11.332221476047048 1.4374805193182838 1.9438940770317417 44 65 10
11.625795433135037 1.622877475707919 1.4092989392566744 45 63 10
10.76834390739704 1.528252402717527 2.0674128370070255 48 67 13
14.678774320607673 0.7883827062169336 2.0016556157235916 21 26 25
15.13217649913133 0.8518942732262013 2.304298258843962 23 31 25
15.080261153199269 0.6706307256745243 2.221150071650604 23 29 27
16.049526824237446 0.7891859879435356 2.427707760256859 3 7 3
13.555169324759847 0.35250506570064416 2.309850529393934 24 29 26
17.197958053544262 1.1561785294919475 2.787431739973197 46 67 17
17.077973364586754 0.9189590409598688 2.806949243029618 52 74 25
16.907153691707624 1.0765617114308124 2.8373377015769266 50 72 22
14.2182859159834 1.9594024563849302 3.0304855113677607 62 87 33
15.206124198621874 1.3015058602498288 3.041895016340068 60 85 31
15.14935541866243 2.486456269115016 3.091847631406245 63 88 32
15.206124198621874 1.3015058602498288 3.041895016340068 60 85 31
12.705743051458908 -0.14706960201201066 2.1666457267366224 45 56 58
9.959900456609173 -0.6169021763534308 2.2338543166356786 57 75 23
9.819329401933162 -1.386893947407459 2.24508463958641 64 83 29
9.43753407120989 -1.1916788253211061 1.7985191661785025 58 74 21
10.07916218158769 -1.1916788253211061 1.9930501098984812 58 74 22
10.128484885627863 -0.5829819572866473 1.6826567427624315 46 64 22
13.588331308650694 -0.8133816421970054 2.8813031242799263 60 83 26
13.671850796827023 -1.1936425561547384 2.8592751918013892 61 83 25
14.362914803388032 -1.4136389269346303 2.961496270041667 64 87 31
13.60566705179088 -1.4575692426422056 2.876561223290091 63 86 27
12.014871033452541 -0.580179638729599 2.5739542728382094 56 76 21
10.386295397585574 -1.5174506368031495 2.3275169980602914 66 85 31
13.588331308650694 -0.8133816421970054 2.8813031242799263 60 83 26
12.025991323430087 -0.3306582610110906 2.432941072927668 47 68 18
10.779309171444838 -0.8993842011396579 2.4253528227122154 59 78 25
11.599646445645883 -0.6773545859568576 2.6328456739069273 59 79 24
10.766464125076153 -0.6989640938804842 2.426724549683139 60 79 27
12.041775826775636 1.8749854489629352 1.4985360698469947 45 64 11
10.792627010378267 1.7223494506130317 1.769515588868554 46 65 11
13.008376799910693 2.5282860296044594 1.6578205249943347 50 67 14
13.842185667580088 2.594225284322093 2.029619816520028 51 73 22
10.12374500278779 2.068625620499797 1.8851847161477966 51 70 18
10.090793477098387 1.7380881919154463 1.8862467535324308 48 67 14
10.341770929375576 1.9342141637108292 1.7783026353489997 48 67 14
12.967660196740038 1.813237402722209 2.602814889116707 54 76 25
13.072408541087594 2.518534589537046 2.3440461599341575 60 86 36
13.143620032341785 2.6244308730929684 2.1442248166848557 60 84 34
14.081645304451085 2.7433169873483885 2.186325918621092 64 89 41
14.015200747434655 2.6631412453869636 2.378686075550971 64 90 42
14.015200747434655 2.6631412453869636 2.378686075550971 64 90 42
13.364919507972678 3.098310926090586 2.2247825692122056 68 96 51
13.32687313162002 2.990730734642801 2.3255758671317754 63 90 44
13.58149122767743 2.913591939601885 2.2126161039346077 66 92 44
13.729819253524344 2.759080122650594 2.400683111130386 62 88 40
15.604225522488795 -3.0597665459587495 2.7035022410571985 71 100 55
13.987035283874336 2.80139403324527 1.8705840710559716 60 85 37
14.314272126136755 2.80139403324527 1.9373782445767234 63 89 40
12.693074430782389 -3.094974156431192 1.9869067775931497 66 95 50
14.085661901398534 3.026291560294635 2.0210989321436186 52 79 32
13.483372186491602 2.9488199467623275 1.8821513873100784 60 85 36
14.325717284838042 2.774535716216161 2.091798120284085 59 85 37
22.426657527760554 -1.9852722122328073 1.2594878938485836 42 52 7
19.481461050257664 -2.7151250199521506 1.2104360686286662 43 54 14
18.061716980170786 -2.317118702389407 1.2398240132447524 53 60 26
12.534142035648111 -2.4215535336106417 1.992517230632662 69 90 38
12.227298619520278 -2.2432645126510495 1.4996343316996168 67 86 35
12.744683263671483 -2.8191121521874503 2.0726291175809513 64 90 38
11.218567539360633 -2.101348313696715 1.403382283150533 65 82 31
10.666445825670785 -1.9313525681687616 1.8686836744869044 64 84 28
12.504681258561632 -2.588596943727359 1.66133533030642 66 87 34
12.651824375990905 -2.659815894297328 1.9033774131285366 65 87 36
12.503794094104125 -2.9062545253118826 2.0832307171689064 62 91 40
12.619342525112504 -2.7367545202377617 1.9894902648028965 65 88 34
10.167778672108936 -1.7366752920961719 1.8837768088823021 64 83 27
11.959206989857067 -2.4912013577026815 2.0141924516554215 67 88 35
12.257832859371561 -2.475605475453609 1.6631637571007991 66 87 34
11.851990071813578 -2.2977850852301995 1.8381111468120468 68 89 36
12.60067170216688 -2.475605475453609 1.8218743050579616 69 88 35
11.111915821075359 -1.9694289078634242 2.155215939814673 67 86 31
14.797277504101979 -2.2036500968771384 2.8402773512079262 65 89 36
14.928055284043836 -1.9090340576196547 2.8132593674427757 65 88 34
14.975036025957952 -2.2633793440856627 2.640032740771325 67 92 38
14.70653617291023 -2.577525429032079 2.6744132300406993 68 97 48
14.801081328853504 -2.5266057416076517 2.8394515030903866 67 93 40
15.4097810474488 -2.7154392467890602 2.7312645974904637 71 100 50
12.796062469643807 -2.8542127401569313 2.3653469151938475 69 98 47
13.25474186697191 -2.8191121521874503 2.1388199880307788 64 90 37
12.468480581858854 -2.5690887050140296 2.179605838689583 66 90 38
13.527765713368073 -2.8542127401569313 2.417160282170985 71 99 51
12.01863062215901 -2.6028549195487676 2.3137972596833234 66 91 39
14.912906932421002 -2.773942824334158 2.6476840519729885 72 100 54
12.943921073760691 -2.4912013577026815 2.154220909187117 68 89 36
22.111836897625608 -2.02732871526029 1.3948991340114978 43 53 9
13.419007652601932 -2.79561538834393 1.5059633572887514 61 82 29
12.691916428131517 -3.0198666365123232 1.5810877229588576 62 87 35
13.257879658651468 -2.8675692693664696 1.7322018093926301 64 86 35
12.933611560290936 -2.925895524216563 1.9787028889341982 63 92 41
12.523495190981876 -2.8452509586720383 1.823455258627343 62 88 36
18.07091207332228 2.49656812898534 2.817582336399425 59 83 33
17.906421973842228 2.6504430053942905 2.846153550368836 61 86 36
21.714745894826752 1.4538935472112802 1.2489205693239762 55 76 39
22.54598961378704 1.4949538158349396 0.9633092527635523 47 65 24
14.05010359757444 0.44649871062559854 2.022322765292457 35 40 42
12.51217824168112 0.040228319977616826 1.9933049064440052 10 15 16
14.628795166621765 0.5414480046149495 1.7169615212948781 22 27 27
14.192812030353702 0.6220601865526058 2.017452444970826 22 29 25
11.900421260931854 1.3641148236971508 1.7508038337426015 46 64 7
14.664068490957849 0.9548664756776172 2.078605966432379 7 15 9
15.080261153199269 0.6706307256745243 2.221150071650604 23 29 27
14.661250402830039 0.6553493438496327 2.333638733506921 14 24 22
13.844151497269722 0.4428140122469613 2.290987918516993 7 10 9
13.844151497269722 0.4428140122469613 2.290987918516993 7 10 9
12.555454732876115 0.06191972424107545 2.5096299556611035 47 62 40
12.558723195168211 -0.07295779732962404 2.5092745639516663 52 75 24
16.907153691707624 1.0765617114308124 2.8373377015769266 50 72 22
15.340756178032654 1.8091026945022237 2.9758844696313296 60 85 32
14.210365246846585 -0.3681399398154782 3.035598703992858 58 82 27
13.5751208669779 -0.15768545246111618 2.8849823985422143 57 80 25
15.212523947636102 1.9594024563849302 3.037774220738111 62 87 33
15.142928973202924 0.850639773680302 3.101262074482051 63 88 32
9.49597416925784 -1.5236865946869078 2.0208189870163595 66 85 29
10.12788153043145 -1.0423536260532233 2.102013624187555 58 74 22
13.34230545829871 -1.4982544561303972 2.712117322995438 63 86 28
12.468126841355813 -0.2778587944716418 2.674154391342301 54 77 21
12.630766868076226 -0.4396322586458989 2.6492551512711455 54 77 21
12.503907823323583 -0.18138355488341146 2.389441595709711 46 62 43
14.226943052508378 -1.9405832596813661 3.0251584944264382 65 89 33
13.687661992416745 2.4679407751205855 1.4337937058354469 49 67 14
10.615313683304839 2.1553561665721475 1.8701628877173997 50 69 17
10.444392919945198 1.7380881919154463 1.9773936801265415 48 67 14
10.730652248077277 2.0232054937010693 1.7706787760693967 47 66 13
13.045311322863702 2.7956758373398856 2.2437003201909236 64 90 42
13.52891363013377 2.7433169873483885 2.125939384548266 63 89 41
12.662713650617928 2.990730734642801 2.268019093454673 65 93 47
13.254721129086438 3.093807700175769 2.330708232592183 69 97 51
12.681360170179342 1.7817599106525512 2.496191826912969 53 74 23
13.254721129086438 3.093807700175769 2.330708232592183 69 97 51
12.259009722813872 2.4370052059916567 2.191568243148085 57 80 29
14.194802243996028 2.610853245087005 2.4720944354717993 58 84 35
12.985034024139361 2.3667926777781467 2.35063471971461 57 80 28
13.775753332668991 2.732677333415991 1.6529615895498355 61 81 31
12.322861195218897 -3.094974156431192 1.9126131548487766 64 92 44
14.19124559550319 2.892491253916365 1.721502042258966 60 85 33
13.363840546689625 2.80139403324527 1.580570262180461 61 84 35
13.770900688863936 3.1078519667727815 1.7261389998196268 66 92 44
13.722040320967155 3.0347042785987752 1.653283944023685 60 85 35
10.89107697645354 -1.8123859536761635 1.4908858894874206 65 84 30
12.664771978402513 -2.617992476714458 2.076094470771179 68 90 39
10.680839163445505 -2.1509203721269867 1.8682699612552018 67 86 33
10.651069304438776 -2.0198174817229106 1.6771470901606573 64 86 29
12.3394806213308 -2.9971869573704626 2.0907377200078407 66 95 46
10.829589165853738 -1.866010853756561 2.1725616745083993 67 86 30
12.744683263671483 -2.8191121521874503 2.0726291175809513 64 90 38
14.590316541797428 -2.36714954847264 2.8899017954621233 65 92 37
14.801081328853504 -2.5266057416076517 2.8394515030903866 67 93 40
14.590316541797428 -2.36714954847264 2.8899017954621233 65 92 37
14.134365065619583 -2.090349811309335 2.7624576928524798 65 90 38
14.445852867738875 -2.1319905488229836 2.9322993287428396 64 90 35
14.341118814035186 -1.8514604787631121 2.72777430134911 65 87 33
13.031550156085867 -2.750889850380887 2.3471108237920477 66 94 42
14.486626955636089 -2.009128779994912 2.7054682195837447 66 88 37
15.275757426732687 -2.4852645949016035 2.7519248996341705 69 95 43
13.37603679915026 -2.964229662753338 2.4300730422807217 70 99 54
12.832484403721867 -2.8827661513493865 2.256989202035973 64 93 42
12.78966750897476 -2.6996494769992734 2.162203040037677 65 90 38
12.297879251331288 -2.2895454910627357 2.1893099491285186 68 89 36
19.279087529307848 -1.7624354764768182 1.3687201125226411 54 68 22
13.114407407009834 -2.8675692693664696 1.5044553341453444 61 86 34
12.407054153995883 -3.0094875468692366 1.9101998869951597 67 93 42
22.357987731036282 1.3588338479561661 1.2111192841973875 56 77 40
14.664068490957849 0.9548664756776172 2.078605966432379 7 15 9
12.438956515111098 0.048772735451381194 2.2831821902890796 0 6 8
13.671609115315897 0.2123951044519707 2.119478990900673 3 8 10
10.690468936003619 1.6278467211233953 1.7714403209474037 45 64 10
14.742924695778578 0.6827097698350467 1.9996564240581791 26 30 27
17.589213108734896 0.8921028732389875 2.731475947191653 55 75 31
16.867101578113346 0.9439347050516681 2.5639677699763883 57 71 40
9.784331823342203 -1.528617986342279 1.7903129461492897 64 83 27
10.558761515860182 -1.627403412939285 1.5831669600018017 63 79 27
14.283436743037022 -0.8323717441046958 2.995179916191272 61 85 29
14.42562476761041 -1.0664162636368508 2.9390070302610143 62 85 28
12.996541428948529 -0.33669706159502416 2.774493930920117 55 78 22
10.228554658014708 1.868709791195431 2.0962404710348963 52 71 19
13.257817201689171 -3.0852780349857665 2.3304863380333085 68 97 52
12.784440845394588 -3.0905823784707103 2.1624776335438693 71 100 54
13.977098884805498 2.706660884778328 2.2826724372484364 63 89 41
13.294893416839123 3.088259574871859 2.4371814249921844 67 96 51
13.797638175569185 2.8260961151194075 2.200958597777655 65 90 42
13.90245715086897 2.6334409666183323 1.8724651077272045 43 64 14
13.63880802574029 2.6334409666183323 1.8023985948200987 49 70 20
13.806579230354368 2.7016521046514197 1.951535214577325 47 70 21
13.773880735874986 -3.1018233112899223 1.72610511777631 65 90 40
12.319530157156029 3.1020388920612483 1.9127093553417358 59 86 41
16.94791229514003 -2.2645007921705926 1.0879209833554122 46 57 20
12.30459710462337 -2.3594791231820755 1.7448295381939705 68 89 36
11.171849865645553 -1.8996723114087641 1.4928983375846108 65 84 30
14.110388388698658 -2.4600075577202727 2.605466508773424 68 94 43
14.978794709477526 -2.4600075577202727 2.63957529877433 69 95 42
15.4097810474488 -2.7154392467890602 2.7312645974904637 71 100 50
12.672433516424938 -2.982381856232243 2.2673768566055124 65 95 46
13.026058892630179 -2.360479124072332 2.347524877949804 68 92 38
12.297879251331288 -2.2895454910627357 2.1893099491285186 68 89 36
14.463234258749898 -2.361248458060655 2.5657262149199953 66 93 38
22.34283777976476 1.5023435432365013 1.1625856198309004 52 72 32
21.790714610961626 1.3669320173979893 0.8808686387694944 43 58 18
22.082434442350596 1.3976829723793658 1.107461593843453 55 75 37
15.087725156184336 0.9067500556830114 2.2207737708714514 26 33 29
17.365917467786716 1.0134077716271326 2.7621366686029645 49 70 20
14.146701105285054 -0.930993286412366 3.093900068935002 62 87 32
13.283481574037049 0.1393396171722322 2.2294903967360407 7 15 17
9.408663641957116 -1.2965750634365314 1.9100013318909808 62 79 24
13.89950577062878 -1.4823554554335139 2.8074205330357396 63 85 28
9.67368053981644 -0.7960885291633772 1.9003512523222585 51 69 19
13.692057184943831 3.0164489598556345 2.118566322985467 54 81 35
13.473064340481 2.8907755115040246 2.315418501685164 63 89 42
13.566393404288123 2.8517380019214453 2.039687265321236 63 88 40
18.48158368441662 -2.2790277415146982 1.3041764365250161 55 61 36
12.851724684346047 -2.9425508301134196 1.5809597473678463 62 87 35
12.716474059292077 -2.6028549195487676 2.3717420968439824 67 93 41
14.797277504101979 -2.2036500968771384 2.8402773512079262 65 89 36
12.63561577737116 -2.7683840278611886 1.7402255961692363 65 87 35
10.973063130202208 -2.064584565947135 2.057329919558869 67 86 32
13.067315742543295 -2.788126956126002 2.242358959888021 64 90 39
11.475259491209925 1.622877475707919 1.582178906422301 45 64 11
17.077973364586754 0.9189590409598688 2.806949243029618 52 74 25
14.194802243996028 2.610853245087005 2.4720944354717993 58 84 35
10.56834372772083 1.7574323225953448 2.189638375003319 51 70 19
13.106898841610212 -2.5114454646233075 2.341481077811485 67 92 40
14.49827994837878 -2.7154392467890602 2.703746814427303 72 101 52
11.60237137982325 1.7093000867857377 1.4957943842760764 45 64 11
17.03047570011439 0.9725011656074424 2.6647390889500624 55 71 32
13.890623429784009 2.6659180167408687 2.1098687587054687 58 82 33
13.835192036323273 2.570039986300961 1.6526078000518483 50 70 19
16.44935258269907 0.8742152349199915 2.6041833552499565 52 65 38
13.83438994723718 2.932659100756243 2.112301947456741 56 83 35
21.689969229473718 1.388505944012819 1.0458980819326706 51 71 32
22.184634951427327 1.5463364644800628 0.8362426350407118 41 56 9
