8.811001017938075 0.26229747374499096 2.1014707811771016 56 70 32
8.594996116759875 0.3013677116071304 2.259039603019185 56 71 33
9.260444911611131 0.5595545297797654 2.201282672072084 54 68 27
9.033097942840083 0.49589922310945417 1.9638026810165452 56 68 26
9.087061119803224 0.38458281462836746 2.0837347634699093 53 67 28
8.877775571845174 0.4381990653776114 2.2331178878354967 56 70 31
8.766941108725186 0.6649554677008263 1.976422125963646 51 66 27
8.241256915478488 0.5595545297797654 2.003981365075348 47 64 23
8.708448642206788 0.5595545297797654 2.108395451315961 53 68 29
7.366863640963505 1.2470095374338743 1.6331945690527288 46 61 23
7.1128149846970095 1.380974562064893 1.6354263036507928 46 61 23
7.779739665163511 0.9423165828088548 1.8924400353166144 46 61 22
6.867842707989094 1.197372868370737 1.937029506607249 49 64 25
6.594597831836239 1.3501331157653595 1.9529705925156533 49 64 25
8.378716617462258 0.8411505280366576 1.8687107994940508 49 64 25
9.642296439131794 0.5077006207230194 2.4553155565294746 57 72 34
9.499277792495992 0.741045503081537 2.4739085593431556 56 71 33
7.45973874071351 1.5140324617339629 2.211541781476141 54 70 35
7.963726063523742 0.853094397906284 2.165135826029755 53 68 29
8.563859820307583 0.853094397906284 2.2620333096358634 54 69 31
8.165986209501042 1.0608426660112131 2.14848861776383 53 68 29
8.479467638529577 1.1309164304969075 2.436833015398501 57 73 37
8.157468089844476 1.502644624667994 2.484606555890236 58 75 43
8.165986209501042 1.0608426660112131 2.14848861776383 53 68 29
9.66838919816139 1.4002902132272845 2.9332851195475005 63 84 53
10.89741243094867 0.7000323253311184 2.857099729743461 66 87 56
10.89741243094867 0.7000323253311184 2.857099729743461 66 87 56
9.920619463725915 1.457074398930268 2.835462947194352 63 82 54
7.153827218107051 2.120820916984973 1.7762384944267375 37 51 28
6.366657652376854 1.8420952634314718 1.802075153536441 45 59 29
6.490888596149201 1.6810139214490416 1.9594009456974117 47 62 27
7.63482915877379 1.8420952634314718 2.194547347807527 48 62 35
8.934769949178989 2.205598312902913 2.3788571987800786 38 54 34
8.177147591844674 1.7029523243199904 2.4814925373494585 55 72 40
7.48125385090509 1.6810139214490416 2.2093989468573456 52 66 36
10.036269107685426 2.3156278700988637 2.573411437049338 55 74 45
9.147929110102144 2.5660440500163615 1.511664465239526 45 59 52
8.135016635854784 2.6040446118755276 1.877922305444438 47 62 50
8.80984251759063 2.529923515521702 2.2391454032113156 44 60 41
8.83475526389162 2.853962182893027 2.236920879005951 57 75 52
8.925115264496716 2.3295705205403854 1.9688237475956383 42 57 47
10.39242732016691 1.9669527976001124 2.7146080451010413 56 75 43
10.598301878458257 2.1611923053950783 2.6737371011940776 52 73 42
10.052940104666792 2.080583481262276 2.796241618899338 62 81 53
10.265625253728983 2.3012452566324297 2.7426230468004187 58 77 49
10.56903585725673 2.4599134659217854 2.679247470894094 60 79 50
9.804114640857907 2.2711003098912137 2.875622184677351 64 84 58
10.022081669646512 2.5041505480297097 2.8049044151727656 66 88 60
10.332646229066633 2.6477976496461304 2.7275076432096794 64 83 55
9.804114640857907 2.2711003098912137 2.875622184677351 64 84 58
8.928101365594404 -0.23872911703741267 1.8498699035737434 49 59 21
8.694416352360626 -0.003541010541783636 1.8575803150566608 40 53 16
8.755109071351553 -0.12283404432519689 1.8555365100020274 49 60 22
8.694416352360626 -0.003541010541783636 1.8575803150566608 40 53 16
8.748360793036 0.11585241352603422 1.855762294302968 40 51 14
8.072964017778357 -0.3914777621874302 1.7525695741639333 50 60 23
8.171538158397167 0.13146712267655108 2.007930829948447 48 62 23
8.897710602309413 -0.44581075543212534 2.231371888427218 59 71 34
8.587890149753816 -0.004023480040596123 2.1167856961814904 57 69 29
8.649330399938775 -0.1393674179639678 2.1124752560916567 55 66 28
8.321688035213654 -0.44581075543212534 2.136339604030163 55 69 31
8.113759610513943 -0.004023480040596123 2.011260987957047 53 63 23
8.82439660885499 -0.2697881886133581 2.1005802054725047 54 66 28
8.72642936042238 -0.5021033527596664 1.8564985929083349 54 65 26
8.498929766471218 -0.5021033527596664 1.7433650828549332 53 64 23
9.01614475917933 -0.6007851299865484 1.7333746810232433 55 66 29
9.513800557478636 -0.6877397805294508 1.5139409970981683 50 63 32
8.869688977834768 -0.7603612051856616 1.7360836750125563 49 63 26
9.590315692692092 -0.8369843694015805 1.4094540560363915 50 64 34
6.252839081115945 -1.4592728338945644 2.632330287563004 62 84 52
6.6674644633751425 -0.9132650962938935 2.5301299029710576 64 84 48
8.43642321716942 0.17979798598987504 2.4428537363403744 59 74 37
7.877333779612323 -0.7368022012017933 2.53220011606745 64 82 47
7.603431341598993 -0.6094936872943577 2.3717431688136594 64 81 44
8.380471099064875 -0.005530580480459136 2.4508386911368376 61 76 39
6.779210841852888 -1.4051603608447893 2.8331977154159347 67 91 64
8.43642321716942 0.17979798598987504 2.4428537363403744 59 74 37
6.779210841852888 -1.4051603608447893 2.8331977154159347 67 91 64
8.61928756438615 -1.017759148859315 1.8601518664134764 55 70 31
9.65781722427869 -0.9839800384472084 1.5147897139546211 49 64 27
8.420902675636091 -0.8460388431152989 1.8671729254542473 51 66 27
9.152994187947698 -1.5332404471094148 1.730922763844344 51 70 48
9.646406098007438 -1.3173004890452316 1.828595523082854 50 66 49
8.000720232923497 -0.8589415359530119 2.1620140407020045 57 75 42
8.109950982373439 -0.7555345570035827 2.0114823560109127 58 73 37
8.039341266575562 -0.6465001106032047 2.1587924908738625 59 74 38
7.412992992202611 -0.7484035497808091 2.216252417743654 59 76 39
8.969453697613055 -1.127319565174621 2.0911352291535805 57 74 40
8.516591890339306 -1.127319565174621 1.989080475168624 56 72 36
8.243404448500016 -1.3522260053849944 2.2946441847378876 57 77 49
8.46358433523112 -1.200704203368368 2.2718766959782606 59 77 48
8.295385462141871 -1.3105534219185424 2.463342157385714 57 76 46
8.937140432407958 -1.3522260053849944 2.37857969648259 56 77 45
8.84501615451437 -1.4055244757150867 1.9726345213967555 55 74 45
8.90697665577925 -1.5225700007865122 2.2305637893053527 58 78 47
9.050572007980485 -1.2873092345857569 1.9630023906799392 53 69 39
10.407210940753322 -0.006805086072292313 2.7114965025788167 63 83 48
10.671081971465217 -1.249396235274628 1.707986637859103 48 65 66
10.308961409214751 -1.3416544252252647 1.6153724246616377 48 65 62
10.152835816981232 -1.5369819661280038 1.418465157179866 51 67 59
8.795773363900155 -3.135256910993473 2.5831178121518343 65 88 62
6.278491353526829 -1.7855298920827154 2.6250605573560652 60 83 53
8.855771463410845 -2.924189249103135 2.5723670453946137 65 88 61
9.026834847011896 -2.7309013984638644 2.5434025693886833 64 87 61
9.274804219885876 -2.8674379441960567 2.719129769355107 74 97 70
6.802878562805307 -1.8855323728783981 2.822457268977955 67 91 64
7.559025056463356 -2.141369246259838 2.9790430879780296 70 94 67
8.84909995005306 2.9363031035647453 2.5735463596814294 68 88 60
8.84909995005306 2.9363031035647453 2.5735463596814294 68 88 60
7.630259545353833 -1.8027928334985248 1.8989750169924133 59 80 48
8.583857802146929 -1.8907769717521112 1.741640806021929 57 78 50
8.05884686083515 -2.050917108537021 1.7528915606444335 54 77 49
7.203190514162883 -2.1164444424583935 1.7748106684072018 55 78 52
7.653965054881913 -2.1999681863296 2.192749449818737 57 80 53
7.528470555064894 -1.6799429372886439 2.2047509627174984 55 77 45
7.68110187411021 -1.8395646077336119 2.190219117587423 55 78 47
7.452353451255782 -1.7014181795389556 2.3928882947830203 56 76 48
8.350863909892528 -1.6645142642910087 2.1341236786028928 58 79 47
7.792222540994903 -1.961723840900175 2.548028303167503 55 78 51
8.064749793413887 -2.1543834916165974 2.499659935491936 55 78 52
8.231909937997292 -2.428700104895267 2.2958790785440195 60 82 63
7.866160834607639 -3.008002509337806 1.757403940092116 62 82 62
8.588848814832199 -3.1363761335936426 2.4219874480128407 65 85 59
8.643452135632964 2.9718041138326607 2.414808298501096 61 81 56
8.56909762350514 -2.714725581512201 2.1181187394388297 58 78 59
8.588848814832199 -3.1363761335936426 2.4219874480128407 65 85 59
7.7116670470281745 -2.415170335381843 1.7611877623443002 55 78 64
8.778021628198141 -2.657363440528905 1.7378258883731579 58 80 57
9.971755568780837 -0.9839800384472084 1.3131745814909614 50 64 31
8.422618013232249 0.6649554677008263 1.867110734740863 41 58 19
7.269512112906802 1.0608426660112131 1.9159214928564077 49 64 25
6.594597831836239 1.3501331157653595 1.9529705925156533 49 64 25
6.466079002427938 1.5140324617339629 1.960972366833079 48 63 25
8.378716617462258 0.8411505280366576 1.8687107994940508 49 64 25
8.151264408958264 0.9423165828088548 2.0090933720241955 51 66 27
8.259711165340507 1.307601283092794 2.468720300055716 58 75 41
8.608959144758954 0.35354608286809375 2.419325970694855 58 73 35
8.103156923314447 0.9792331244346231 2.310047967629806 56 71 33
8.421612083370542 1.197372868370737 2.2760912773021276 54 70 32
8.200305310459665 1.3501331157653595 2.299299371370468 53 70 34
8.89129452965441 0.5077006207230194 2.3839874576105586 55 70 31
11.121804644351931 0.9037185462561929 2.7947162526424068 59 78 48
10.955181223928175 1.1472260128592782 2.839590387947153 60 79 50
7.153827218107051 2.120820916984973 1.7762384944267375 37 51 28
9.650357117580148 2.435997100317941 2.454296441536001 52 71 47
8.548396295373946 2.7220969668054438 2.1195952309616817 47 64 50
9.650357117580148 2.435997100317941 2.454296441536001 52 71 47
8.73114018554856 2.3240453094415865 2.2462827485300445 36 52 36
7.847922956791843 2.0622891318868755 2.3401159435343937 49 66 36
8.893930725031813 2.917882971716577 1.6224703978069688 53 71 53
8.317884336824564 1.8932538039346323 2.4599922347172054 52 69 39
7.022555731602248 1.665303614125932 1.49373687223907 45 61 17
7.48125385090509 1.6810139214490416 2.2093989468573456 52 66 36
9.684999059840125 1.8943294379214353 2.925321420132855 62 82 56
10.022081669646512 2.5041505480297097 2.8049044151727656 66 88 60
10.022081669646512 2.5041505480297097 2.8049044151727656 66 88 60
9.936807719083514 1.789665449592334 2.830349903924262 66 85 57
10.280130762931535 1.7356958931892503 2.7392892263883253 62 81 49
8.528374560502781 -0.12283404432519689 1.7427633233255737 43 54 17
8.466056549608242 -0.003541010541783636 1.7440419293165212 39 50 12
8.70587340749321 -0.23872911703741267 1.739223296287864 47 58 21
8.466056549608242 -0.003541010541783636 1.7440419293165212 39 50 12
8.363684194381097 -0.2697881886133581 1.9972220905626916 51 64 24
7.831457689880399 -0.44581075543212534 2.0283211811023816 55 66 28
9.102295292793734 0.15190924269456432 2.359787859050509 57 72 34
8.429183571160172 -0.1609993766882256 2.2753267761850022 58 71 35
8.660847097507645 -0.3914777621874302 1.9816886847344783 53 63 23
8.608727828162703 -0.30984069619345084 2.257728526654505 58 72 34
8.178762385610293 -0.1393674179639678 2.007518121411346 52 63 24
9.102295292793734 0.15190924269456432 2.359787859050509 57 72 34
8.587890149753816 -0.004023480040596123 2.1167856961814904 57 69 29
8.45760519458602 -0.6706988903526546 1.86584801079807 53 65 25
8.90910231793561 -0.6007851299865484 1.622382322185412 51 62 27
8.498929766471218 -0.5021033527596664 1.7433650828549332 53 64 23
7.9039247519458335 -0.5662179297950579 1.8872091601944447 47 61 21
7.2591529588087536 -1.1545545081387196 2.667759441502897 63 84 51
8.622668619887607 -0.3632462525013358 2.4175232978800096 62 78 41
8.622668619887607 -0.3632462525013358 2.4175232978800096 62 78 41
9.13858046124154 -1.075342465152719 1.6210858432534312 49 64 30
8.61928756438615 -1.017759148859315 1.8601518664134764 55 70 31
9.936382314791175 -1.216577584755845 1.8209085880704454 48 63 48
8.956052720066635 -1.017759148859315 1.9673717345081618 57 73 35
8.937140432407958 -1.3522260053849944 2.37857969648259 56 77 45
8.46358433523112 -1.200704203368368 2.2718766959782606 59 77 48
8.647112624200332 -1.2495458276079616 2.1126295884109156 58 75 44
6.875603406569148 -0.8787986719817013 2.2765140996768984 61 78 42
11.975389844940832 0.2828323670191528 2.8469669646558367 64 85 54
9.217534061458435 -3.1335262453181043 2.7331710164594343 67 90 64
9.274804219885876 -2.8674379441960567 2.719129769355107 74 97 70
8.521974201513604 -2.5652089844251433 2.4309881328951732 62 85 60
9.026834847011896 -2.7309013984638644 2.5434025693886833 64 87 61
7.885460428307562 -2.0573905680605544 2.3355164992431394 58 79 53
8.008721679300296 -1.8027928334985248 2.0174520021933975 59 81 48
8.447582277335307 -2.308274293848856 2.4412828653930094 58 81 61
8.350863909892528 -1.6645142642910087 2.1341236786028928 58 79 47
8.064749793413887 -2.1543834916165974 2.499659935491936 55 78 52
7.68022629590447 -2.318153903131865 2.0380398445164096 56 79 58
7.443253381110197 -1.986377544131037 2.0541681600903203 57 79 50
8.29784957841565 -2.882615654060531 1.8717045741853566 57 78 61
7.798552887096986 -3.1377380038546945 1.759040993422838 62 81 60
9.107442088382648 -2.6501958482914922 2.3592188262836973 61 84 58
8.848114892174847 -2.845828762876782 2.235734714789552 60 82 59
8.405649977658554 -3.1377380038546945 1.9949551217907842 62 81 63
8.164004459220081 -2.5975280037748973 1.876796365120425 58 81 61
8.283121729170434 -2.3246572273818136 1.6262846969042994 54 77 52
9.652964468708603 2.6127493535339656 2.9409851682585995 64 87 58
7.742688344662325 1.1240408576661678 1.6301621474112824 47 62 23
8.64036559342301 0.38458281462836746 1.9827217022316899 53 67 28
8.024883436221677 0.741045503081537 2.3189771920092 53 68 30
8.34954949270166 0.26229747374499096 1.99799129937215 49 63 24
8.259711165340507 1.307601283092794 2.468720300055716 58 75 41
7.808801104522282 0.4381990653776114 2.029750254342514 52 66 25
10.89741243094867 0.7000323253311184 2.857099729743461 66 87 56
8.328454232417558 2.5005053427132746 1.5058383811789453 45 60 54
9.28377356681518 2.57416854375602 2.5039240800209384 59 78 50
9.110095577423667 2.7220969668054438 2.213381699856644 50 68 49
8.36612673423312 -0.004658162722347915 2.281751422460452 59 71 33
8.660847097507645 -0.3914777621874302 1.9816886847344783 53 63 23
8.642499527403643 0.13146712267655108 2.11295090794072 57 71 33
7.587618128068804 -0.5161077395963646 2.199031951938567 61 75 37
7.603431341598993 -0.6094936872943577 2.3717431688136594 64 81 44
8.443420810626938 -0.19048430966659094 2.4418678506386295 61 77 42
9.453814452889127 -1.4235485550148832 1.8339707284357705 51 68 49
8.388882876196954 -1.017759148859315 1.7456520717878758 50 65 27
8.109950982373439 -0.7555345570035827 2.0114823560109127 58 73 37
7.530753335054436 -0.6465001106032047 2.0480789835817093 54 68 30
8.295385462141871 -1.3105534219185424 2.463342157385714 57 76 46
8.765293154228575 -0.8460388431152989 1.9765028660730886 54 70 32
8.749615298720306 -1.5285684776970019 1.977272650791328 57 76 47
9.477954203237699 -1.2873092345857569 2.0606540922498806 55 72 43
9.359027544016508 -1.1766809255979176 1.9494075464561877 53 67 35
9.000709752270444 -1.3825317945372342 2.2225104063923817 58 77 48
10.407210940753322 -0.006805086072292313 2.7114965025788167 63 83 48
10.682495205738975 -1.249396235274628 1.4260726393716763 49 63 66
7.559025056463356 -2.141369246259838 2.9790430879780296 70 94 67
7.858649247153249 3.0155826492753905 1.75758440925597 57 77 56
8.353310198445612 -1.8897202709050582 2.4547816841076546 57 78 51
9.217534061458435 -3.1335262453181043 2.7331710164594343 67 90 64
7.908370112194013 -1.9326383754375176 1.8870251241773337 56 79 49
10.189339391644156 2.8824506056490518 2.760773780515385 68 90 63
10.598301878458257 2.1611923053950783 2.6737371011940776 52 73 42
6.697446286798351 1.9900252865143895 1.7904597317033006 40 54 28
8.673527425566826 -2.988239113659194 2.2516161894447815 65 85 60
10.265625253728983 2.3012452566324297 2.7426230468004187 58 77 49
8.760857284335382 -0.7603612051856616 1.6232560188714036 51 64 30
9.273406023139287 0.6394152050513322 2.3413727405451095 55 70 31
8.194621478844924 -0.946990652543104 2.0066149462208775 56 74 37
8.606816894936522 0.6394152050513322 2.2579106437435046 54 69 29
7.831457689880399 -0.44581075543212534 2.0283211811023816 55 66 28
11.022304647000134 0.2828323670191528 2.820619000409283 61 82 51
7.5881446191726125 2.2336142175215534 1.6313726858883544 44 58 43
8.289556177963853 2.4210310736288925 2.001288380461283 40 55 43
8.009902300024233 0.6394152050513322 2.1612446778917356 54 69 30
7.562584506070429 -0.8787986719817013 2.377331106737056 60 79 45
7.523668456988732 0.9423165828088548 1.7660057770285482 43 58 19
6.817515149919181 -1.7333216704963723 2.4994052422549196 56 79 51
9.013740110684502 2.741602482301334 2.5455376675807684 63 82 55
9.66838919816139 1.4002902132272845 2.9332851195475005 63 84 53
10.12897538937968 -1.438048789401949 1.6161650552237021 49 66 59
7.165069147143131 -1.7855298920827154 2.6940423812002745 64 87 57
8.84388909894893 -0.9212118806090764 1.509629101356073 48 63 29
8.947172671216881 -0.9212118806090764 1.7346392589480717 50 65 28
9.684999059840125 1.8943294379214353 2.925321420132855 62 82 56
8.073457345266391 0.7496413195844898 2.0136152417315323 52 67 28
10.189339391644156 2.8824506056490518 2.760773780515385 68 90 63
7.8171591373836815 -2.6501958482914922 2.177862844699847 61 84 58
7.2591529588087536 -1.1545545081387196 2.667759441502897 63 84 51
8.113759610513943 -0.004023480040596123 2.011260987957047 53 63 23
12.097557720269227 0.5331008102268269 2.8153321481470948 63 84 53
