21.74858886086105 0.7306910452542361 2.066665599923972 7 16 18
14.41243235029136 -0.4708532840223043 1.8772475170415048 39 58 20
13.783980334947419 -0.571599925111037 1.816133512740933 41 59 21
14.752719103607053 -0.4038834726146592 2.015606803167013 39 58 20
15.938930538952123 1.429313370287714 1.5298725231876247 30 48 2
17.355177896222823 1.1400178468235642 1.5908435828293548 31 51 10
17.67171757790655 1.1400178468235642 1.7613979241600717 30 51 4
16.962040600971076 1.1936238705081414 1.5913082920698423 30 50 8
18.064757674042678 1.0615217061030506 1.9298590989833297 33 50 15
17.63077115050087 1.1146278757963124 1.9391142415681006 30 51 5
17.26879849113933 1.1448789051774932 2.0753416291721853 34 55 9
15.942212899976914 1.5552145538624949 1.7186096853335702 32 52 8
15.772208170883694 1.5552145538624949 1.5928559271174816 29 47 1
16.33181142518768 1.3077499082465285 1.5920999469746409 29 50 3
17.175641065574265 1.2496050804390175 1.8267244519065677 32 52 8
15.988918994376714 1.4919512887742599 1.7181747414309008 32 52 8
16.44153546087137 1.3677721592557173 1.7758549527839405 32 53 6
15.395221355179753 1.5541595283057934 1.8571109789356295 35 55 11
16.667797298132736 1.3077499082465285 1.773032465928705 31 51 7
15.754365103576305 1.4866362039367236 1.9171339209438316 35 55 11
16.932809066041752 1.2067333335538695 2.086332616480772 35 55 12
16.03691917850443 1.3544353705520755 1.9107827574951708 34 56 9
17.031316941473822 1.2908256770304516 2.016878775256143 34 56 12
15.324956310635127 1.4090930144351943 1.997881770152473 35 55 11
15.161514733092309 1.5529512735720497 2.002793250364752 36 56 12
14.732087993469138 1.5515537982173497 2.0929735900312103 35 57 12
15.637733377741554 1.7552020575742135 1.8525483770088322 34 54 10
15.49290430015891 1.6890458416456586 1.8552552662953672 35 55 11
15.841937157632907 1.6186026321744906 1.6559836379551216 27 45 0
15.199441935035788 1.9033268341657046 1.860905231672453 34 54 10
15.407705657239326 1.7682630910491954 1.9954389541854554 36 56 12
15.178278905766128 1.6255349757762834 2.0022840983971832 35 55 11
15.500196193820164 1.7832853296447124 2.1395322634693428 36 58 13
15.029362047782229 1.9272912632860628 2.006850968183683 38 59 10
14.749340262763193 1.6298130800531887 2.092300610184324 36 58 13
15.046651674494223 1.6348155986741564 2.2411474513570706 38 60 15
15.129783480043912 1.7188003172782738 2.2367986894556617 37 59 14
15.278055167214823 1.8007377567409235 2.229195545288789 37 59 14
14.908776027742888 2.3069114293417763 1.7972868194219562 37 58 11
14.66283545363129 1.9942627416266994 1.8718484891054878 39 60 12
14.484035097382527 2.1534852330495897 1.8040498713080335 38 59 13
14.203474557645864 2.3555722914666757 1.808745372343571 43 64 18
15.296787081701462 2.2104500333129873 1.859005985545975 38 59 12
15.033737761955392 2.3015995602371446 2.0814649938484173 43 65 20
16.091762933588388 2.025640494117055 2.1906451775663127 37 59 14
16.692532315141975 2.025640494117055 2.2394268225744423 37 59 14
14.163240375580928 2.4094816459526287 1.957988757111941 40 65 16
14.583218188220973 2.09190206860263 1.946273031818691 40 61 15
15.777215936740912 2.1310820284573397 2.204947157562742 38 60 15
14.939081589602017 2.355501267347177 2.163729706984408 44 69 19
15.16698924280957 2.1949699673595204 2.0765497101352244 39 61 15
14.472597084258174 2.4691684195103485 2.1033224145916316 45 69 22
14.977952009080825 2.415918071704274 2.244789186542925 47 71 26
15.621614742643551 2.415918071704274 2.294826398691388 47 75 29
15.345280787121915 2.6076910487611706 2.310863665154549 47 73 27
15.110087848522609 2.5351149344046773 2.2378233313921196 46 74 32
23.931795625371965 0.9113306629055449 2.7757322111527154 46 76 27
17.363735874484256 2.061635490752273 2.3619026943160315 36 60 15
13.286681133169575 -0.6473148116633638 2.250150692825942 44 65 18
12.981014421595372 -0.6147471256031549 1.831652086057383 42 61 18
13.274130336670536 -0.6147471256031549 1.9045024148270089 42 62 18
13.863888513671647 -0.7845593209281533 2.3107619416411582 47 67 23
14.085873314786573 -0.8585545006374297 2.395917006167899 49 70 24
13.844479876803224 -0.6769385917516829 1.890255346046681 43 62 21
17.242799225300427 -1.0698556793696148 2.0761744750322597 49 69 33
13.486068566484056 -0.7275571342170462 1.97855198436898 45 63 21
13.284852740697161 -0.9218352403935569 2.250261846880661 46 65 22
17.52086658200483 -0.9947231329544508 1.8215721155956972 63 84 51
17.197944497711227 -1.1268255823054625 1.766715938280768 67 87 54
17.631817515116346 -1.0457260974698592 1.9390913385993591 64 85 52
9.237057851243279 -2.0495392220469926 2.0608824418459477 52 74 30
11.850364307689121 -2.9164931024503686 2.13609888462076 44 68 25
12.866344786494725 -3.0016072849543414 2.384067743436832 50 76 30
11.346159413814979 -2.9164931024503686 2.0616060079569847 46 69 25
12.274357341299375 -3.0157990385883116 2.2125963926314505 51 76 29
12.214448873265523 -3.1176546402394503 2.2162669568195437 51 77 30
9.536712183117137 -2.2427896204593445 1.8195498079747 49 71 29
10.214718832455196 -2.2427896204593445 2.010476987701572 54 76 33
13.934590150944333 -2.7877706389244956 2.4077484085332133 52 74 31
14.529520859387608 -2.6027741550053 2.3634211931410025 52 72 32
9.47486577913417 -1.7807258294326807 2.0475393485468745 51 71 27
22.244011049806634 -0.037375326666606055 2.856780749113284 52 78 30
15.666950910734203 2.724396629337834 2.2922705663728866 45 71 25
15.025230449417581 2.724396629337834 2.2422782773495875 44 70 22
24.431773609277123 -2.874202881270278 1.8336336905219937 43 57 10
24.585648941222907 -2.7944043299164627 1.7485784458673448 49 63 16
15.829028026540053 1.4919512887742599 1.5295882247723116 29 47 1
17.175641065574265 1.2496050804390175 1.8267244519065677 32 52 8
17.285780968551613 1.1936238705081414 1.7657075508174143 33 54 6
18.10472260527185 1.0889268192346764 1.7567853843472572 29 49 8
15.395221355179753 1.5541595283057934 1.8571109789356295 35 55 11
15.864784848126147 1.4198723414263426 1.9146232865924822 35 55 11
16.90743429501453 1.229457805338511 1.9556788399135772 34 55 11
16.100828735420446 1.3677721592557173 1.5924056162188023 29 50 3
16.670790133334744 1.2496050804390175 1.6517387019484655 29 50 4
17.243918142370763 1.1706508959192399 1.947786867537692 35 56 9
18.064757674042678 1.0615217061030506 1.9298590989833297 33 50 15
17.355177896222823 1.1400178468235642 1.5908435828293548 31 51 10
15.411731314632778 1.6218346839629594 1.856795610944026 34 54 10
15.599728393518015 1.8197671044028318 1.7870916364785345 33 53 9
15.043134455347355 2.2104500333129873 1.7952290807085611 33 54 7
15.072454155336112 2.1534852330495897 1.9335102108647546 39 61 15
14.635092168553872 1.9272912632860628 1.944876257429377 39 60 11
14.826043447206898 2.0574262244625676 1.7985729411905147 37 56 10
15.005061384230595 2.4691684195103485 2.1607697869608615 46 72 26
13.462070882532174 2.5351149344046773 2.061832250192989 41 67 21
14.749340262763193 1.6298130800531887 2.092300610184324 36 58 13
14.54162239529005 2.2534800546316602 1.8744376468201636 39 61 15
14.87126701624482 2.2534800546316602 1.9386494012219635 39 61 15
15.532193455193609 2.025640494117055 2.1382160535533394 39 59 15
15.018429769729895 2.025640494117055 2.082036123810334 40 61 14
24.46056584973557 0.5426583876302399 2.838814716654964 48 78 29
23.931795625371965 0.9113306629055449 2.7757322111527154 46 76 27
13.354080770080152 -0.5932072882062595 2.1534435649255492 41 62 17
13.201624522054436 -0.8491297707341579 2.1610726633788615 46 64 22
17.686308365076393 -1.0135716382274114 2.06235195389277 51 71 36
17.642581256916632 -1.074668673605013 1.7617165761822662 69 90 57
12.078833598044335 -2.821493983689404 2.1241450800649693 46 68 24
10.010305578266092 -1.934615334650206 2.2576876097973884 53 75 30
10.330287474688935 -2.0495392220469926 2.2325408392634603 52 74 29
9.686684638547131 -2.1522575481818125 2.036278025992004 51 73 30
10.087436442668304 -2.2223747129412397 2.2514327611801823 55 78 33
12.866344786494725 -3.0016072849543414 2.384067743436832 50 76 30
11.703163989309038 -3.0157990385883116 2.1440981463297155 46 71 23
12.214448873265523 -3.1176546402394503 2.2162669568195437 51 77 30
9.70987657347186 -1.893617321143778 2.035078661481418 51 70 27
24.269055337955834 -2.833797877337776 1.7509228839949373 48 62 15
21.566197957378105 0.6971225469713078 1.968261777112136 7 17 17
14.82625991778692 -0.4398597600164804 1.7298267462447705 42 59 24
15.938930538952123 1.429313370287714 1.5298725231876247 30 48 2
16.09772993528251 1.429313370287714 1.7171713510792372 32 52 7
15.988918994376714 1.4919512887742599 1.7181747414309008 32 52 8
16.624378363706814 1.2908256770304516 1.9625857644730957 34 56 10
15.21061824720893 1.480554807467572 2.00130541210968 35 55 11
15.178278905766128 1.6255349757762834 2.0022840983971832 35 55 11
14.164097907482265 2.3015995602371446 1.9579640693554865 46 68 23
15.129783480043912 1.7188003172782738 2.2367986894556617 37 59 14
13.567035962242386 2.4691684195103485 1.975975466737075 41 65 19
14.51271697542609 2.5351149344046773 2.183660581683 40 68 25
23.368580782159032 0.4169661324416015 2.844947493236282 50 80 33
13.63445404026751 -0.6147471256031549 1.9738555961838649 41 61 21
13.345514575948988 -0.6638976823916692 2.0665082163829287 45 63 19
13.269456194607569 -0.7846611268995493 2.0696103010419646 46 64 22
13.737019902821077 -2.8917855941265276 2.4238399782917632 49 73 30
14.199996110530707 -2.6911547318098705 2.387255434184609 52 72 28
17.793327536681808 -1.7852940417149532 1.7031362661079672 33 47 10
13.596005309543868 -2.6950990824589045 2.5582926175297502 54 80 34
14.119489435407887 -2.7465180007160286 2.504291756506317 52 76 31
12.042227412991108 -2.8495174721150063 1.940194749315156 43 65 21
15.61749068063031 1.8370363826508505 1.989373604358804 36 56 12
14.94413712314212 1.9033268341657046 1.7967415716391226 36 56 12
15.70301158574128 1.6975468772210314 2.057742690613915 36 56 12
15.354069835306445 1.7073566913677876 2.1456273828803853 36 58 13
15.200950720435777 1.8568096018297193 2.0753128588073535 36 58 13
14.570284098731081 2.4094816459526287 2.0215837606654077 45 70 20
14.689514684099098 2.6076910487611706 2.260573746524531 41 68 22
14.852612344648625 2.2104500333129873 1.7295421880933104 35 54 8
15.58512916591626 2.2418519485713113 2.2140426409865466 42 64 17
13.202544512993196 -0.7201037762942302 2.1610259796691578 47 65 21
17.186902292903554 -1.0999291572627226 1.9491006594262963 57 77 43
12.274357341299375 -3.0157990385883116 2.2125963926314505 51 76 29
9.34154483975525 -1.6621556525008103 2.054924588067105 54 75 28
14.339401289930997 -0.5061424970213635 2.02939204647008 38 58 19
14.891020712092995 -0.3762863219703805 1.867094138603133 39 56 24
15.029740685524484 1.549918883205547 2.2420398297286237 38 60 15
15.304299915027727 1.473529063318676 2.1477355020803293 36 58 13
16.036564321172104 1.6816090647328612 1.7177336901987004 31 51 7
15.429253199288649 2.09190206860263 2.067160636857185 38 60 15
15.958156963999325 1.6186026321744906 1.7184609191114715 31 51 7
17.795687757449883 1.9866307329410484 2.4189548002635672 35 59 14
13.867892674860066 -2.581706227618849 2.5292188818771777 55 79 34
