13.64071057124974 0.16446742928141397 0.94060587557695 33 38 5
13.64071057124974 0.16446742928141397 0.94060587557695 33 38 5
13.80860976680192 0.25244452467075956 0.9494463574238641 33 38 6
14.421478321281882 0.2676695889629011 1.4987266241602932 42 49 17
20.15670413073643 0.3460481716269679 1.6682654937161485 39 46 14
14.44904407388172 -0.014102516524712757 1.2875270241790622 36 43 9
14.717371744255674 0.19947379526783549 1.2928302524696487 42 48 14
14.202041062893088 -0.014102516524712757 1.355184885931946 35 42 8
14.47009306992147 0.057920264719892596 1.2879504442996002 41 46 13
14.136424712835009 0.1293474725915388 1.4260933022906397 43 50 16
14.320433669420604 0.35723220443032455 1.2849117094616758 38 43 12
8.804382310111675 0.45018897890865517 1.4525739398732413 33 39 14
16.140306347258665 1.1564887338877274 2.503200026033802 46 55 25
10.88655870050584 0.6629794874745019 2.5377775592452387 34 41 10
14.104406657875556 0.21451588418873627 1.205500745343905 39 44 11
13.440938377941489 0.15083236480646417 1.1048614400838812 35 40 7
13.846185379529569 0.06240878034117973 1.1983583129346078 38 45 11
14.24056718888589 0.06240878034117973 1.1329038709320058 36 43 9
9.088190575901042 -0.022048328861387405 1.7883430336016473 29 36 6
9.104369821530618 0.20064428348331256 1.6766075435334358 30 37 6
9.429187920696487 -0.13396116231151017 1.8902869733801861 28 35 4
9.362268808582694 0.30615873464998844 1.459648763054852 31 37 9
8.411576574319728 0.3422343491476461 1.685359203136548 31 38 7
10.282460504081087 0.4455642661191752 2.4563797188359184 10 19 0
9.946618710316464 -0.15073650746377887 2.2134904487797296 18 26 0
8.665716144102891 0.2567771589035646 2.180407950782703 14 21 5
8.413100462389204 0.38746558076382814 2.061082611597933 21 27 7
9.307032119236805 -0.024848158391920165 2.133052823446708 25 32 2
8.84909430216412 0.10182866305218007 2.034963603968449 28 34 5
10.864776616106726 0.2981323998630332 2.5406903152533085 38 48 10
10.715686320132443 -0.03330621768030368 2.561299226343984 40 50 12
11.624986460696872 -0.20087712756880152 2.6000379966709737 40 50 12
10.744051941175941 0.13613895030425963 2.557284401088659 42 52 12
11.356093637031467 -0.1722671950948268 2.4802039142073853 38 49 11
11.722774597282449 -0.5833939519131683 2.206629579721877 31 42 5
11.730425899218226 -0.6473802106191838 2.3167999079031123 41 51 13
11.578906566283008 -0.7336986975600022 2.2158317011736477 41 50 15
12.206316929108336 -0.7336986975600022 2.2813428918184053 43 53 12
11.076091191116328 -0.6473802106191838 2.250445603273781 40 50 12
10.991830119842447 -0.43528667517013664 2.3808367391820924 38 47 10
11.323056591762786 -0.548145891662855 2.35058207954752 38 48 9
11.323056591762786 -0.548145891662855 2.35058207954752 38 48 9
11.481587757458232 -0.8255151996088821 2.621173135247523 43 54 13
11.562280230242813 -1.0122493914648885 2.4576182691442683 44 54 17
11.996785928112566 -0.498404813047293 2.550534302214219 42 52 11
12.194713564759594 -0.42342045078166507 2.6879963738361297 38 52 11
11.883523830455417 -0.9303702536525942 2.5648906593007563 44 54 16
12.376333079397781 -0.8122255729594217 2.3805067505712993 41 52 14
11.934402888600241 -0.9044459087922989 2.4202207287613535 42 53 13
11.76994440973162 -0.35783067677692604 2.5798998562649107 40 51 13
13.42553242374666 -0.9290309102805434 2.115927769102963 43 52 16
13.664300434150842 -0.9777365094736192 2.0222636991861958 40 48 9
12.432947236000878 -1.0025165069222373 2.070876562400474 43 53 16
12.520288514708472 -1.0835961333568578 2.1603876139462486 45 53 19
12.06423602277048 -1.12945119632679 2.291521537301043 44 53 18
13.42553242374666 -0.9290309102805434 2.115927769102963 43 52 16
12.143408025241463 -0.8084129239212583 2.1812972060853664 42 51 14
11.785506259855442 -0.9756381798223838 2.3124893593197333 43 53 16
12.127555620134292 -1.0771514530607154 2.40229354716664 44 54 17
14.973776787959784 1.3110010455127878 2.298646658883453 48 58 28
14.973776787959784 1.3110010455127878 2.298646658883453 48 58 28
15.730590068356632 1.2858540038557622 2.43472582212641 48 57 25
10.518743035057252 1.714358984786923 2.294044479678594 29 35 11
10.168897798411015 1.6982401661137174 2.080494749429152 47 52 23
15.39990655800805 1.218197053491291 2.571153769808987 52 59 29
15.930029529118654 1.255495666040634 2.5212081383053935 48 56 26
14.228576457939194 1.4217092172812253 2.7163819523901447 5 10 0
13.076083926852355 1.8739239979504936 2.564935266528947 34 40 8
12.072551439486578 1.8370142966172356 2.4073041659496117 37 42 12
12.116291649829474 1.735103519060753 2.5359939758459196 33 39 9
13.343237835951381 1.762769717216059 2.6824892326174115 36 43 8
13.508934163294658 1.6044754374843295 2.85594614616298 40 48 15
13.869259996361613 1.801440902844782 2.7777949071736248 44 52 17
14.202420210466084 1.5928754349346101 2.720467364250758 29 35 3
13.555355179539324 1.859083325411335 2.8445077334836406 41 50 17
13.869259996361613 1.801440902844782 2.7777949071736248 44 52 17
12.424737271848423 1.8796460757685156 2.165541122181028 34 39 9
12.194562410622547 1.9693209020296363 2.0815895269223503 31 38 5
12.930629404821696 2.0982179655830837 2.234085969122852 26 31 1
12.275523336068872 1.9121836151601077 2.2765017827044636 32 37 7
9.790918501400142 2.3833251077132336 2.102207015398499 31 37 6
11.888486286588066 2.0573408215112936 2.304581656614171 30 34 2
12.930629404821696 2.0982179655830837 2.234085969122852 26 31 1
12.066208274448426 2.65134423469091 2.4078867333737435 39 45 12
12.462633227941659 2.0017131403021766 2.4969478309381588 28 33 2
12.298785550218309 2.5860207028250852 2.514883494815101 43 50 15
12.935890459137577 2.258964356043835 2.750988302047224 41 50 13
13.258452709583862 2.438352075455894 2.9295657221153864 42 53 16
13.135075806292008 2.1295754736272143 2.9788644928997456 43 53 16
13.258452709583862 2.438352075455894 2.9295657221153864 42 53 16
13.11554470110066 1.1206978575087059 2.988200336227603 42 51 17
13.309355177477629 1.9532784011057611 2.91247624902715 42 52 18
13.262073119426562 1.6164704884771421 2.9283012634388004 40 50 16
11.879483299212001 -1.2773961356451138 2.5654137677260267 48 59 21
11.266884038539574 -1.1367534639531227 2.490444306490355 45 56 19
12.077490287349555 -1.1367534639531227 2.5406496776471146 45 56 18
12.867575642294499 2.7124222520882406 2.5903485579697874 44 52 17
13.6555159358078 -2.8596772304822005 2.8214177457536453 43 56 17
14.055448185595994 2.8032688207941683 2.7444566409959594 43 53 17
13.889132107009159 2.5448799806296254 2.774055451902772 43 52 18
13.625404172747267 2.410723536940287 2.828151064682264 43 52 17
12.615055596283309 -2.9489077783774835 2.623824233454427 42 55 17
12.655383778186607 -3.0942365493465807 2.8089253054234535 43 54 16
13.069291166134827 -2.9125334136052596 2.7269013748994393 42 55 16
13.015955223817528 -3.103461011695166 2.7363104441579846 43 54 16
14.055448185595994 2.8032688207941683 2.7444566409959594 43 53 17
12.566135405218253 2.766772447705998 2.486070308370519 45 54 19
11.452445455426357 -3.114153446345666 2.469468470441226 41 52 14
13.3579265331223 2.889911284178656 2.8973730998111416 43 54 16
13.455219064270402 2.6184000726661165 2.8698702863961376 42 53 16
13.464032122914361 3.011082795134638 2.6646608057929293 43 54 16
12.352453132358487 -2.4260706445440077 2.2712069815939535 45 56 17
12.499993690998568 -2.3507202106279834 2.370176606618676 48 59 21
12.141000063109585 -2.03835585789073 2.5330609030814646 48 61 23
13.779129024357374 -2.6527776194531882 2.7953817825081924 46 61 22
13.198395841237557 -2.737054964829382 2.705213537415728 47 61 22
12.574375248633666 -2.511740820508233 2.364112375675448 49 62 22
12.659204011429862 -2.720144080143592 2.47656804001566 45 60 20
12.03572021435431 -2.4383607595171712 2.410700681195636 51 64 24
12.974088724667793 -2.03835585789073 2.577137103385872 50 64 26
12.516622478754357 -2.584322284009562 2.637802662610598 50 65 25
13.051152522423061 -2.482842137566591 2.7300698662251985 48 63 24
12.748761072908453 -2.797555112839654 2.6056992494425977 44 58 19
12.748761072908453 -2.797555112839654 2.6056992494425977 44 58 19
12.35011356085878 -2.349659723673035 2.509166283717476 51 65 25
12.79772076509493 -2.4383607595171712 2.462884747564537 52 66 25
13.779129024357374 -2.6527776194531882 2.7953817825081924 46 61 22
12.425392371452698 -2.5412448324867616 2.5009451711327246 52 66 25
12.425392371452698 -2.5412448324867616 2.5009451711327246 52 66 25
12.748761072908453 -2.797555112839654 2.6056992494425977 44 58 19
12.441895661723414 -2.3480896486807374 2.648808425757675 51 66 27
16.27081091083796 2.472254649270535 2.0821001713942713 42 48 16
10.287717853514394 2.9652898533388674 1.5670586428385143 50 58 22
10.705123354286105 2.871473038669695 1.3792080294648161 52 59 23
10.338369718383927 2.843525118672938 1.964042514736657 50 59 24
10.967825884257822 -3.011350598104501 2.1454554905447827 46 58 21
10.112086353398482 3.0429544050595716 2.2012939403081946 43 54 16
11.916327568680503 -2.804841806358145 2.194693367143839 47 60 20
11.687924603081076 -2.9055424098298492 2.2088321334870016 46 60 21
14.84756668393051 -2.0055680630850414 1.7716067312397838 46 56 19
14.463536380101832 -1.941459694706721 1.7770144188621466 45 55 18
13.901717350560617 -1.7586448417944676 2.1805950460237704 47 56 21
13.10978505155943 -1.776575597178693 2.2234516414746897 47 56 22
13.740071317180856 -1.776575597178693 2.2813055916490774 47 57 24
12.471520032216599 -1.8583578246363261 2.496000597437829 49 58 23
12.175300487541978 -1.464818311054426 2.3980028715019928 48 57 22
12.289268012518562 -1.5886074377846233 2.51595385349382 48 58 23
11.644325182247313 -1.3163036265401558 2.4490209122055404 46 57 20
12.329111785024987 -1.8248568464026866 2.384536263437141 49 59 23
12.14472287774299 -1.586434574620719 2.400744578125539 48 58 24
12.47899187961399 -1.2337574205426929 2.371908857371412 45 54 19
12.840777818105918 -1.5847341929114729 2.3432540872512044 47 57 23
13.814751290639334 -1.9240592896570508 2.0989290145206443 46 55 21
13.549575691031329 -1.8432580023420015 2.1103853593448427 47 56 21
13.467206866335983 -2.286646342975883 2.203317838704412 42 56 15
14.12971318987021 -1.9688429298800767 1.9295877323220236 46 55 21
13.36833661457805 -2.0368229480942923 2.1185243839238126 46 55 21
14.255705085022493 -2.180944596080031 2.080976135291846 45 54 20
13.55853407542088 -2.2302119960987334 2.109989720527235 47 54 20
13.308749599918283 -1.8684936676542456 2.2120731306201273 47 56 23
13.578629081338038 -1.9555164076293134 2.197316354400626 46 57 23
13.200160542470917 -2.0795127035330747 2.2182285269287685 43 54 18
13.91529804006343 -2.0368229480942923 2.179913388043862 45 54 22
12.211814764453438 -2.091656931119097 2.394757425804274 47 57 20
11.911006171860082 -1.9808811831138202 2.422456999638539 48 57 21
13.024635252927087 -2.2762482135233295 2.3295891997352838 45 56 18
13.602661675884542 -2.212846930732563 2.2900300746118707 43 55 16
12.540468461061414 -1.935417330568914 2.366863171748207 49 57 21
19.70938368625453 0.24928311265127615 1.4160163425482852 41 48 18
14.701457259909755 0.2676695889629011 1.362618987054032 41 47 15
14.991383003851453 0.3334100017949461 1.3667024675810515 39 45 13
14.44904407388172 -0.014102516524712757 1.2875270241790622 36 43 9
14.223455598247368 0.057920264719892596 1.3555146197573835 40 45 12
14.559955777934297 0.1293474725915388 1.2897437692836444 43 49 15
9.865987043588106 0.40509641609662356 1.3626831978415743 33 38 8
15.207630202642397 1.1946869333037227 2.375741492103079 44 55 21
10.88655870050584 0.6629794874745019 2.5377775592452387 34 41 10
13.940070601238409 0.13927149408704181 1.20098809926345 40 45 12
9.121618647318549 0.09041728530145451 1.7875330411067347 31 36 6
13.824869257005016 0.06765025788421734 1.0366397617703236 35 42 8
10.358557946603066 0.35470206148920225 2.616215195821205 43 53 16
11.09077909029986 -0.040136000606120145 2.6864148481790577 39 50 12
10.231862192676392 0.1636282117779422 2.6379848891214484 40 50 13
10.578678629032384 0.5223062712006904 2.5813628278304535 40 50 13
11.153325155603579 -0.2406629731078445 2.6750883914738504 40 51 11
11.624986460696872 -0.20087712756880152 2.6000379966709737 40 50 12
11.730425899218226 -0.6473802106191838 2.3167999079031123 41 51 13
11.657256527689212 -0.6668040957768636 2.107612162387161 31 40 7
11.722774597282449 -0.5833939519131683 2.206629579721877 31 42 5
11.730425899218226 -0.6473802106191838 2.3167999079031123 41 51 13
11.562280230242813 -1.0122493914648885 2.4576182691442683 44 54 17
11.907238945087512 -0.7243775011902048 2.422818429851386 41 52 14
11.447213246491161 -0.8175517309033387 2.4700430937989735 43 53 13
11.73641449023511 -0.43528667517013664 2.439616731339443 39 49 11
11.856243318057398 -0.7109634398060759 2.5684377164641097 42 53 13
13.493163948559797 -0.8628069243896036 2.028422587642331 38 46 1
12.935293779344473 -0.9290309102805434 2.0497767336644195 40 50 10
12.251938274392336 -0.9491105722411587 2.1751127697157218 42 51 16
12.232816764174055 -0.8863600148377221 2.2794803347622756 44 54 16
12.143408025241463 -0.8084129239212583 2.1812972060853664 42 51 14
15.794666786459644 1.1714214923921793 2.6550199311736717 49 55 30
13.823893121383806 1.597469083586569 2.7865142037360906 44 53 18
13.536430490088424 1.3455216130579484 2.849108972507397 44 51 16
13.343237835951381 1.762769717216059 2.6824892326174115 36 43 8
12.424737271848423 1.8796460757685156 2.165541122181028 34 39 9
12.567610154265823 2.009238333297542 2.2568612633868264 30 36 6
12.567610154265823 2.009238333297542 2.2568612633868264 30 36 6
10.414025383686925 2.2944226135283095 2.30295691892211 33 39 7
12.288321694775226 1.9520129964059474 2.388055943416796 30 35 4
13.213387672585734 2.396993151143104 2.7027870002206966 41 49 15
12.826397694812549 2.65134423469091 2.460117389292636 41 48 13
13.431131264918998 2.2199572786788937 2.8763834489924465 43 52 17
13.309355177477629 1.9532784011057611 2.91247624902715 42 52 18
13.290080195761897 1.269386435926792 2.918780438284901 43 52 18
13.15970552288533 2.780231895860853 2.967835044548115 43 54 16
12.584000369665633 3.011082795134638 2.6281734065297537 42 53 15
13.039317819258633 2.986009311069335 2.7321544234193587 43 54 16
12.67941076613585 2.949157543346487 2.803483565802457 43 54 16
12.307432055852587 -2.975405241225797 2.513913895891299 44 58 19
13.560563403121668 2.855247660131159 2.6510628562577834 43 53 16
13.560563403121668 2.855247660131159 2.6510628562577834 43 53 16
12.307432055852587 -2.975405241225797 2.513913895891299 44 58 19
13.313198218236732 2.6411686223489643 2.6870750142808277 43 52 17
13.455219064270402 2.6184000726661165 2.8698702863961376 42 53 16
13.729442764121773 2.7124222520882406 2.6285055734538023 43 51 16
12.559790862133486 -3.1096787240746737 2.63160233489096 43 54 16
11.882416302685494 -2.511740820508233 2.305042403974142 44 57 17
12.958479466777455 -2.6609194171260793 2.579042386076186 51 66 26
12.958479466777455 -2.6609194171260793 2.579042386076186 51 66 26
12.04132428181261 -2.2622050209609785 2.4101817127350307 47 58 20
13.0194544467208 -2.4260706445440077 2.3299665653277266 47 58 20
12.195229874695432 -2.609598068120879 2.396227693372886 46 60 19
12.44444313765043 -2.842791854136593 2.4988946546147925 45 59 20
13.198395841237557 -2.737054964829382 2.705213537415728 47 61 22
12.574375248633666 -2.511740820508233 2.364112375675448 49 62 22
11.446502598765647 2.6571098954057137 2.019119861611342 21 26 0
10.347686274552192 3.062341000581421 1.7615143094557248 45 55 17
9.764736244654015 2.9464392306476404 1.8789398241831765 49 59 22
11.440412764337301 -2.995541786561283 2.3404887434935917 45 58 20
11.37944475893375 -3.1175278654888707 2.3456939206140786 44 56 17
10.420534848590874 3.053701365188906 2.0670469449821995 46 57 20
12.29623605492038 -2.877762357544446 2.3873701738353623 45 59 20
13.10978505155943 -1.776575597178693 2.2234516414746897 47 56 22
12.471520032216599 -1.8583578246363261 2.496000597437829 49 58 23
13.160758177319076 -1.7263162790586892 2.555117103216619 48 58 23
12.86970175096249 -1.4762704575429846 2.3410663991902165 47 56 22
13.62105752083817 -1.6810007768812874 2.2888479965787627 48 57 24
11.84626342500811 -1.1910607862488671 2.4287215972792056 46 56 19
13.619860137396422 -2.1586294293637702 2.1951269514046317 44 55 18
13.681396468720953 -2.0003253743940794 2.02165790786166 46 55 21
13.578629081338038 -1.9555164076293134 2.197316354400626 46 57 23
14.314044549288896 -2.111993733752032 2.160608967345193 45 54 20
13.693570222788475 -2.071619346592755 1.9415594713985886 47 56 22
12.883104423387248 -2.3514845588775404 2.2369717247415926 43 55 15
13.523959305137865 -2.3514845588775404 2.2951377119791383 43 55 16
15.225585987575034 0.3334100017949461 1.3023422903027366 37 44 12
14.190500983685892 0.19947379526783549 1.4975514676160866 43 50 16
8.439692523267917 0.6101477978739503 1.6849758788893237 27 31 9
8.394395897879813 0.5056160213011691 1.9313587986117662 24 29 4
10.598948665844194 0.5748980779790545 2.4206198507853 3 10 0
15.19729053089429 1.2266954900518272 2.285616781711054 48 58 28
13.611302042157222 0.23196756717508002 1.1111455481836054 35 40 7
8.934535289231416 -0.022048328861387405 1.4543040247100152 31 36 4
8.601865673717619 0.22532502280848396 1.9222801996460275 30 37 6
10.115656427795706 -0.27201064247255946 2.2010363721626196 16 25 0
11.504440181504426 -0.30926157649808783 2.4638087438119345 39 49 11
12.194713564759594 -0.42342045078166507 2.6879963738361297 38 52 11
11.356093637031467 -0.1722671950948268 2.4802039142073853 38 49 11
11.540330342767216 -0.5805419798998033 2.612359219412857 41 53 10
11.315129829653022 -0.4896936550145942 2.2334897632790853 27 36 0
9.339676957567564 0.10182866305218007 2.130851977166481 27 33 3
12.432947236000878 -1.0025165069222373 2.070876562400474 43 53 16
12.764680646608435 -1.1722761516708744 2.2442853367428928 45 53 19
12.421330001166496 -1.0344744159931707 2.266541715096774 43 52 17
11.38812527570331 2.388784543459556 2.4765984768805125 37 44 11
13.076083926852355 1.8739239979504936 2.564935266528947 34 40 8
13.674940799092974 2.080831227055137 2.8171611518235546 40 49 13
11.44734747804449 2.1890128007598353 2.470028340161994 32 38 5
13.555355179539324 1.859083325411335 2.8445077334836406 41 50 17
14.228576457939194 1.4217092172812253 2.7163819523901447 5 10 0
15.730590068356632 1.2858540038557622 2.43472582212641 48 57 25
15.245113112424367 1.335399422599507 2.5871804242124217 51 58 27
11.424054694197345 1.807965509382939 2.226070018564621 42 47 16
13.441407746350707 -3.1096787240746737 2.6679286027722693 43 54 16
13.135075806292008 2.1295754736272143 2.9788644928997456 43 53 16
12.436246795060837 -2.158547341289224 2.4997754030433295 50 64 25
12.077490287349555 -1.1367534639531227 2.5406496776471146 45 56 18
13.08716411686671 1.64171399231389 3.002928835610446 43 53 18
12.813744528981328 -2.2422028536891756 2.597219996866488 50 64 25
13.722218183760951 2.729531480699246 2.8070681096698937 44 53 17
13.135075806292008 2.1295754736272143 2.9788644928997456 43 53 16
12.79772076509493 -2.4383607595171712 2.462884747564537 52 66 25
11.063219410648003 2.809363852363836 2.251386143509672 47 57 22
15.124118963069098 -1.917458098872523 1.6344163502605682 42 51 17
12.497736748112992 -1.2680911452533121 2.2614473813770752 46 54 20
13.784099298816884 -1.6712265195392757 2.1865687807813683 47 56 22
12.329111785024987 -1.8248568464026866 2.384536263437141 49 59 23
13.62105752083817 -1.6810007768812874 2.2888479965787627 48 57 24
12.319486858967702 -1.4502239870458418 2.5125665225265577 47 57 21
12.287456618304128 -1.3462550649838985 2.388130985196641 46 55 20
13.467206866335983 -2.286646342975883 2.203317838704412 42 56 15
13.782916079549427 -2.111993733752032 2.1002770846161702 45 54 20
12.844761053899449 -1.9927579998075209 2.2393203550136196 46 57 21
13.549575691031329 -1.8432580023420015 2.1103853593448427 47 56 21
12.826523341814415 -2.0374026417389137 2.344337591397748 47 57 20
14.70091766937201 -1.941459694706721 1.843645425357368 46 55 21
13.824869257005016 0.06765025788421734 1.0366397617703236 35 42 8
10.983664318665088 -0.38563316821544485 2.2572643990870294 24 32 0
11.506131326324313 -0.6204164248445989 2.4636261841101783 42 52 12
12.942228273226634 -1.0025165069222373 2.1387333397354995 44 52 18
12.194562410622547 1.9693209020296363 2.0815895269223503 31 38 5
12.741868664456653 1.807965509382939 2.3508464317362723 35 40 10
13.264463078994927 2.1479528504560537 2.6946529198792053 40 47 11
12.802991297462285 -2.2622050209609785 2.4623744928601448 50 63 24
12.748761072908453 -2.797555112839654 2.6056992494425977 44 58 19
13.335122138963698 -3.0791325736838866 2.904332882613277 43 54 16
13.722218183760951 2.729531480699246 2.8070681096698937 44 53 17
15.752160769019298 2.5299845204467806 2.10067164561857 41 48 14
11.064072619986536 2.7467126004009725 2.0358130532054597 43 49 17
11.818020418495896 -2.7670002208122306 2.309971581570503 43 57 17
14.098118384290654 -2.2302119960987334 2.1708952858500394 45 56 17
13.740071317180856 -1.776575597178693 2.2813055916490774 47 57 24
11.781432112792864 -1.2337574205426929 2.3128062368486075 44 54 19
11.294670490821746 -0.028462277751287648 2.487222659222922 37 46 12
11.934402888600241 -0.9044459087922989 2.4202207287613535 42 53 13
11.672640009401077 -0.8122255729594217 2.3213847262222034 41 52 14
10.85293070672276 2.923146697387243 2.2671754257490724 47 57 20
11.494946372456374 -2.6650812232562986 2.221338740533571 43 57 17
12.832365096200094 1.8370142966172356 2.459544265463348 33 39 8
12.808478421438117 -2.4558794597143696 2.5978995155810254 52 66 25
11.84626342500811 -1.1910607862488671 2.4287215972792056 46 56 19
12.585101177843466 -2.1899805421481684 2.363246879712553 45 56 18
14.21203894380047 -2.036433195845498 1.8532843496844984 47 56 22
13.93003631066517 -1.8684936676542456 2.2696304265341154 46 57 23
12.948889577702522 -1.7075922088704427 2.4485371234428603 48 58 24
11.92256393219147 -1.901664959826117 2.559875920274121 49 62 24
13.986161898888149 1.987786801032 2.7564394116692092 40 47 12
12.436246795060837 -2.158547341289224 2.4997754030433295 50 64 25
13.493062046861112 -2.9489077783774835 2.660513707785516 42 55 17
13.464707488913323 1.9222275732665721 2.664563743965659 34 41 7
