12.861069943290355 0.57074576501324 1.522282888909378 32 41 2
12.851448948693802 0.57074576501324 1.600082035727333 30 38 0
12.095698658407787 0.7335227858496601 1.768541649469596 35 45 3
11.63782090779675 0.7936715258396888 1.8651436524373874 39 49 7
11.183909041418525 0.9945200341398608 1.8774708296378935 52 66 25
12.331202132382893 0.7335227858496601 1.8481403934600482 41 49 6
12.038724141873278 0.6672403821956886 1.9428393241910538 55 63 17
11.110542644863592 0.7948748583938384 2.0758937000965374 56 66 20
11.110542644863592 0.7948748583938384 2.0758937000965374 56 66 20
11.211814053748734 0.9391078124804259 2.070906094674519 56 66 20
11.33895166798476 0.8618798666661907 1.9670376931095466 53 63 19
10.580994129217842 0.9647530743760537 2.217575444967834 58 68 24
12.060352896542156 0.9198401165904565 1.9421396165428988 53 65 22
9.326816585411867 1.703144051486649 1.8284191393996125 51 62 19
10.030550069369218 1.689962185563902 1.5085771476189225 43 57 18
10.907252056169714 1.204788324209665 1.790422857462671 43 57 17
11.09521759102711 1.4068504812568356 1.6047192470056328 33 46 7
11.301483262827524 1.319393123862694 1.6040998817504377 37 52 14
10.652766134484905 1.3906958312239508 1.8932999427742565 37 48 8
10.22200886449848 1.589924977291705 1.805412776813233 45 57 14
11.167845244786253 1.204788324209665 1.8779263520596412 29 43 2
10.005999000400122 2.009084506250612 1.4078039413172552 50 64 26
9.623931545269668 2.1497411079673183 1.4012717157649 53 65 32
9.598467625552056 2.2991383430929977 1.8209695662287242 46 59 22
9.199048834357034 1.9528334094743591 1.9466085233200559 54 65 23
10.197659738704248 1.7876664509864435 1.509598022527154 47 61 19
9.320553673186025 2.2991383430929977 1.5038307351082913 52 66 33
9.287099058073828 2.056372458811435 1.829546104880791 51 65 24
9.591810512575416 2.056372458811435 1.930502512931384 53 67 24
9.300691979695953 2.2129180177649066 1.9423001466675498 51 65 24
9.499732971673174 1.9135480631718635 1.6104193860383071 50 64 23
10.18525262740766 1.5947415336945603 2.247252583541253 61 71 25
11.623181162456602 1.1679526747578215 2.1514679680339137 56 68 23
9.83602612816638 1.8399381070849359 2.1490874293564257 58 70 27
10.288393709127739 1.315699868148505 2.37022006084558 59 71 26
9.42650964163705 1.598190163101028 2.3136916929268825 62 74 27
9.499442798193115 1.7406342067286396 2.3066630904087817 62 74 29
11.106111846213755 1.1679526747578215 2.0761143096086383 55 67 22
9.34063447448834 2.001661351782658 2.184113179339747 58 70 25
10.342796033868202 1.266277719183334 2.007689375863183 53 64 22
9.986695584763428 1.4804587296670502 2.024407117813085 50 61 19
10.658006396410777 1.1679526747578215 1.9939219610167878 51 62 22
10.024706858919458 1.703144051486649 2.0225594049134625 56 66 21
10.433936848077842 1.5920640003219355 2.112120705908455 56 66 20
10.588029998311445 1.3710565110154074 2.103393457030713 52 64 21
12.410965837327938 0.502469132477056 1.6819195570719554 43 51 9
11.954816705284145 0.5444753090934266 1.8571148731979172 55 63 17
11.05967860282434 0.7172924289248642 2.18527990416842 60 68 20
10.556334768163246 0.6275981382962177 2.219340599611533 56 68 22
11.908115379797113 0.5932429922258518 2.039222847085285 57 65 17
11.05967860282434 0.7172924289248642 2.18527990416842 60 68 20
10.5149356062267 0.7172924289248642 2.1074957087041777 58 66 18
10.126989516993378 0.5245325785312408 2.251880002850802 58 70 25
9.781392008147684 0.407573685093078 2.280859468068659 60 71 22
10.267181361237867 0.24349397710023069 2.2408627139282675 60 72 25
11.137680196498062 0.36005599298095026 2.2946596786444067 59 71 21
10.836064575570393 0.1371895124281835 2.4543574496700225 59 74 24
10.46079584026626 0.407573685093078 2.353414794848873 60 72 26
11.110780361644892 0.7964877931421133 2.296801744589537 60 68 19
10.182773007596557 0.5959345464608568 2.3809470448231407 57 71 30
10.849059988377732 0.7987623461341461 2.452899210393371 60 70 28
10.609861129368065 0.7046722593593293 2.339538291539877 59 69 28
10.376941360460544 0.3222975604493491 2.5101964198358546 58 73 26
10.609486276850314 0.4684863546162511 2.4808087518713737 58 72 31
11.070376910154181 0.16042865434438644 2.5810617233589097 59 74 26
11.475460530184314 0.1930290172546963 2.7003397807212637 62 77 35
10.828953790189667 -0.537602570553885 2.3201497511026505 59 74 34
10.477572194419524 -0.7010435874076049 2.4971778057927168 56 76 38
10.290474472228999 -0.25787887714456353 2.239070425801746 58 72 28
10.399988642180489 -0.34071935305958395 2.5071721447648203 58 74 31
10.737444444765542 -0.404628023426748 2.632597860084093 58 76 34
9.875568677426546 -0.4847539872561394 2.414221746796988 58 75 33
10.495071569565477 -0.42229578140648893 2.350172235083515 59 74 33
10.17416434875055 -0.537602570553885 2.2481278385396055 58 73 33
10.082382604527238 -0.007664092240273884 2.255470886974759 60 72 25
10.973259595224567 -0.5665889492145786 2.595324146252119 57 76 35
11.030546580865176 -0.010302246001279668 2.586841066134597 60 75 29
10.094904723214494 -0.15439745464593363 2.390137706259552 59 74 29
10.194132522091321 -0.010302246001279668 2.535147916436059 58 73 28
10.591175584639545 -0.21688596000793206 2.657923350247494 58 76 35
10.248904859433596 -0.18044038224592251 2.5274855698448713 58 74 29
10.137758722904934 -0.13488390781972684 2.2510193670616534 57 71 24
11.0785654292604 -0.8692660092201282 1.8804833649437624 57 70 56
11.417052374444655 -0.9262404660967425 1.6916388487826535 42 53 46
11.623102310405955 -1.0470652706727983 1.6031780231925112 29 33 36
11.055974383941711 -0.7350041244664467 1.8811372643619426 56 70 41
11.124434640686685 -0.7271891883691148 2.181178406063365 57 72 31
10.666127815758236 -0.7165100947962739 2.334448398707026 57 75 35
10.612885240835702 -0.6390201198289314 2.2153082478214254 58 74 30
11.175240289222113 -0.8064588812631099 2.291692679582687 57 73 35
11.185711377467015 -0.8034226533595391 2.0721817090735293 53 70 35
10.612885240835702 -0.6390201198289314 2.2153082478214254 58 74 30
12.712465352429808 -0.43778626320562164 1.922239838691803 54 65 26
10.659897650503265 -0.9727356037812322 2.2119977304244807 52 72 35
11.346943679201313 -1.0327593531240127 2.1675264890476953 54 70 38
8.90045718258924 1.2750526834601708 2.369428612888858 61 71 29
10.20833478826235 1.0005111869940617 2.3783195239921042 59 71 28
9.472666834546349 1.6027988871352823 2.4633780496580466 63 73 31
9.54524732055598 1.7685376229689107 2.4539951433319485 62 72 34
9.472666834546349 1.6027988871352823 2.4633780496580466 63 73 31
9.505318906067677 1.4352990724605257 2.4591257816823195 62 73 33
8.957201535655136 1.8072082164008152 2.538360133910172 62 73 33
8.879815870730427 1.6092710961207592 2.5511292400925774 62 73 33
10.86069818281143 0.8022105936979426 2.612617659399062 60 74 33
8.914639669992793 1.4083120119198906 2.5453259177337957 63 73 33
10.20833478826235 1.0005111869940617 2.3783195239921042 59 71 28
9.87878679805947 1.1289608000901792 2.4138558784512507 61 71 29
10.95274938743345 1.0005111869940617 2.441477184444322 58 70 27
11.437967387283528 0.6572604831662843 2.7073318247656335 60 75 36
11.734878994382514 0.8022105936979426 2.6556350922513734 60 74 33
10.57320933285891 -0.676656693529111 2.661168248269579 59 78 38
10.255392973880696 -0.8279677159344556 2.7245254934846255 60 81 45
10.57320933285891 -0.676656693529111 2.661168248269579 59 78 38
10.37656626446099 -1.151450623251849 2.6989066122692456 60 81 47
10.596829619677914 -0.965390642746148 2.656908575911138 60 81 46
10.819736290695735 -1.6328647482255474 2.854308361742044 62 85 54
11.243916695323282 -0.49565039881556405 2.7461799654928116 62 82 42
11.177016822184623 -0.8279677159344556 2.7607757289141346 62 83 45
10.848334616333124 -1.312064141053517 2.8455166391552535 63 86 55
11.171664016058358 -1.37390671417725 2.7619742987248266 61 84 53
10.848334616333124 -1.312064141053517 2.8455166391552535 63 86 55
8.950521280609184 2.2513979980489265 2.5394443979335666 61 72 31
9.280074639809648 2.063644175610021 2.328282067747495 62 73 34
9.280074639809648 2.063644175610021 2.328282067747495 62 73 34
9.433563391151631 2.1441876223056653 2.4685392912288875 61 73 29
8.950521280609184 2.2513979980489265 2.5394443979335666 61 72 31
8.98551366746339 1.9240373122711527 2.359756610816638 63 73 36
11.623300759266357 2.736121825197492 2.935072386424807 60 83 50
11.623300759266357 2.736121825197492 2.935072386424807 60 83 50
12.159842903791784 2.92087878255137 2.7806487549213768 59 82 51
11.85248708046664 2.8550047365456663 2.8571731858328118 59 82 50
9.003862210892098 -2.2368078246495835 2.530878051281749 64 86 58
9.562521908740418 -2.0655180025121753 2.6382020523193956 63 86 57
11.585371529654259 -3.1142697890747035 2.9513305332799784 63 86 53
10.80313099823242 -2.3868455011310408 2.859557387415529 65 88 58
10.80313099823242 -2.3868455011310408 2.859557387415529 65 88 58
12.504472073499295 -3.130060492364971 2.7135484179032674 66 89 60
10.907257028120103 -2.8208388031903184 2.828292587540419 63 87 56
11.815293603308817 -3.122832040116647 2.8681471501552127 63 86 55
11.037542856303292 -2.192030394227187 2.793697521033899 65 88 59
10.302385303234312 -1.7851644717174875 1.6073309461451444 60 77 47
10.22308336455827 -1.6885572557040112 1.7058340391644229 60 79 49
10.338458493465927 -1.5896973996559893 1.8027214021554632 60 77 51
10.392079352418628 -1.1727278510500851 1.9016945243792687 66 80 62
10.535184652849754 -1.2984260293056982 1.7018101866099618 54 66 58
10.436775117592363 -2.225733473310867 1.8004971671783132 50 69 44
9.302575261349478 -1.9476846667033447 1.9422212755633828 56 75 47
10.447986330070355 -2.0910321006270367 1.606821585139674 49 66 42
9.389654730109173 -2.050221794937858 1.8266562826503756 49 68 42
10.844804572576411 -1.2087712003122097 1.698049105833915 35 45 43
9.89469552023489 -1.9093593298390108 1.8133269901172244 52 71 39
9.741507097379717 -1.7014152206825341 1.9247297631200346 57 76 44
10.063262446677474 -1.5917830617432265 2.02070116440445 58 77 46
10.501407595237009 -0.9254078283222114 2.4941632899890136 55 75 38
11.315130643345574 -0.9254078283222114 2.5474922320319875 58 78 43
10.685184595166257 -1.412091302172193 2.6414322800963292 61 84 53
10.340241400960142 -1.6021670929233425 2.5150662752528152 62 83 53
10.43523450698483 -1.3499108913985456 2.228165726660974 59 78 48
10.685184595166257 -1.412091302172193 2.6414322800963292 61 84 53
9.858052989441441 -1.8018140080330955 2.586197452700361 63 86 55
10.37016213845586 -1.4379441361134937 2.5110909417743397 61 82 50
10.89799831923956 -1.0759358695245211 2.3142712879030185 55 75 40
10.242429190526462 -1.4565856447339263 2.374846424492847 59 80 49
10.212134212553972 -1.59772587635843 2.3779307144759048 59 81 50
10.094004241055298 -1.4816460541480823 2.019230874959538 60 78 50
10.446447372858815 -1.270061789529995 2.0030608064332225 63 79 55
11.018133890140524 -1.0095403454055385 2.434462574667655 56 76 41
10.495710234452773 -1.2805695641713062 2.4948815088202716 60 81 48
10.960541059237606 -1.1292322270777437 2.191676623806054 53 70 36
9.248235917363607 -1.7174026083254605 2.0637214915274806 58 78 50
10.308949930426168 -1.4706547960021235 2.2376563829420313 59 78 48
9.303286677312105 -2.106437362352979 2.0605456845785484 53 73 47
8.897798241586857 -1.9952074787615415 2.0850002813465824 58 78 50
9.140191687836523 -1.8716099384923677 2.199634271729661 59 79 51
8.742804336013469 -2.1333303504684755 2.388125176387478 62 84 55
9.12052904469734 -2.1757695507826234 2.2012032077995176 58 78 52
9.06509851823524 -1.917610084236064 2.3509534925926756 63 83 55
11.726172677107858 3.0577743311399828 1.862860307445463 64 81 56
10.94317949240957 2.7726376744617105 1.513771935610397 55 68 53
11.162510826876298 -2.8498831564439895 1.878077925157959 69 87 67
10.136720012856062 2.5141024859821326 1.5092296476557796 52 66 35
10.694771167828133 2.860693965135878 1.6998441988881225 58 71 56
11.472589626592894 2.969919907332475 1.4287917792849043 59 72 59
9.918832751159572 2.4511096398805066 1.9181320912085362 53 64 30
11.495266222299229 2.5988382007104684 2.1587867572377486 56 70 46
12.455456193695108 2.6402933864008964 2.4230826285873697 67 83 56
11.473272868551387 2.860693965135878 1.9621446963219684 64 77 62
11.68367764236396 2.9534507173991673 2.0489668035728372 67 80 61
10.518360401325893 2.5988382007104684 1.9999087868968342 55 65 43
12.176245038818491 2.9534507173991673 2.1219471751990477 63 81 59
11.859223748355621 2.736562846112497 2.1384636806242936 60 73 54
13.490840144397817 3.0115761519419464 2.5741193807148717 59 82 55
13.490840144397817 3.0115761519419464 2.5741193807148717 59 82 55
13.252564931336346 3.0273035510072464 2.470216206490754 60 81 56
12.961894997549392 2.7534273372710505 2.4989656404366456 68 83 57
13.129276433095537 -3.135079644812919 2.3662094327894754 64 84 60
13.191118569485612 -3.13571877587635 2.258799911333876 69 88 63
12.015633923675813 -3.1362436796932456 1.9435893035568377 67 83 61
13.289745126832232 -2.9210997249852593 2.3539666515437494 71 90 67
12.624290160611537 -3.037957491130735 2.1948074321989406 70 88 67
12.190770462415909 -2.9595530997145856 1.9379770545650854 65 83 64
13.261595045046773 -3.012901820467335 2.4693596200728676 71 91 65
13.458175238176135 -3.1332680755727744 2.5779386548681797 71 92 66
13.861115382656417 -3.135079644812919 2.4167311733123458 69 88 64
11.071008121213127 -2.4301776825187424 1.7871222158221904 52 69 45
12.919456647845509 0.57074576501324 1.6775288797792813 32 40 1
12.842336103012611 0.6804502970872828 1.756906049272988 34 42 1
12.695391943065983 0.6804502970872828 1.679420012585986 41 51 9
10.991778970404104 0.8618798666661907 1.8830108364959088 47 58 16
11.734542683652238 0.9198401165904565 1.8626458584055827 57 71 30
11.2622255270786 1.0261510095464845 2.172645685579139 57 67 21
11.487619026079459 1.0772095238610615 2.057832879713331 52 66 21
11.327453748146105 0.7265041126715652 1.9674623965939804 56 64 18
11.966264892464467 0.7936715258396888 1.9452032854209933 47 57 13
10.867432855268152 1.2953083391646103 1.8867062225123956 30 43 2
10.03677464284264 1.589924977291705 1.7083564746872841 46 58 15
10.976528724715486 1.4969069002141064 1.6050861975556754 37 49 11
10.565035428429944 1.8813494490076914 1.416499579148819 47 61 22
9.306837114482244 1.8110456146088816 1.7192223079057873 49 63 22
9.082818335725937 2.056372458811435 1.7229112361533712 53 64 24
10.463589665951632 1.4804587296670502 2.1104177445638665 56 67 21
9.42650964163705 1.598190163101028 2.3136916929268825 62 74 27
10.18525262740766 1.5947415336945603 2.247252583541253 61 71 25
9.675729581194888 1.8764839521771155 2.290285355046225 62 74 30
9.21277167000194 2.113974222811112 2.065790388462589 54 68 24
10.000283507065424 2.3738866101705876 1.6084351460956468 47 60 26
10.940482096581409 0.5486704560777701 2.6002720433602495 59 73 33
10.267181361237867 0.24349397710023069 2.2408627139282675 60 72 25
10.125943217513708 0.11980295442838874 2.2519637488973903 59 71 22
10.431769532115837 0.6863299598425547 2.503043858240865 58 72 31
10.784643557947117 0.5245325785312408 2.323979219066395 58 70 28
10.556334768163246 0.6275981382962177 2.219340599611533 56 68 22
10.267568710768414 0.4672494572303848 2.1218914704522307 58 69 20
11.250530457087645 0.6863299598425547 2.5560466898115637 60 72 32
10.715123025209742 0.38340821858799135 2.636343452301478 58 74 31
10.46079584026626 0.407573685093078 2.353414794848873 60 72 26
10.47362498135375 0.7964877931421133 2.225339456348387 61 69 21
10.24825908681762 -0.29373282186788047 2.374256111498397 59 74 31
10.229690593675349 -0.6099136162948623 2.376139891894901 57 75 34
10.973259595224567 -0.5665889492145786 2.595324146252119 57 76 35
9.389061794242375 -0.15439745464593363 2.3173609320128454 59 74 28
11.23518832797686 -1.1248040792301879 1.6936047406074715 29 35 36
10.810526195948567 -0.6598885108591828 1.9875775675460208 55 70 32
10.583025374638078 -0.7271891883691148 2.1036722074651117 56 71 31
10.689542786018487 -0.8998957935622666 2.3323532972123795 56 73 37
11.296910259536606 -0.946222865497431 2.0667944969834102 59 72 56
10.904092444079645 -0.8107249660752683 2.446790509830376 57 76 38
8.716581724715136 1.6027988871352823 2.391337566072305 62 72 30
10.20833478826235 1.0005111869940617 2.3783195239921042 59 71 28
10.444253543632756 0.9138651363957268 2.5014353151920012 61 71 29
9.156298848707245 1.1289608000901792 2.3411444111848554 59 69 27
8.752055045037773 1.4352990724605257 2.386999125524425 61 71 29
9.54524732055598 1.7685376229689107 2.4539951433319485 62 72 34
10.90469937853476 -0.8171576193100191 2.60575492326983 58 78 41
10.286598844980308 -1.8559609681771927 2.717730511717899 63 87 57
11.104321217958711 -0.2713291120453657 2.7774766173409198 61 80 39
11.104321217958711 -0.2713291120453657 2.7774766173409198 61 80 39
10.848334616333124 -1.312064141053517 2.8455166391552535 63 86 55
10.968410755240013 -1.036667175936458 2.811516409892958 64 85 50
10.968410755240013 -1.036667175936458 2.811516409892958 64 85 50
10.848334616333124 -1.312064141053517 2.8455166391552535 63 86 55
10.945592359650364 -0.6325892668731949 2.8176562556074174 64 84 45
9.280074639809648 2.063644175610021 2.328282067747495 62 73 34
9.143948206470196 1.9880982630621435 2.509321927342639 62 73 33
8.674070455109284 2.1441876223056653 2.3966106346229497 62 73 32
11.037542856303292 -2.192030394227187 2.793697521033899 65 88 59
12.123592387764322 -3.1273086330717126 2.7886548868295393 64 87 56
10.711803567295167 -1.2984260293056982 1.7944977467299243 51 62 58
10.493953740920732 -1.3927937914566313 1.7992232940435335 59 72 59
10.368384376017847 -1.4904678784985734 1.8020397941426165 61 77 55
10.338458493465927 -1.5896973996559893 1.8027214021554632 60 77 51
9.6189744768291 -1.8079895434597353 1.8204248430041627 55 74 42
9.008750026546664 -1.8361268344474961 1.9549570709334585 57 77 47
10.571984316763274 -1.8778830779500177 1.5117674510720516 55 71 43
9.496801969741835 -2.1333303504684755 2.4602299733525252 63 85 56
10.278455838616356 -1.0095403454055385 2.371214943420616 54 74 37
9.173305736262554 -1.594386008780414 2.0681142944140807 59 79 52
8.70653321379417 -2.055373311902651 2.2363604545916322 59 79 52
10.063262446677474 -1.5917830617432265 2.02070116440445 58 77 46
10.89799831923956 -1.0759358695245211 2.3142712879030185 55 75 40
10.589933749481865 -1.1920137596915232 2.341359962382263 58 77 45
10.807073627051475 -1.2272915646948652 2.6211690023801135 60 81 47
11.478262310065684 3.0577743311399828 1.779331449446811 59 76 53
11.36334249811911 2.969919907332475 1.6039185188974856 61 74 56
11.841847719748841 -2.874675857640213 1.7728386642632201 66 83 66
13.224443132868261 3.049593198176533 2.2567303315024865 64 83 58
13.171849247406358 -3.026774803067748 2.3629174531017405 71 90 66
13.16275756507261 3.0396484072245653 2.3636177645565084 62 82 57
13.252564931336346 3.0273035510072464 2.470216206490754 60 81 56
12.195892546443593 -2.94213868835911 2.1209572147966207 69 87 67
13.191118569485612 -3.13571877587635 2.258799911333876 69 88 63
13.219311260389006 -3.1342844484148626 2.4733887471048184 70 90 66
12.094050440552154 2.539597634011413 2.335880301783337 59 73 43
12.58514417010938 2.9335367622748287 2.2990552766393364 66 84 63
11.721167561227908 2.6402933864008964 2.366892809457269 64 78 50
11.020923027922255 -2.6383096337218923 1.8821574087244637 67 84 68
10.830944595737602 -2.4301776825187424 1.5131803730314537 57 71 52
10.461716297061653 -2.5045906055314577 1.7999397479350845 60 74 56
11.02587762259507 -2.5586481826414054 1.514200098464148 65 78 62
10.888249827809123 -2.299227307192918 1.6975386119991014 48 66 44
12.481904082197525 0.6157204114982158 1.8447049326591745 49 57 13
11.301483262827524 1.319393123862694 1.6040998817504377 37 52 14
10.948265264267711 1.5881768645097947 1.605174753310949 41 55 15
10.588029998311445 1.3710565110154074 2.103393457030713 52 64 21
8.985820436950808 2.056372458811435 1.6126867786763708 52 63 27
9.955622439355567 1.5920640003219355 2.025929301971333 51 61 19
9.662664256906837 1.7195807394378093 2.1608436836958282 59 71 27
10.433936848077842 1.5920640003219355 2.112120705908455 56 66 20
10.191912335746105 1.8110456146088816 2.014614075383707 55 66 22
12.561237718075303 0.502469132477056 1.761121303398247 49 57 11
11.490750863050788 0.4665161809250893 1.8690260055109171 56 64 16
10.137758722904934 -0.13488390781972684 2.2510193670616534 57 71 24
11.437041021154888 -0.012443956353715967 2.7075064999099587 59 76 35
11.18854509535656 0.6502492705177271 2.072042896624752 57 65 19
9.953750534462076 0.8901583972992808 2.2660675258432823 60 68 26
11.823281075546625 0.4665161809250893 1.9499597557311574 55 65 19
10.609486276850314 0.4684863546162511 2.4808087518713737 58 72 31
11.05967860282434 0.7172924289248642 2.18527990416842 60 68 20
9.818039888675594 -0.42229578140648893 2.2776550962124853 58 73 31
10.224869806090124 0.27754958181342526 2.3766306868683644 57 71 24
10.229690593675349 -0.6099136162948623 2.376139891894901 57 75 34
10.79884178116796 -1.0827390398055385 1.8887830238664707 58 71 56
11.252559558961094 -0.6598885108591828 2.068928485131234 56 72 29
11.423100803419366 -0.8692660092201282 1.9639577204329555 62 75 62
10.86069818281143 0.8022105936979426 2.612617659399062 60 74 33
10.444253543632756 0.9138651363957268 2.5014353151920012 61 71 29
11.734878994382514 0.8022105936979426 2.6556350922513734 60 74 33
14.507880916250182 1.6685000443554057 3.0068138108005877 59 79 43
10.90469937853476 -0.8171576193100191 2.60575492326983 58 78 41
10.57320933285891 -0.676656693529111 2.661168248269579 59 78 38
10.57320933285891 -0.676656693529111 2.661168248269579 59 78 38
11.171664016058358 -1.37390671417725 2.7619742987248266 61 84 53
11.243916695323282 -0.49565039881556405 2.7461799654928116 62 82 42
8.98551366746339 1.9240373122711527 2.359756610816638 63 73 36
11.85248708046664 2.8550047365456663 2.8571731858328118 59 82 50
12.159842903791784 2.92087878255137 2.7806487549213768 59 82 51
9.390359548912024 -2.204735725865838 1.9385826353472284 52 71 46
10.758621345769264 -1.1727278510500851 1.989714465225308 67 83 61
9.690312591739442 -1.594386008780414 2.158934335757471 60 79 50
10.6542850423433 -1.2353505373475677 2.212390993616356 58 77 46
10.960541059237606 -1.1292322270777437 2.191676623806054 53 70 36
9.357154513930904 -2.055373311902651 2.320520426257146 61 81 53
9.209175761175677 -1.9792981358909243 2.4997165762050804 64 87 56
11.018734542961127 -1.063878477993204 2.5885734571534593 59 80 45
10.222944398077082 -1.373627476781743 2.0131713179935793 63 79 55
9.620202788284686 -1.7647293805162225 2.4445624826348658 63 84 55
10.37016213845586 -1.4379441361134937 2.5110909417743397 61 82 50
10.369523917262635 -1.3198447217633664 2.3622064821604836 60 81 48
10.124510487609417 2.5141024859821326 1.6079731064128364 54 64 41
12.175048192371548 -2.8201880082619057 2.2216360543804607 68 88 65
12.359858350751765 2.693193392844454 2.315430364052308 62 76 52
12.599926361881955 2.908993204518447 2.4100667196297794 65 84 61
13.499710873986114 -2.9952428930996864 2.5730893133066504 73 94 66
12.078319891044853 2.7969362095589916 2.3371315656680225 68 84 61
11.395010813376983 -2.7256113585307684 2.062141812363418 66 85 66
11.383462296490658 -2.68071434849612 1.6038599554330313 70 88 70
11.507783182511703 -2.3642132774718982 1.5165725263754475 49 66 44
13.417899505553073 0.6335262833716853 1.5988453776402656 45 55 13
11.52529572034486 0.9945200341398608 1.9602828731505682 52 64 21
10.252274663391473 1.4895046836269608 1.8047072292324693 41 52 11
8.674388238783827 2.2129180177649066 1.6141916788786772 49 63 25
9.55833657915035 1.5920640003219355 1.9318198529548944 52 62 19
9.34063447448834 2.001661351782658 2.184113179339747 58 70 25
9.611197607559735 1.9528334094743591 2.0435442286630283 55 69 26
11.334843174369585 1.266277719183334 2.168251904586363 57 69 24
10.742767752248485 -0.007664092240273884 2.3276401599536887 58 72 25
10.783661068439992 0.11980295442838874 2.3240646426672544 57 72 22
10.094904723214494 -0.15439745464593363 2.390137706259552 59 74 29
10.916392861161912 0.24349397710023069 2.3127230268078725 58 70 23
10.502156929164057 0.36005599298095026 2.2232562760250394 58 69 19
10.79536976790018 -0.008789482573628174 2.4589636179193275 58 73 27
10.828953790189667 -0.537602570553885 2.3201497511026505 59 74 34
9.553752891710328 -0.29373282186788047 2.301527306017906 58 74 29
11.18854509535656 0.6502492705177271 2.072042896624752 57 65 19
11.471776781451968 -0.8011514948001364 1.7794510847751142 48 59 45
10.747110480878339 -0.5748852818281394 2.0946911067151435 56 72 31
11.146886940618815 -0.8822235108302663 2.1797701759078416 52 69 32
10.7409272888945 -0.8034226533595391 1.9904481094114774 54 70 37
9.505318906067677 1.4352990724605257 2.4591257816823195 62 73 33
8.914639669992793 1.4083120119198906 2.5453259177337957 63 73 33
9.51231421563899 2.0781267724447745 2.647871348280801 62 73 34
10.219285021237221 -1.6176023742279504 2.7325734849733663 61 85 54
9.642134517511195 1.2750526834601708 2.441850071739983 61 71 29
10.076344024285133 -2.0039947775035922 1.707812868859254 52 68 41
10.990365226457548 -2.170193340913235 1.5140170265829378 48 64 41
9.69114213833117 -2.050221794937858 1.9266507019809527 52 71 43
9.15516013568756 -2.2624495590185054 2.3412651090164944 63 83 56
10.713524344179646 -1.1366243876807776 2.4684150936030873 59 79 44
9.303286677312105 -2.106437362352979 2.0605456845785484 53 73 47
9.587251672549627 -1.7378079913632167 2.2984001523934587 58 80 51
11.314425967959991 2.6483606968164843 1.96794474389754 56 69 50
12.145514433238308 2.831959710182113 2.223489145485906 71 86 65
11.570110719866094 -3.037957491130735 2.0540608251340657 66 84 60
10.575113944057376 -2.5881900405598395 1.9974546401129307 64 81 64
10.698605091271936 1.0772095238610615 1.8918685076194373 45 59 18
10.510505014591471 1.1861012915637184 2.3487224703705802 58 68 24
11.279833968744047 -1.0005810388278475 1.8747790230694539 50 61 52
11.475460530184314 0.1930290172546963 2.7003397807212637 62 77 35
10.622135834990086 0.8901583972992808 2.338421184743811 59 69 25
10.5241804906804 2.6483606968164843 1.7019479661450052 54 65 48
11.049342460854264 -2.568253499014357 2.7907646206332735 64 87 57
9.993618229405936 2.063644175610021 2.401049250411021 61 72 31
11.437967387283528 0.6572604831662843 2.7073318247656335 60 75 36
11.565504781604803 2.831959710182113 2.1547435633455265 66 82 63
12.919456647845509 0.57074576501324 1.6775288797792813 32 40 1
10.018211152136859 1.689962185563902 1.6083677594779346 46 58 15
10.215627324440135 1.469155270647138 2.2448678034453087 60 71 25
9.514991601706164 -1.59772587635843 2.305184305282317 58 81 51
9.787792360403268 -1.608361674387698 2.5978753308098566 62 85 54
10.627300285697057 -2.3653386607514277 1.8941008112319706 50 69 44
11.761141310415876 0.8618798666661907 2.045556157741331 56 66 22
10.527320994232067 0.8738187855827615 2.106795893733014 56 66 20
10.094904723214494 -0.15439745464593363 2.390137706259552 59 74 29
12.348565195882745 -0.35927084063170334 1.9330668065631764 53 65 22
11.49132681216073 0.5932429922258518 1.961496499715563 57 65 19
10.658006396410777 1.1679526747578215 1.9939219610167878 51 62 22
12.792123802757938 2.7969362095589916 2.3934817423618315 70 86 62
10.612885240835702 -0.6390201198289314 2.2153082478214254 58 74 30
