14.81343233702789 0.061216158840235846 1.3830811433773469 71 85 63
11.582090808075325 1.2576786806287268 1.4178618463647705 53 69 13
11.582090808075325 1.2576786806287268 1.4178618463647705 53 69 13
11.818118032401879 1.1769203633214396 1.5060704293505889 51 68 12
11.745106585289147 0.16255970440618614 1.676192239824513 55 70 37
11.545122130454846 0.38772115563559395 2.0414734128721577 60 75 34
10.818409463718815 0.2945887718705956 1.973076399827247 53 68 31
11.420114954973354 0.09319347187076026 2.148400857604083 52 65 32
10.223509548787915 1.0999061598263966 1.7912496948661465 51 66 12
11.331828179639619 1.0612814616775734 1.5915884421879447 50 67 12
11.252730218227782 0.9375818328397761 1.7707984414266553 67 83 31
10.540438843944647 1.0146688036066882 1.6882907875057578 59 75 22
10.987270554672145 1.2283387815762559 1.8697137928346113 57 72 14
10.232081936458703 0.7342509729284412 2.1079403498314795 63 79 29
10.838013208455582 1.0999061598263966 1.972306913333667 56 72 17
11.385863321105893 0.7342509729284412 2.259438558211818 64 80 30
10.838642490210288 0.8125515949006838 2.0749299482638257 61 80 29
11.417821986178554 0.894846009824347 2.257136989300709 64 80 26
10.903294308505028 1.193220474784205 2.071661653584751 60 75 19
10.203665871912163 0.8173055728258952 2.2282626212837005 62 78 28
11.028338172316365 1.050009935064784 2.1717335077152926 63 78 23
10.963801638653893 0.959839646652984 2.068642990170618 59 74 21
10.495382386398328 1.050009935064784 2.0930648686498525 59 74 19
10.392544424939539 0.8125515949006838 1.9905778896971897 63 79 27
10.392544424939539 0.8125515949006838 1.9905778896971897 63 79 27
12.710679570530992 0.21818606595487888 2.3841584470770174 58 75 36
11.640009095981243 0.5207684156220677 2.136137196521575 64 79 29
11.549877168541721 0.3268459522728648 2.24780618621005 46 61 21
12.600821594980484 0.10404941084662363 2.3934240533313726 69 86 53
11.590013144814248 0.6430964016904414 2.361114111631282 64 80 32
11.25651551228615 0.42807533195386266 2.157902799020412 45 59 17
11.821493186911185 0.724452699799864 2.4674694852733285 65 83 35
12.201264443271908 0.3268459522728648 2.3117323927113107 51 68 26
11.130379724490778 1.7053328925257365 1.4116033062460613 52 67 12
11.247511136701462 1.3428824325306392 1.6808735255138723 53 70 13
11.129865601453345 1.5225389383625916 1.7730367284473492 58 75 19
11.214727746867304 1.7053328925257365 1.7714854044259079 62 77 24
11.235970456310211 1.7941835479265829 1.6809870475076258 63 78 25
12.334171951131372 1.7941835479265829 2.0091826085363578 65 80 27
12.334171951131372 1.7941835479265829 2.0091826085363578 65 80 27
10.929791127357577 1.5225389383625916 1.500801501081066 51 66 9
10.927416856358821 1.6142985193322188 1.500786267956268 51 65 9
10.35779258856083 2.2579153404132417 1.3996159516464486 77 90 52
10.84111162468402 1.9085908062838022 1.3129561757662245 62 76 27
11.489413166806191 1.9956161770719991 1.2369905186698165 66 80 36
11.70154300595428 1.6186905589700955 2.132804570251385 64 79 24
10.771983143447962 1.517668447346842 1.9749109139295469 65 80 25
11.70376023572027 1.517668447346842 2.1326852710278463 64 79 24
10.771983143447962 1.517668447346842 1.9749109139295469 65 80 25
11.737645192088088 1.2939686013470644 2.2350142982934496 66 81 24
11.474690618282029 1.5117057338225126 2.253083734734265 67 82 25
11.472166409141563 1.3207459921050908 2.0447118471475254 63 78 21
11.737645192088088 1.2939686013470644 2.2350142982934496 66 81 24
12.909794829230211 1.4008115372564056 2.367984816507003 69 84 29
10.857779724353385 1.9956161770719991 1.592496361251714 67 81 34
11.000314558972079 2.2002069532918114 1.5922151432021199 66 79 42
10.513325198889863 2.1227023140651955 1.6885952108436033 70 84 37
11.950829211822018 1.815914752901904 2.1197219162242504 65 80 27
11.050385321116439 2.2579153404132417 1.9641612041227208 73 88 47
11.56087239535077 2.4946606361936454 2.3636629546286567 73 94 57
13.029249475396572 0.36668063732139294 2.4744389180320017 65 83 40
12.735776432544151 0.11775476100834976 2.5042643086973726 70 90 55
13.130116834482278 0.28194789658702313 2.597721159834027 69 89 50
13.733169147526102 0.48191545222549 2.670233859844972 75 96 58
13.362186942994523 0.5683295848843866 2.7280131072078637 80 102 67
13.733169147526102 0.48191545222549 2.670233859844972 75 96 58
13.362186942994523 0.5683295848843866 2.7280131072078637 80 102 67
13.613548772297424 0.7100195116088085 2.6877767392147986 72 92 48
13.654737750033298 0.24608489967540154 2.537178156106925 67 87 48
13.995397796897555 0.28194789658702313 2.634702653167403 73 93 56
14.115189018557134 0.39564246401965364 2.7867023819237593 80 101 65
13.314533985111577 0.8344921490875903 2.736245036517575 73 95 50
15.884008757445516 1.7815499729491209 2.6819742680989958 78 100 57
16.341485558898796 1.6511029652750644 2.7715895819758765 80 102 61
16.400983364928717 1.816009657367146 2.762346631229792 80 104 64
15.77228604677813 2.037039780175086 2.4587236649436086 65 83 37
14.276646116258961 2.037039780175086 2.370209034705797 68 84 35
15.606387094440331 1.874641871777953 2.583163335098202 73 93 48
15.795803974678977 1.985547929236559 2.564254531533897 73 93 50
16.90328461210502 1.915520636243737 2.6936483544948664 81 105 65
14.802483489026173 2.311769939012115 2.6773188348622123 79 104 68
15.161000412505258 2.2997281418340534 2.7903953909438712 80 103 70
14.935704309867587 2.4476548033656123 2.8341981629553312 82 105 72
15.161000412505258 2.2997281418340534 2.7903953909438712 80 103 70
14.14132934395521 2.7216955521112354 2.616418416778788 83 106 73
14.447131607322639 2.809087403414552 2.7291390607920833 85 108 75
13.971275007601179 2.857503925430782 2.6378208183353875 84 107 74
11.782395664509526 -0.1810322240160187 1.6758574467877294 40 51 29
11.012569002049348 -0.010418149493936393 1.869005976118761 58 71 42
10.926412660438066 -0.11596600759095085 2.0705037626656146 56 69 42
11.579162955768602 -0.2179473326998848 2.139474455881113 69 83 57
11.540646727058817 -0.1978043483983703 1.9465948610560937 60 72 48
11.854486205065538 -0.012861774617444718 2.338832393956033 72 87 58
11.965260940786969 -0.14639043832936988 2.4525695394608684 71 90 60
9.48300362134168 -0.7227456515908083 2.6228809002058897 76 99 65
9.168218626391587 -0.7462776868515895 2.178591895482869 76 95 67
9.47245432477621 -0.7372301131923263 2.4400639700763262 74 96 61
8.850603351897895 -0.8355225952453175 1.9450512316476833 74 92 66
9.50742353947061 -1.1104042162665395 2.1539810055177018 69 89 55
9.415039247996646 -1.0473779217462562 2.294682877231079 69 90 53
10.657285482762816 -1.8516540600794267 2.619142731864274 76 99 60
9.544359196465864 -1.0196846019430281 2.6117284425884537 76 98 63
9.426351349856699 -0.6287469440967071 2.940073189010723 80 103 68
10.567947943246415 -1.4682256623158063 2.634016418879791 74 97 58
9.595594275226407 -0.9445949695996778 2.8668053430974165 78 101 66
10.22321323960246 -1.2152672503693573 2.698417325170934 76 97 62
10.0156937949887 -1.1116813403795176 2.536183149039196 72 94 57
9.595594275226407 -0.9445949695996778 2.8668053430974165 78 101 66
9.595594275226407 -0.9445949695996778 2.8668053430974165 78 101 66
9.8113315742536 -1.2805882168252052 2.5669679245038903 73 94 56
8.863648199253705 -1.3848069467997235 1.9444732534904472 73 93 55
9.275529677942034 -1.3848069467997235 2.0450132498145352 72 93 55
9.592203374486397 -1.326043932903158 2.425414814814279 72 93 56
10.157647383439302 -1.496954423090596 2.3636086144151367 74 95 58
11.33317873726119 -2.971840296160156 2.523381642828232 84 108 73
10.941305449970367 -2.7737410587727562 2.5756875263928682 82 107 71
12.139499006488288 -0.016802853759129342 2.5739385718383136 74 94 61
10.408039737491167 -0.6287469440967071 2.9593054961557255 83 106 73
11.127874709195124 -1.915182416713523 2.7384072412283307 76 97 62
10.554190451944633 -2.1806587327683182 2.895260884334104 76 98 65
11.039995039789375 -1.6856394176123994 2.7574970515344575 76 97 62
10.306478608483898 -1.974531739694716 3.0242435383328776 79 102 68
10.805829474169043 -1.1146073089054973 2.815274673109137 77 98 66
11.042345104804664 -1.4435100441308204 2.7569708254077465 75 96 61
11.127874709195124 -1.915182416713523 2.7384072412283307 76 97 62
10.308995889133223 -1.1281889981778874 3.02219015529974 79 102 67
10.306478608483898 -1.974531739694716 3.0242435383328776 79 102 68
10.79862332983848 -2.0134471818443354 2.817252347431811 75 96 63
12.144427239407717 -2.8984762064336533 2.7522656776345924 81 106 70
10.739601536411385 -2.435523763424831 2.834017010258892 78 100 67
12.144427239407717 -2.8984762064336533 2.7522656776345924 81 106 70
11.01304436683428 -2.5958495468084837 2.7635979193953784 78 101 67
10.979907599096741 -2.2428492017392756 2.771272321828953 76 97 62
12.161913159407082 -2.971840296160156 2.571054883096027 85 108 75
11.660361342256449 -2.941589235675298 2.6420697479219823 84 108 74
10.534709805693689 2.3968085716615795 1.305278322688951 77 92 54
10.392569528168073 2.751955757645378 1.4001944098103971 69 88 50
10.996411892256186 2.9630368397274864 1.316678686627578 71 89 55
10.483114222239708 2.6181851924214317 1.2035013167652986 75 92 54
9.519086859186723 2.474147212047469 1.5955486760218043 76 91 53
11.377177289215519 2.474147212047469 2.1508625511030837 70 90 51
10.861352202372933 2.474147212047469 2.0737768176855393 72 91 52
9.81372803858322 2.6181851924214317 1.4928260223972563 76 93 55
10.48285586196851 2.751955757645378 1.7857089736235492 73 93 58
10.67068213923802 2.9630368397274864 1.499098980321735 72 91 54
11.124217857523885 2.9630368397274864 1.865922438889476 76 96 59
10.315962175994907 2.751955757645378 1.6908597047858884 73 93 54
11.60205145045584 2.6181851924214317 2.138214138211079 75 95 56
10.910832108810476 2.8128858164389707 2.1791351071483 74 95 62
11.782241099653605 2.6616703069283023 2.3447718548392706 72 93 60
11.5116223319261 2.8128858164389707 2.250479969617702 77 99 66
12.227498781861694 2.772590256602321 2.4269287749727404 74 97 64
11.455104292318916 2.9630368397274864 1.9495429251751093 76 96 61
9.885196506977186 2.56219466119579 2.0136046917748613 75 94 55
11.178376812423389 3.0369106770523433 2.274813528415433 81 103 70
11.302069652798654 2.9221127960311066 2.265556143949526 78 101 68
11.782241099653605 2.6616703069283023 2.3447718548392706 72 93 60
11.178376812423389 3.0369106770523433 2.274813528415433 81 103 70
10.693724149078612 2.711206964465585 2.082421739017473 74 94 59
11.881486255173089 -3.126920962087619 2.4611746289874943 84 107 75
10.825024717607253 -3.130017885133854 2.0756240915988897 79 99 69
10.072641512935949 -3.0249971581493584 1.8978202840139602 74 95 69
11.868696601329066 -3.0113849804547543 2.337676608142777 83 106 75
10.881198916508263 -3.0249971581493584 2.0727735981796354 77 97 68
11.340815549684367 -2.8975969709756515 2.2627123019483353 80 103 71
10.730466249222944 -2.8975969709756515 2.19088993987664 78 99 68
10.000600025535759 -2.8244424334637466 1.4942858584754055 72 92 65
11.262288813036443 -2.8244424334637466 2.0542936802514595 68 90 61
10.679431402553279 -3.036042208106188 1.4048201302081167 71 91 65
11.342501996608068 -3.130017885133854 2.1528670812450494 79 102 71
10.622190233564284 -3.1311228899017802 1.4039173397543756 74 94 63
11.262288813036443 -2.8244424334637466 2.0542936802514595 68 90 61
11.449332307999578 1.2576786806287268 1.5913750230944472 51 67 11
10.90632083603614 0.09319347187076026 2.0715097478386433 51 66 30
11.515177978522765 0.47428626704940746 1.9474676573144718 70 87 45
11.033064146226263 0.195895729222785 2.065234138232803 50 65 29
10.963801638653893 0.959839646652984 2.068642990170618 59 74 21
10.811820730192135 0.894846009824347 2.185527248046729 61 79 26
11.090774774698811 0.915642703509206 2.407684820211333 65 81 29
11.987067135122503 0.6640843315465425 2.218826204532267 66 81 31
10.897127864232575 0.6640843315465425 2.071971456498192 63 81 31
11.322159937388959 1.2283387815762559 1.9542201268196875 61 76 17
11.815228705184222 0.4770941491076534 2.3420465899095753 62 78 32
12.53278982358115 0.4770941491076534 2.399290948878352 65 80 39
12.600821594980484 0.10404941084662363 2.3934240533313726 69 86 53
11.221666687326081 1.431583260677646 1.7713596162081866 56 73 16
11.1275340202304 1.6142985193322188 1.7730796919488834 60 76 21
11.214727746867304 1.7053328925257365 1.7714854044259079 62 77 24
11.193955926417429 1.7941835479265829 1.5024559080711768 63 78 25
11.02325854830113 1.431583260677646 1.501395953683077 53 68 11
12.173072441052234 1.7053328925257365 2.0153959792393237 64 79 26
11.26367138587129 2.2579153404132417 1.1340553805452436 69 83 44
10.708324766579318 1.3207459921050908 1.8777509784708188 60 76 18
11.784490391407173 1.7187469687663495 2.1283781049309773 65 80 27
11.149041360094536 1.2939686013470644 2.1643306292714497 66 79 20
11.70154300595428 1.6186905589700955 2.132804570251385 64 79 24
10.866807984765192 1.4177166374551953 1.9711821464854768 61 77 20
10.769574082000528 1.6186905589700955 1.9750065779266173 66 81 26
10.448379440499165 2.2579153404132417 1.7864292990187312 74 88 47
11.327177705030033 1.9956161770719991 1.8604797853644923 66 80 32
11.26692420123445 2.1227023140651955 1.9561985151884635 68 82 43
11.652302183155888 1.9956161770719991 1.9428169930420536 69 84 34
13.310921769860355 0.41693300377334 2.575659259123559 68 86 44
13.998833393206514 0.686657917448361 2.8098569586029383 76 100 59
13.182085177366512 0.39564246401965364 2.760338743062521 80 103 69
13.057417239427703 0.686657917448361 2.7849118753995956 78 103 69
13.733169147526102 0.48191545222549 2.670233859844972 75 96 58
12.84448020030139 0.24608489967540154 2.4929205486509325 65 85 45
15.884008757445516 1.7815499729491209 2.6819742680989958 78 100 57
15.795803974678977 1.985547929236559 2.564254531533897 73 93 50
16.318336112565877 1.94331825560151 2.5168049788891844 66 84 39
16.520906766931375 1.9684404487014466 2.744530159508862 77 102 64
15.161000412505258 2.2997281418340534 2.7903953909438712 80 103 70
15.199452894652746 2.5680191967025348 2.783554300363152 83 106 73
14.935704309867587 2.4476548033656123 2.8341981629553312 82 105 72
12.704548442342702 -0.16685761390363665 1.5893415910638256 22 32 10
11.793078871842175 -0.09597955671668146 1.7615189368608348 36 48 24
11.802387236489762 -0.3155351602990484 2.1274327933573485 73 85 63
11.764601846326375 -0.2872574980031859 1.9390951100150127 11 20 3
11.23730312413311 -0.1294239845259717 2.2703689659577777 70 86 57
9.533877790477211 -0.9667763965679064 2.4324727008817684 72 94 59
11.91419907745836 -0.014570537680775382 2.4577892392725174 72 91 59
9.245297683283873 -0.8459033906335187 2.311031177077562 73 94 61
9.568307552354224 -0.9100855557671683 1.9157547792131482 68 86 60
11.324177798642927 -0.6950641184864967 1.769519635489992 50 61 54
9.432486728729565 -1.0039054162936802 2.0364907435497 69 88 57
10.56549235938092 -1.6633071702084945 2.634434453466681 75 97 59
10.22321323960246 -1.2152672503693573 2.698417325170934 76 97 62
9.804454315758083 -0.6958373974412281 2.799276035836986 77 100 67
9.485338139713248 -1.7918300968787704 2.9116114808344107 76 98 63
9.08796286888804 -1.1787622275830225 2.3269630508181356 71 92 55
10.067107536606526 -0.8886067058873406 2.732301396720869 76 98 64
10.56549235938092 -1.6633071702084945 2.634434453466681 75 97 59
11.33317873726119 -2.971840296160156 2.523381642828232 84 108 73
10.22321323960246 -1.2152672503693573 2.698417325170934 76 97 62
8.960318771607449 -1.3593738328648282 2.194824756832786 74 95 57
9.089342898975863 -1.2688467070407776 1.9347555162286714 71 91 56
12.993791884387718 -0.016802853759129342 2.6153282662782003 76 97 64
11.039995039789375 -1.6856394176123994 2.7574970515344575 76 97 62
10.308995889133223 -1.1281889981778874 3.02219015529974 79 102 67
10.408039737491167 -0.6287469440967071 2.9593054961557255 83 106 73
10.463972762100363 -1.326473017668695 2.932284574894619 76 98 63
11.042345104804664 -1.4435100441308204 2.7569708254077465 75 96 61
10.708041873039225 -1.722076507639424 2.8434349807521757 74 95 61
11.660361342256449 -2.941589235675298 2.6420697479219823 84 108 74
11.368168334909136 -2.700976611465951 2.691423103251446 82 107 70
11.368168334909136 -2.700976611465951 2.691423103251446 82 107 70
10.979907599096741 -2.2428492017392756 2.771272321828953 76 97 62
10.03607653587917 2.6181851924214317 1.7954368624827222 78 95 57
9.8698203308919 2.711206964465585 1.9047990987815182 76 96 57
10.668048515435181 2.3968085716615795 1.8789479084296374 75 90 52
9.9345871845724 2.8454826999611176 1.4937764612813884 73 91 55
11.498421287091231 2.9446513480826684 2.143968708344432 82 103 69
11.850202511635608 3.0369106770523433 2.339181600448171 82 104 71
11.333081843510875 3.056792623723513 1.9538314044455372 75 96 65
11.376863443816374 3.0478916811334766 2.1508806274849706 80 102 70
11.850202511635608 3.0369106770523433 2.339181600448171 82 104 71
10.77274243445559 2.8454826999611176 1.9748807721096948 75 95 61
10.514465200223732 3.056792623723513 1.5932050196928746 73 92 57
9.775244111797996 2.474147212047469 1.801538131893158 74 91 53
9.81372803858322 2.6181851924214317 1.4928260223972563 76 93 55
11.817217493580605 -3.128652122477668 2.3418830030291575 83 105 74
9.784429158588313 -2.922489240027718 1.6974162352886222 75 95 68
10.590024937561914 -2.922489240027718 1.9822704908580828 74 95 65
11.29858724777255 -3.1311228899017802 1.9550618745353556 74 96 67
11.27135924874151 1.1505490545297086 2.267828931678535 66 81 24
10.956424317971496 1.0146688036066882 1.8705814624201338 57 73 18
11.528621263002206 0.5762322253889498 2.249288944108459 67 83 35
11.535041397330353 0.8173055728258952 2.365938636530089 65 81 31
11.852277271028782 0.915642703509206 2.4642253086611983 65 84 33
11.34777551666383 1.1416293644853828 1.8599387933713518 55 70 14
10.657032790976142 1.1505490545297086 2.195818876052919 64 79 24
10.968808685223426 0.9896175770107373 2.2911518563319957 64 81 25
10.929791127357577 1.5225389383625916 1.500801501081066 51 66 9
9.535028644435647 2.325055910327545 1.7007466620852587 75 90 51
15.884008757445516 1.7815499729491209 2.6819742680989958 78 100 57
16.007805573268822 1.915520636243737 2.666588653823627 80 102 60
15.041366228523934 2.7418323401747444 2.8127901280379075 83 106 73
14.447131607322639 2.809087403414552 2.7291390607920833 85 108 75
11.741268225948918 -0.009514320029431379 1.7623709630546636 64 77 49
8.7035898434983 -0.9332190161009986 2.0790464178811514 71 91 60
9.12123115944018 -1.160668340872234 1.8184171225520882 69 88 59
11.540646727058817 -0.1978043483983703 1.9465948610560937 60 72 48
11.33317873726119 -2.971840296160156 2.523381642828232 84 108 73
10.554190451944633 -2.1806587327683182 2.895260884334104 76 98 65
11.127874709195124 -1.915182416713523 2.7384072412283307 76 97 62
11.966953239775039 2.9221127960311066 2.3297943898665063 77 100 67
12.44063143073281 2.711206964465585 2.2942694138613944 74 95 62
12.165058163410057 2.8128858164389707 2.3144584930677063 74 97 64
11.340815549684367 -2.8975969709756515 2.2627123019483353 80 103 71
11.932688102673247 -2.9942003836222524 2.455890226342616 80 103 71
11.143403334903457 -3.128652122477668 2.2774816952221797 80 102 70
11.640009095981243 0.5207684156220677 2.136137196521575 64 79 29
11.247511136701462 1.3428824325306392 1.6808735255138723 53 70 13
13.023797365245189 0.13559288435583694 2.611375689442881 74 95 60
14.502856517483206 2.4258675602697344 2.7204438872328653 77 103 67
13.557996332732039 0.32960487372749725 2.696250703158104 77 98 61
15.161000412505258 2.2997281418340534 2.7903953909438712 80 103 70
13.733169147526102 0.48191545222549 2.670233859844972 75 96 58
15.415085267376156 1.4817425861509137 2.7478631587495443 74 96 53
9.856301913303591 -0.8616964665629857 2.5599594517875452 75 98 63
9.714128507114035 -1.300309658696692 1.8030164056836553 70 90 56
9.48464393862409 -1.4849235268387764 2.4385442247620173 74 95 58
11.303879891812146 -2.112691241286079 2.703338773967126 76 98 60
11.802462412102276 2.711206964465585 2.2307220145452167 72 93 58
10.911604766729207 2.751955757645378 1.2185672420251834 70 87 50
10.988289252162176 2.9446513480826684 2.067432166319287 79 99 65
11.932688102673247 -2.9942003836222524 2.455890226342616 80 103 71
11.197980514724524 -3.0113849804547543 2.2733278531366885 80 101 71
10.476647325757817 -2.7323079137045387 1.4015768093110919 67 89 61
14.906993254170708 0.12940782345930804 1.3842732035864944 67 83 59
12.214401791597046 1.4008115372564056 2.3107489026543413 68 83 28
10.946671930961257 1.1416293644853828 1.6839114877800734 51 67 11
11.791094037037297 1.4177166374551953 2.1280289013733085 64 79 22
9.290214984797233 -0.639458967006454 2.3066232543064222 75 95 64
11.385884037202322 -0.011511717652024182 2.150361555781295 56 69 38
10.79862332983848 -2.0134471818443354 2.817252347431811 75 96 63
11.563754568491978 1.4008115372564056 2.2468420241111513 65 80 23
11.331997238135271 1.7053328925257365 1.3243628079098235 51 66 12
16.400983364928717 1.816009657367146 2.762346631229792 80 104 64
15.884008757445516 1.7815499729491209 2.6819742680989958 78 100 57
9.89844698007768 -0.6019986205110252 2.5535153784376328 74 97 64
8.78474658912067 -1.0473779217462562 2.209290698361923 69 90 55
10.15428957370333 2.8454826999611176 1.7927775760128806 72 92 55
9.909563078864343 2.474147212047469 1.288081956348344 76 91 53
11.49481118593533 2.56219466119579 2.2516624360206334 71 91 53
11.205539878012278 1.3428824325306392 1.502526666369828 54 68 10
11.306106363492649 1.9085908062838022 1.9547929650982385 64 79 28
10.0156937949887 -1.1116813403795176 2.536183149039196 72 94 57
11.08086864377199 0.8797592268335789 1.9630198317325833 64 80 27
11.098380499260356 2.1227023140651955 1.2247459124297118 70 84 39
11.127874709195124 -1.915182416713523 2.7384072412283307 76 97 62
14.502856517483206 2.4258675602697344 2.7204438872328653 77 103 67
11.385020283401358 0.26798634206226823 1.858965765749843 59 74 35
11.930812699545916 2.6005029162919437 2.4560823805022953 73 96 63
