11.865459304855452 1.9990894122466958 0.11110631353184369 33 34 30
11.953322755763274 2.4829597286512826 0.16432612145894018 5 6 1
10.04592975251841 1.3671744940240576 0.22518542325834848 99 99 97
11.540509809990061 2.1342181012400614 0.8295434713679524 114 116 107
9.357412172825516 1.9791349955152762 1.2677753846810162 63 64 58
9.543027204920248 2.0772075676396518 1.381862048210046 137 139 130
11.639270419654414 2.169627276768589 0.5710842346611461 107 106 100
11.856257433161247 2.116164445863095 0.42688056434176797 53 54 45
11.37452484781562 2.0264081882644334 0.5337657056326305 21 22 18
11.540245682074763 2.243430284500328 0.36200725651405574 45 46 36
11.682381603642469 1.9238320856945228 0.3928815408370001 12 13 8
9.100656413797857 2.884194091892655 0.5428601860934862 46 51 24
10.904300081075332 3.015019369335818 0.14345074842960567 39 40 28
12.02918181536923 -2.2796742375965393 0.1987835825969067 33 34 20
11.937990382416762 -1.32435881891434 0.15639088292222647 132 133 125
12.133212469918934 -1.7633016808012494 0.23761419821846744 50 51 44
12.133212469918934 -1.7633016808012494 0.23761419821846744 50 51 44
9.057306847209485 -2.9667265347704506 0.5348742950882515 50 55 28
11.455857898686055 -1.7134879041590412 0.34202700640797634 29 30 23
11.257133316342182 -2.074907259415938 0.28837447745488526 45 46 37
10.627902991080532 -2.2067924214186565 0.5965400470835945 50 51 39
10.93207163987656 -2.66253824284885 0.16008152342419113 38 39 26
11.468954473463613 -2.2067924214186565 0.5475374660732842 49 50 37
10.627902991080532 -2.2067924214186565 0.5965400470835945 50 51 39
11.050638914589838 -2.2796742375965393 0.21665472358776988 41 45 33
11.913685855536434 -1.8822681010356208 0.437357791400987 60 61 53
11.299264923526268 -2.1599097022497715 0.809820131140303 49 50 34
11.583912012140702 -1.9973690433270308 0.8329678610046634 55 56 46
11.115698451697599 -2.119344600407061 0.6583869391475745 52 53 40
11.47395103952164 -2.2353502884061744 0.6977599828875154 51 53 33
11.404927959529555 -1.9289475881734095 0.6905105927900119 79 79 75
10.93529091628402 -2.051324988937435 0.777623975608076 47 48 38
5.03524146039462 -0.17843374177021523 2.0246698914663925 41 41 41
8.876974666698016 -1.5127318085057653 2.064626454062816 83 83 87
9.191490541762523 -1.407151459916814 1.8133577374279708 83 83 87
7.18246608559279 -1.4927913911777495 2.196699896014929 82 82 82
12.821518447257814 -1.407151459916814 2.3719285741082374 84 85 89
9.385334540083377 -1.632785059992114 1.9196047062103077 83 83 85
8.127894504396 -1.6407046637116842 1.8458727457556736 83 83 85
12.168126658484473 -1.7664362246420944 2.4290570880084124 83 83 85
11.396604632257716 2.300866997393806 0.8179227587451644 18 20 5
10.586256903309238 2.514235008503304 1.4958842124386584 43 47 25
10.714765890076198 2.3836230766185564 0.9996578384362246 37 40 19
9.928623967879576 2.1656824803596915 1.4909120782813312 26 28 14
8.771350118707996 3.10612776772834 0.6850726600501746 49 55 30
10.154909338910585 3.115521895559353 0.8381108976610968 50 56 29
11.427240594890756 2.4706199898181858 0.8204318125145204 40 45 21
10.387941255079646 2.8583174601244923 0.8581165520000255 49 54 27
9.960426348779679 2.68732685438606 0.820400435437525 46 51 21
11.79061216522122 2.9362319559237595 1.1522307713142432 49 54 27
10.397685734331242 2.634054745480853 0.9799360774893406 44 49 24
11.476622964961756 2.7274044949288094 1.140026592637433 47 52 27
11.68916103127294 2.762867453727448 1.3295848616640866 47 52 25
10.035850672024235 2.740893828580282 0.9555489237381584 49 54 25
10.91156294671141 3.122935849072846 1.312015046018798 54 59 30
10.697151465871832 2.5952625518851518 1.2084013280035073 45 49 26
9.69634303444593 2.5715116363732657 0.9305795908428782 44 49 20
12.017158780236233 2.8472793995517764 1.1606016228571923 48 53 24
11.654506013677555 2.8472793995517764 1.2393687660736117 49 52 23
13.253410766230688 2.818791456612531 1.5109800239138498 49 54 27
12.415502054960754 2.792967453772729 1.4259305270419278 49 53 26
12.35017169485378 2.9535825480403597 1.2586895171616002 51 54 25
9.604282558095314 -2.8728068363561445 0.7852444188324564 51 58 28
9.604282558095314 -2.8728068363561445 0.7852444188324564 51 58 28
8.952622133624681 -2.8272572105645466 0.7094908979286986 51 58 28
9.467619203077403 -3.0195071651261287 0.7706988315069778 50 56 29
10.293050954723618 -2.540522677062798 0.7120186986851686 53 58 31
9.998436543341573 -2.4278794456587014 0.8239389879842682 51 56 31
10.293050954723618 -2.540522677062798 0.7120186986851686 53 58 31
11.231844643145791 -2.57477286053177 0.9213623664231705 51 56 31
11.386946023823404 -2.6295708134498743 1.0371468748906127 52 57 28
11.045431451874004 -2.6754329202969456 1.315222009385397 51 56 26
10.698115702634734 -2.8246502005948213 0.9986574331241165 55 60 35
10.953525487410712 -2.762472747588213 1.2172605626753263 54 59 32
10.429135172239754 -2.954902704280173 1.198639673881906 56 61 34
9.962863784030347 -2.933651336031458 1.0689830519918604 55 60 33
9.831186332172207 -3.0478850569283105 1.0616194497735378 52 59 29
10.303418382245498 -3.0576523556482105 1.1938724233499232 54 60 33
11.07555704155549 -2.4163008123810066 0.9106035383771264 53 55 31
11.630752076370781 -2.336959241249943 0.9471552674645941 51 55 34
11.710826234172346 -2.4016190406967604 1.4171462774106072 42 43 27
11.076542742906776 -2.336959241249943 1.020507206192708 52 53 41
11.38790477235207 -2.5450833585126498 1.1364434582832226 51 55 33
11.843520162127538 -2.5450833585126498 1.0597743702406441 50 55 30
11.69540933544902 -2.407939552163294 1.052659390395669 51 55 34
11.199946276039734 -2.595387754291702 1.4999960163507842 51 52 36
10.430005274532645 2.3799037307093514 1.590711596409133 43 46 26
9.717431838433358 -2.954902704280173 1.5921721860258595 56 61 34
11.724360619704074 -2.5224289935833046 1.588512730201281 49 51 30
13.04181342363143 -2.3966737688507913 1.6635315423668404 54 55 42
16.5300416778252 -1.9528702054561506 2.021986115380291 106 110 117
9.025982615974607 1.872002570459645 1.2562741247996536 8 8 6
9.023767353121087 3.098335967376523 0.5285674387735405 47 53 28
8.644602175562087 2.816128468269074 0.44779011511147593 44 48 29
11.98187866280199 2.289540587433988 0.6141580417455056 42 45 33
11.027152837762086 1.8145767117285447 0.20675568979972717 1 2 0
11.121641070257201 2.184160291545244 0.24396798371320075 27 28 19
11.00205082591813 -2.328733436309663 0.6449151634772806 50 54 31
11.00205082591813 -2.328733436309663 0.6449151634772806 50 54 31
9.200067250067345 -2.7639993189421057 0.5605127149293243 49 55 28
11.0874021588976 -2.321266076626741 0.48817278183398727 47 49 30
10.93529091628402 -2.051324988937435 0.777623975608076 47 48 38
11.20018376305111 -2.058268061577373 0.506808826199129 45 46 34
11.546838553610897 -1.95698230252263 0.36351198704848386 46 47 36
6.828281514880726 -1.6509392982883395 1.601219015027797 83 83 83
8.454470672255491 -1.6407046637116842 1.9599538265431111 83 83 87
9.087150200562178 -1.519315247718861 1.8161998145563718 83 83 87
12.821518447257814 -1.407151459916814 2.3719285741082374 84 85 89
9.092254899409967 -1.632785059992114 1.8160592051471913 82 82 86
12.301858237053095 2.8714941295667114 1.341818905227756 50 52 26
10.644383187283884 2.740893828580282 0.8787540647045395 44 49 20
10.272408816001077 2.2274002263471324 1.085442575440244 41 43 31
10.169200468099458 2.4706199898181858 0.9647866962412729 41 46 18
11.222176934334474 2.643081277062925 1.3193350115851379 45 50 25
10.397685734331242 2.634054745480853 0.9799360774893406 44 49 24
8.850432352360246 2.9290740516465292 0.6959363585669605 48 53 26
9.58807378328291 2.9843123231710798 0.9221417243936639 50 55 28
11.128762095468554 2.9362319559237595 1.3171780010407481 52 55 26
12.11408772289472 2.8714941295667114 1.4222996791209002 49 53 26
10.121560839030657 2.308905606245248 1.2912952071150694 42 45 23
10.864607601970912 -2.6152887119394803 0.770993821226616 52 57 30
9.612837571701029 -3.0576523556482105 1.4882819654208117 57 62 35
9.54693767844877 -3.0355550307417167 0.91887121278593 52 57 28
11.098720352983758 -2.2547741117778557 0.9122229165375288 50 52 33
11.31474221150172 -2.595387754291702 1.4117225664144213 50 55 30
10.585912039096844 -2.5085933840351453 0.8741676019919725 51 56 32
10.727723024702716 -3.0655792813778624 1.4029376019790314 55 61 33
12.178367728891432 -2.4016190406967604 1.2541344024680865 49 51 32
10.515472571048914 -2.3335707250602704 0.8685506765565462 51 53 31
10.64768944523187 -2.855979913715016 1.206639510280489 55 60 35
13.581674128421103 2.7489006580973623 1.5860897826357172 48 53 25
12.388804110791286 -2.456332422557778 1.6684347795712713 45 47 29
16.89186426238695 -2.013645887386905 2.011633438590773 100 103 110
11.806589456588837 2.7959060233025737 0.0492089964289093 113 114 107
11.664070747700718 -1.984290088287054 0.5743850501981433 47 48 41
9.875582751098209 1.2085100522835905 0.12996419708911372 156 156 152
11.326146347899002 2.090596705996206 0.6820481591219517 26 25 16
11.941876517488465 -1.8650163621472649 0.1584413767501531 115 116 105
10.951302189425357 -1.32435881891434 0.17061379510179436 38 38 35
11.98187866280199 2.289540587433988 0.6141580417455056 42 45 33
9.21820441938695 -1.2989783649778839 1.7021868284732182 83 83 87
8.98375638833395 -1.3866251086456547 2.058238896622282 83 83 87
9.54693767844877 -3.0355550307417167 0.91887121278593 52 57 28
11.967501006542358 2.762867453727448 1.2483550383019602 46 51 24
9.435538314967838 3.1115416769178106 0.7671910280107602 50 56 31
11.694475797102523 -2.486039252748334 0.9510699175620858 53 55 31
10.475200189699606 2.4540831316290945 1.200355660132625 42 47 24
9.682481557815573 -2.907040382834055 0.9295127927149438 54 59 32
10.311888471274365 -2.907040382834055 0.8517251713533562 53 58 29
11.69540933544902 -2.407939552163294 1.052659390395669 51 55 34
9.54693767844877 -3.0355550307417167 0.91887121278593 52 57 28
11.233788532687695 -2.407939552163294 1.1300697524082743 54 55 39
8.805851065411716 -2.9977751143486397 0.6898537276939286 50 56 29
10.803617888541082 0.40932544750702665 0.04578272193181602 146 147 140
7.056530160042315 -1.6509392982883395 1.3139916531369038 82 82 85
11.361534668097345 2.0213483415685434 0.3178874058396428 31 32 25
11.487286277406874 -1.831217912380219 0.5501491893200359 77 77 75
11.115698451697599 -2.119344600407061 0.6583869391475745 52 53 40
10.627902991080532 -2.2067924214186565 0.5965400470835945 50 51 39
10.831647592257548 -1.0567143087000637 0.08526541993809807 130 131 124
9.54693767844877 -3.0355550307417167 0.91887121278593 52 57 28
11.92857096157846 -2.4692754096723712 1.157369827925714 53 55 36
11.69540933544902 -2.407939552163294 1.052659390395669 51 55 34
10.516510768651997 -2.2547741117778557 0.987496308746659 45 46 32
11.300231111208412 -2.0983470929498917 0.9259495775154635 45 46 32
11.639270419654414 2.169627276768589 0.5710842346611461 107 106 100
11.664070747700718 -1.984290088287054 0.5743850501981433 47 48 41
11.832243433841638 -2.1681551201310167 0.08219411820802994 132 133 124
10.953525487410712 -2.762472747588213 1.2172605626753263 54 59 32
9.515124221728843 3.115521895559353 0.9163168342252868 50 56 29
10.644383187283884 2.740893828580282 0.8787540647045395 44 49 20
11.143436159571884 -2.486039252748334 1.0241858876159555 51 56 31
