17.889674206964706 0.9577079485557892 0.9963588195430643 8 21 1
18.91135919835898 0.8636922517949714 0.9023542808576099 43 58 23
14.911470541379945 0.27488033836790676 0.9461336554525094 51 65 31
14.987579220018668 0.1786797284121066 1.0296347259468108 51 64 31
14.987579220018668 0.1786797284121066 1.0296347259468108 51 64 31
14.847355969473108 0.3958581527675787 1.175271104005441 51 66 31
14.610853812809436 0.35254828864002385 1.0140648502403486 51 65 30
14.52162944514243 0.3266758783506647 1.1658872361028576 50 66 32
10.05641923129782 0.23251922805992434 1.3988575964951568 41 53 17
9.730518279857733 0.13230650502317318 1.5995160057156017 40 52 18
9.248378466390646 0.36308222894573694 1.601013674972423 29 42 4
9.402915956039818 0.36308222894573694 1.386775709512603 30 44 6
8.789591975040977 0.5108757363914478 1.4887230441993402 24 39 0
9.74941621538591 0.5108757363914478 2.025216100696679 33 47 8
10.421253992675672 0.4057981055610624 2.2174998642544863 46 57 18
10.631503072756992 0.16636386121403485 2.324992040321613 58 72 36
9.56438389793156 0.2903373783131238 2.1555420279008426 30 42 5
8.174577201813547 1.1071559646849938 1.4825327386356388 38 54 17
8.73065776623671 1.003404783689069 1.7178692099080846 34 51 13
8.455780632223426 1.1071559646849938 1.843742082977271 37 54 16
8.075718499229355 1.2228637903984114 1.8569411078586684 42 58 21
8.723931060544974 1.2620905761477526 1.4881039107502483 45 62 25
8.78730342484606 0.6719741151345411 1.8331963206799762 28 42 3
9.14687286679346 0.7576776082128228 1.6013491097809034 31 45 6
8.906999559941791 0.9345509627421784 2.0719705966699458 34 51 12
9.504049537432197 0.572784436537003 2.15975028772732 35 50 11
10.581558205897178 -0.36795086910882785 1.787912396443319 9 23 1
9.911327067233449 0.02935720327245878 1.80285469727466 40 52 18
10.33690951317365 -0.36795086910882785 1.597830807848244 33 44 9
9.730137015635977 0.02935720327245878 1.702668542277643 42 53 18
10.327668034936888 -0.17622384647350497 1.8939274797331773 36 49 12
11.022158878732489 -0.3046132202504319 2.1769475977667176 32 45 13
10.540136123297271 -0.2746671619693983 1.8871847701508715 2 14 0
10.3346046380377 -0.4061983451372107 1.9977351760866873 12 26 2
10.692524723346587 -0.22100727037548198 2.3196439787809595 69 84 47
10.692524723346587 -0.22100727037548198 2.3196439787809595 69 84 47
10.209161796253317 -0.07421611575943604 1.8978171147502665 40 53 18
9.894632997397895 0.037034531931752816 2.258324415690806 60 73 38
10.254061142031599 -0.7210905668458492 1.6958942830567434 39 57 15
10.809453206889966 -0.4549912795863483 1.6894355601921267 40 55 14
10.42615019051363 -0.7210905668458492 1.7912016698432003 41 57 13
11.212456608571454 -0.5352153100144778 1.5957193106020438 42 57 16
10.458897700934765 -0.6423063404989693 1.9923355190386012 48 65 21
10.376847189378102 -0.49964336347312316 1.8923408552191572 13 28 0
11.559901052029582 -0.5530216746735646 2.2519799175573345 58 75 37
9.82712351657122 -0.939527205133054 1.804880050036949 48 68 29
9.717078314681723 -0.7910404700807734 1.8075814101177399 44 62 20
9.53316671070646 -1.1750799990396865 1.7054096376156356 52 70 30
9.879545863296876 -1.0815090640713956 1.599082668492359 49 67 27
9.210919711230165 -1.2409960431635332 2.0539823172461755 57 78 41
9.583746536667304 -1.0292936121077287 1.9200381344919353 52 72 33
10.780687365765642 -0.7107194061597649 2.19255948809411 55 73 35
9.722763547600737 -0.9661220578346212 2.144796789440366 55 76 37
9.889791305770263 -1.0740060934530509 2.2587265070591074 59 81 44
10.073389463322965 -1.3053641633927524 1.5985382095292593 51 68 30
11.339651470687553 0.16636386121403485 2.389308407926394 58 71 34
11.483184947818344 0.1908473643795569 2.511694596876014 55 73 34
11.483184947818344 0.1908473643795569 2.511694596876014 55 73 34
10.856839143940464 0.33111138608440793 2.4381183894906826 57 75 37
11.589765541536286 -0.34160317768168547 2.3665244231222218 61 76 40
12.750840402615314 -0.6752232143483456 2.6564362075723094 65 86 53
11.478207700386267 -0.5825678166345235 2.51228969642363 59 80 45
11.730238973563893 -0.3883051241539321 2.4833495471167026 60 80 43
13.405559533485096 -0.5295729985155796 2.7287761714412584 64 86 53
12.001343626223532 -0.5102168676410829 2.454665478338292 58 79 44
11.839889968702643 -0.696370346098965 2.47146436123718 58 79 44
10.402351107978937 -1.137964322786243 2.491318812588133 65 87 53
18.836189575973673 -2.8494440784259165 0.7547892422298618 58 73 35
18.664626845566467 -2.9251966468404147 0.7449652550043843 58 73 37
7.806038204960673 1.3491167162578865 1.8671211067928342 43 58 22
8.295590429577489 1.6140502707194493 1.604485527060422 41 57 23
8.405870287329694 1.4935042228833144 1.723595627982247 43 61 27
7.76166266213125 1.8839703827597394 1.7363903497120075 45 60 23
7.995440995026573 1.6199801975940966 1.9934270340161804 43 58 22
9.190829080753609 1.9298918353334662 2.3229686353908265 49 64 25
8.025059038325374 2.0028709890316847 1.605621669769124 45 60 23
8.33782035965382 2.0028709890316847 1.8477046629526226 47 62 24
8.664761176194228 2.0028709890316847 1.958947432745183 47 62 24
8.26252512149933 2.2769366685977257 1.6046203972029922 48 63 23
7.998217630117705 2.548800843001094 1.8597932227103753 54 69 30
8.298266634006875 2.4483061369134815 1.4838516979832512 50 65 26
8.034673195145764 2.840739870813984 1.8584444654381334 63 79 40
8.08985273185736 2.7219298928058926 1.4816059140721074 58 73 34
8.338039547624762 2.6649611342777564 2.1097525124563554 62 79 40
9.028181666014609 2.9424694713834514 2.339960976776987 58 78 43
8.15772969037328 2.9689547909859924 1.984497947907794 61 77 39
8.32038652207769 2.177270312217123 1.9759310924738704 49 64 25
9.158281049507472 -1.3846632990221999 1.8223319688377568 57 77 37
9.320244418973868 -1.6119004861603925 1.930353499352318 56 76 39
9.320244418973868 -1.6119004861603925 1.930353499352318 56 76 39
9.492628252636443 -1.9084783468303752 2.2936198451593905 59 83 45
9.91134817652754 -1.62411903248075 2.395656587337627 60 84 46
9.925614313373522 -1.4755795868387995 2.394102426096148 59 82 48
10.039960972002577 -1.3311098964916765 2.3818954000524712 61 84 49
9.642867608232807 -1.8674095387812792 2.1501637542054644 58 79 42
9.35686322187541 -1.6172198061190348 2.170296131197671 58 79 42
9.492991256493593 -1.361204717800839 2.1605286846325527 60 81 44
8.881601822282603 -2.8273219931601252 1.7153519732979048 67 85 50
8.553270023766766 -2.6738634039621725 1.8405528604229635 68 87 52
8.367961858518001 3.1077324507556243 1.6041940526876466 58 74 38
8.29558383837419 -3.0293245601971512 2.2606355643513627 61 81 44
8.269399540578275 3.097094453973925 2.2632508846808923 58 75 39
9.340397958635265 -2.7377909927650106 2.3080887977327507 70 91 57
9.053163718001915 -2.535147887944171 2.3372931042762186 71 92 59
8.69966643814881 -2.7377909927650106 2.2228915266623863 69 89 54
8.440998381546695 -2.877869708139666 2.246503923945251 66 86 49
9.54516919923338 -2.2221817768925853 2.2887748332293656 64 87 51
9.934882932798752 -1.981287637341417 2.1310513259706845 57 78 39
9.131990575087295 -2.101953106240858 2.329014355586682 64 85 48
8.569364344533414 -2.50334656397154 1.9635036419626002 67 88 55
9.707489401222116 -2.3167268506065195 2.4186718308787607 68 89 56
8.919160114683926 -2.2221817768925853 2.2042337992995145 64 85 48
9.078894300437828 -2.1463898941600887 2.0616274408700863 61 82 43
18.579155190465354 3.052465706519301 0.8881535871984723 25 31 1
18.645217519604746 -2.9409478378403584 0.819969319038696 55 68 33
18.386692447516452 -2.8021598592199153 0.8796133181341422 57 68 31
18.73218062902208 3.1231600803673985 0.9614784505866564 33 40 5
18.25707846081877 -3.0302684522899437 1.0093298924546035 31 40 5
18.743754521869114 -3.0949506485881035 0.9619093275594802 32 39 4
18.12398453191616 -2.9545866258875484 0.9378617034325818 25 35 0
18.552315188138934 -2.904150456517547 1.0193083949539192 31 40 4
18.90380173087652 -2.8882907808389784 0.902038522221902 43 54 17
18.378102632814727 -2.966507053928442 1.0134665990851923 31 40 4
18.12398453191616 -2.9545866258875484 0.9378617034325818 25 35 0
17.183085560000887 -2.9181724395663564 1.3525419082597478 35 44 10
17.414742853843784 -3.037022640165923 1.2360911737331661 33 42 10
17.687479918273276 3.124286636685957 1.1810404509370034 33 42 10
17.699736956155572 -3.0977981253387807 1.1813248915564483 33 42 10
17.585023260095785 -3.100318117609881 1.4154622931473337 33 44 11
16.852223224143685 -3.0302684522899437 1.1605939514059491 32 41 9
16.863894699824034 -3.037022640165923 1.3483420681182234 33 44 11
17.96956143369445 -2.824191884846747 0.9992336133296803 25 34 0
17.891855538939293 -2.7519781893930557 1.4181472313609276 30 40 2
17.723597667456477 -2.805386494598534 1.35930068450882 32 41 3
17.71249269378772 -2.7852540473523395 1.1816204519585045 33 40 4
18.115561253708325 -2.7852540473523395 1.1305248901644371 31 38 0
17.41547171252345 -2.843618507697 1.174616215908353 34 41 7
16.77777639989313 -2.9181724395663564 1.5874512074443565 42 52 20
17.420344273883043 -3.100318117609881 1.64430646682032 38 48 18
17.59150291956357 -3.0430066433298455 1.7007366785012343 37 50 19
17.897722198217608 -2.930653971267243 1.6985012041401142 50 61 29
17.717074177944635 -2.986336936680107 1.6998105526207523 42 54 23
16.59822883853597 -2.977011790323032 1.5273695491322177 38 49 16
18.417273001183677 -2.8234392346691357 1.6948797741561483 34 45 10
17.040207906359736 -2.8608636987358995 1.5284966090493626 37 46 12
9.807294362154243 -1.6076743553981516 1.7016250742008996 56 73 34
18.432616585138163 1.2968852358323983 3.012575102838664 58 81 44
10.334114595175667 -1.962075585760812 2.500049966272502 61 84 49
10.334114595175667 -1.962075585760812 2.500049966272502 61 84 49
10.067766291943904 -1.6334237235713234 2.536358688629465 61 84 50
10.194405904817653 -1.2911861608755055 2.5186294449189646 63 86 53
18.39357061727896 0.9053070497949086 1.0139906207443512 33 46 14
18.85421283006722 0.8146550931926357 0.9659884891609342 47 63 30
14.94385772989701 0.3266758783506647 1.1043423033833033 50 66 31
8.940135407698454 0.4057981055610624 1.9463845688799073 20 33 0
8.746425681445126 0.8391534888803142 1.8344518428300747 30 48 8
8.224988993189605 0.572784436537003 1.851605661337664 29 43 4
9.198798936901209 1.1071559646849938 2.054673769002896 41 58 20
9.371812427741176 0.9117373364527624 1.3861579507521673 33 50 11
9.33147913489769 0.1474074902004213 1.929900972899753 33 44 7
9.973465781533337 0.16636386121403485 2.2518506948020938 52 65 28
9.973465781533337 0.16636386121403485 2.2518506948020938 52 65 28
10.020876000917337 -0.2746671619693983 1.5986836258686568 38 49 9
10.151929055201219 -0.08276730364504549 2.1176952329520757 37 50 15
10.1305439678262 0.0327521354263035 2.118980982036307 36 49 15
10.256948353508069 -0.34160317768168547 2.2296504651112166 69 84 49
10.484710222862454 -0.3046132202504319 2.098481843667262 21 35 11
10.819160960547846 -0.19612359445503763 2.1900136262679117 38 52 14
10.565923148703607 -0.4527134449917295 2.207201999641241 68 84 48
10.609140500476846 -0.584459005431304 1.7873389208898276 28 43 3
10.416987882851004 -0.5530216746735646 2.1022749914736907 60 76 35
10.906299968790677 -0.6423063404989693 2.0760970222430517 53 68 27
9.718029914789666 -1.1750799990396865 1.8075577806578662 54 71 35
10.185169495407854 -0.8601537862680682 1.598233671519372 40 58 16
9.759932885702556 -0.8721952867626501 2.024689773195375 53 73 34
9.999022395428605 -0.7910404700807734 1.9049544299728511 50 69 27
10.230561186355025 -0.7107194061597649 2.113022266991581 53 72 31
9.141400377272234 -1.1298902187456878 1.9377178845175071 53 73 35
9.545891197170537 -1.1298902187456878 2.0356584643527644 56 76 39
10.095263116390832 -1.3053641633927524 1.4993574422954574 50 68 28
11.539703805520244 -0.25296871988906244 2.5050063653660772 55 75 40
11.39688215478264 -0.22100727037548198 2.38395797763617 59 74 38
11.39688215478264 -0.22100727037548198 2.38395797763617 59 74 38
12.300735339963689 -0.5825678166345235 2.5601572587012535 61 82 47
11.4147833533353 0.042604458627932267 2.519962024766532 55 72 35
18.664626845566467 -2.9251966468404147 0.7449652550043843 58 73 37
18.54547256951037 -3.003553870047388 0.7379719423031957 55 70 32
8.338484463579139 2.548800843001094 1.975000477449643 58 74 35
9.29999105605566 2.4672697532733676 2.3120416052510953 57 73 34
8.770400273225695 1.8839703827597394 2.0805231797614 47 62 25
8.49226564275507 2.1100665641448164 1.6037050225111107 45 60 22
8.487061052991676 2.9892699475544338 1.4857905042957673 61 76 38
8.389020113572421 1.6140502707194493 1.7239049588907964 41 59 23
8.158639163757028 2.7219298928058926 1.728263973079251 61 76 36
9.217319654173894 -1.4755795868387995 2.3202829135873193 60 83 49
9.371973440763382 -1.487857684983923 2.1691947108438683 57 79 44
9.294782835776273 -1.7703564663089093 2.312554645523024 59 83 45
9.551705951064331 -1.962075585760812 2.4373570495091625 62 84 49
9.335413908922469 -1.4973360166028593 1.9297427586496605 59 79 39
9.492628252636443 -1.9084783468303752 2.2936198451593905 59 83 45
8.46059238802089 3.1077324507556243 1.722599652669637 57 74 38
8.628389680108032 -2.9390062008590703 1.7196253005509976 63 83 45
8.50197174379645 -2.7879031379813637 1.9667893079120016 70 90 54
7.669689098724353 3.097094453973925 2.1627280281001897 58 75 39
9.84642522716281 -2.101953106240858 2.402820034016422 63 86 51
8.87888945038174 -2.4197916486148454 2.20756876631076 69 90 57
18.645217519604746 -2.9409478378403584 0.819969319038696 55 68 33
18.551630993954394 -3.0977981253387807 1.081425272535126 32 41 9
18.548652040160587 -3.091707470685829 0.8868158169991175 23 32 0
18.25707846081877 -3.0302684522899437 1.0093298924546035 31 40 5
16.994842950275594 -2.977011790323032 1.3500846195725125 35 44 12
17.171631038195688 -2.904150456517547 1.1686688694792684 33 42 8
17.426765959870174 -2.8608636987358995 1.3556421232910483 34 43 6
17.71249269378772 -2.7852540473523395 1.1816204519585045 33 40 4
17.897722198217608 -2.930653971267243 1.6985012041401142 50 61 29
17.458289748676265 -3.100318117609881 1.4720822708091668 34 43 11
16.46412640010481 -3.037022640165923 1.5270156071593717 35 46 13
16.790918469047067 -2.9181724395663564 1.527868215339788 41 52 19
9.858507922515281 -1.403443561729836 1.5991430473710688 54 71 33
10.194405904817653 -1.2911861608755055 2.5186294449189646 63 86 53
10.152680497667221 -1.8040994274660132 2.5243732599788076 61 84 49
9.428333842807447 0.9345509627421784 2.1651247742815074 41 57 18
10.744516433568108 0.572784436537003 2.3151558210114955 50 64 25
9.360033030427655 0.7526060899986647 2.1700647127175334 33 49 9
9.566868623023915 -1.1961109750762384 2.286795289369696 60 84 47
10.458897700934765 -0.6423063404989693 1.9923355190386012 48 65 21
9.680699690305564 -1.2765594206080804 1.9163933520333267 53 73 36
9.694928211161663 -0.07421611575943604 1.4964021545513253 41 52 17
9.287041196261814 -1.0740060934530509 2.1754431790166024 57 78 40
11.614953869983731 -0.6175467616273241 2.3643130329724937 56 77 42
11.110230138913371 0.45910578956674086 2.4116412225937687 56 72 34
11.86408056975174 -0.4527134449917295 2.3431959210613718 59 76 39
8.867327922182175 2.061682470200483 2.2085333470870765 49 64 25
8.518200388373897 2.1100665641448164 1.4861020001279859 45 60 22
8.686376510072316 2.6144647906128724 1.3713995339893295 55 70 31
7.995440995026573 1.6199801975940966 1.9934270340161804 43 58 22
9.411905184813751 -1.7254000251315493 1.9266952130817794 57 77 38
9.151926327103357 -2.723170367399627 1.601332234066365 68 87 49
9.371973440763382 -1.487857684983923 2.1691947108438683 57 79 44
18.773940680116446 3.0582410402998796 0.9630300027423074 35 40 9
18.539937164890027 3.124286636685957 1.0810893240906367 33 41 9
18.563801379195837 -2.7852540473523395 1.081774398650991 30 37 0
18.280617582249633 -2.843618507697 1.0735129175754867 30 37 2
17.765958939786604 -2.8021598592199153 0.9229959571930062 34 45 10
18.131800857674072 -2.876266624089519 1.6968437089403188 42 53 18
18.8994318736975 -2.7723866974376215 1.7451985357720239 27 41 3
17.686011656055967 -2.7519781893930557 1.5865958510786118 30 41 3
18.751791574617823 -2.7723866974376215 1.6926550899430457 30 41 4
9.74203169964084 -1.504872961912027 1.5994820546353192 57 74 36
7.85228574290125 1.2228637903984114 1.7344618795599467 40 57 19
9.051709272815812 0.5108757363914478 1.8253587268897271 21 36 0
9.029124243579886 0.2583029320226292 1.712973969189886 33 44 7
9.728069733285013 0.1474074902004213 2.026288345437365 32 45 9
10.408149950680523 -0.996396894483329 1.5015085146258298 44 61 22
9.79715332981893 -0.17622384647350497 1.5993206164885878 40 51 16
8.6562691589443 2.4672697532733676 2.226724950376828 54 69 30
8.208506411830436 2.3632771979387366 1.9817837241420735 51 66 27
8.448835080546713 1.3751574241592304 1.6038742486001798 46 63 28
9.097348826153251 1.7552043462677713 2.189924033258121 47 62 26
7.751467086483495 1.7552043462677713 1.8692712552298076 44 59 23
8.013118838906676 1.4829429913884151 1.9924350964638298 41 57 20
9.448196670787448 -2.3238484325650046 2.163704639253041 65 86 49
9.061894867677053 -2.6126098442424626 2.1927147762821475 69 90 57
9.448168739570388 -1.7450538747168964 2.1637066311095383 58 79 42
18.73285822885849 -2.9545866258875484 0.8948066465129493 45 56 19
18.351964965376954 -2.776987037344786 0.8049525298215544 58 71 36
16.983261466931097 -2.966507053928442 1.1639468664572477 33 42 9
18.81695721446894 -2.870216621312964 0.828452502531252 56 69 32
17.34365670640836 -2.805386494598534 1.5292371252940613 33 43 6
10.103325451897227 -2.189543221893586 2.5312900626565824 65 88 56
10.081811093781289 -1.4590523170584027 2.534348041136883 61 84 51
15.260574739950778 0.3958581527675787 1.1147650195639736 52 66 31
10.185169495407854 -0.8601537862680682 1.598233671519372 40 58 16
10.540136123297271 -0.2746671619693983 1.8871847701508715 2 14 0
10.33690951317365 -0.36795086910882785 1.597830807848244 33 44 9
8.486186776993298 -3.0560365002697156 1.7221382796361295 61 79 41
18.614140725930177 -3.0225859151111063 0.8896807627479156 25 35 0
18.300616322160167 -2.8882907808389784 0.9449241270112758 25 35 1
18.432616585138163 1.2968852358323983 3.012575102838664 58 81 44
8.517052765389932 0.6719741151345411 1.486090560692628 27 41 1
11.539703805520244 -0.25296871988906244 2.5050063653660772 55 75 40
9.179768865861332 -2.034451793567458 2.1835405327534523 60 81 42
8.57411708843298 2.796863179713117 2.2341199247521693 64 81 43
9.441560305256273 -1.981287637341417 2.04120808934772 58 78 38
17.426765959870174 -2.8608636987358995 1.3556421232910483 34 43 6
10.79792179672841 0.2903373783131238 2.310609584902426 56 69 31
8.363565406209084 2.9424694713834514 2.253947583813748 60 80 43
18.170184173096683 -3.037022640165923 1.1319406684013287 32 41 9
