14.038519621617507 2.10289831661294 2.144719788536651 48 67 32
13.92858097886894 2.149293407377876 2.2382794557923384 43 61 26
13.92858097886894 2.149293407377876 2.2382794557923384 43 61 26
15.000163319287976 2.2367001096030674 2.1038019773546854 37 54 24
14.31339355230552 2.129825089858154 1.974443871607988 42 61 28
14.976402869583701 2.456293542723801 2.1047382254200047 35 53 20
13.987691724514974 2.5887037040578447 2.1470708676665757 40 57 22
13.890175774447684 2.540463445401967 2.2404605461613496 42 59 24
14.329347846035722 2.4041106426983387 2.131652892652254 36 56 20
13.758383313153914 2.4104284949660375 2.248067345921234 43 60 26
14.455935851617141 2.519366332153022 2.126161797005375 38 55 23
14.386375544392548 2.2220607059694313 2.213439513713761 39 57 24
15.078703790236913 2.3991103633638637 2.025458669503047 35 50 18
15.36508524964038 2.446410251305745 1.9453864656722817 33 47 22
13.771319462502163 2.2785421301018234 2.247312186030953 39 58 22
11.695197961808551 -1.6952928075940874 2.3997446786566967 47 69 30
13.418844908286754 -1.8649546160634671 2.2685857425225167 39 58 27
13.406952249749049 -2.039379049798743 2.1754864226304167 37 58 26
12.974836933774728 -1.9939223456110735 2.297638300129542 40 63 29
15.00237348671303 -2.2054234739813117 2.0279472356968404 35 53 33
14.296495087986955 -2.2522327991224422 2.0523839764649647 38 56 36
14.271343141618583 -2.1878174184713366 2.1342079833249343 37 57 32
14.703609296209903 -2.30514472738824 2.1973828112407348 42 62 41
16.768947734171128 2.3916989314228227 1.7885033946827307 31 46 34
16.37446008360987 2.4382992391641527 1.856951342787729 31 44 26
14.6018345322449 1.3758383297062402 2.7731598778874202 40 57 18
14.59926156166237 1.7587365958450376 2.773616655405111 37 55 17
14.078817536549812 1.7287758244460614 2.6826479132116323 39 58 19
14.064812107548146 2.2508399239734587 2.5433272385380143 41 60 20
14.44926893790891 2.341528583118786 2.50533957836896 42 60 21
14.183636220900791 1.8820076393564846 2.667911463930401 38 57 17
13.743856980566372 2.1786780792588 2.4541173356787356 40 59 21
13.971851514665667 1.9653711684810207 2.553159886641159 39 59 20
14.204993534655918 2.2280170622661664 2.664986734922585 41 59 18
13.957772318684313 2.0947590970774317 2.700522498786682 40 58 16
13.97317906021682 2.024747209445072 2.4343662836225146 41 61 22
14.137266990596988 2.620170061787686 2.3193895928851953 42 59 21
13.717920688246652 2.5051538137087825 2.4564232009043505 43 61 21
14.856874358272806 0.5618225399724971 2.7309850843206496 38 56 9
15.831395590268837 0.33694214990831783 2.493560634970076 40 56 10
15.64614486890401 0.4229520555461578 2.627270719681374 39 57 11
15.108837082613764 0.26303863364674945 2.559659555840512 34 50 1
15.101168076129381 0.6920230071731737 2.69528267137578 46 64 21
14.385151265164653 1.1189223771709718 2.81438993888325 39 57 16
14.385151265164653 1.1189223771709718 2.81438993888325 39 57 16
15.489772283712416 0.6662253891539444 2.805269235049277 37 55 11
16.784176526621074 0.5212683740539811 3.0024441001859308 41 59 16
16.894602300480067 0.05271435490339749 2.9616919742795886 40 58 17
15.202017624145023 1.5662803386719042 2.8644552915093535 38 55 17
16.662336214215298 1.5545951207214541 3.0719523208220787 43 63 23
16.662336214215298 1.5545951207214541 3.0719523208220787 43 63 23
12.16152011331853 -1.737237987622454 2.6329499330755297 47 68 33
12.627946369740062 -1.7707872478054656 2.7397339030308157 47 68 33
11.846523262808839 -1.7132622207762298 2.518738971681027 48 69 34
14.788751679502443 2.3343241088575297 2.7416978792262316 41 59 19
14.539209561457637 2.470799136085413 2.78448325759536 41 60 22
14.551451577715538 2.1926839447792132 2.7822351969091104 40 58 18
15.089984914425312 2.1309115154326292 2.8918806066098592 40 59 20
15.078180141216139 2.5147466121276274 2.894969101745787 42 62 25
14.47332875588579 -2.521843464039705 2.7968897902248617 48 70 36
14.092417310723 -2.259073122889169 2.6806987643450624 47 68 29
13.780957413241303 -2.374154530911219 2.7285351181958846 48 69 36
13.525988097221736 -2.2308638480384904 2.7739097767140604 47 68 32
13.922112614916127 2.661181395356096 2.4386686135981215 44 62 23
13.659805633405616 -1.9939223456110735 2.352371869280929 37 60 30
14.370635211471779 -2.165612237480639 2.3044074848330887 42 63 37
13.77801574782079 -2.222464707967224 2.3438931635569586 43 64 35
14.11081787892489 -2.136768819597921 2.423029112210994 40 63 32
12.788527793301007 -1.8527042048731162 2.5509521022586723 45 68 32
13.992804218652925 2.1728638081149896 2.0637608820054307 40 58 27
15.948272845490838 2.2581353307643774 1.7359493482391568 29 45 31
15.199051932508366 2.50257272179544 2.021591784856821 33 48 21
14.341768999649497 2.2875725355160452 2.1311089615829033 39 56 23
12.703698683401557 -1.8960356412759771 2.3167818161672282 40 60 26
13.068432783148282 -1.9552323708941333 2.193500047867631 38 57 26
13.721197465848874 -2.165612237480639 2.250248610388199 38 61 34
12.703698683401557 -1.8960356412759771 2.3167818161672282 40 60 26
11.821171201927381 -1.8182985865881347 2.3881895882712088 47 70 32
14.18568620533402 -2.239204294534949 2.2240735764490895 42 63 39
17.27056088240892 2.3488184638759857 1.7232016831361314 32 44 39
17.195122807412552 2.4315238545014277 1.665262829325559 33 45 37
15.057770914164841 2.7632933860706967 1.9534231215422202 39 54 18
16.691242712283866 2.47754325245583 1.7285349035960382 32 45 31
14.56626255861283 1.5671556435081846 2.7795382387479446 39 57 17
14.7003697696765 1.9374428845968668 2.756170580335307 39 56 17
14.052146144771415 2.429840153118297 2.5446509466661937 42 60 20
14.187559034234829 2.0689006826768144 2.316101588523276 40 59 22
14.252851687589114 2.567732702889095 2.4117071299027506 43 61 22
14.357505690969974 2.021578605284742 2.6448057224132717 39 57 16
13.96175859278764 2.203365339282865 2.331131690630195 39 59 22
13.742507282197327 2.1446203105933437 2.5786595392695872 39 58 18
13.877124149356765 2.3436026585669865 2.336948364178928 42 59 25
14.290282231931887 2.118898494111114 2.408784362817681 39 59 21
15.662519745225493 0.23499688129336027 2.507938988408373 33 48 2
15.953709740162 0.26303863364674945 2.59411854222378 34 51 2
14.27918100386204 1.3305835806467086 2.8370115379993046 38 56 16
14.559194472987915 0.9429675177818105 2.7808221899103 43 60 18
17.689401102935598 0.8498145431953174 3.054235852988201 41 61 20
16.784176526621074 0.5212683740539811 3.0024441001859308 41 59 16
14.991504644237587 1.8719331327209996 2.919093193168803 38 57 18
16.674348316025846 -0.6899302263620333 3.062293178770899 40 60 23
16.693442272226665 0.8498145431953174 3.049009481315147 41 60 18
16.65390204517125 0.15508860829340496 3.07963603091055 40 60 21
12.627946369740062 -1.7707872478054656 2.7397339030308157 47 68 33
14.19245267644031 2.445875726856189 2.6667010306970083 42 59 20
14.379927322459375 2.015334436684191 2.8154619846948505 39 56 18
14.102383502265026 -2.48476111947006 2.6792776080524954 50 71 38
13.525988097221736 -2.2308638480384904 2.7739097767140604 47 68 32
14.406896226424054 -2.370497964947086 2.6385185481878337 46 67 30
13.780957413241303 -2.374154530911219 2.7285351181958846 48 69 36
14.102383502265026 -2.48476111947006 2.6792776080524954 50 71 38
14.181208796410672 2.604280651038513 2.531389402986112 43 62 22
14.24065136033405 -2.2982708054631003 2.3126663787800674 48 68 42
14.361599653626975 2.468598472213066 2.214731689324331 41 58 25
14.304253666573354 2.3451628010468615 2.2177445844015646 38 57 22
13.93622783647146 2.4843337614094874 2.3328755062502706 43 60 25
14.517033944267085 2.338636586653166 2.624900008777498 41 59 19
15.233639521276663 1.8024706424852557 2.8572491279965586 39 56 18
14.798909097730666 0.8025762595576079 2.740077109356183 46 63 21
15.22380643853953 0.4833713904919953 2.678733207310445 39 57 9
16.119535230252296 0.3753103457230665 2.5774706625019874 40 57 13
14.772951543714836 -2.276938596174877 2.5951833496097265 45 66 30
12.744703320847353 -1.9592782637152129 2.7186965125764844 46 67 32
12.282711617799935 -1.8978244118939396 2.6155254240195047 46 67 33
15.0905081538139 2.2947237799378573 2.025076333105268 36 53 22
12.332984106600877 -1.9939223456110735 2.2370094467369515 37 60 28
15.253526737675122 2.327204283778091 2.852821671646072 39 59 20
14.376287394962803 -2.2001801922463264 2.512243799832488 43 65 32
11.970904169512734 -1.8527042048731162 2.5044147459515056 47 70 35
14.492841901639792 2.1728638081149896 2.1245824352610327 40 57 25
14.089609882341046 2.2367001096030674 1.9812373511794856 33 49 21
14.703609296209903 -2.30514472738824 2.1973828112407348 42 62 41
14.124443690815955 2.4186629322516042 2.4219267027140603 43 60 23
14.137044879381595 2.266782111785368 2.4209103120711077 42 59 23
12.282711617799935 -1.8978244118939396 2.6155254240195047 46 67 33
14.436234785231179 2.3463789679980898 2.0473316728528346 36 53 18
14.18568620533402 -2.239204294534949 2.2240735764490895 42 63 39
13.413842532357261 2.0783044319697694 2.4846526883421465 38 58 19
15.283831965674379 0.3753103457230665 2.5424805388720406 40 57 12
