20.332749355670153 -0.3161506632051916 1.5066094740348475 38 52 10
21.039374281699775 -0.4067974618412256 1.5087680603716782 40 54 13
19.704078029759533 -0.38024914190400577 1.6061161965724828 39 53 14
18.706803420274568 -0.5775176573596212 1.9947754151147168 12 20 0
18.68300646162186 -0.39143005939190795 2.0549269303969364 72 83 56
21.81868530169413 -1.890116595174036 1.3722226420948227 48 67 27
13.645833499159146 2.8590393805531407 1.3262256632420626 48 67 13
19.940057790229194 0.8394752065457735 1.9670302084910585 31 49 2
8.60141418323655 0.822378972906106 2.0149276282380764 48 63 22
10.039188513347469 0.6096690798505507 2.4442882866183124 60 78 30
10.525882123199946 0.4709967824594562 2.5430100531513036 61 79 29
10.734644267573444 0.37592287648684436 2.6980223331202127 47 66 14
10.623082154149982 0.15995578325980023 2.7206660180590045 47 66 13
10.199449410455696 0.13007021319955298 2.591690210673484 49 66 14
10.525882123199946 0.4709967824594562 2.5430100531513036 61 79 29
10.769824756300824 0.8306081470224497 2.5105667563775116 16 35 3
12.738474935906504 2.1315889685609966 1.7043170202520201 43 58 14
12.240883917342057 2.0616776846682114 1.7097791430705993 49 64 22
12.191444978664991 2.1035894477881176 1.9661903032892925 45 59 12
12.189890385702451 2.023577995170631 2.0569810325073568 47 61 17
12.088259591363492 1.8439172123640384 2.1578488286185102 54 70 24
12.534258127230261 2.2967377853290314 1.9548018942513232 51 67 21
12.289862048056548 2.209808594124848 2.2474544709385595 53 69 21
11.583298816206836 1.9747045095767213 2.187141211449996 44 60 14
12.3706030853507 2.1524407907082375 2.1427396639692526 44 60 14
12.677031859728263 2.2431207983505717 1.7850849366908583 49 65 21
12.534258127230261 2.2967377853290314 1.9548018942513232 51 67 21
12.396628138767685 1.6634594870475334 2.46887652445841 46 64 19
13.119591104745087 1.8634367495556767 2.671388947136357 55 72 26
12.18374143473925 1.3486972612755683 2.6422027596807265 37 51 7
12.4942344233555 1.790154281352035 2.459130216557351 48 64 18
12.32939782526735 1.1889720893393971 2.620958499734262 32 47 1
13.119591104745087 1.8634367495556767 2.671388947136357 55 72 26
13.026671337714467 1.695727849812974 2.6856240630761805 59 75 24
12.636664024807306 1.677210076938819 2.5800039730642133 47 63 15
11.850513359496695 1.3810316663657873 2.529027086113242 40 56 11
13.024192784719503 1.5379884054333115 2.410500192533877 52 70 28
12.41358148806335 1.7655885935357245 2.346904018730082 52 68 24
12.315335998092555 1.6528488272103627 2.354765051189089 50 66 22
12.331655635640614 1.2357459410425946 2.819064733860126 61 77 28
12.331655635640614 1.2357459410425946 2.819064733860126 61 77 28
12.717741845869448 1.9212238918872013 2.737970586823222 55 72 22
12.60483829441811 1.510068273255435 2.759487834041929 60 78 27
12.666982427301084 1.3033965282649318 2.7474592107384646 56 76 26
12.285305854791588 1.762058129671187 2.830551476465308 54 73 22
13.04141936987686 1.1252723892082495 2.9108568800507078 58 75 26
12.98106789890085 1.465203941853112 2.9315612704603202 54 72 24
12.8638680901239 2.357939644970174 2.3130988585810117 55 71 21
13.09534232867092 2.438499414669138 2.4044626398313587 55 71 22
13.093555635797829 2.277636865646364 2.4046129605067614 56 71 20
12.416181933592998 2.0158716734133226 2.6088954433300486 58 74 24
12.18906483258708 2.020733450099601 2.365148801489834 48 64 20
12.416181933592998 2.0158716734133226 2.6088954433300486 58 74 24
13.09534232867092 2.438499414669138 2.4044626398313587 55 71 22
12.530076061536334 2.1207151993890196 2.3378183773613546 48 64 20
13.09534232867092 2.438499414669138 2.4044626398313587 55 71 22
12.689038362809782 2.1846051176925143 2.4404543838362613 56 71 21
12.905203869199772 1.9562156672037918 2.5477515354233993 52 68 18
13.997370602542736 2.5952370654760006 2.440486761284319 54 72 24
12.099808370365146 -0.3647139870037059 1.6283331749051106 49 64 27
13.12887883816374 -0.3373133014718795 1.7003239089528508 53 66 31
10.219113858443677 -0.3423058258581159 1.8377558213851433 54 70 24
10.160630720044535 -0.30688194354779724 2.2902775985483994 48 66 16
9.617121576717345 -0.41183025861699274 2.498456177701828 49 65 13
9.90486316532615 -0.559328750013468 2.460637774845529 51 67 15
10.47266965529611 -0.4845549662486861 2.3962361132500076 45 61 9
11.10701641220795 -0.9193567394746874 2.6320009790506296 52 70 19
10.808970231549123 -0.20527596779613205 2.505627040098529 50 66 13
10.259792496994756 -0.2427214414253531 2.5821689241131054 47 63 10
10.758648924404232 -0.7889462444906684 2.6933495161632717 52 71 20
10.43458810801185 -0.41183025861699274 2.555960977560732 49 65 13
9.965446984392477 -0.4941588629417493 2.631286803011872 51 68 17
10.320559717071525 -0.3790739684713949 2.7918608021683182 53 72 20
10.241907340489224 -0.09367335450620214 2.8135637117565517 53 72 18
13.184648694256001 -1.194260697835056 2.397031857399483 55 69 24
12.767687927482081 -1.0946220915961622 2.320031216711575 61 74 30
10.525955145526742 -1.4467596667037594 1.7326081180635386 50 66 22
10.617108128303979 -1.5317873106444966 2.381611586405257 55 70 25
10.807760155454062 -1.774320578519641 2.238948290450975 60 76 31
10.750906670502166 -1.8012479339905048 2.368605591591777 58 74 28
10.674674250208803 -1.5364783656774186 2.248826898629887 57 73 28
10.637315903129567 -1.668281814924787 2.379614865865158 61 77 31
10.988396201137293 -1.4335934370336243 2.115713042894366 56 70 28
11.456834216211968 -1.735628334735026 1.9931067282562032 56 68 27
10.954836350467117 -1.5431326554751132 1.9149148886841383 56 70 29
10.988396201137293 -1.4335934370336243 2.115713042894366 56 70 28
10.936354982484707 -1.6474296831610822 2.118599887346365 61 72 32
11.24557110744793 -1.8545638332999792 2.101908707910712 57 71 30
12.59133571248993 -2.4561292594920836 2.228369817295366 60 76 32
11.887887901659285 -2.03962394091865 2.0704554772651886 58 70 31
11.921327924669923 -1.9166645193606189 1.975666178022803 55 69 28
12.813309018054891 -2.1957052444691025 2.0314371605631205 56 71 28
11.648543036476282 -1.828297070705451 1.9857236739897814 54 68 25
12.054045490927399 -2.234413359191863 2.263267768078074 60 75 31
12.688305864242441 -2.3191474481060186 2.0363320726042846 59 73 30
12.054045490927399 -2.234413359191863 2.263267768078074 60 75 31
12.104779966497514 -2.173292860036296 2.1569411202935385 59 73 30
11.666027319633912 -2.0869392156600757 2.1821265097388887 59 73 30
12.057189506767186 -2.383219670737549 2.0628066509009972 59 73 30
11.91882084646254 -1.991231764293569 2.272715996259291 59 73 30
10.95497598594916 -1.9264458351832012 2.349691598632875 60 76 30
12.56055016170059 -2.383219670737549 2.133035253809437 58 75 32
12.969918698455345 -2.2628372123070775 1.9412659304468987 58 74 30
10.687601359089248 -1.280904295008148 2.7073782621449607 56 74 25
11.553156867413161 -1.735187301195279 2.7539171819065063 60 75 34
10.747713089556806 -1.9495597893208134 2.6954700684097013 59 77 35
11.178208530595889 -0.7904909171601509 2.846736354938884 52 70 21
10.331457883348463 -1.8832285473103523 2.571186753371567 58 75 31
11.077053712202913 -1.704630843724852 2.6368625603184666 58 74 30
11.990556789860156 -1.0628151601254363 2.9194047773661262 56 74 26
11.287719215962275 -1.1642959655492744 2.604049003850167 57 73 29
11.426706999654762 -0.9663458983927589 2.781985868612268 54 72 25
11.199492938776679 -1.484796092772545 2.8405419232979816 56 77 27
11.426706999654762 -0.9663458983927589 2.781985868612268 54 72 25
11.269389400976165 -1.2002849768786044 2.8211690062511874 57 75 29
10.879168575671375 -1.8361943978881874 2.4969382255646564 59 73 30
10.766931052207996 -1.6836125605217453 2.510934665078704 59 73 30
11.362859964401498 -1.5317873106444966 2.442276812104495 59 71 27
11.638702531457326 -1.3698186771704335 2.555422639788508 57 72 27
11.431757605710663 -1.3967230190036455 2.435141726600083 56 70 28
11.431757605710663 -1.3967230190036455 2.435141726600083 56 70 28
12.24922743797878 -2.6837679291174323 2.4841275199634487 59 84 43
12.201907435715823 -2.4726133984734435 2.364077857494666 61 78 36
12.443819430440248 -2.3930184677187154 2.464130481612819 58 78 36
12.397530511443778 -2.632251478506959 2.3481756683450783 59 81 40
12.556307567505849 -2.5710968576267095 2.453070175989909 59 81 40
12.824705744858514 -2.7364467230814196 2.4280153241320903 63 87 44
11.95125955831006 -2.041036732765746 2.3856210672098275 60 76 30
12.715801754504005 -2.234413359191863 2.323833453548274 60 76 30
13.195496158717258 -2.313869757807505 2.2902816351403423 59 75 32
12.168579512719417 -2.306839976384446 2.366864182102205 58 76 34
12.669010694298489 -2.3873674123417366 2.327300816085541 59 76 33
11.647473091635066 -1.6339164376972315 1.8043636111811292 52 66 23
11.751303503664507 -1.7212819862663464 1.8022620508625093 51 65 24
12.74581930525092 2.583353390411531 1.7042396231501462 52 68 22
14.119695451543176 2.720721067204456 1.4068727491212498 51 67 17
13.253822775793202 2.5190010760878896 1.472235088727881 49 65 19
13.098482169222516 2.303185495188217 1.4710623400747043 49 64 21
13.038735683235833 2.4117381753746523 1.5474637867941214 49 65 22
13.145030671028783 2.4117381753746523 1.700163858734275 50 66 20
12.94395688651214 2.4184927151089575 2.0264345536751414 53 69 21
12.930286979404588 2.47192137556978 1.86066368188949 52 68 20
13.414414258824628 2.48678428126439 2.181807985841417 54 70 22
13.099343930030706 2.5384345926756033 2.02062996607875 53 69 21
13.4029699288844 2.653320982106981 2.0097201787922794 52 68 20
12.73716755333348 3.0872717836361474 1.546911256310874 49 68 15
12.73716755333348 3.0872717836361474 1.546911256310874 49 68 15
13.00003321060167 2.932999657668076 1.5473943106923007 50 66 15
12.830360492956492 3.0093458877187707 1.5470847774460974 48 68 15
13.13538180409477 2.998205139533011 2.0193056553235023 50 69 16
12.747562593961607 2.9850314299430534 2.1238184348054485 51 70 19
13.464575480475672 2.760684870612488 1.9270357451081415 51 67 17
13.14960378763935 2.8363379000952498 1.9359639562547217 51 67 15
12.904625785909932 2.9157704582268247 1.9432318687878543 52 68 15
12.918322847200281 2.8955015105553192 2.1156794210179255 49 70 19
12.574930482785943 2.8363379000952498 1.7868523110606698 47 68 18
13.163045934814036 2.8098156126007745 2.1044492334484 52 68 16
12.154260052629352 3.0771581737117066 2.058530963025815 49 70 19
12.918322847200281 2.8955015105553192 2.1156794210179255 49 70 19
13.044368211677268 3.0826451344682444 2.022665947617535 50 69 16
13.14739710349902 2.9692185613753854 2.293491530830435 54 72 24
14.575036689646854 2.72889613452745 2.2100827201580664 53 69 19
13.855117712863445 2.6477582502597703 2.3459127353943545 53 71 23
13.0564672672039 3.070546792141824 2.299649789280689 52 73 22
13.563015828801865 2.5630612207885464 2.266780008250584 55 71 23
14.226204799144595 2.611644924235401 2.2284383003015167 55 71 21
14.213060133365001 2.7784680703388824 2.3215300809869186 54 72 21
13.986721033077124 2.8713326237841845 2.336736214769389 54 72 24
12.059892060015866 -2.9470145678097657 1.7118788070990643 63 84 35
12.485686492106813 -2.7891523968285727 1.5464300797127035 53 72 30
11.672449001358018 -2.7592578378606443 1.7165946676582082 57 75 33
12.192894727635686 -2.8663284036493413 1.6278934314287017 49 70 24
12.624627811614442 -3.1152521848537673 1.9519111996617629 52 73 26
12.827660875894583 -2.8133349746151324 2.2142198960081094 58 81 40
12.467954321547946 -2.8663284036493413 1.7887358750441473 53 74 27
11.802771762473393 -3.1098327425694356 2.174028912130905 57 78 31
13.12121070821702 -2.7241442885929734 2.197546939547236 58 79 38
12.204942082283164 -3.02005982917002 2.0563293774455635 81 103 58
12.46251618823469 -3.007691863105112 2.2363767966427 69 93 50
12.780999676747772 -2.594468003389605 2.216960392161427 60 75 34
12.449909807982603 -2.6414777038039015 2.0459750227859574 61 76 35
12.51585217701041 -2.6815902100298326 1.8705549310393903 61 76 35
12.606807551655738 -2.9082774372997666 2.2274224433959158 63 85 40
12.353417046378757 -3.030344858018683 1.8746214837945518 75 97 52
11.771533870714832 -3.02005982917002 1.9811258800844813 88 110 65
12.606807551655738 -2.9082774372997666 2.2274224433959158 63 85 40
12.091952330341915 -3.030344858018683 1.7956274417433022 65 86 39
12.02247874117414 -2.9082774372997666 2.1614934098590908 68 90 44
12.549129033293452 -2.6094632009262755 1.7063439651955532 60 73 28
12.499037545622217 -2.5656477904913166 1.955940755890024 59 75 29
11.738672623086439 -2.5150032750620204 1.9823440069907177 58 74 30
12.722902226172637 -2.6094632009262755 1.7843003737693457 60 76 30
13.041802958258465 -3.1098327425694356 2.3006541730531294 55 77 32
12.747979467138382 -2.778742716905243 2.321470226685451 59 83 42
19.912398883202144 -2.263895856561782 1.6057465334942447 62 80 48
20.699314894369092 -2.263895856561782 1.8495613586319037 57 76 44
20.406463045904726 -2.223978500594831 1.9051106943888643 57 76 44
20.26017311614952 -2.1937091396299233 1.704251236350346 57 76 44
20.623402615987615 -2.301332140621391 1.653116282189761 59 76 46
21.264403500354813 -2.4029940649065815 1.6035235559172727 53 68 34
21.4571842617753 -2.297280847502685 2.0396537897792006 54 71 37
20.664897368798556 -0.3622517968999666 1.5076425378379923 39 54 13
21.453963668001357 -0.44969753645640226 1.509968227382408 43 56 12
20.086721393568055 -0.4264990920303468 1.555651453622865 40 52 13
18.239055043573508 -0.39143005939190795 2.00638123159335 1 11 0
18.06262853850199 -0.3558016161924389 2.137421746169653 64 78 39
13.245502847824191 3.0093458877187707 1.3186756061169658 46 67 16
13.155251141433643 3.0872717836361474 1.3169079211805652 50 66 14
13.140697070424523 -3.1173229830010367 1.3166205127239203 51 70 18
9.776944065195304 0.9254165305078162 2.3252026666897665 21 36 1
11.171530017704496 0.309716209347283 2.6217607165256416 51 68 17
10.734644267573444 0.37592287648684436 2.6980223331202127 47 66 14
10.373351058549138 0.7110811525620002 2.564922242906897 32 48 17
10.260574012631778 0.20741620291543653 2.80825934850529 53 72 19
13.202524256561432 2.195864289836761 1.6235228562141228 47 63 19
12.292945752138104 2.3577130917358797 2.0525556452213785 52 68 20
12.188700218974898 1.9747045095767213 2.2541383087330678 48 64 20
11.922034575237731 1.873545277711145 2.272488083164225 50 66 22
12.355939208339874 2.176714184816251 1.8745574844829591 43 57 12
11.839084550782053 1.9368287585564308 2.0727070196015758 51 65 22
11.904754542964502 1.8216615662463669 2.522573151778989 51 67 19
13.01017530727226 1.5207187739527297 2.6882162249810837 61 77 26
12.619658199055328 1.528192844324388 2.582149466113992 42 58 13
13.070392377854692 1.3486972612755683 2.678850262570931 52 67 16
11.90089650556544 1.1175067266570267 2.6876816774934404 26 43 0
12.02272959224522 1.8303776168940704 2.9078547575047273 53 74 27
11.839058820308367 1.970624887894304 2.9858689174780535 57 73 23
11.90089650556544 1.1175067266570267 2.6876816774934404 26 43 0
11.820905597112539 1.403718306429229 2.995976214365935 56 73 24
12.37132157957399 2.277636865646364 2.3502626295658833 55 71 19
13.635156593158552 2.5059947058046705 2.361841228515982 56 72 24
12.35241636110051 2.0775900950948416 2.4733818980105413 54 70 20
11.922407344078474 1.9101069629128793 2.3881913589944377 49 65 19
12.939563776370543 2.209808594124848 2.3077457045979086 50 66 20
12.611839124021744 2.358245647704339 2.4477363995403887 56 72 22
13.997370602542736 2.5952370654760006 2.440486761284319 54 72 24
13.69465847282801 2.695308584718503 2.4670936097045826 54 73 22
12.099808370365146 -0.3647139870037059 1.6283331749051106 49 64 27
10.200956955427639 -0.35201304583909754 2.4255656073294825 48 64 11
10.200956955427639 -0.35201304583909754 2.4255656073294825 48 64 11
18.18507472626257 -0.4433347619583193 2.1995827204347225 71 81 53
18.555706122436465 -0.5029447549994708 2.1851319187454292 1 7 2
10.758648924404232 -0.7889462444906684 2.6933495161632717 52 71 20
11.10701641220795 -0.9193567394746874 2.6320009790506296 52 70 19
9.78227206206537 -0.2963883340052577 2.66581034421353 50 68 15
9.699255630912727 -0.0719004891400278 2.6826989950446225 48 67 14
12.767687927482081 -1.0946220915961622 2.320031216711575 61 74 30
13.184648694256001 -1.194260697835056 2.397031857399483 55 69 24
12.31874114417914 -2.121387510735815 2.051461114475288 57 71 29
11.666027319633912 -2.0869392156600757 2.1821265097388887 59 73 30
11.350310376500305 -1.6400207831630527 1.9973279082569853 57 68 28
11.594178128711533 -1.752964865642623 2.18647664085097 59 72 31
11.244598857567022 -2.041036732765746 2.3245764561838533 60 76 30
10.674674250208803 -1.5364783656774186 2.248826898629887 57 73 28
12.607743757397449 -2.250495951938866 2.1306784981090696 57 71 28
11.527895477819984 -1.9504962714291272 2.0875824551262068 58 72 31
10.694773254396075 -1.656610210328349 2.2473141900989875 62 78 32
11.128436984288438 -1.3332621979787536 2.6285670497074705 58 74 30
10.331457883348463 -1.8832285473103523 2.571186753371567 58 75 31
11.924888122986156 -1.4478629666087077 2.9452629036024542 56 77 25
11.178208530595889 -0.7904909171601509 2.846736354938884 52 70 21
10.853355158472036 -1.0831358059348983 2.675533112030625 55 73 25
10.747713089556806 -1.9495597893208134 2.6954700684097013 59 77 35
11.381743767343965 -1.668281814924787 2.4403065913876807 60 72 27
11.487976140310703 -1.8012479339905048 2.429426336454302 62 74 29
12.086416999247833 -2.7364467230814196 2.3738336037204437 60 85 44
12.556307567505849 -2.5710968576267095 2.453070175989909 59 81 40
12.051197248196125 -2.4955676704540397 2.5057150852241836 60 81 40
12.017451368843874 -2.2970131864973555 2.50952912215884 58 77 35
12.603800638685719 -2.850823619617477 2.4485034665095164 69 94 54
12.14935881806629 -2.102966080882924 2.494849230194581 59 77 34
12.298866193473785 -2.143714014441068 2.3561012507458443 60 76 30
11.647473091635066 -1.6339164376972315 1.8043636111811292 52 66 23
13.30016175999203 2.6893466587070347 1.774899799048126 52 68 20
12.139334843880203 2.998205139533011 1.7947348751433616 50 69 15
13.300073445265976 2.9850314299430534 2.1878423395477484 53 71 20
13.300073445265976 2.9850314299430534 2.1878423395477484 53 71 20
13.243246451466268 2.8590393805531407 1.5478241668449713 47 68 16
13.637936113089278 2.611644924235401 2.170373746543391 53 69 19
13.615237350457813 2.7881193987498847 1.474859550394133 50 66 14
14.08460203634566 2.5384345926756033 2.148853940292073 53 69 21
13.051951511649136 2.303185495188217 1.6241317055354787 49 65 21
12.850896071963723 2.357538601318944 1.8625068465954298 51 67 21
13.298068388289881 2.5190010760878896 1.6986668464365 51 67 20
12.732634769831682 2.760684870612488 1.7043786299268635 51 67 17
13.210194569041807 3.0771581737117066 2.1926776333837266 50 71 20
13.027643614808254 2.6893466587070347 1.547443917263336 52 68 20
13.41408295197197 2.4184927151089575 2.093427759727236 54 70 20
13.549227791271898 2.740929093298716 2.3682762133446618 54 73 22
14.284571446390135 2.8098156126007745 2.2252863830444762 54 70 19
14.059383639032573 2.8955015105553192 2.237635190259497 52 71 22
12.98829074307349 -2.961977434216224 1.4702133535635136 55 76 27
12.72213520538764 -3.1173229830010367 1.5468830285723827 56 76 27
11.908976009580389 -3.030344858018683 1.7136788578289712 77 98 51
12.07739013991749 -2.6815902100298326 1.7116730385769887 59 74 33
12.938000455611425 -2.6414777038039015 2.1147578712551214 60 75 34
12.024891860502898 -3.1152521848537673 1.7969030301829643 48 69 21
12.138505852427393 -3.1127951491107595 2.05921958515022 57 78 31
12.35224263582767 -2.929373031278968 2.0500473528882206 73 94 47
11.853357837744094 -2.882629044659262 2.277395162150359 63 86 43
11.495581478093404 -2.9082774372997666 2.089180675121164 81 105 62
12.399059070532498 -2.682428625783127 2.240401153345465 59 81 40
11.892970042923418 -2.5656477904913166 1.7994554863888266 58 72 29
11.95918560320775 -2.443723758882625 1.884973984465191 59 73 28
12.173250860575372 -2.5150032750620204 2.0577035695381944 60 74 31
12.38048491334798 -2.9925421631377653 2.3495314794494853 64 89 47
20.26017311614952 -2.1937091396299233 1.704251236350346 57 76 44
20.63074291727706 -2.297280847502685 1.9530644807367679 55 72 38
20.092073351731216 -2.1937091396299233 1.6054338637353698 61 81 46
18.02006931174098 -0.497895239632941 1.8344267724762493 22 31 4
22.146885399740487 -1.9338343790450256 1.3752037627165956 49 66 28
21.81868530169413 -1.890116595174036 1.3722226420948227 48 67 27
13.245502847824191 3.0093458877187707 1.3186756061169658 46 67 16
9.735318050354355 0.7259399442157084 2.3292289278910654 44 64 21
10.936878011977411 0.5607906950620876 2.6605730468608213 11 25 6
12.119119603480149 1.5207187739527297 2.6520668371747798 47 62 17
12.315335998092555 1.6528488272103627 2.354765051189089 50 66 22
12.621864087499281 1.7219887951534152 2.7561450194609054 57 73 23
12.136826791972092 1.695727849812974 2.6493354334361 52 70 23
12.37929257251851 1.5337265304338707 2.4706362132164927 50 66 22
12.089362487042433 1.9562156672037918 2.50145061367273 53 69 19
13.413001411130272 2.4271143635932257 2.2761607425963413 56 72 24
9.821614020571424 -0.4263051907420256 2.1894331113879133 31 47 3
9.965446984392477 -0.4941588629417493 2.631286803011872 51 68 17
10.180670664495413 -0.05833091221213099 2.594706832722219 47 64 13
10.758648924404232 -0.7889462444906684 2.6933495161632717 52 71 20
11.01077582156204 -1.8865996839799561 2.2244782819317064 58 73 30
10.451087806564239 -1.5431326554751132 1.7337776075885123 51 65 20
12.559041257684518 -2.313869757807505 2.2303570488737074 59 74 33
10.637315903129567 -1.668281814924787 2.379614865865158 61 77 31
10.916700769373652 -1.5401625979829636 2.1196986448115847 59 72 30
10.637315903129567 -1.668281814924787 2.379614865865158 61 77 31
11.972381373382737 -2.313869757807505 2.1643019809960364 60 74 30
11.648543036476282 -1.828297070705451 1.9857236739897814 54 68 25
12.933605322271013 -2.4726133984734435 2.4183438479918813 60 78 36
10.879168575671375 -1.8361943978881874 2.4969382255646564 59 73 30
10.746966998559452 -1.525611725193873 2.5134834074932577 58 72 28
11.426706999654762 -0.9663458983927589 2.781985868612268 54 72 25
13.596495100014085 -2.7364467230814196 2.476174469712928 62 86 44
12.779516801689015 -2.538887228109124 2.3191705860921568 61 76 35
13.477043980398932 2.583353390411531 1.926691498602073 52 68 21
12.040794714399727 3.0826451344682444 1.7965992155039296 50 69 15
13.85648548116286 2.691709820108753 2.249213901293054 53 71 22
13.477703490563663 2.72889613452745 2.0907106270338005 52 68 18
12.732634769831682 2.760684870612488 1.7043786299268635 51 67 17
12.466790700769938 -2.7592578378606443 1.9569895692207229 59 77 35
12.785539139458924 -3.039030553647012 1.5470016378931448 62 83 33
11.97796940342044 -2.6815902100298326 1.6289190918287264 58 73 28
12.353417046378757 -3.030344858018683 1.8746214837945518 75 97 52
11.871087068146359 -3.007691863105112 2.1700698843687407 76 100 57
12.49896794236363 -2.9470145678097657 1.8709724676936874 74 95 46
12.525721280313935 -2.882629044659262 2.3381535502508894 69 94 52
21.245296856327982 -2.336416124468366 1.6035529991944373 59 76 46
21.94084186091943 -2.369284148880186 1.5569313635770674 59 76 46
18.67401426755436 -0.5267981707145871 2.05518017326957 9 18 0
13.409923892000519 2.932999657668076 1.3218328250902212 47 66 16
12.64425332434534 2.1315889685609966 1.6258531508358254 45 60 17
12.209775272814626 2.2885070716351414 2.1512420650123296 53 69 21
12.372134971283778 2.228591565111277 2.0492120084614465 44 60 16
12.267812980759924 1.4936750995651196 2.835018051294617 55 72 22
12.475585200749187 1.0164648961655876 2.7861575521355197 49 65 16
10.243408636836156 -0.6574962725587473 2.584728597047793 51 68 17
11.269389400976165 -1.2002849768786044 2.8211690062511874 57 75 29
11.732213036869894 -2.2125980184572 2.405637875519473 59 77 35
10.613874289140659 -1.5046891983272244 2.7226080495831058 58 75 30
13.553988700359826 2.622625941961548 1.4744246809537445 52 68 22
13.301164168480575 2.9157704582268247 2.0133164716133067 47 68 17
13.145955558449131 2.9498961128007646 2.4002315448292597 57 75 27
12.720272143982278 -2.443723758882625 2.035070026305199 57 74 30
12.92404769245858 -2.3800458914464193 1.9426448512101313 60 74 31
20.240514666659294 -2.263895856561782 1.754420703379307 57 76 46
12.157449710952184 -2.8420882853638267 1.9673576709717395 55 77 32
12.560834720946255 -2.7241442885929734 2.1330209798964344 59 78 36
20.16161332045758 -2.3350049719270283 1.7551475432720485 56 71 37
22.146885399740487 -1.9338343790450256 1.3752037627165956 49 66 28
12.98106789890085 1.465203941853112 2.9315612704603202 54 72 24
17.997850653334307 -0.5029447549994708 2.1397132945275064 6 16 0
11.527895477819984 -1.9504962714291272 2.0875824551262068 58 72 31
11.026283818705236 -1.4467596667037594 1.9125936580183192 54 68 27
12.669010694298489 -2.3873674123417366 2.327300816085541 59 76 33
11.679173789922931 -1.9264458351832012 2.410666050902153 63 76 31
13.202764230610228 -2.8870177551585012 1.471852680323796 51 70 26
12.672002133719795 -2.5150032750620204 2.127503290195831 59 75 31
11.613376256820079 -2.143714014441068 2.2951706091736863 60 76 30
12.318529277043243 2.9157704582268247 1.7914229734290923 51 67 15
12.305028315874429 -2.443723758882625 1.9623407521059164 60 74 31
13.14739710349902 2.9692185613753854 2.293491530830435 54 72 24
11.05764958425404 -1.5171152598337125 2.640048114058809 58 73 30
12.418970997644829 2.0616776846682114 1.7896094375349068 49 66 24
12.253868041743251 -2.8133349746151324 2.1488841176366287 58 80 36
11.941621166341424 2.067835715552619 2.166040807345033 43 59 13
12.4942344233555 1.790154281352035 2.459130216557351 48 64 18
13.31160623825116 2.8420568950264737 2.3867392031468433 55 73 24
11.199492938776679 -1.484796092772545 2.8405419232979816 56 77 27
12.31499572826416 -3.1061912454053022 2.35479260321548 54 76 33
