10.507719420294254 -1.2521303922998936 1.6636407479047786 52 60 44
10.77709162266245 -1.4428829367668992 1.9484731570974023 51 61 37
10.674342768978754 -1.1243007899607558 1.9522948158566398 54 64 41
11.005582802155196 -1.1642287694888653 1.3856688439996199 23 29 17
10.656785380319505 -1.2521303922998936 1.379535863163724 49 57 41
11.05314687689184 -1.4544693285997399 1.659047013038389 50 60 35
11.194952572865432 -1.4544693285997399 1.388835732127109 49 59 35
10.240165881803446 1.9604371756980583 1.8654858471533327 39 47 24
10.409459873410153 2.051069675433804 1.7616047375887038 42 51 25
10.045940368649875 1.7585474305770603 1.9775182597953127 30 31 17
10.76348978841997 2.1338999414780897 1.6614283717753908 42 51 24
10.774637996652423 1.9250301285207194 1.6613343401992824 41 47 25
10.519357727220763 1.6424234819897654 1.8574397426125238 7 8 2
11.007441620136511 -1.6367329053210564 1.477467776513666 49 60 28
11.115963384567875 -1.545390662136733 1.7493422835231613 50 60 31
10.72539731186942 -1.6433470152126313 1.950386003509317 50 63 30
11.412850399998566 1.4136401224463964 2.344377964290017 11 9 4
11.412850399998566 1.4136401224463964 2.344377964290017 11 9 4
11.492300175460096 1.3918370792491634 2.466880040040069 43 47 27
8.841162620789824 0.9315525587042858 2.695032948954268 52 63 25
9.235513611864311 1.0599533848620708 2.6128181497073597 52 62 26
10.552798339796857 0.31394591057856414 2.8089092647228227 53 64 26
10.499190331294098 0.019606934569249296 2.8240173740200696 53 65 28
10.552798339796857 0.31394591057856414 2.8089092647228227 53 64 26
11.284704424952603 0.012178053610646064 2.654863282910609 53 63 29
10.83520862203598 -1.3587450234314626 2.5467606862109857 56 70 39
10.467327164612545 -1.0662419773945802 2.4369089126769152 57 70 41
10.060548416031063 -1.0461313084777233 2.6725848249624105 61 75 44
10.589574086117569 -0.35152769922754556 2.581968116715176 52 64 30
10.307728718375266 -0.856675199601564 2.455317956107128 52 66 36
10.366038103576036 -0.6014413849213899 2.6174018230245526 55 70 36
10.307728718375266 -0.856675199601564 2.455317956107128 52 66 36
9.868020395160215 -0.7437637433866494 2.51168729787061 55 69 39
10.69234262344368 -0.7437637433866494 2.5668077422305715 53 66 35
10.69234262344368 -0.7437637433866494 2.5668077422305715 53 66 35
10.492191346121425 -1.1384113737054824 2.5969646820011314 57 71 41
10.57015279260563 -0.8439948289169541 2.2913483116823086 52 65 38
10.82223249352639 -0.9463108686471579 2.399170815183852 56 69 39
11.02414012112884 -0.424926634666746 2.7016082042535636 52 66 32
10.893127218478739 -0.21534301361847846 2.7278932144571497 52 65 30
11.24291377813611 -0.6014413849213899 2.6619345952730913 54 67 32
12.04440600703044 -1.4287504157801003 2.294367386108342 58 69 42
10.815122618489067 -1.076385410456015 2.1560268166820227 56 66 43
10.750548412431991 -0.9838930916895988 2.05182460907681 66 73 59
11.478329557160023 -1.2912691870341295 2.3388216704226292 57 69 44
11.39803673931464 -1.076385410456015 2.229226235564327 58 69 46
10.987573240687347 -1.3211930165129007 2.1456615851709313 56 66 41
10.725847131972658 -1.01812211945165 2.2786729741550538 54 65 42
11.065097504466733 -1.1293001371498916 2.375551327891031 57 69 45
10.995521196080562 1.9385965835784815 2.3821515481059654 50 60 30
11.443837074035736 1.6726625766773746 2.472191587109341 55 61 34
10.447416830432894 1.8985802390510655 2.604081726302205 52 65 30
10.657989503462172 2.0640014371927533 2.5718031367731733 54 65 30
10.967090480911166 1.8474884017136917 2.529213668825487 49 62 27
10.60176136039393 2.055725319403477 2.2887334677384192 48 58 28
10.18278406028599 1.7811842933285622 2.197767118328481 36 41 14
10.68612341539857 1.6601025451828764 2.2818587642272665 25 30 12
10.967090480911166 1.8474884017136917 2.529213668825487 49 62 27
11.440173381977743 1.5401483164042848 2.2263800571691172 7 7 7
10.179841384559808 2.003218070574913 2.081315873265945 45 51 24
10.308252750811745 1.515978896694171 2.627180841520203 51 63 26
10.531306039391666 2.3122785357206475 2.5908637814335056 53 64 27
9.85553243548709 1.5025290265972595 2.7154646153962503 52 63 23
10.907260311322235 1.9715813044926243 2.7249517133774126 50 64 25
10.907260311322235 1.9715813044926243 2.7249517133774126 50 64 25
11.523373489090682 2.082802636516107 2.8316173229323405 53 64 27
10.783505651612685 2.2971302405826335 2.7516951246294834 53 64 27
10.32107236632229 2.4959343503957787 2.1880937468609476 56 67 32
11.068767513548705 2.187911447139095 2.0368775712518064 44 53 25
11.044321684892617 2.417106401550841 2.377508724275449 54 65 30
10.329797951592708 2.4075971075255636 2.0732041542745883 51 61 31
10.489060604274647 2.5611402862586794 2.064880669017022 55 66 31
11.07525958341256 2.232399272283861 2.3745980249648886 52 62 32
10.2571374248103 2.327171977912683 2.1925252971413443 52 62 32
10.878300572199864 2.251609092953255 2.1521831116303347 46 56 26
10.159517147646069 2.713884116933498 2.327416745377688 51 62 24
10.029525208919408 2.7953692467438795 2.4899205469153594 52 63 25
10.159517147646069 2.713884116933498 2.327416745377688 51 62 24
10.575452776608627 2.6571138431216745 2.171120860904067 53 64 26
10.282019796909054 2.6499381510405926 2.4583762890482004 53 64 26
10.69631642138931 2.9577000711860206 2.5662344466183806 52 63 25
10.623016816879726 2.524003340436747 2.4198437354987785 53 64 26
11.21279856351215 3.132030830567116 2.498677901590539 50 61 21
10.348696456417352 2.7294748098239414 2.6203076189570282 53 64 26
9.903899912945139 2.843646131185924 2.3520715789418225 51 62 24
10.405495900598513 3.133269008656036 2.3053287852849187 51 62 20
10.783792910531872 -1.6918565386311057 2.5538448833871974 57 71 40
9.554156408380967 -2.0007773723346114 2.3890643644149088 58 69 36
9.885652558273755 -2.1308824901902916 2.3539039290570956 57 70 35
10.089749548348399 -2.216926950088068 2.482135724615421 60 73 38
9.550130115884013 -1.9448005069587078 2.2466458069456623 56 69 34
9.936989713255372 -1.5357931385641965 2.2158063297674855 58 71 41
10.230681556761054 -1.5397076759769026 2.078534977029284 56 66 38
10.25236884543997 -1.6514327979150942 2.077358397969543 54 67 38
10.593076516845576 -1.6745372946388177 2.4230608325601124 57 71 39
10.56844968853784 -1.5357931385641965 2.2914898172879163 57 71 41
10.5894452473325 -1.661541399906781 2.2897497605057042 56 71 37
8.958605972611046 -1.9448005069587078 2.159448605695922 56 69 34
9.522806516869132 -1.7844904524104843 2.1203939312914484 55 68 35
9.881761333760906 -2.0633384870975195 2.2200178967190975 54 67 32
9.311328734375111 -2.0633384870975195 2.134366379666668 54 67 32
9.7533617683762 -1.9012393350570038 2.105977258369366 56 67 32
10.572088169545687 -1.5307513951145466 2.425334023649256 56 70 40
11.777456790176128 -2.670239607387654 2.31457245871226 51 62 22
11.347616888496177 -2.5390951544093467 2.482981328488355 56 70 31
11.378477105946144 -2.8612147947663855 2.479484608746005 49 63 24
11.590564527358481 -2.7298318247606166 2.456351069424042 51 65 26
10.607609391032838 -2.8612147947663855 2.42149552775824 47 61 20
11.883292089113226 -2.6119112957124395 2.426745228330618 52 63 25
11.251590840330994 -3.0032807530800856 2.494089366006009 51 62 22
12.15387894072901 -2.5390951544093467 2.533358509988722 55 68 31
11.867827454659759 -2.6675605445963355 2.5688886919864222 54 67 30
11.067796871120475 1.545685724255072 1.5684636227518882 13 12 11
10.314349973543962 -1.2192077576030296 1.966335855750029 54 64 41
11.05314687689184 -1.4544693285997399 1.659047013038389 50 60 35
11.352653490775145 -1.3654348030968362 1.39139103902609 49 59 37
11.245136087271169 -1.7269893666015592 1.7472696396216365 50 61 26
10.838743899758548 -1.742416483466545 1.9462175579399277 50 63 29
9.930101938662709 -1.7611841829928678 1.9825484703606944 52 65 32
10.530190722422656 2.331380417321976 1.9577924284304054 45 54 24
10.682543860085527 2.2656721399659063 1.7566692543949347 43 51 22
10.325738993087429 2.187911447139095 1.8629713658115634 43 52 24
10.399651175040631 1.7402663023155704 1.761786922992533 24 25 16
9.149969107060082 0.751729736935112 2.62904558496966 53 64 26
11.45344323208318 0.019606934569249296 2.8512845197376757 52 65 28
10.552798339796857 0.31394591057856414 2.8089092647228227 53 64 26
10.332976947821368 -0.8763399617533536 2.6229628574106 62 75 42
10.82223249352639 -0.9463108686471579 2.399170815183852 56 69 39
9.590893620220598 -0.6407434865412964 2.3849823580312384 52 65 34
9.868020395160215 -0.7437637433866494 2.51168729787061 55 69 39
9.47744946419633 -0.8763399617533536 2.5706368748127284 59 73 42
9.934459882586244 -0.9845620895889433 2.502569897425719 57 71 42
10.817140293889738 -0.5076140466799225 2.5492340245894263 54 65 31
10.675949008747647 -0.5334340782625578 2.776992909900586 54 69 35
11.615689884599725 -0.5334340782625578 2.8076954688928653 56 71 37
10.725847131972658 -1.01812211945165 2.2786729741550538 54 65 42
10.824554842882268 -1.4287504157801003 2.1554494944706155 56 66 40
11.508507113451518 -1.0372798081361003 2.0177470943254914 61 69 54
11.06162118940364 -1.1790866236459112 2.2529737394216838 57 69 45
10.807575360133324 -1.2912691870341295 2.2722187615777605 60 70 44
10.459976055424368 -1.1790866236459112 2.1786986281992027 58 68 43
10.834603359712698 1.5250044216718845 2.5468432596112662 51 62 29
10.329777180642147 1.7124307145689635 2.6235058486657064 50 63 26
11.707166947625687 1.5431919114655226 2.106331393143176 12 12 12
10.791536709216144 1.8099098634818813 2.4022761360792177 53 60 33
10.398716894189961 1.89633862821757 2.1828034870793402 47 53 26
11.550135445273883 1.8099098634818813 2.460644781559703 56 62 35
11.523373489090682 2.082802636516107 2.8316173229323405 53 64 27
10.87001529020344 2.327171977912683 2.2673763591925393 52 62 32
10.586472143348503 2.100529822174167 2.059930890421004 45 51 24
10.64343129816709 3.1303599299674296 2.5739416721943438 52 63 25
10.483655972787709 2.9845710966355146 2.4350791738300552 51 62 24
10.841574616916235 2.7953692467438795 2.5458933674485342 53 64 26
10.159517147646069 2.713884116933498 2.327416745377688 51 62 24
10.631820057894473 2.843646131185924 2.418903496875231 52 63 25
11.193422538205498 2.597787931281507 2.363706994267128 53 64 26
10.504491604118417 2.597787931281507 2.2968500878776776 54 65 27
9.744674355664992 2.9845710966355146 2.3684102521988812 51 62 24
10.896532079718519 -1.8531705164601886 2.5384930590056625 56 72 40
10.763176469339344 -1.5240140969934048 2.5567258939830166 56 70 39
9.985445791802688 -1.8141704180389686 2.3440043537406536 56 71 37
10.707823864765544 -1.8141704180389686 2.4108907421673047 58 73 39
10.25236884543997 -1.6514327979150942 2.077358397969543 54 67 38
11.883292089113226 -2.6119112957124395 2.426745228330618 52 63 25
11.883292089113226 -2.6119112957124395 2.426745228330618 52 63 25
12.302417279717476 -2.585372022744561 2.6726233890629008 55 68 31
10.618527099289777 -1.3454284474171156 1.8546880008585132 55 63 43
9.920522942857096 1.8625392927965536 1.8752803187537896 46 52 31
11.77867310198626 0.015024409456653853 2.769859896949288 54 65 28
11.507968768753882 1.4307385714581458 2.221857288234318 14 12 13
11.322379222136606 -1.4111369720651097 2.3522118439437554 57 70 42
10.540609205594318 -0.27806911517931043 2.8122724142324356 53 66 31
10.042742914498428 -0.7519096407711588 2.3384514739272038 51 64 34
11.413728168103665 -1.388592315967908 2.475532429404855 56 70 42
10.364606134397215 1.6502940083626696 2.0713598881323803 5 6 0
11.109120096841268 2.1609408693470904 2.6856293508378752 52 63 26
10.855084144740426 1.6893144319552518 2.544059820723752 49 60 27
10.119499220050969 2.4309246577457446 2.4783527587000664 53 64 27
11.34448659392944 1.5363506905653748 2.3502804211916297 17 19 8
9.760927685262933 2.5659762327354136 2.526897350871865 54 65 27
10.429692582626185 3.132030830567116 2.441163121493206 49 60 20
11.167868885494208 1.9927154485620997 2.5040680383945713 52 62 32
11.317989339393504 1.8985802390510655 2.64933484304922 51 64 27
10.956138100763752 2.204611049336285 2.530638182129791 54 65 30
10.348696456417352 2.7294748098239414 2.6203076189570282 53 64 26
10.362869249455548 2.251609092953255 2.071451577001518 46 55 25
10.992796085156817 2.16003199710761 2.2580698668403323 48 58 28
10.471386354270757 -3.0032807530800856 2.4364531560921945 50 61 21
11.590564527358481 -2.7298318247606166 2.456351069424042 51 65 26
10.861304967108314 -1.1642287694888653 1.6606099421750598 48 55 41
11.135926714654286 -1.6367329053210564 1.7490187691951253 50 61 28
10.00310751116274 -0.5076140466799225 2.4933904133287803 52 65 34
10.9017123448429 -0.7303864450216452 2.7261031567524503 59 74 40
9.568633265632087 1.1756974955835156 2.787250714500213 52 63 25
11.39803673931464 -1.076385410456015 2.229226235564327 58 69 46
10.566513645168698 -0.920310173780429 2.171700149682765 54 64 43
10.998069105799686 -1.2043684109079014 2.5252152582388656 56 70 40
11.364048482250597 1.6601025451828764 2.348580705452234 22 26 14
10.187239651036368 2.4528268109072084 2.6486070500800944 53 64 26
10.9303659155892 2.4959343503957787 2.2627668279249162 54 65 30
10.687242535512818 2.121284051211861 2.4130422023180587 52 62 32
10.79463318838801 1.7466340298206813 2.7491942104201232 50 62 23
10.87995517357479 1.6502940083626696 2.1520831765299087 7 8 3
10.08128008814048 -1.7844904524104843 2.2050810857173024 55 70 36
10.4472862385259 -3.021006128360426 2.3017220953548474 50 62 19
10.088907131425202 -1.8531705164601886 2.4822434404886797 55 71 39
9.959316562316934 -1.661541399906781 2.214120752377471 57 70 39
11.660784008001166 -2.8153893980490627 2.5970440075542465 51 65 27
10.471322845362414 1.8349485588762169 1.6639643950141676 48 52 36
11.17047312324926 -1.3654348030968362 1.568485064434285 51 59 40
10.987244840887827 -1.545390662136733 1.4772957185267137 49 59 31
11.20172599774406 -1.317453090631097 2.669051938336141 59 73 42
11.39803673931464 -1.076385410456015 2.229226235564327 58 69 46
9.934148064119077 1.266163474935155 2.698353089503485 52 63 24
10.811133363826997 -1.2534665752162766 2.400290401668502 56 69 42
11.424411807615195 1.531479372032588 2.4743433494663103 50 55 29
10.5894452473325 -1.661541399906781 2.2897497605057042 56 71 37
10.409459873410153 2.051069675433804 1.7616047375887038 42 51 25
10.704668405436877 -1.5428349315633039 1.9511586387067994 52 62 32
11.334954076223886 2.321245197593216 2.4844262402714907 54 65 30
9.959316562316934 -1.661541399906781 2.214120752377471 57 70 39
10.631820057894473 2.843646131185924 2.418903496875231 52 63 25
10.704668405436877 -1.5428349315633039 1.9511586387067994 52 62 32
11.248228990639214 -0.9838930916895988 2.1307205832707865 60 69 51
11.883292089113226 -2.6119112957124395 2.426745228330618 52 63 25
