16.2843517508837 0.5629867363096488 1.953513429927231 1 1 2
16.300846977491492 0.7071418935533654 1.8877968851741547 2 2 2
16.25708518364551 0.7985677223445534 1.8886801151714114 4 4 6
16.289715712130228 0.754213733991767 1.6989122183983423 3 3 5
16.466402330165526 0.6170049532927144 1.884500265058248 2 2 4
15.965767485487428 0.8471131060529595 1.9615594479285052 1 3 5
15.158969882674791 1.1545367178316026 1.9126124494882584 41 51 28
15.464665205927272 0.9418836891281369 1.8378691517926458 4 5 6
15.223954238756722 0.998263003233102 1.9110941841388593 1 1 1
15.050078865927068 0.41459793199965755 1.5761961246390814 2 1 6
14.263781358270261 0.21876197978610668 1.7172318203454247 11 13 17
14.650702876705553 0.37729617849108976 1.9249828780594542 5 5 10
15.156853771915301 0.5050202722235868 1.8434299775682983 0 0 7
14.263781358270261 0.21876197978610668 1.7172318203454247 11 13 17
14.085220599011654 0.23528289784495116 1.9398700455157944 11 13 17
13.601704012922918 0.25444467138749033 2.034312425812451 9 11 15
13.91065246621739 -0.13974470979849882 1.576638428807059 1 0 7
13.568569475685626 0.160062697429149 1.8763154545277612 12 14 21
14.265103044989424 0.14861959246237436 1.7885125578512524 11 13 20
13.574144012758408 -0.24448970170137055 2.0353275150722405 1 2 5
12.803605653297906 -0.24448970170137055 1.8952164290379292 0 0 0
13.283231260584301 -0.15052514006918333 1.804895346615487 1 0 7
13.393364529066176 -0.16309190786474498 2.0421028279300177 0 0 3
13.884138456386369 -0.15052514006918333 1.9454781004393045 1 0 7
13.252617434572468 0.005300576131838619 2.04752256887938 4 6 8
13.81732396202454 0.004530983348323831 1.6491308590979226 7 6 13
13.411991810533598 0.17339580206802177 2.041395181385258 6 10 12
13.452927186570387 0.08297380365345729 1.879027765670577 10 11 13
13.393364529066176 -0.16309190786474498 2.0421028279300177 0 0 3
13.90210817083075 0.160062697429149 1.9449698287757593 13 15 21
13.780207850589552 -0.07326199353997226 1.9484458045514406 4 5 9
15.759702762538481 0.6992892254084816 2.0368086924736906 2 2 4
16.189687199734507 0.7998953070885478 2.0934270451990704 1 3 3
16.37279039680222 0.8471131060529595 2.018062390221189 3 3 3
16.189687199734507 0.7998953070885478 2.0934270451990704 1 3 3
15.606723378504343 1.2203466685709687 2.0417449222138444 40 47 17
16.14679176671293 0.8536461949512607 2.168105116103674 0 2 0
16.4299942124844 0.9782300042493998 2.3110205725545256 35 40 16
16.22750125835551 0.9129507204201742 2.2411278388164364 4 7 2
15.563432577459366 1.2675107430886 2.1938284457676667 43 46 13
15.284224575057195 1.193879521286779 2.1279029469149036 38 44 17
15.711316537229157 1.1277401872198236 2.3536493419409616 42 49 16
15.132567796922013 1.1242974988447447 2.0577646745141234 40 49 24
15.772830305474647 0.9782300042493998 2.264194022725742 49 53 40
16.4299942124844 0.9782300042493998 2.3110205725545256 35 40 16
15.711316537229157 1.1277401872198236 2.3536493419409616 42 49 16
15.433562399946451 1.0896876361116825 2.1998876685292412 32 41 15
16.04236211815493 1.0896876361116825 2.2503107438944325 42 48 20
15.752192128885742 0.9581847948482187 2.109501425097803 0 3 0
15.630354029769316 0.9492386269313791 2.454252277156904 45 52 27
13.04730537390176 0.3036103322284625 2.2387517012254445 51 55 37
14.05726362802786 0.5551458199042559 2.1832561818466107 26 27 20
14.05726362802786 0.5551458199042559 2.1832561818466107 26 27 20
13.518287336672781 0.3605481523540587 2.122135816962102 6 7 9
13.317545015849912 0.3938821240905678 2.2228418753451695 50 53 43
14.270401779750397 0.47786803049882054 2.2605806135205384 51 53 29
13.65583512563519 0.47786803049882054 2.204063079778694 40 43 36
14.04217797514899 0.006385087025229506 2.371616959710749 39 50 17
13.501203199978278 -0.08679785055772242 2.2124974276157667 14 18 11
14.192688883521878 0.2079427927165552 2.360740669247032 43 50 18
12.82996644084194 -0.19568571812278324 2.252187774635945 45 49 37
13.37517852514294 -0.09562604929105378 2.3171471565335593 48 52 32
12.82996644084194 -0.19568571812278324 2.252187774635945 45 49 37
13.661835349643132 -0.291939424592826 2.2979125326607637 41 53 26
13.468753304461655 0.005792507060901588 2.2142988282390275 20 25 17
13.510445710848693 0.09828393455050309 2.2119863707894267 23 28 20
13.384508061117936 0.10826396306744808 2.316502723706237 44 50 26
13.057351839410682 0.18912312563468262 2.1439926814903165 20 24 16
14.192688883521878 0.2079427927165552 2.360740669247032 43 50 18
14.333366628426782 0.7299604170665803 2.4545259624975873 48 53 24
14.4523421084676 0.5771693152006859 2.4445521748435275 48 51 18
13.575082501698732 0.7299604170665803 2.4077856832289406 46 51 24
13.40410206599405 0.6622712635027458 2.315153440876804 51 55 34
14.100797359460115 0.6622712635027458 2.367338969242617 46 51 24
14.68955652626964 0.3752273632762147 2.5364820600575304 45 52 20
15.52242264968463 0.3752273632762147 2.573137449221065 47 54 21
15.706970765147851 0.8146260559966106 2.6825970456432824 48 55 24
14.903744600768986 1.0138829037748478 2.6418727189391715 47 52 21
14.747308403655458 0.6417327818221777 2.5308431828061897 47 52 19
14.930100423902514 0.4814927714224272 2.5135661263475053 46 51 20
14.494271174409645 1.0799365973304424 2.556245148488596 45 52 20
15.281387744578542 0.5401511069618457 2.598328924002124 47 54 20
15.41376342389704 0.7049589280475227 2.7227285356263895 48 55 21
16.068510062236864 0.822078782192486 2.7892312803422254 48 55 19
15.187864378166568 0.9036567839077273 2.6086137841316015 48 53 22
14.698922125014464 0.8096898941171143 2.5355614728921636 47 52 21
14.903744600768986 1.0138829037748478 2.6418727189391715 47 52 21
14.266955511229941 -0.21732497461539235 2.460219563099819 43 53 23
14.87518591283716 0.2955104054643091 2.6454007977649603 46 55 21
15.356457182113957 0.2592967774514382 2.5902872256753264 46 55 21
14.514070525153441 0.2592967774514382 2.554190290650002 44 53 21
14.769777527509547 0.15555138943529861 2.6587485682517764 45 56 21
14.514070525153441 0.2592967774514382 2.554190290650002 44 53 21
14.406020112431637 0.1358070705570515 2.565552680712713 43 52 20
15.745932141383951 -0.2785624661293471 2.677615284813499 47 59 26
15.654367017877512 -0.13751945318276718 2.689444075169257 47 58 23
15.21954050604433 0.01080752923320486 2.7523842655331054 48 59 24
15.500320320144835 -0.4705751030475787 2.710357277815599 50 61 28
15.342253998563509 -0.3237206353388999 2.7333238865841323 50 61 28
12.592013368850138 -0.6820424259327817 1.5772502234255585 51 56 37
12.792378825646448 -0.32271708066769306 1.8140557883759163 2 5 1
12.349923536669706 -0.5036580184046421 1.6584610941836866 18 22 16
12.813862038260037 -0.39706227895776147 1.6552793885023553 12 15 10
12.682494995683273 -0.5036580184046421 1.8162065974354826 15 20 12
12.035205124451144 -0.6172338290976067 1.6607596366151194 30 35 18
13.134691785097377 -0.39706227895776147 1.8075930756846317 10 14 10
12.514836236437288 -0.5458702813387619 1.9888904242911458 14 20 8
11.75038317588893 -0.5948909733451465 2.0179869795133722 12 18 0
11.83679408032115 -0.7957574798472054 1.9228166725027487 41 46 21
12.216138455223279 -0.5948909733451465 2.0918635338157587 37 45 18
12.529360174030543 -0.8548618506432981 1.9025866875202149 43 48 22
13.918942709774164 -1.2645330897439278 2.0229522466743997 48 50 24
13.003302046246636 -1.0443838525066982 2.0574503322392 45 49 22
13.003302046246636 -1.0443838525066982 2.0574503322392 45 49 22
19.97712409294938 -1.0473795306714566 1.7765418576224339 49 54 24
20.20516033279998 -1.1158375257695134 1.7238926964978167 57 62 35
13.610053478407098 -0.4677461199021336 2.206534799655469 38 49 23
12.696292743847426 -0.3829435761618765 2.162460268013822 23 29 14
12.791497105454027 -0.7196342334640852 2.3602172775685215 46 54 26
13.83466099722546 -0.7992949803992488 2.49972427350581 49 58 26
12.598496884953503 -0.7285534137070977 2.167685620399858 46 52 26
13.285238818685034 -0.7972682887155712 2.3234262527883547 47 53 26
13.531832218950873 -0.8766121949538986 2.4113369270390264 50 57 27
13.372476266403407 -0.941833555165577 2.3173340534002955 48 53 27
13.227671607156923 -0.4218034918714554 2.327509838885276 42 52 22
13.326072522657476 -0.46879769331374854 2.4287516993450846 45 55 25
14.442941812692975 -1.0292419996737319 2.4453299190139837 50 56 28
13.325130645180476 -0.5948909733451465 2.2224073437100484 45 56 26
13.558999536007159 -0.5125413932614944 2.3046810203365466 43 54 26
15.248678289130853 -0.5264885649926767 2.601891614901316 48 59 26
15.070169213706695 -0.7196342334640852 2.500876117681385 46 57 25
14.704925292537059 -0.6298045203701647 2.534972652752037 48 58 28
15.12771432145112 -0.7074019789943379 2.6153928741194927 49 60 27
13.980741625388202 -1.0045051663899736 2.6142280359553656 52 62 29
14.853406019254768 -1.0045051663899736 2.6481161622202944 51 61 28
15.138470583829267 -0.89351971182992 2.6141708530597247 53 62 30
12.781753628209099 -0.9971489998782556 2.1579741258794956 47 52 25
11.640574655476618 3.1360325494881685 1.838689751909785 39 44 11
11.467453738194925 3.0380625099343406 2.0298537754496415 40 45 12
11.821701813546591 2.9598882921237304 1.8344865202136846 43 46 17
11.088958246857828 -3.040307167906208 2.151254854570796 40 45 12
15.60875094621171 1.3614806906288588 2.115002968382604 41 46 17
13.982008775031712 1.239328049418388 2.48575527089163 43 50 14
14.969881800129862 1.5931718519963063 2.4042197690174 42 47 16
13.818355478870616 1.3541183052207373 2.5013046279264337 43 50 16
15.221974858608906 1.325034483759182 2.2946590674683933 41 46 13
14.245519545909438 1.5931718519963063 2.3570052460449125 42 47 14
14.264797523186862 1.493947495647624 2.35565253173753 43 48 17
14.353886916865003 1.3962117824831088 2.349471658111686 42 49 15
14.353886916865003 1.3962117824831088 2.349471658111686 42 49 15
14.424693267788284 1.3774010266477414 2.446844703742336 43 50 16
14.316861855187266 1.5956399335666789 2.4559323332886756 41 48 12
15.071791444665473 1.4117158715370977 2.3035016459891793 41 46 15
14.353886916865003 1.3962117824831088 2.349471658111686 42 49 15
15.148344047121862 1.6720200125596965 2.2136589509735334 37 42 11
15.118583593023283 1.5066509862023498 2.2151341549427888 38 43 12
15.202670525399906 1.4247089088769875 2.2109850767036274 39 44 15
14.968622343496776 1.5911497762058502 2.309720840062007 42 45 12
15.15207728705399 1.705176162397564 2.493661347040346 41 48 12
15.311711118486025 1.8809695000644264 2.3799623017968643 36 43 7
15.132683787768737 1.7884325274538504 2.392451089375699 38 43 10
15.131437881872642 1.7692960928472603 2.299960364415124 38 41 8
15.310479781128358 1.8544781316678505 2.289560846974078 33 38 7
16.050265772034432 1.8809695000644264 2.422971874574593 40 45 12
15.526542793418484 1.8400877448908908 2.572722172568313 41 47 11
15.879567141379207 1.7884325274538504 2.435350201228389 40 46 10
15.126524870227913 2.0535062243338236 2.495896309864174 40 45 14
15.682365331128041 2.0070666774675723 2.4502219002321075 39 44 11
15.980831052681097 2.0938157827076562 2.427953752200417 41 46 14
14.41953945680755 1.6079244244483155 2.707353351668286 45 50 19
14.469744189231527 1.7702064224802667 2.699931177426477 44 49 18
14.682369763778613 1.1415515862051466 2.6702307125210685 46 51 20
15.218728203366693 1.069397588871525 2.7525144283890786 47 52 21
14.048057220189449 1.4189232580690347 2.7684321141348986 47 52 21
14.266543927409053 1.196427029815604 2.5807835799220626 45 51 15
13.752230417031027 1.86371254711624 2.827932312448043 45 50 19
14.106192058385632 1.324591043816781 2.59915206313459 45 50 15
13.995906969496525 1.6026711379327423 2.612370440284378 44 49 16
14.91637773157889 1.742567030572508 2.640323588359127 43 49 13
14.080080581177668 1.8082474244481128 2.7626652265577296 44 49 18
14.682369763778613 1.1415515862051466 2.6702307125210685 46 51 20
14.41953945680755 1.6079244244483155 2.707353351668286 45 50 19
14.469744189231527 1.7702064224802667 2.699931177426477 44 49 18
14.028481400960215 1.615249631520737 2.7720127898002027 45 50 19
14.774107567380815 2.0597131135799196 2.6581897939232686 42 47 14
13.816648335414413 2.38207703351082 2.8138633473118 43 50 18
13.160076595632269 2.5144160945648544 2.7338645725368287 42 49 17
13.877111378038412 2.0719108628347116 2.8012806567911195 44 49 18
15.454755284288778 2.109938525754038 2.5800288992248275 41 46 13
13.514362536141984 2.611466360691476 2.676896089130402 42 48 12
14.649225421112401 2.266293177923889 2.674689348002978 43 48 15
14.774107567380815 2.0597131135799196 2.6581897939232686 42 47 14
12.448454878272583 2.9955958380135495 2.514677064953909 42 47 14
13.228822135927933 3.132954497687224 2.563782798911174 41 47 12
13.261859122109305 -3.0125474666605223 2.5599734191734 42 47 14
13.787693589618007 2.8952519778560726 2.820097322644617 42 49 13
13.90055114916443 2.687491375732061 2.79655001188055 43 50 18
13.90055114916443 2.687491375732061 2.79655001188055 43 50 18
13.90055114916443 2.687491375732061 2.79655001188055 43 50 18
14.592377375607382 2.5726551030911837 2.8761411606261555 43 50 20
13.778637053878272 -2.9232270402418514 2.8220767496168118 38 45 9
13.882579419299724 -2.7116267850072893 2.8001700252995825 35 44 6
13.882579419299724 -2.7116267850072893 2.8001700252995825 35 44 6
13.882579419299724 -2.7116267850072893 2.8001700252995825 35 44 6
14.741551438889424 -2.4028284662747503 2.841162552235164 56 63 27
13.205617717456152 2.9410016215762913 2.72595279722426 40 47 11
13.323406735101008 2.7656583401693164 2.7063555759449693 43 48 15
13.728227666633897 -2.839847574529561 2.6467239615936187 40 47 11
13.728227666633897 -2.839847574529561 2.6467239615936187 40 47 11
13.19616170865247 -2.964046244283248 2.7275793769954553 40 47 11
14.389286374215747 -2.6294333453424223 2.7119092620871244 43 50 14
21.289624586858654 0.36565943445934646 3.00157251554765 46 56 21
21.263190901650518 0.02248922559251189 3.010687783115204 49 59 24
11.531023888990621 3.1340046621259385 2.347354228624071 41 46 13
14.78555448742847 -1.374277534872012 1.8504582292189649 46 48 22
14.940734059377984 -1.4441381123768369 1.9178141046740411 46 51 24
15.965632853829572 -1.5849248398492914 1.513220105447416 38 41 10
15.486734001637737 -1.5858705374910025 1.8374792758020237 45 47 21
15.504468752011872 -1.518972902098495 1.8371668010733022 44 46 20
15.101770867291352 -1.518972902098495 1.7090524497347221 42 45 13
16.092380927351712 -1.7095185444244811 1.5758463771435096 40 42 15
16.20616104933708 -1.7095185444244811 1.452122685252975 32 35 6
16.48834380469223 -1.8299434247770026 1.575725100629504 25 30 4
17.456822554302075 -1.8152633074184226 1.5754516574984898 32 34 8
16.61851518227615 -1.4595741994590192 2.708084854624625 54 62 30
15.916201174682623 -1.8140192021126802 2.8162519061375892 50 57 23
15.887879100818617 -1.4151447089646891 2.8215785332201513 55 64 30
16.915580319451966 -1.2257285750352485 2.8262101969452034 55 64 30
15.38463395276419 -1.2803387883960629 2.7270019041777083 52 63 30
16.2265176360452 -1.4410370111166055 2.7636371660478556 54 63 29
15.531792655877652 -1.1336248056503981 2.705974224111801 52 62 29
16.2265176360452 -1.4410370111166055 2.7636371660478556 54 63 29
16.20957289222192 -1.6087042401733276 2.766278798989269 53 62 28
16.651176693350344 -1.1473307647693833 2.879205782533271 54 65 30
16.574440081901514 -1.3765055718524188 2.8970368093376924 55 63 29
16.1125383994798 -1.5869519066402604 2.096187490274663 51 56 29
15.007499830450556 -1.3595204114153912 2.0621825512216514 47 52 23
15.222228307151408 -2.262191791446519 2.1304419774820365 50 55 28
15.417279591925249 0.5629867363096488 1.7720093430203097 1 1 3
16.0173368013107 0.7071418935533654 1.8284403983040476 1 1 2
16.663730252736485 0.754213733991767 1.8182326496828722 3 3 4
15.27028012747311 1.092340902461384 1.8413537662154988 41 50 30
15.112302782703235 1.059055579158987 1.984938807228665 42 49 31
15.373877525075361 0.9002097340524561 1.9774721272074511 5 3 7
13.748416495538422 0.004885658967218457 1.9493632631148743 6 8 10
13.14130466052934 0.004885658967218457 1.8074716399528947 7 7 12
14.717519782010827 0.4430892578128055 1.8517860686978258 1 0 7
14.511384715659677 0.28678619386077986 1.7147156862729331 9 9 12
13.29498764935407 0.08998402187184756 2.045877354505995 7 9 10
13.285595249660103 -0.07945878048060977 2.0462410313708292 1 2 5
15.284224575057195 1.193879521286779 2.1279029469149036 38 44 17
15.81716559139137 1.2894776130332621 2.107048120067226 41 46 17
15.796159157624006 0.9002097340524561 2.0356482367646356 3 1 3
16.355215036584084 0.7512228159311529 2.01857792766459 1 1 1
15.625916392741845 0.9129507204201742 2.190958328144722 0 0 2
16.14679176671293 0.8536461949512607 2.168105116103674 0 2 0
14.372099549954022 0.3036103322284625 2.348222131654778 44 51 19
13.947026178585894 0.3938821240905678 2.2798629977096523 45 50 22
13.057351839410682 0.18912312563468262 2.1439926814903165 20 24 16
13.500736415746886 0.2079427927165552 2.3085802456617497 45 51 24
13.038217905096891 -0.17792394791288998 2.1449402414375207 5 8 3
13.342422130512434 0.006385087025229506 2.319419991221472 44 49 27
13.482231745898073 -0.19568571812278324 2.30982862422199 40 52 25
14.073305743726891 -0.09562604929105378 2.3693385060955063 41 50 18
13.500736415746886 0.2079427927165552 2.3085802456617497 45 51 24
13.018571778186242 -0.291939424592826 2.240494169219758 37 40 28
13.223853387399837 -0.2661657859863933 2.135886468315305 0 1 1
13.968981779589429 0.43358162843276254 2.377036209148213 45 50 19
14.4627161420713 0.33578417678811245 2.4436958768840884 44 51 19
14.333366628426782 0.7299604170665803 2.4545259624975873 48 53 24
13.381219655294682 0.6045845069464613 2.2192140695861795 49 53 37
14.865099735808199 0.6130519366741322 2.646655584273598 48 55 21
14.4346207924969 0.5401511069618457 2.562509269082053 46 53 20
15.432411003228856 0.9300822780358788 2.720022673053927 48 53 22
14.786261127206993 0.9762998486822407 2.5270900144175186 46 53 22
15.138795836082302 0.8853661216180535 2.494821252684488 46 53 23
14.903744600768986 1.0138829037748478 2.6418727189391715 47 52 21
15.119786138761024 0.7299604170665803 2.496488085270083 47 52 20
15.432411003228856 0.9300822780358788 2.720022673053927 48 53 22
14.284443653036918 0.23084796334275165 2.458711252406792 45 52 20
14.165833801395436 -0.10644586212618244 2.4690706896125754 42 51 17
13.684248530814541 -0.3230473809652783 2.3989823167118187 41 54 25
14.266955511229941 -0.21732497461539235 2.460219563099819 43 53 23
14.284443653036918 0.23084796334275165 2.458711252406792 45 52 20
15.256449159108655 0.1819393455295837 2.7465273917283617 47 58 23
15.254374764530871 0.1358070705570515 2.6012685370560193 45 55 21
15.745932141383951 -0.2785624661293471 2.677615284813499 47 59 26
12.84798488784535 -0.572054407044879 1.49922729869503 19 23 15
12.021692660922266 -0.6172338290976067 1.4942988067956435 11 16 3
12.526311816778247 -0.4677461199021336 2.0777078267162015 14 21 5
11.84466369598145 -0.5458702813387619 1.8339631843341004 9 14 1
12.666284461272319 -0.7957574798472054 2.071581576801628 43 49 24
11.592974415836528 -0.7285534137070977 2.0245091386936167 44 49 24
12.013918902282185 -0.7353439920761747 1.7449127370835489 42 49 27
13.371555720992509 -1.085017232832984 1.9605987529172848 47 49 23
12.75775501723933 -0.9221862972157117 2.0676615786729755 45 50 23
20.02151177444928 -1.0927995185376846 1.8794084839038279 54 57 28
13.27999937554382 -0.3829435761618765 2.2250020722252084 45 54 27
14.853406019254768 -1.0045051663899736 2.6481161622202944 51 61 28
14.283233444864388 -0.89351971182992 2.5789259350560703 51 60 28
12.688951314687026 -0.6522086223313383 2.261233513876443 47 54 27
12.743491387141768 -0.5948909733451465 2.1599735440944263 28 37 13
14.070737559648173 -0.941833555165577 2.3695259058987963 49 55 27
12.611410499472683 -0.8642679450504583 2.1669899203625604 47 52 26
14.853406019254768 -1.0045051663899736 2.6481161622202944 51 61 28
11.98084657097957 -3.0582608859237586 1.9184037419400122 40 45 12
11.640574655476618 3.1360325494881685 1.838689751909785 39 44 11
11.04942635297866 3.1348271651160373 2.1536030277524896 41 46 13
11.68878975938346 3.047228230605431 1.8375576771132955 37 39 11
12.4931061678973 2.9598882921237304 1.9896633368272896 35 37 13
14.353886916865003 1.3962117824831088 2.349471658111686 42 49 15
15.018246897199054 1.6919589132396113 2.40068104209634 40 45 12
15.100395644306893 1.5894628412007943 2.2160393898429933 38 43 12
15.016991496887806 1.6810992414170831 2.3067900685134255 41 44 13
15.351573611473622 1.344692079651662 2.2037797758720963 39 44 13
15.202670525399906 1.4247089088769875 2.2109850767036274 39 44 15
15.770550841432282 1.6919589132396113 2.443492930101995 40 46 10
15.415030079778818 1.7216056182697914 2.5841385348379564 41 48 12
14.878218169332436 1.9513266367663635 2.5183847023555455 39 44 15
16.280706683320282 1.9683377722288682 2.406935108041091 39 44 11
15.26551095994586 1.8115734030573925 2.483907322992063 41 46 14
15.068512431003883 1.233599695410072 2.777600077347205 47 52 21
14.266543927409053 1.196427029815604 2.5807835799220626 45 51 15
13.539209925770727 1.4436798265386777 2.673248521906832 45 50 19
14.96532072473083 1.615249631520737 2.796152518380031 45 50 19
14.526608710765574 1.2859981888631662 2.691723122771892 46 51 20
13.490701008982828 1.951365710936186 2.8945941939149984 44 51 19
13.617980484239949 2.199160906165906 2.8599057252887783 45 50 19
13.514362536141984 2.611466360691476 2.676896089130402 42 48 12
14.202079000196635 1.9849270160415804 2.741644367279265 44 49 18
14.392686569337776 2.138039020173731 2.7113940015206888 43 49 13
14.072121338087337 2.2418125635366875 2.76408827948005 44 49 18
15.211807326609227 1.999182793001567 2.605951702647121 41 46 15
13.369819731220414 -2.879586344164892 2.5478041689606084 40 47 11
13.369819731220414 -2.879586344164892 2.5478041689606084 40 47 11
13.787693589618007 2.8952519778560726 2.820097322644617 42 49 13
13.629928227806879 2.5726551030911837 2.856892256969565 44 51 21
13.778637053878272 -2.9232270402418514 2.8220767496168118 38 45 9
13.323406735101008 2.7656583401693164 2.7063555759449693 43 48 15
13.746401193923617 2.8216719658272087 2.644279690626389 41 47 11
13.162959833192865 3.129648417305635 2.733357749890155 39 47 11
14.575258713133222 -2.6006096495885545 2.880496182464962 49 56 20
14.992121850518444 -2.534058022805826 2.791218740201618 45 52 16
14.484911105795407 2.82337606169215 2.904962486769542 42 49 13
21.283760466390575 -0.3258476713883784 3.0035411118094557 53 62 28
11.579695145288389 3.013137989632253 2.343233069541882 41 46 13
16.010990324731697 -1.6475196405473838 1.5133833926027118 31 34 4
15.185950894586746 -1.4525356547479134 1.7082811774283226 46 48 22
16.021138509250672 -1.6475196405473838 1.6383376890589583 37 40 10
16.260845693455273 -1.7704636673826137 1.5757940574371936 43 45 19
17.242107612963675 -1.758959860895726 1.575509630481712 36 38 11
16.520517568631096 -1.7704636673826137 1.3931908574031662 36 39 11
15.63490606183202 -1.8724530181656276 2.874679070697489 45 52 18
16.2265176360452 -1.4410370111166055 2.7636371660478556 54 63 29
15.531792655877652 -1.1336248056503981 2.705974224111801 52 62 29
16.304891776320265 -1.2803387883960629 2.751709604030345 54 64 31
16.651176693350344 -1.1473307647693833 2.879205782533271 54 65 30
15.870572802441592 -1.6163719246007198 2.8248854666682086 55 62 28
15.278363454789364 -2.1994513575885564 2.207300011027212 52 58 31
13.283231260584301 -0.15052514006918333 1.804895346615487 1 0 7
16.054759992949812 0.6559552687487885 1.9592770703014466 1 1 3
14.822453039062879 0.3521901043497988 1.7116749904818824 6 4 10
13.848957135546145 -0.0679604434793506 1.648951565208688 2 1 8
14.297942004723986 0.160062697429149 2.0101168805583405 11 14 18
16.210105196751925 0.8417203075487698 1.637549158021111 2 3 5
15.828548802688022 0.8897745154147465 1.7667123950947694 3 5 5
13.97160703633809 0.07697490360866979 1.7203168647072253 10 9 16
13.7892633546588 0.08297380365345729 1.948185309107539 10 13 12
12.611785974020698 -0.16309190786474498 1.9003358651083415 0 2 3
15.179172593925617 1.2203466685709687 1.983003184181034 40 49 22
14.042121779914073 -0.13974470979849882 1.4337262675387294 2 1 8
15.772830305474647 0.9782300042493998 2.264194022725742 49 53 40
16.189687199734507 0.7998953070885478 2.0934270451990704 1 3 3
15.43600533973403 1.0034531656365757 2.371554876716842 44 50 26
16.043537283829917 1.049789769113382 2.333252568205907 46 53 20
15.435612713486686 1.2419570530833968 2.2824901727641485 43 46 15
15.710116520426642 1.1633279405220043 2.2675161708150338 44 47 17
15.283387570192012 1.0212966518615878 2.127937062241718 11 19 3
14.05726362802786 0.5551458199042559 2.1832561818466107 26 27 20
13.252141894331821 0.27691736359500513 2.1345335536861345 15 18 13
14.05726362802786 0.5551458199042559 2.1832561818466107 26 27 20
14.134909798725301 0.007112724687838511 2.4718226413308333 41 52 19
14.87518591283716 0.2955104054643091 2.6454007977649603 46 55 21
15.133885213098319 0.822078782192486 2.7664251751872015 48 55 20
15.35851778896031 0.3430210991764346 2.730882771160337 47 57 20
15.021551760545703 -0.4091358258810949 2.6276911941416534 48 59 26
15.626389040970224 0.009212375444449477 2.6931444107537765 47 58 23
14.007839713539564 0.6045845069464613 2.276144408912459 46 50 28
15.35851778896031 0.3430210991764346 2.730882771160337 47 57 20
15.187864378166568 0.9036567839077273 2.6086137841316015 48 53 22
14.29186060972624 0.5232802990597398 2.353762764333536 47 50 21
11.907314687783266 -0.6689983837544676 1.9206421024413465 44 50 29
13.056529070682636 -0.9724335094818742 1.9705315024609606 44 49 20
13.368132828954222 -0.29899049382255566 1.576875522003867 1 5 3
12.983949195261495 -0.35036629378112527 2.058239128459827 0 1 0
20.45661402492703 -1.0718504452248572 1.623677566022379 49 54 23
14.774915206078411 -0.8021561562344505 2.658085673402111 51 62 29
15.38133547690582 -0.6895965593653282 2.727489442118546 53 62 28
14.29374711188499 -1.080133853517249 2.3536314323039362 50 55 27
15.720531234591018 -0.5984443389248975 2.6808546714362476 50 61 28
15.018246897199054 1.6919589132396113 2.40068104209634 40 45 12
14.336043897294205 1.4855065820676807 2.454298364726968 42 49 13
15.018246897199054 1.6919589132396113 2.40068104209634 40 45 12
15.071791444665473 1.4117158715370977 2.3035016459891793 41 46 15
14.986970211048702 1.5008705963063538 2.308605964038813 41 46 13
13.982008775031712 1.239328049418388 2.48575527089163 43 50 14
14.988228125915667 1.493947495647624 2.4028731162646157 42 49 17
15.15207728705399 1.705176162397564 2.493661347040346 41 48 12
15.261805467419054 1.7532184610698816 2.2081021459203716 34 41 9
15.131437881872642 1.7692960928472603 2.299960364415124 38 41 8
15.435742074969813 2.145829378693178 2.4697584292851866 41 46 15
14.218874431140252 -2.786494795093747 2.7388593182902006 42 49 13
13.632267531667708 2.9725575075160875 2.659929711249385 41 46 13
13.304655430020073 -2.786494795093747 2.7093966114955856 40 47 11
13.623107670288576 -2.992104554625669 2.66121758644942 40 46 12
13.904654153828828 -2.7006872826554145 2.6237012621266143 43 50 14
14.555513047297682 -2.2190732335241212 2.8856224644148036 51 56 23
14.41953945680755 1.6079244244483155 2.707353351668286 45 50 19
14.526608710765574 1.2859981888631662 2.691723122771892 46 51 20
13.882579419299724 -2.7116267850072893 2.8001700252995825 35 44 6
15.083562645593366 -1.5858705374910025 1.7092204200762395 39 42 11
14.541323444712477 -1.374277534872012 1.7843122512174179 46 48 22
16.915580319451966 -1.2257285750352485 2.8262101969452034 55 64 30
16.557851393943395 -1.6279238014702835 2.901084306710637 53 59 25
15.652507177521752 -1.5152620376523556 2.0402561863737656 47 52 25
16.20957289222192 -1.6087042401733276 2.766278798989269 53 62 28
14.335908309282859 0.30788938149301615 1.9331150003996156 9 9 9
13.443645131751973 -0.07326199353997226 1.8792475952477385 3 2 8
14.698922125014464 0.8096898941171143 2.5355614728921636 47 52 21
15.046460835386245 0.4245403293623094 2.6247660840249365 47 55 21
15.356457182113957 0.2592967774514382 2.5902872256753264 46 55 21
14.082172773230075 0.10826396306744808 2.368692282907056 40 49 17
15.168916173704305 0.7197565162574454 2.6107350649969217 48 54 19
13.038217905096891 -0.17792394791288998 2.1449402414375207 5 8 3
14.403110929645056 -1.2869061964633086 1.9313469940477859 48 50 24
13.394454641079967 -1.1591829724625164 2.0420613535446344 48 50 24
12.349923536669706 -0.5036580184046421 1.6584610941836866 18 22 16
13.219121175489533 -0.4670511615825351 1.5012399442973319 21 24 20
19.74078012028501 -1.0927995185376846 1.831126385007688 50 54 27
13.918455228012126 -0.9679982158151114 2.4917126024409484 50 58 27
13.348109208553435 -0.6522086223313383 2.3190242431039843 47 56 27
11.678105607519633 -3.0582608859237586 1.8378077010876996 39 44 13
11.602901489152782 2.9425636561386406 2.0240919697228206 42 45 14
14.41953945680755 1.6079244244483155 2.707353351668286 45 50 19
14.575258713133222 -2.6006096495885545 2.880496182464962 49 56 20
13.699396435162521 1.6261720613058284 2.840048677392003 46 51 20
13.746401193923617 2.8216719658272087 2.644279690626389 41 47 11
15.354987416138492 -1.4525356547479134 1.7728368923017044 44 46 20
16.744488033105654 -1.8299434247770026 1.3955912507198398 32 37 10
15.586254092652608 0.998263003233102 1.9716110287718835 11 15 7
16.210105196751925 0.8417203075487698 1.637549158021111 2 3 5
13.568569475685626 0.160062697429149 1.8763154545277612 12 14 21
13.756122467681465 0.23528289784495116 1.872018226646471 10 12 15
13.482231745898073 -0.19568571812278324 2.30982862422199 40 52 25
14.174642949557622 0.12048894266078487 2.4682906875185595 42 51 19
16.043537283829917 1.049789769113382 2.333252568205907 46 53 20
14.747308403655458 0.6417327818221777 2.5308431828061897 47 52 19
14.903744600768986 1.0138829037748478 2.6418727189391715 47 52 21
13.415290677908938 -0.32271708066769306 1.9592598006433102 3 7 5
13.531832218950873 -0.8766121949538986 2.4113369270390264 50 57 27
13.655013040996463 -0.5658113185305499 2.4013178281510923 45 55 25
11.465830631144708 3.047228230605431 1.753327297165435 40 45 12
13.72579057452806 1.4749889781936147 2.51041270219415 43 50 18
15.553098602250882 1.9683377722288682 2.363822105497844 28 35 3
15.442998530842283 1.9127054542193012 2.4691677778205987 40 45 12
13.428498230993554 2.3941404869574283 2.913689169449801 44 51 19
15.031590181564704 1.8760252934388082 2.626509382310814 42 47 14
14.438585089649886 1.4436798265386777 2.7045177157323494 46 51 20
14.015528286277034 1.4615242937769521 2.6099816843852457 44 49 16
13.590948838312155 3.131566970882213 2.6657784383908094 40 47 11
13.428046906838361 2.3758328080738322 2.689887156863503 43 48 17
15.79753569805119 -1.3203425107791624 2.6711295370701262 51 61 28
16.601970534214082 -1.6032442612995772 2.710242844897676 54 62 28
13.411991810533598 0.17339580206802177 2.041395181385258 6 10 12
16.596847671930888 0.7985677223445534 1.9459451068721936 4 4 4
13.272410143446047 -0.22602227001619574 1.7282577397416252 0 1 2
12.895564159772814 -0.4296956475710566 1.9758109048826635 3 10 4
14.86768125417588 1.6026711379327423 2.646333986755761 44 50 14
16.2265176360452 -1.4410370111166055 2.7636371660478556 54 63 29
15.524461227467874 0.48759705761423155 2.706989966708048 47 56 21
15.226242050006906 -1.5152620376523556 1.9816518724932501 46 51 24
13.90055114916443 2.687491375732061 2.79655001188055 43 50 18
