13.36678256737958 2.1545665791528585 1.1171523552124731 43 62 17
10.645983731429746 0.09845419998902338 1.773390453336859 63 83 56
10.251816138508163 0.0026709157553094958 1.98671968399305 54 74 47
10.788283648959911 0.19271193257603975 1.7706817700850888 65 87 56
10.739358423328996 -0.10359230288882122 2.070092686668859 23 38 16
10.695041553228132 0.0026709157553094958 2.0723540034174555 39 53 31
10.788283648959911 0.19271193257603975 1.7706817700850888 65 87 56
11.030468882958502 0.19271193257603975 1.8596520171469282 70 93 63
10.490604840635587 0.09845419998902338 1.679880409953462 61 81 56
12.964697361678146 0.8421038192880147 2.4691221397391514 59 81 31
12.67101804745561 0.756968455003385 2.376756878362892 60 85 44
12.722000333003976 0.9174419280127334 2.3725902122559717 61 83 34
12.67101804745561 0.756968455003385 2.376756878362892 60 85 44
13.761088524074115 0.8421038192880147 2.5144044198178617 56 78 29
12.227207525776146 0.6673209514907271 2.4153641563174193 60 84 43
11.00894058634776 0.002989724579826423 2.2767417703841146 55 70 44
12.626148640814497 1.536546816609341 2.078827371958403 46 65 9
11.783516882702795 1.536546816609341 1.9299858405297292 45 68 13
11.995021290205187 1.3379185665454658 2.1083698470222183 46 67 14
11.104601585715525 1.3379185665454658 1.9530437297540335 50 71 19
12.220188428600057 1.539393040577679 1.7469977296845824 47 70 16
11.546540209256765 1.4464753335626512 1.8463958923992163 43 66 12
11.985527516748459 1.9677865138329063 1.4991562227290305 49 71 25
11.605711951826823 1.888233310072641 1.5830397285181854 49 71 24
12.230188259546509 1.6224963578263716 1.7468521534099188 47 69 18
12.492658009041405 1.7855008409122275 1.7431157709531586 48 70 21
11.88866137930839 1.7168902048694128 1.9266671392032872 43 65 14
12.321901990308799 1.888233310072641 1.913629454515771 44 66 15
13.366845772579232 1.1724027095997223 2.432187790281112 52 73 19
11.600669257071367 1.0714062273718576 2.2340219560573047 66 88 39
13.283014744438411 1.2126710823152782 2.3298760952613837 53 74 20
12.928413923871743 1.0714062273718576 2.35622957025325 63 85 34
18.297260647347905 0.010533618735025133 3.0112656636865025 71 94 61
18.3259335827001 0.40702572966901784 2.999827301294881 74 99 65
18.223181426715637 0.6396505524471029 3.0472187396531565 73 97 67
10.67471080152196 -0.30719298235001713 1.9692876280807217 31 43 26
12.622913025168012 -0.5573421523226302 2.503891782455269 45 56 39
12.401985886139274 -0.49418490947188864 2.399635195235583 11 20 7
10.962355597931689 -1.418474832049655 2.1655312792578454 64 87 59
11.228689403528527 -1.5329445427325648 2.0464752702533002 67 89 68
11.76616181510672 -0.9384701060866169 2.46065292692019 69 87 67
11.76616181510672 -0.9384701060866169 2.46065292692019 69 87 67
11.480056363583463 -1.3997252456793414 2.3592127561513285 61 81 52
11.480056363583463 -1.3997252456793414 2.3592127561513285 61 81 52
12.208939151731306 -1.0687692638979316 2.3008313960695856 61 76 62
11.98486416327632 -1.1198129041549145 2.438433140192104 66 86 63
11.58051336043556 -1.0103017794420173 2.3505234453240935 66 84 64
11.643156587461327 2.0819088834747856 1.410540256052609 46 67 18
13.257344104761753 2.2208699575693887 1.8885541088216713 56 74 26
12.068974024999086 2.1545665791528585 1.665568367361227 48 64 18
13.196438270150033 2.4464554926549043 1.8900724814024508 59 77 37
14.230344521199013 2.854291511894502 1.5104723693823867 66 84 50
13.151105575767033 2.3333735734844114 1.8912122481671134 60 81 33
13.79864182558997 2.994016091924008 1.5085826795335324 61 82 45
13.956506094842359 3.066486184060283 1.3645649396929889 65 87 50
14.243744287808239 2.9230719737089976 1.3687819186139059 62 78 47
14.602995013731265 2.8329013861322063 2.004908181813399 60 85 46
13.119218531840971 2.6633286859114755 1.505356241321212 67 86 48
12.691091379611551 2.73350085352249 1.503145336545695 68 87 48
13.276227082969024 2.8329013861322063 1.5061312419743063 65 80 44
13.322338339914305 2.73350085352249 1.8869499492341304 65 87 45
13.250451817871761 2.625632406353152 1.9693318138320082 66 88 47
21.581449932646066 2.59545275991983 2.774307619345707 70 97 61
13.538430128311354 -2.8365079357310754 1.35810010593109 69 92 65
13.018291115569568 -2.910125801410772 1.6586388818838649 70 93 62
12.954156774478474 -2.9863850803025835 1.7369186069498888 70 95 62
18.28841180185901 -2.660898566967714 2.6522463805071204 74 97 65
18.28841180185901 -2.660898566967714 2.6522463805071204 74 97 65
19.208201516573407 -2.7498443101265884 2.568770812851727 69 92 63
18.375821772475728 -2.7498443101265884 2.539270949665951 69 92 63
17.89473404666628 -2.6009951994767366 2.695310713732697 69 94 62
9.883243796410362 0.12174838834217075 2.1179793522540447 54 75 42
10.886733226099963 -0.0936715132646139 1.863577761659653 33 46 28
10.843018713292802 0.0024135473678755996 1.8647932824250768 60 79 55
11.051998839720625 -0.11585293468275742 2.273425126849494 31 45 23
12.291806441570424 1.4567203821381114 1.745960432397327 47 69 18
12.69547674829438 1.4464753335626512 2.075789462691159 45 66 11
11.762306594861283 1.2458112857502806 2.023242402314953 58 79 28
11.793886965644546 1.6271761636484552 1.9296557123123723 45 67 16
12.652026252432236 1.9677865138329063 1.9043315764331945 44 66 15
12.63582720416041 1.6271761636484552 2.0784009528913336 47 66 10
12.791499967844675 1.1226139338981367 2.486312585787638 55 78 24
13.09114096608511 1.0135190222945905 2.4570831086830074 56 78 26
11.994587167800658 1.2126710823152782 2.2086129469895353 57 78 24
18.3259335827001 0.40702572966901784 2.999827301294881 74 99 65
12.972580266100007 -0.6624562811968562 2.4683593858924184 59 75 56
11.184658415554633 -0.2315110738014519 2.2634236356274027 26 39 20
10.888286660441821 -1.4335437646287 1.961043531816087 67 89 68
12.246274665392493 -1.0562685344884928 2.5466444993625776 70 90 67
12.91386521919604 2.2208699575693887 1.3476433055361576 46 62 16
11.810189877682825 2.3920529593184714 1.498090767914314 61 81 36
14.325450272313216 2.854291511894502 1.440737001113761 84 99 67
12.76399191997903 2.5572783946704987 1.503532305344832 72 89 50
13.297615009224783 2.8329013861322063 1.656789088456376 60 80 43
13.35458085557204 2.906369266486474 1.80830482581122 58 81 44
14.182639895659845 2.982513541551641 2.0186933851443842 66 87 50
12.398464998347217 2.625632406353152 1.7444381739688737 67 87 48
13.918835004942869 3.13975395496183 1.3639986942751607 69 93 58
13.199567471402696 -2.6667318991254265 1.429571975903249 66 86 60
18.28841180185901 -2.660898566967714 2.6522463805071204 74 97 65
18.7272663746697 -2.7096197277371137 2.6099126316452494 74 97 65
13.555325386229695 -2.601071752216855 1.5812787344017964 64 84 63
10.44987670256804 0.2126760710251486 1.978363452251038 60 81 48
10.438519417368726 0.12174838834217075 2.1998826408050736 48 69 36
21.762148546706428 0.48098302552258054 2.2191772684268205 56 83 49
13.30035288830722 0.9804062877512429 2.328640106364774 65 87 38
12.67101804745561 0.756968455003385 2.376756878362892 60 85 44
11.728146138651502 1.2735052540153304 1.754472587116896 51 73 22
11.39000570512664 1.8043024626059656 1.6712363447466796 49 71 24
12.321607220545857 1.704892637563842 1.7455324136865669 48 70 19
12.44463533868379 1.8043024626059656 1.9967586559581758 43 65 14
12.385847370020118 1.4342210886357374 2.185397986198252 44 63 8
12.61563716240556 1.2126710823152782 2.2723387628554557 61 82 29
18.297260647347905 0.010533618735025133 3.0112656636865025 71 94 61
12.602130596737164 -0.9775070615913686 2.273244677407545 35 50 41
11.476145675986462 -1.5287317759605392 2.242527782973853 64 87 58
12.321189425125784 2.5109603306184716 1.8286596874519836 68 87 46
13.980436713903819 2.9230719737089976 1.5093927009603503 61 82 46
13.880889884876265 2.8329013861322063 1.8738146045795667 63 84 45
13.265234032941128 2.6633286859114755 1.7329879946521751 68 88 48
13.624573737020592 2.906369266486474 1.8797018062725337 60 83 46
12.713463720821743 2.73350085352249 1.6607506918903432 65 85 45
11.958344371463477 2.2721273168761873 1.414799229688526 56 73 26
13.8664468466752 -2.8365079357310754 1.8741402679996302 66 90 65
18.7272663746697 -2.7096197277371137 2.6099126316452494 74 97 65
13.648001088993256 -2.7371379244727376 1.9570978330439528 62 84 62
10.886733226099963 -0.0936715132646139 1.863577761659653 33 46 28
10.490604840635587 0.09845419998902338 1.679880409953462 61 81 56
11.051998839720625 -0.11585293468275742 2.273425126849494 31 45 23
11.035556037487064 1.2458112857502806 1.8595150323239915 58 80 30
11.515049112573326 1.3379185665454658 2.0337064857952063 44 65 12
12.220188428600057 1.539393040577679 1.7469977296845824 47 70 16
11.793886965644546 1.6271761636484552 1.9296557123123723 45 67 16
11.708035324960575 1.358381742939295 1.8424972767639034 43 66 14
12.624911335150806 1.1724027095997223 2.380569869369549 58 81 27
10.875832145825832 -0.2075666365188642 2.063261625055062 21 34 15
11.58051336043556 -1.0103017794420173 2.3505234453240935 66 84 64
13.748387090212544 3.13975395496183 1.4352450105762373 68 90 54
12.428424230898825 2.042374156324576 1.662819525967311 44 66 15
19.208201516573407 -2.7498443101265884 2.568770812851727 69 92 63
13.41040185999084 0.756968455003385 2.4284127912427094 57 81 34
13.439572646794103 -0.5573421523226302 2.5482045477205735 64 81 58
12.208939151731306 -1.0687692638979316 2.3008313960695856 61 76 62
11.944663666249939 2.5109603306184716 1.4989107126830687 63 80 40
11.742294011207674 -1.2422527408183028 2.4631655807786763 63 83 57
12.461340869114386 -0.8962245364123018 2.1811285740518143 43 57 45
13.09114096608511 1.0135190222945905 2.4570831086830074 56 78 26
