18.938852241828315 1.5282610934490568 1.2216613000950012 6 9 6
19.707193161068975 1.3978450578701698 0.9490415354392375 3 8 0
12.107882571511876 1.3409174994446318 1.5312497877584967 27 37 11
11.815941026961399 1.5066459718988947 1.6149290121953819 28 41 10
15.225753374584208 -0.015979527134063906 2.0134149547344378 8 10 12
14.0909675732125 -0.344607899501467 2.0519475641215146 7 14 20
14.682192540409778 -0.4517884474962548 2.18999567381403 7 13 18
12.95230785909352 -0.6370609044952901 1.9273779376403803 6 17 11
13.004490335850507 -0.7001113061822254 1.765911151210272 4 16 7
15.964885729717608 -0.09533369710740414 2.2097926669863144 8 12 15
14.649837734614323 -0.1599851013514551 1.8845430058498593 5 9 12
13.597009521112275 -0.5242566110053111 1.9889426992364005 4 14 16
13.537516285726609 -0.4866127597591298 1.7581356015586884 6 16 20
14.27081668743296 -0.4082107811938189 2.301221979316656 1 4 4
14.872823441795866 -0.2673174653992085 2.1808901209113545 4 8 9
15.680120079852788 -0.015979527134063906 2.071076127612966 8 10 12
14.72175254756909 -0.2908445684274652 2.274112435932369 2 5 8
14.58073959181311 -0.344607899501467 2.11278190802034 5 11 12
14.59780458612489 -0.4912531521177418 2.281334636564272 5 12 5
12.340659552907443 1.204055331529231 2.1275584927852105 31 44 12
13.127461550236426 1.0743011816057981 2.2772235520907453 33 46 19
13.485524375935855 1.166499730492406 2.354684908487304 36 49 14
11.343300793503985 1.5933580843586244 1.8864415883990753 30 43 11
12.953974366127827 1.5984949615247748 2.396477670157485 36 49 12
11.880768824937503 1.1552429903270962 1.6991961111239084 33 43 22
11.94673129804012 1.2354703935524487 1.8699902907645287 29 40 13
11.475950104446245 1.409255801105033 1.8826691911782245 29 42 10
13.011224881784997 1.711460111298873 2.3917202456821043 35 48 11
12.340201063193527 1.5956640690869142 2.226220700891253 32 45 10
12.36098868351389 1.4935751887717028 2.2249284439408403 32 45 11
12.64203303040259 1.2960537383107968 2.207992129382495 32 45 12
15.742653092860692 0.9047102574986083 2.7450907496881536 41 56 17
15.640231569368893 0.13469968586672015 2.7610362670485444 48 64 22
15.721868646414443 0.2999027961781828 2.748260347126667 43 59 22
15.468381176145426 0.7885049527112823 2.789848120070225 43 58 20
15.177247336023825 0.9944650533879736 2.6701032559588924 39 54 15
15.741165622800809 0.6714975493678934 2.745316511507998 42 57 19
15.721868646414443 0.2999027961781828 2.748260347126667 43 59 22
16.470172581602174 0.5289195377886486 2.8004961285686383 46 59 22
14.172888849430043 1.2302695950886526 2.5199298601295936 37 52 16
14.012754882048807 1.3487229536414784 2.536063323274745 37 52 14
14.293325443225212 1.7521492184845113 2.6383519228811076 42 57 16
14.293325443225212 1.7521492184845113 2.6383519228811076 42 57 16
15.144923572891381 1.4596454002969006 2.674306797775567 40 55 17
14.503553634941074 1.184622335148105 2.6126207369857757 39 54 15
13.957681129852308 1.7292555397000107 2.5417866399986515 38 53 14
13.904328156245127 1.6020529399344108 2.54742096055155 38 53 14
13.815752230011533 1.373323183025419 2.436488053812998 35 48 13
14.809519870374281 1.275741591350365 2.721409067234417 41 56 17
15.388442692304011 1.2186111706531388 2.8042869029865827 43 58 19
14.961128224332766 1.1257730373146597 2.699274995759934 40 55 16
13.846979527475407 1.7826596602365021 2.7004448766293216 42 57 18
14.343451840179647 1.6216421358785678 2.801371916266292 44 59 20
14.39517737777611 1.825246722201355 2.791362405986819 44 59 20
14.094708991178603 1.8885438332567088 2.855370880390029 45 60 18
13.710561975871256 -0.6176002217200885 2.2414695622525054 6 14 7
12.86913752299088 -0.8713694625499454 1.929786437233925 28 45 21
13.615307547302793 -0.6894965627570516 2.1560549575196224 0 10 0
13.275290858694657 -1.4889026487498738 2.370600561944777 45 63 23
12.676917071666818 -1.382514269380594 2.307959429249157 45 63 23
12.700674648556426 -1.3602446062559688 2.418357870992696 45 63 23
12.877135375633811 -1.2472084158831571 2.4029688480969247 45 63 23
13.775840600293304 -1.183873506692513 2.3338882296210146 44 62 22
14.278463898405283 -0.882782005279728 2.300742374732956 36 53 23
14.08145103313594 -1.0944908055065858 2.313333018164249 40 60 24
13.253576893827265 -0.8713694625499454 2.0004867884866706 28 42 18
13.218588791022057 -0.7537831063690079 2.0017000523016155 2 15 0
15.117123152598607 -0.03252565434758339 2.6779648583751157 48 63 27
14.587799078031416 -0.4447026737602774 2.602822969555097 46 65 26
14.400145559425445 -0.31742846078265063 2.6250379581716867 48 64 31
14.895558770538155 -0.2787326983460095 2.5691978693334714 47 65 31
14.640647190118743 -0.24827128658270126 2.476629063903884 45 63 36
14.324291600890405 -0.4490604624351572 2.3957369985307913 50 63 41
14.825256825900377 -0.3523545362857225 2.4609047572761833 51 59 48
14.00717572726379 -0.5582674842282276 2.5366389136332974 45 65 26
15.439920661728545 -0.24827128658270126 2.5166030282737544 51 63 44
14.15239919544027 -0.5099685759969168 2.656748316872689 45 64 27
13.15955979304081 -0.7256587670947902 2.637282472066014 47 64 26
13.73692596207902 -0.8433911737243965 2.7177290206993843 50 66 29
14.862480044516955 -0.368038263475011 2.7135035335107 50 64 32
14.862480044516955 -0.368038263475011 2.7135035335107 50 64 32
15.21820720141211 -0.6758760834304667 2.429618233912999 45 64 37
13.930304862542096 -0.9179103858043896 2.544666474052862 45 62 25
12.786606849141332 -1.0274463580508868 2.5371826572119964 46 64 24
13.96559170161635 -0.7440476418531413 2.4239727791775643 47 61 32
14.650085995505734 -0.5375429164735298 2.371969931758995 21 29 19
14.173573059929932 -1.046193570272679 2.407319705116221 41 61 21
13.513463795599932 -0.8317841021259949 2.591697526035361 47 64 26
13.194704422649046 -0.9469687202778504 2.632477349489184 48 65 27
13.621303704471469 -1.0274463580508868 2.578914468675583 45 63 20
15.035448429763813 -0.6176002217200885 2.3458666146712996 39 53 34
14.43874791609817 -0.818520423244133 2.387196272777144 46 61 30
13.301766969951093 -1.0910132133113126 2.483189209836492 43 61 20
13.497764849549158 -0.9921188945281181 2.75888601893435 50 67 29
12.650941031615437 -1.6173656500009828 2.7157887006152848 49 66 28
13.622607310145714 -1.8046193334413345 2.736728474739222 48 65 27
13.380076070618296 -1.153597647891972 2.6081838704916516 46 66 26
13.095266274260517 -1.6098867877741139 2.646251219212657 47 65 25
13.151901757535642 -1.768082362316097 2.638338497882226 47 65 25
13.409298995908648 -1.7209096117480214 2.472890809781135 46 64 24
14.044535925763103 -1.7048339483775314 2.4175566175907997 46 64 24
13.653285672256438 -1.7413243441604194 2.5752112261981615 47 65 25
12.762565913922584 -1.6044769024756564 2.539915585765402 47 65 25
12.770014365428203 -1.2461534553807323 2.6956746251148553 49 66 28
12.880607385331261 -1.3321136454507725 2.5266951769910633 46 64 24
13.054636171451353 -1.2060528787029114 2.5080639416121304 45 63 23
13.210335222908483 -1.2955254836252998 2.6303616337280773 47 65 25
13.095266274260517 -1.6098867877741139 2.646251219212657 47 65 25
13.151901757535642 -1.768082362316097 2.638338497882226 47 65 25
11.296057502028589 1.7759600981467505 1.7958941954270127 29 42 7
11.452877567770063 1.7962649590321293 2.0738332173209173 31 44 7
12.439288326730152 1.8209373359684227 2.3254427786364436 36 50 11
13.251564351862376 2.314992493532394 2.3724451272446005 41 56 17
12.71631648021247 1.9657549141418398 2.4169656179883083 38 52 13
12.49316085597618 2.24703525620674 2.2168415996718416 35 49 9
12.49316085597618 2.24703525620674 2.2168415996718416 35 49 9
12.128901740219403 2.1091336313098554 2.1384630027201705 34 47 10
12.768854591541228 2.3946924204994042 2.412330037849629 40 55 15
14.025552234021362 2.12999609502621 2.5347465757286263 41 56 17
13.750555799287655 2.413849757548896 2.7155375577344207 44 59 20
14.429081924106455 2.2040490056781312 2.6215181637556197 43 58 19
13.972307006375406 1.940999521578695 2.681815073793974 43 58 19
13.789545820470858 2.1669358558947964 2.70934972387763 44 59 20
13.509902834502444 2.561575392931313 2.756660296329667 45 60 21
13.229926437876099 2.4329277225666535 2.8128146273352788 45 60 21
13.915542616934477 2.3075280278529715 2.546229179384076 42 57 18
13.638638433851149 2.558257811933301 2.451886941531076 40 54 13
13.210666370038544 2.5169409080774825 2.630316951514213 43 58 17
13.530780322364762 2.4023640138722935 2.589613190186842 43 58 17
13.210666370038544 2.5169409080774825 2.630316951514213 43 58 17
13.724945451599558 2.900601851917544 2.5670525335639898 42 56 15
13.856550640176701 2.6540513934851564 2.6989842960590424 44 59 20
14.104261997645938 2.8638311597646773 2.663267554178913 42 57 16
13.395817138007125 2.722649949520749 2.6061972651565513 42 57 16
14.786409406994462 -2.3589612711697328 2.724921038218883 49 66 28
13.76683498315943 -2.5472221923271925 2.562369392680262 55 72 34
14.248237312019565 -2.6140736395848196 2.5125859419815915 57 74 36
14.46706975033546 -3.1112503192118215 2.6169510733401298 46 60 19
13.951420518858445 -2.5908756962854715 2.684847733705141 58 75 39
13.78886822342134 -2.8442103399918373 2.5599308828310705 58 73 36
13.663571900294043 -2.9747472475779793 2.5740284122454478 52 69 31
13.984726550463998 -2.723297078507929 2.5389644713773736 59 74 36
16.982337947798676 -2.5413803448009475 2.9080468496233194 51 68 34
16.880761605000796 -2.7818431942854156 2.9348552995653265 50 65 28
14.159860196375297 -1.9169376640027815 2.6557490210436656 48 63 24
13.488719803303702 -2.0514465047129473 2.594697593374952 46 64 24
13.948063378785019 -2.1267541618960983 2.685337778719143 50 67 29
14.610772836269197 -2.1694848554538404 2.600198260382789 46 66 27
14.32963434644098 -1.8372164805702504 2.504820307175552 48 66 26
13.692293972006006 -2.3584324089371527 2.570746565742871 40 57 18
14.105510811803882 -2.445237500732257 2.5266286892592333 52 70 30
14.103850680725667 -2.2712060068463185 2.526795354928112 48 66 27
14.931885477699929 -2.2712060068463185 2.5654332409204663 47 65 25
13.510194823784614 -1.247699473298636 2.0745253663803918 38 56 16
13.510194823784614 -1.247699473298636 2.0745253663803918 38 56 16
13.23360397862891 -1.2185355672738156 2.1752936768588205 41 59 21
13.933959673079814 -1.0578067244968228 2.1409743899429152 30 49 18
14.130971414309736 -1.1351757441275379 2.2180814910489195 37 57 22
13.095740004626885 -1.415483019326668 2.092053901106125 41 59 20
12.985175982991802 -1.3073233292369595 2.1885703236766645 43 60 22
13.588870269606936 -1.3073233292369595 2.2485944102688027 43 62 22
13.421770235341217 -1.400565047943426 2.2586578571220954 43 62 22
13.327806919984084 -1.4968851282079099 2.264465205263948 43 61 21
13.90674869318531 -1.672188546760153 2.0588759338391975 43 60 20
14.023055276347026 -1.6918530916363212 2.31716151831243 44 64 22
13.364261273581267 -1.6918530916363212 2.2621991522646265 44 62 21
13.308529533440568 -1.5945945937399317 2.2656702690971002 44 62 22
13.509776025378567 -1.5924742036958655 2.161240648873807 43 61 20
14.023055276347026 -1.6918530916363212 2.31716151831243 44 64 22
15.25151803216949 -1.8607883829293668 1.8037803341175518 43 58 19
14.225705652359736 -1.8302244645817485 2.047009102486099 43 59 19
14.68903642929016 -1.8113774558698044 1.956141450373337 43 59 19
15.269737428470965 -1.7950403028582602 1.8713985316125918 43 58 18
14.26638322221165 -1.768131171216399 2.210925750293004 43 61 19
21.938652482331992 -2.6181784793238605 2.2941534096221448 27 45 5
23.72895345298707 -2.432507762127442 2.2293396788547506 2 15 0
19.707193161068975 1.3978450578701698 0.9490415354392375 3 8 0
19.468409597837987 1.4079651590919802 1.0622867674687373 2 9 3
18.925291154534175 1.5844770480909502 1.221400425428146 7 10 7
11.921826257186666 1.422760254151703 1.6145367907940915 26 39 10
11.79419278283655 1.5914434195167984 1.615010444963626 29 42 12
15.259817466124806 -0.2237108916997391 2.426464213870756 17 20 16
15.268873521960586 -0.4912531521177418 2.3309992422154466 2 6 3
14.176870116967343 -0.31946285258612084 1.895387024830728 6 13 19
14.93548948321554 -0.31946285258612084 2.0226469202990356 4 10 11
15.154925146295126 -0.2472394402508572 2.0901211586304114 3 7 8
13.198127065639701 -0.5911294622407788 1.7630124557914681 4 14 13
13.485524375935855 1.166499730492406 2.354684908487304 36 49 14
12.010558257158397 1.3204380944870493 1.956751026627701 28 41 10
12.340659552907443 1.204055331529231 2.1275584927852105 31 44 12
11.299640858728498 1.6972388836311179 2.081310752569642 31 44 7
11.820511132399762 1.6972388836311179 2.155189745663235 32 45 8
14.726389475887437 1.0648270754924307 2.5872805439323603 38 53 15
14.400842242459788 1.1209530619872123 2.498164015529538 37 51 20
14.726389475887437 1.0648270754924307 2.5872805439323603 38 53 15
15.177247336023825 0.9944650533879736 2.6701032559588924 39 54 15
15.468381176145426 0.7885049527112823 2.789848120070225 43 58 20
16.786305842015263 0.4499060426128308 2.750887142358098 43 57 21
14.347110827190841 1.3172712867030958 2.631583769002969 41 56 17
13.144362389545378 1.7292555397000107 2.498828602565648 38 53 14
14.343451840179647 1.6216421358785678 2.801371916266292 44 59 20
15.534402062784409 1.04768161752044 2.7784449123995367 42 57 18
12.272053208054203 -0.7537831063690079 1.7777203715537326 4 17 1
13.811522083303522 -1.0126388645511817 2.235683538957584 37 56 26
13.537366999929255 -1.2802566333343643 2.350874088953663 44 62 22
13.255937101126655 -1.5971746554341186 2.3721044168867342 45 63 23
13.311889027298504 -1.7048339483775314 2.367775006144181 45 63 23
14.245993136443838 -0.749564575422721 2.302783796586991 30 43 23
12.833101329421263 -0.7537831063690079 1.930840373446425 4 17 4
14.640647190118743 -0.24827128658270126 2.476629063903884 45 63 36
13.73692596207902 -0.8433911737243965 2.7177290206993843 50 66 29
14.825256825900377 -0.3523545362857225 2.4609047572761833 51 59 48
14.746308801367578 -0.20880988442490203 2.7311085906893036 49 63 30
14.257445809119874 -0.3934579239008217 2.511698800284475 48 63 27
14.400145559425445 -0.31742846078265063 2.6250379581716867 48 64 31
13.775954559782148 -0.5950549446571246 2.7114932499437736 49 66 32
14.895558770538155 -0.2787326983460095 2.5691978693334714 47 65 31
14.539726690659881 -0.9598378607170038 2.379835465008161 41 59 24
15.626795593200729 -0.592335301331095 2.5002130739643866 47 65 36
15.035448429763813 -0.6176002217200885 2.3458666146712996 39 53 34
13.621303704471469 -1.0274463580508868 2.578914468675583 45 63 20
14.076321419178182 -0.9469687202778504 2.66711014710085 47 64 26
13.301766969951093 -1.0910132133113126 2.483189209836492 43 61 20
14.475884447251271 -0.6758760834304667 2.3844706073745128 48 62 40
12.786606849141332 -1.0274463580508868 2.5371826572119964 46 64 24
13.998712884787425 -0.8976736549298142 2.4212663410742694 44 61 24
13.329522758891596 -1.1763140295418832 2.791572961684951 50 67 29
13.409298995908648 -1.7209096117480214 2.472890809781135 46 64 24
13.11485713790664 -1.4497260368636884 2.6434933507177436 48 66 26
13.151901757535642 -1.768082362316097 2.638338497882226 47 65 25
12.529319046164968 -1.153597647891972 2.5675901883638548 47 65 25
13.11485713790664 -1.4497260368636884 2.6434933507177436 48 66 26
13.151901757535642 -1.768082362316097 2.638338497882226 47 65 25
13.653285672256438 -1.7413243441604194 2.5752112261981615 47 65 25
13.567936795266672 -1.6173656500009828 2.7462367279183795 48 65 27
13.286465618290205 2.468069613706309 2.369735294983548 39 53 12
11.115678800424028 1.7759600981467505 1.7080879548588306 28 41 6
11.252214259134721 1.8910009104560728 1.9842935306742184 30 43 6
13.007352761842336 2.070097436411613 2.392039927330388 39 53 14
12.674192164479416 2.163808834504925 2.3081546420709556 39 53 14
13.555186216983271 1.8903163615877436 2.586696432814424 42 57 18
12.930080994651089 2.016971210960715 2.5212979630977834 41 56 18
13.856550640176701 2.6540513934851564 2.6989842960590424 44 59 20
13.638483309611503 2.5971551557556563 2.576920365256464 42 57 16
13.638483309611503 2.5971551557556563 2.576920365256464 42 57 16
13.856550640176701 2.6540513934851564 2.6989842960590424 44 59 20
13.985243380094213 2.2497202906582565 2.8832949959301994 46 61 22
13.134912914946849 2.488150281227714 2.4997899162680675 41 56 15
13.291699824760988 2.0821236887625303 2.619553383808765 43 58 19
14.486421827100626 3.0342985596930436 2.614647411595032 43 57 18
14.01320435541469 3.017277475843273 2.6759558186568078 43 58 19
13.4755802748245 2.279899357969429 2.762996599261302 44 59 20
13.210666370038544 2.5169409080774825 2.630316951514213 43 58 17
14.215548681018202 -2.463923759848876 2.648381819503892 47 64 26
14.166473299016054 -2.7999744696843445 2.654865745178295 52 69 33
14.357181322951543 -2.6654393481199117 2.6303312153301013 60 75 37
14.894703287072463 -3.106394041556919 2.7087868147996748 45 60 21
14.516741954358944 -2.9747472475779793 2.6110685916517085 48 63 24
14.166473299016054 -2.7999744696843445 2.654865745178295 52 69 33
17.101071118820403 -2.8616629653440993 2.88045690774988 49 64 26
13.978027462428715 -1.9929970118708968 2.539661418972124 46 64 24
13.780374838672827 -1.8720474089692762 2.5608688842328102 47 65 25
14.103850680725667 -2.2712060068463185 2.526795354928112 48 66 27
13.2837886495515 -1.9169376640027815 2.6205895671079205 46 64 24
14.1681159797672 -1.8094666340117411 2.407746515830433 47 65 25
14.543779223804663 -2.3584324089371527 2.607908059775357 46 63 24
13.739808646915176 -1.946608324328746 2.4430076992503347 47 65 25
14.103850680725667 -2.2712060068463185 2.526795354928112 48 66 27
13.23360397862891 -1.2185355672738156 2.1752936768588205 41 59 21
13.82645558912779 -1.2185355672738156 2.2348370837384377 43 61 22
13.364261273581267 -1.6918530916363212 2.2621991522646265 44 62 21
13.969951976918175 -1.5945945937399317 2.320682770439631 45 63 23
12.810203603196605 -1.400565047943426 2.1983095089736118 43 61 22
13.988317882837658 -1.4968851282079099 2.31946060834873 44 62 22
13.266947095044163 -1.3298668168286005 2.084659182314815 40 58 18
13.564680950983613 -1.6811551754434602 2.1585303823112003 43 61 20
13.90674869318531 -1.672188546760153 2.0588759338391975 43 60 20
14.146822976540292 -1.7868700908505835 2.3091003288860525 44 62 20
13.89149421027652 -1.852190742230271 2.1429357950047643 45 61 21
15.05211620971121 -1.8607883829293668 1.7390943704052177 33 48 9
21.938652482331992 -2.6181784793238605 2.2941534096221448 27 45 5
23.229798582115457 -2.474378270959555 2.2460754293686644 6 24 1
19.974392916287847 1.4079651590919802 1.0185432721525338 2 7 2
14.125302754232361 -0.4517884474962548 2.1323122954997986 8 15 19
13.99830193497625 -0.4178426597199069 1.976239896742336 8 15 21
14.873488351328215 -0.08844121572349142 1.9511162510915117 9 13 16
15.500795665912593 -0.17228832167046168 2.1528409814689597 5 9 10
11.14066398573497 1.6856176824755082 1.7990892325295662 30 43 9
11.691098699978168 1.2354703935524487 1.7881638012241259 26 36 13
13.846979527475407 1.7826596602365021 2.7004448766293216 42 57 18
13.978143247047674 1.2665692586624904 2.4229446570592756 35 48 15
14.825266490259665 0.9047102574986083 2.719038084950386 40 56 17
13.575817119499602 -0.8143765594297007 2.1579839368781903 13 27 3
13.683165617522741 -0.938363554336543 2.1527719846737403 31 47 20
13.775840600293304 -1.183873506692513 2.3338882296210146 44 62 22
13.35375522149453 -1.6003819875348169 2.478172611222362 46 64 24
13.37296741450858 -1.4789926034698095 2.4763366846287838 45 63 23
12.945529956211082 -1.084901366061216 2.66810393600041 47 67 28
15.439920661728545 -0.24827128658270126 2.5166030282737544 51 63 44
12.315288720641236 2.0209775039122024 2.227776820131846 36 49 12
12.552344716291435 2.314992493532394 2.31700692835117 38 53 14
14.0583816629422 2.2967644080201626 2.669600699685281 43 58 19
14.515772552080074 2.0095723518141027 2.769284516321549 44 59 20
13.749980035349854 -1.976688580817495 2.715629829630373 48 65 27
14.213901401961671 -2.2533593817915287 2.6485974681490143 47 64 26
16.717463662852236 -2.6435357976049296 2.988249380322788 50 65 29
16.820026192820233 -2.3614409277675765 2.952844279753203 51 68 34
14.215548681018202 -2.463923759848876 2.648381819503892 47 64 26
13.82645558912779 -1.2185355672738156 2.2348370837384377 43 61 22
13.564680950983613 -1.6811551754434602 2.1585303823112003 43 61 20
13.528766655161487 -1.5034518021926822 2.1603001714379793 42 60 20
14.523318496694746 -1.7523500967868926 2.1151642782209645 44 61 19
14.339425419996875 -1.8780929341430115 2.2969446485062277 46 62 22
14.146822976540292 -1.7868700908505835 2.3091003288860525 44 62 20
23.72895345298707 -2.432507762127442 2.2293396788547506 2 15 0
14.357126731532695 -0.37384893958723114 2.206226830913427 4 10 11
13.800376398967616 -0.567532048849484 2.1471936355050856 8 18 16
14.705751222323915 -0.31875873276280875 2.3680711435790456 7 10 9
12.462243786247896 1.393068712019687 2.218713446851815 32 45 12
13.011224881784997 1.711460111298873 2.3917202456821043 35 48 11
13.922780628540652 1.4738359792434474 2.5454621123871046 38 53 14
14.241229974263636 1.6066592563068904 2.6450373524411237 40 55 16
14.706968446392311 1.612856972491985 2.7372990370563404 42 57 18
12.694243637439614 -0.938363554336543 2.0207737105375005 27 45 18
13.23490453406798 -1.3933536566248583 2.811713888533454 50 67 29
13.586846132722156 -1.426825804754091 2.742915074900125 47 64 26
15.321783535323291 -0.4982427870323558 2.527370680611473 47 65 31
15.16466624160277 -0.1786135282271183 2.6717330987098364 48 62 28
15.622308835503707 -0.03817058663416958 2.763914339141195 48 63 26
12.782666688181086 -1.4663638289444179 2.5376291219403506 46 64 24
12.007489963629745 1.9246354869447988 2.247702097534312 36 49 12
13.763432819544754 -2.1694848554538404 2.5627474321376136 47 65 25
13.420604765660688 -1.0578067244968228 2.0782083769878055 27 46 13
13.023023969960224 -1.1351757441275379 2.095263180341216 31 51 15
23.72895345298707 -2.432507762127442 2.2293396788547506 2 15 0
15.697976809456328 0.05665007703876906 2.0704543910401725 8 10 12
14.217852952963577 2.1063715429265017 2.827278254639047 45 60 18
13.724486537832766 1.484821304968167 2.444338010903549 35 48 13
12.810832788131515 2.2290588107319453 2.408670548479044 41 56 17
13.210335222908483 -1.2955254836252998 2.6303616337280773 47 65 25
13.530780322364762 2.4023640138722935 2.589613190186842 43 58 17
14.353470297776315 -0.6176002217200885 2.2960760701100265 21 33 19
13.276324177790299 1.8515136105340144 2.485670606450797 38 53 12
15.384005316257968 -0.5375429164735298 2.4172183461868832 48 61 41
13.08946139887735 -0.6894965627570516 2.0923293644687546 6 17 8
14.400842242459788 1.1209530619872123 2.498164015529538 37 51 20
13.488719803303702 -2.0514465047129473 2.594697593374952 46 64 24
14.324291600890405 -0.4490604624351572 2.3957369985307913 50 63 41
14.724415093208112 1.4406164516413265 2.7345386468993764 42 57 18
13.53093668135594 2.3946924204994042 2.4615941492028703 42 57 18
11.365911835212517 1.5007138333946481 1.885792000802153 29 42 10
14.73364691687688 -0.7440476418531413 2.4686196976975014 44 63 32
