23.825280297208167 2.111633925559767 1.1236557869683022 2 8 7
16.461198252816775 1.0674131603109864 1.5524619848046342 2 6 0
17.013331519815715 1.015752379436769 1.4942056871218725 0 4 1
16.712013981295208 0.9331993342193534 1.6125875166728063 5 9 9
14.675819863752771 1.1540439250836945 1.550231233591453 42 52 31
14.044864150785374 0.3964647316728042 1.6205297790746527 1 6 11
13.043115553023517 0.7026427597317582 1.6243529759411242 34 42 33
13.777551406456933 0.32894717630467585 1.6943699142148037 8 18 23
13.924047522331913 0.45977511749244876 2.0726523106839165 12 20 16
14.10994348096494 0.27873278515158567 2.065437311132412 10 18 21
13.489285571792731 0.5958035865898259 1.7721810738945527 13 19 18
13.21073574714606 0.5304943792011746 1.854527802913923 10 18 13
13.914680241837065 0.9195519174475641 1.915209363744691 44 56 37
13.134659746996407 0.7026427597317582 1.7004516828149825 43 51 44
13.808093331837487 0.8114020758231592 1.9179796837229015 45 55 40
14.25242689637098 1.124630699686289 1.8332794625931963 43 53 31
14.508178137162282 1.091094487169859 2.0506904238380725 40 52 29
13.536105614403358 0.755299536862188 2.0053040173541046 44 54 37
14.475379110729804 0.8145800570913829 2.2154191393850997 44 57 33
14.694515011651166 0.9831365676612956 2.1221999589641616 42 54 31
16.14936315667771 1.0080932783408403 2.3809252144043698 40 54 27
13.131548303081008 0.5732737331330104 2.019649912920371 42 52 40
13.595366275904208 0.5732737331330104 2.0859670587130674 44 55 42
13.625098186148039 0.3650886402823882 2.3628400067378283 45 58 33
13.201593626267139 0.45753616948251813 2.515584339195608 46 66 29
14.026689061614661 0.6225833202245671 2.2396902790567137 46 58 38
13.926931164584964 0.4181687251440809 2.2453650291196445 41 54 38
13.325276294442984 0.4181687251440809 2.1867227784042127 37 48 39
13.381728910765963 0.7394156890530043 2.4971988855532885 46 63 30
13.654006553034424 0.5987300040048433 2.3606967963175496 45 61 35
13.495028116658137 0.5668179425502755 2.486107148123737 45 65 31
13.935038295163494 0.6925785390810196 2.156079722690917 46 57 40
13.009110616984279 0.6394258727115278 2.536348193598222 45 65 29
14.30112322185342 0.33111243284590586 2.316029716801811 44 55 40
14.275612815546113 0.4989866426301517 2.225980963497827 42 53 40
13.654006553034424 0.5987300040048433 2.3606967963175496 45 61 35
16.887816724079617 1.0080932783408403 2.421759190243697 39 56 24
12.930499465581551 -0.6517294873920373 1.3125878165836162 56 64 57
11.92563608556091 -0.5849924779229428 1.5454877774340994 46 57 48
12.285492683079081 -0.4719089547735452 1.5462292461769132 5 14 9
12.807899446302288 -0.3665216378488849 1.6253375073713296 5 16 16
13.084701854982612 -0.23188443536977638 2.108205014637446 7 19 22
13.85669279443387 -0.12174553466143193 1.916710896874768 0 15 20
13.702396383510404 -0.04880325246013785 2.0815502077416754 5 17 20
13.901683187288096 0.19972774759775982 2.073535269769229 2 12 17
14.343611711293129 0.18465465320542468 1.9793307336274657 2 15 24
13.78121754615834 -0.13182922023433974 2.0783481801946975 4 17 21
14.212170825985003 0.03490000391489307 2.1432109205842322 4 16 19
14.276537016492332 0.11811799101259471 2.1403084224471978 2 15 18
14.276537016492332 0.11811799101259471 2.1403084224471978 2 15 18
13.988198186545183 -0.05325640550493443 2.241867224699312 5 18 19
12.260937884571671 -0.25426420197128824 2.1487426995631007 3 16 13
13.458211043411838 -0.25426420197128824 2.273538539267374 28 43 32
12.758563613675625 0.05999852037104489 2.5653433507122494 45 66 31
13.959036722282885 0.14159520931641384 2.3388856082271445 46 61 46
13.283760118061391 0.14159520931641384 2.2847148496857392 4 15 13
14.178768153271964 -0.2812991341809972 2.4257238471919726 51 69 44
13.947709314906472 0.04659736318991039 2.444984458452341 45 64 37
12.830224280210542 0.2014067780774632 2.5568042126159707 46 66 31
13.265590125945455 0.15718777168539388 2.3907002849858134 44 62 35
13.283760118061391 0.14159520931641384 2.2847148496857392 4 15 13
13.893199653706327 0.04191501796608483 2.343473316555427 0 9 4
13.953669249943983 -0.06514076293470393 2.4444740108341794 47 66 39
13.30252435011148 -0.15795272292436952 2.2834934209840734 0 10 6
14.031078930023014 -0.17527985290905074 2.4379112146120177 48 67 42
12.764433640448662 0.2954998448024757 2.433777065450933 46 63 28
14.095687844526731 0.2385295192109379 2.3295628425167147 47 60 44
11.910933294122854 -0.4320530668105712 1.9762604570305529 1 12 6
12.860964200981243 -0.7624506130357447 2.118604306642651 39 56 37
11.715108862535605 -0.5117950933555401 1.8032017673224054 3 14 6
12.223341035280157 -0.5849924779229428 1.793372078997848 37 49 39
11.942007934147155 -0.7624506130357447 1.9751437631854571 42 57 40
12.509871630557537 -0.34599698952105834 2.1358179575744476 2 14 10
13.894824701509245 -0.8367588096967752 2.4495468681650188 49 68 42
13.668797333691476 -0.9063596081819028 2.3596055255022534 50 69 44
13.795830236831785 -0.42394372930948027 2.458250793388285 47 66 40
13.667747927442143 -0.3812178848884223 2.3596828338513602 55 73 51
13.621620864283672 -0.759058115588024 2.363098735933241 45 65 39
13.92044136895194 -0.6775127631144637 2.4473294404941224 46 66 39
13.465452908615738 -0.8296955726066854 2.2730831084291565 45 63 39
13.897121860950497 -0.65721348685732 2.5713541731504437 48 69 38
14.065650729307382 -0.47663956958698317 2.5529345128105945 46 68 37
13.288235416034695 -0.47374780396363275 2.284423106464901 47 63 45
13.345216333478522 -0.5235348492808279 2.3843286845817335 47 66 41
13.03321395708678 -0.6128830631549412 2.3014922832129106 45 62 40
14.58497018383397 -0.42394372930948027 2.501554647619871 44 65 35
12.421571656530435 -0.890898166326323 2.047367551411484 44 60 39
11.814760847490982 -0.824339311825207 1.7150323625936517 44 60 42
15.001977379027473 1.3040573623789964 1.4839126074150701 34 43 20
14.314233726913349 1.2180447945057544 1.6195931292499244 38 48 27
15.927519629773998 1.3206232078883493 1.6146471900404331 18 26 8
16.122844513568197 1.4456555005324936 1.3007114508044704 38 48 24
15.121603815105336 1.3040573623789964 1.4179837506059696 43 53 31
15.412388743003754 1.2407167964669363 1.4208888670382938 46 55 38
14.892416765473216 1.3696658670284487 1.415613126318191 33 41 17
13.270007865006365 1.4886983315092086 2.0999039635510064 37 50 17
12.989901782311367 1.4952839525802675 1.859488715970986 35 45 15
13.354143921302809 1.238536007958928 2.011636966428582 35 47 20
12.497163153376203 1.4025298572697256 1.9562097372815614 35 45 16
12.794400548579329 1.4886983315092086 2.032381130252698 37 50 16
14.131125938654128 1.2092434635305804 2.2338617671090866 35 49 20
15.808956497561717 1.087718712362399 2.4038275502742925 37 50 19
14.442094607350416 1.459645477206656 2.5149620250523195 53 67 30
14.44186778497034 1.1280213089229392 2.2171646774770037 37 50 23
14.263543359227592 1.4808576547636427 2.318463555940397 42 55 20
13.883097170709549 1.4448080574939037 2.5729313369018 50 67 29
13.98639381241012 1.3150357653364702 2.561477285381647 52 69 33
10.95981494219715 1.885038769786356 2.0138233194086905 51 64 27
10.989175726321479 1.856565606513668 1.7259530536300751 40 53 18
11.244272081736606 1.7660879623222405 1.9059320907853206 41 54 19
10.459684944894413 2.0202936686155644 2.0366362051402285 50 65 29
9.673225912287707 2.0717035601763993 2.0779513467859965 49 64 28
10.125731412275625 2.1349851866745455 2.2936187863234956 50 65 29
12.935042257752748 1.764144389842901 2.7007241764812684 49 66 32
11.546570196956013 2.1349851866745455 2.423885498661024 49 65 30
12.64412035856356 1.8815159195870526 2.579425002774909 48 65 31
22.954721287892827 2.070771819452926 1.1535732368825042 2 8 6
19.544735170255784 2.004246780136034 1.761161815520373 2 8 7
9.727506354750014 2.255899750328368 1.7462738171369858 45 59 24
14.114780935159262 1.0736198708114209 2.689739049697959 50 67 33
13.837246517953426 1.3990802760690546 2.7330063462115017 50 67 33
14.258439633947003 1.4254313157912697 2.6694044031085022 50 67 31
14.00971648805569 0.8424719562187752 2.7054455769606163 51 68 34
14.359036375027793 1.2772882947003223 2.6558659534719586 51 68 32
14.323092574585978 0.7296050493766487 2.660641206348617 48 67 35
13.239963464652702 -2.525484917306232 2.654191940920856 56 79 46
14.303277666362161 -0.927095609739924 2.5284945744113294 48 70 41
13.915071446196219 -2.3071385451286197 2.5693458891679803 58 79 46
14.790200891291441 -0.9934605489282996 2.483145561499419 48 70 43
14.01262356109356 -0.9934605489282996 2.439464665371738 50 70 44
12.890905994917462 -2.4185753891088666 2.708037219603506 55 78 46
14.578062610258534 -1.048602788416637 2.3947787064545563 54 73 47
14.270286775119738 -1.1405074316617196 2.4183814232341314 54 73 47
14.501371539701946 -1.0948833713946837 2.3033614795012465 57 76 49
13.875923049447785 2.81179193683344 2.573740853534195 47 65 30
13.670180001799658 3.0826214331140878 2.5977886745511523 47 67 32
13.875923049447785 2.81179193683344 2.573740853534195 47 65 30
13.737085967478684 2.9435520356412486 2.589786036052806 46 65 28
13.48818571657085 -2.9476555455714233 2.4867671931977107 49 70 36
13.676260881004968 -3.0591880880898885 2.597053723863356 48 68 33
13.905851016486324 -2.790864280460145 2.5703760827324347 51 73 38
11.633527009295022 -2.5893455796320843 1.9865188449133528 50 70 35
10.806305424725398 -2.673289452591994 1.9200825333163527 47 67 31
11.327663971895046 -2.5132565702136342 1.7212808530047536 49 68 33
11.865095416557113 -2.4567466990403197 2.0717359980870698 48 69 33
11.391115381216048 -2.3867047422320686 1.8099390557993875 51 68 32
11.794440119813087 -2.5132565702136342 1.8897313919458605 52 72 36
12.84182333706679 -2.5658386439568983 2.426763427970061 52 73 38
13.94705186023715 -2.314888619735041 2.4450408129489825 55 76 42
13.721884806979114 -2.2450603741715214 2.3557178228785087 54 74 41
13.309491333502324 -2.671974662346933 2.504457262469737 51 73 38
13.653490678975755 -2.6076534858073384 2.5998137736520315 55 78 43
13.122030131985582 -2.4941218116538506 2.5240198096342175 56 77 42
13.309491333502324 -2.671974662346933 2.504457262469737 51 73 38
12.517279803707073 -2.472518717622251 2.3390720390855697 51 72 37
17.166975287079175 -2.15906175009317 1.2568268528835214 34 44 12
11.79537847430903 -2.3248081408437007 1.6300246134068168 51 68 32
16.16309433983475 -2.2452499151942176 1.4901682095752946 28 37 9
11.713199742008358 -2.259173064689619 1.8920225159009236 55 72 37
16.988265922737167 -2.2082975171343406 1.670927368782138 29 36 9
18.339521121928836 -1.5787859270167888 2.7152981913068204 54 78 51
16.687955406786173 -1.4040991044677082 2.7954580637429762 55 79 50
17.31586451120947 -1.584015209474444 2.8736976659387397 54 79 50
17.31586451120947 -1.584015209474444 2.8736976659387397 54 79 50
13.57960199364986 -2.575015087452333 2.779322057423744 55 78 45
14.490360990232974 2.604711301195446 2.809409554833601 49 69 34
14.293465025481838 3.039292285883865 2.8519810279560627 53 73 38
13.760831191384304 -2.8383996876656625 2.746028713119482 55 77 42
14.671674315036729 2.868604056835497 2.7752682601770577 51 71 37
17.055688095578734 -1.730530298604784 2.7399221050346405 55 79 50
17.466046685422825 -1.7097561080069716 2.687785223848674 55 79 50
16.695215063303696 -1.7585219702765715 2.7942543892322584 55 79 50
17.891559519659925 -1.5778551123628124 2.6412303245694555 55 77 50
17.053816402237633 -1.693739440717834 2.6097464489461855 56 79 50
14.07654323496744 3.0729195602420623 2.6953686182458685 51 72 37
14.535138273213882 3.0826214331140878 2.6333923465903286 48 68 32
14.07654323496744 3.0729195602420623 2.6953686182458685 51 72 37
14.15915429159929 -2.8860824146778508 2.6833243197921424 55 76 41
14.082448645374535 -3.0456687006242955 2.694492873364852 53 74 39
14.598080497714195 2.9435520356412486 2.625704408877968 47 67 33
13.805986557075187 0.6558060076937343 1.5489353487525135 9 13 10
12.990938216992411 0.4064070779659264 2.4136377613407136 43 62 27
13.806089364892877 0.3027423219379091 2.162282562572031 3 13 13
13.854583843107312 0.6627947021478479 2.4530588792118384 45 62 30
14.524793779749524 1.0246453966818396 1.9739371421117955 45 57 36
13.131548303081008 0.5732737331330104 2.019649912920371 42 52 40
13.989435455991206 0.8615793359428712 1.7648875996330458 49 58 45
13.660509402130502 0.49315800706779184 1.6954341744358479 12 17 19
14.478054908067442 1.0611683578900832 1.7582579773812856 46 55 37
13.411531650291094 0.6797378704791517 2.276490206330374 47 60 36
12.941345515546622 0.641068886723577 1.86060321221917 45 52 46
13.64278937999086 0.33111243284590586 2.262134171984363 34 45 39
13.261781444911632 0.641068886723577 1.9329264528504007 45 54 43
13.917718591890564 0.7513823413841804 2.2458944992782324 47 60 37
13.566332953597335 0.3837402186783161 2.0871791295014246 4 14 10
13.231802100947071 0.4589066894242309 2.288121886714842 44 59 36
15.194996166864685 0.935722977993609 2.263019671372075 42 55 31
13.187507378203126 -0.5417290140811446 1.317731403622815 4 12 8
11.92563608556091 -0.5849924779229428 1.5454877774340994 46 57 48
11.743282546388773 -0.7034959974383534 1.630287673566237 45 57 44
13.37980973746498 -0.43741227505652575 1.3979017785234782 5 14 14
14.576289002060713 0.03220476028819937 2.048259920865868 0 14 22
12.602102971089455 -0.23188443536977638 2.039985864467717 6 18 20
13.77830340773537 -0.04503688895122111 1.9187621246041804 0 16 21
14.047672679083142 0.12880134323934064 2.2385100916762264 4 15 19
13.593174535593652 0.21743810532745866 2.172841445504422 3 14 16
12.580636755058574 -0.29155833451418384 1.7061958072884311 4 16 19
12.613368168935725 0.17659931358111183 2.4478895663944886 44 64 30
13.265590125945455 0.15718777168539388 2.3907002849858134 44 62 35
13.328907318631494 0.05245632271046224 2.502491649462117 47 66 32
12.834602492838203 -0.25426420197128824 2.21404912361293 0 13 11
14.37202368699768 -0.31455496422908996 2.521728130424594 44 67 32
13.335143820460718 -0.0733177594467396 2.5018626002200413 46 65 33
13.976894412749658 -0.15795272292436952 2.337652166141464 40 55 43
14.22634086671337 -0.19682176427222914 2.5362240228889203 45 65 31
13.959036722282885 0.14159520931641384 2.3388856082271445 46 61 46
12.978765915016751 0.33514122158121884 2.5397358105809698 45 65 26
11.70160948673929 -0.6347518827290828 1.8923521182834637 43 56 43
12.478802476994113 -0.6347518827290828 2.045001298424706 41 55 40
13.550365216580882 -0.583687430824172 2.4808140817789335 46 66 38
12.842196023044668 -0.8296955726066854 2.2136059551038625 42 60 39
14.258200672658935 -0.7544889019353733 2.533002703646289 47 67 40
13.667747927442143 -0.3812178848884223 2.3596828338513602 55 73 51
14.065650729307382 -0.47663956958698317 2.5529345128105945 46 68 37
12.604828652087717 -0.7650690460202663 1.3871542301581867 44 56 45
16.038122189739063 1.3823952704298286 1.363442376997887 45 55 31
14.72770356478182 1.4370751468192597 1.413863264839482 29 39 13
15.748466911184973 1.3823952704298286 1.4880406268485549 16 24 5
16.203848505256293 1.2607392779230895 1.6138989212239903 9 17 4
15.412388743003754 1.2407167964669363 1.4208888670382938 46 55 38
14.314233726913349 1.2180447945057544 1.6195931292499244 38 48 27
15.412388743003754 1.2407167964669363 1.4208888670382938 46 55 38
12.345907711998445 1.5761031315218013 1.9611852400286394 35 48 13
14.44186778497034 1.1280213089229392 2.2171646774770037 37 50 23
12.706781659798507 1.5756757514088529 1.7847695940147128 34 44 14
12.381884585889752 1.841787004059149 2.470685674383809 46 65 27
12.935042257752748 1.764144389842901 2.7007241764812684 49 66 32
10.394683675957442 1.977910251337757 1.7349050534930048 50 63 26
14.356387626140355 0.9420143306167845 2.656215559007657 48 68 33
14.857477557207297 1.2269832202815887 2.743944365975588 51 68 34
14.258439633947003 1.4254313157912697 2.6694044031085022 50 67 31
13.871462129038566 -0.8464984721277525 2.5742451579675025 49 70 40
14.345574361330007 -2.2261702376591592 2.524316145728701 57 78 45
14.01262356109356 -0.9934605489282996 2.439464665371738 50 70 44
13.544848576083893 -2.405662148733056 2.613292200833217 57 79 45
14.303277666362161 -0.927095609739924 2.5284945744113294 48 70 41
13.394777538229475 2.7621364953747887 2.632816367590247 50 69 34
13.670180001799658 3.0826214331140878 2.5977886745511523 47 67 32
13.48818571657085 -2.9476555455714233 2.4867671931977107 49 70 36
13.75523180789805 -2.921018019232433 2.587646786800493 51 72 37
12.99417500605546 -2.391173747904125 2.304187949013719 51 72 37
12.90807697342467 -2.3205248981113584 2.209789021786644 51 71 36
13.503850013549508 -2.3971757701622134 2.485257973787524 56 77 43
17.222632271590022 -2.2082975171343406 1.3778899402411502 34 42 11
14.835813106009317 -1.0315476040873468 2.5981161870420526 52 72 44
14.609049168587664 3.05940540054002 2.786609986137097 51 72 37
14.357466769279636 2.8058727050215655 2.8373789272598393 50 70 37
13.881473749676625 2.6960382565334418 2.7257088471271436 50 69 34
13.425323083718906 -2.7698400333337663 2.8109697247188548 54 77 42
13.911389775341595 -2.6696250106350377 2.720866145728989 56 78 45
13.804777459620372 -2.4185753891088666 2.738473407181376 54 78 46
17.020912980968145 -1.5778551123628124 2.613041059752502 55 75 48
14.183669595023643 0.258172520396231 1.9084147578185315 51 61 66
13.381728910765963 0.7394156890530043 2.4971988855532885 46 63 30
13.689291359290323 0.4989866426301517 2.1680247482253945 41 51 43
14.058818586293262 0.5558676114173311 1.549328554798484 15 19 20
13.300966506581823 0.7026427597317582 1.7750723776329207 53 62 49
14.524940160145428 0.8703178759356717 2.129396355083842 44 56 35
13.072616859407763 -0.34599698952105834 2.200469563265788 11 26 15
13.976507918092475 0.18465465320542468 1.9136229945766294 21 32 38
13.479310966010177 -0.21307042154539438 2.0072603274274434 4 17 21
13.427285372348907 0.2385295192109379 2.2754909317483216 20 32 28
12.744922348943188 -0.5117950933555401 2.034313154464107 36 49 37
13.469950095301975 -0.14372158900132645 2.1791411778139755 6 19 21
12.613368168935725 0.17659931358111183 2.4478895663944886 44 64 30
13.05170745672069 -0.5582784854502324 2.201637332231384 41 55 39
14.699410307049925 -0.3563510707356117 2.61367635448076 47 69 35
15.412388743003754 1.2407167964669363 1.4208888670382938 46 55 38
13.883097170709549 1.4448080574939037 2.5729313369018 50 67 29
13.09405724160423 1.318806524380461 2.0210294145783556 35 45 19
10.787221432317121 2.0717035601763993 2.2407369948591183 50 65 27
11.920793855791205 1.6722612581894885 2.0691795496801513 42 55 18
9.966790571816938 2.112130392360552 1.7420187382961354 50 64 28
12.024912950933873 2.015843206367408 2.5090212798613134 48 65 31
13.297201260245917 1.1624705718588784 1.9319175363813255 39 49 25
13.444499156172247 0.7296050493766487 2.626224584927016 47 66 34
16.562594267856788 1.087718712362399 2.44445046553218 45 59 28
14.486932649125471 -1.091673965404804 2.5106994091104493 52 72 46
13.239963464652702 -2.525484917306232 2.654191940920856 56 79 46
14.790200891291441 -0.9934605489282996 2.483145561499419 48 70 43
11.076011979622352 -2.723299762642296 2.220247504900624 48 69 34
12.022909644003166 -2.3867047422320686 1.9722660246720691 49 69 34
11.874789353085168 -2.5358183701156083 2.1701027887039457 47 67 32
11.64341374392137 -2.673289452591994 2.0821905322557486 50 70 35
12.051587244686283 -2.624591279618217 2.263696956331371 49 69 34
17.299234143139962 -2.2452499151942176 1.1979353150523817 31 41 12
17.44432185141596 -2.2859638351765073 1.0748069508095925 35 45 12
17.588333635792576 -2.194857221986835 1.079232199294017 34 44 15
16.387919807170743 -1.7982038653756658 2.8504399648646026 53 79 49
17.949143282562833 -1.5799995078492814 2.7660449954684285 53 77 50
14.293465025481838 3.039292285883865 2.8519810279560627 53 73 38
14.609049168587664 3.05940540054002 2.786609986137097 51 72 37
14.540857437756225 -3.0591880880898885 2.6326866570017495 49 70 35
13.598319618060309 0.5447844785300663 2.26484362316227 45 58 39
13.097826923801003 0.6627947021478479 2.404527532935868 46 63 34
13.796847330664503 0.7584079016737968 1.6941962040510217 59 66 58
13.55727379632352 0.5220484294646234 2.6117239824307106 46 66 31
13.289024996364876 0.5076825508790698 2.3888126158460956 46 62 36
15.646628228783772 1.180007789406525 1.4875007525167563 19 24 15
12.832115126382392 -0.4320530668105712 2.1199764889896064 22 36 24
12.163729283481171 -0.3967411979400227 1.7944813899878962 5 16 13
13.451419417995083 0.12880134323934064 2.1801009394222515 7 17 20
14.39557028704924 -0.9063596081819028 2.408577010230233 50 69 44
14.209345070341872 0.10906464820864634 1.9834248266967478 0 13 23
13.893199653706327 0.04191501796608483 2.343473316555427 0 9 4
13.220849582443837 -0.05860280886963384 2.2888447913465595 0 9 5
15.5927991466647 1.4456555005324936 1.4872125312136109 13 21 3
9.825684079125052 2.112130392360552 1.5400772646741094 47 61 26
13.055132836757684 1.9342954024356713 2.681614615839311 49 66 33
14.552286162422519 1.2682360423934071 2.39669423590126 42 55 21
20.997225121507782 2.070771819452926 1.6040550265801945 5 11 12
14.527930012353167 1.1412460542376868 2.634283845122827 52 69 35
13.837246517953426 1.3990802760690546 2.7330063462115017 50 67 33
13.762024969140219 0.9836025497108707 2.745821030687721 49 66 32
11.824787713619585 -2.3205248981113584 2.073603321606626 54 71 36
10.979348978710409 -2.5893455796320843 1.8190931157362056 48 68 32
13.64175371161675 -2.831466946416133 2.4722432962517273 50 71 36
13.670180001799658 3.0826214331140878 2.5977886745511523 47 67 32
16.387919807170743 -1.7982038653756658 2.8504399648646026 53 79 49
17.606971749118784 -1.5816477747545348 2.818904385510351 55 79 51
15.305804157904976 -1.091673965404804 2.5492476876204533 51 71 44
17.922864648852123 -1.693739440717834 2.638045110961226 56 79 51
13.927134577827937 0.42592265278941893 1.9148886059584553 4 11 12
14.258706805835079 0.5447844785300663 2.3187781245452013 45 58 38
13.491884837001281 -0.6922778784802726 2.271426469958555 42 59 38
13.586974925029889 -0.9654694674530587 2.2655386540697418 47 66 41
13.685383987770157 -0.34599698952105834 2.2595611113855054 18 33 22
12.433135821577814 -0.316531656949542 1.958299889255676 4 15 15
10.566532629443055 2.2385718787637043 2.257392354066531 45 62 27
10.133729556569671 2.1695502758332568 2.052874133603821 47 62 26
13.097123627168623 1.3867236295076897 2.1991068878107285 36 49 17
13.788414785771256 2.1767640552981735 2.7412651203427494 48 68 33
13.653490678975755 -2.6076534858073384 2.5998137736520315 55 78 43
13.860861666172639 -1.048602788416637 2.345750273154058 54 72 46
14.614739409716323 -3.0268659642280737 2.785561119717171 54 75 40
14.1415267578223 2.9119354950527283 2.6858577365309433 49 70 36
15.422152679923396 1.0525970103770153 2.250868848990343 39 53 26
13.982252969473926 0.03808734814603235 2.2422048761279942 6 17 19
14.159732931813531 1.193470518080457 2.543055069059693 51 68 32
14.541420889036964 1.344328994817872 2.5055876499350003 53 68 32
13.682543063894567 1.1624705718588784 2.000342803696856 37 47 21
11.953076568927715 -0.9440607178424595 1.7133518598495399 47 60 41
14.305521334681169 -2.738688891303102 2.663000383796168 55 76 42
9.966790571816938 2.112130392360552 1.7420187382961354 50 64 28
13.885600292016292 1.2957686504475756 2.2477476827958283 36 49 19
14.364104357217197 1.3867236295076897 2.3119913993672143 41 54 19
13.947322011500194 0.3543263009406627 1.9916638056001528 3 14 13
13.899182962370453 -0.05860280886963384 2.3430537385895334 43 58 44
