10.06079719893386 0.8502869662487398 1.8470083157112986 39 54 26
10.340165882088591 0.4272775087563753 1.6427830612772336 31 48 13
9.80415777884111 0.4713181299087397 1.8544361553103186 39 56 20
10.058911891617692 0.5613766774856161 1.7450264502756228 36 51 17
10.09251365013651 0.3355968533204263 1.7444404613220117 32 49 12
9.363333673081833 0.7765221637689769 1.868187885442664 43 59 26
10.427889091936857 1.5332248039524061 1.7388017675181382 45 60 28
9.794625845211598 0.9334094642461008 1.9629949682274799 41 58 25
9.7499390286039 0.3721871788594778 1.9648914882582433 44 62 24
9.477040575298426 0.7748569860025466 2.221901690859414 47 64 27
8.925180881400724 0.3994594962934232 2.4273395003194635 45 65 24
9.030593562531415 0.5897735159661482 2.1238563179696466 44 62 25
8.959167107563372 0.6707505893881803 2.2667255894102705 45 64 25
9.06800658504932 0.2986398272812874 2.1213113452006787 46 65 26
8.885032278844541 0.342055822551813 2.2737160687386218 45 66 25
9.089104399364713 0.6902852057835781 1.9953236326886965 47 63 28
9.230735429548846 0.5461470593499284 2.3899548261880574 46 66 23
9.545045712074488 1.524154655675769 2.090913242939521 47 64 27
10.166990248021305 1.4047992029150762 2.1711535951363654 45 62 27
9.728810339260324 1.0281661813107512 2.0801284563872384 44 59 27
10.085135066433951 1.0833373151623102 1.9511090855129627 39 53 23
9.00583215084211 1.2538069641861502 2.1255545310789046 48 64 26
9.92648593754933 1.5177536778770222 2.3176939345247076 49 66 28
9.371236199069632 1.382482409701089 2.2305328488101934 48 65 27
10.558655367457755 1.220703171032047 1.9332433469437915 42 58 24
10.008401287743649 1.5291778961081854 1.954176023306498 46 61 26
8.834297597331906 1.207351827703841 2.2785920914409177 50 66 27
9.31449779686677 1.3533422115140925 2.3803823564047306 50 66 27
8.672499432299121 1.313767123711077 2.461631731521322 51 69 29
9.470838695726403 0.9007618920182947 2.528091695195986 46 66 25
9.155172471466765 1.0758696311704827 2.2489720120149705 49 65 27
9.57024304426912 0.9606572017115168 2.2145020216234217 48 64 26
9.185527145206887 0.4782614243552513 2.5736958041246387 46 67 25
9.96214878452816 1.000012202810625 2.461180401591986 46 65 24
10.101071741675593 1.0233257519696188 2.8748006420390624 52 74 32
9.931595385916177 0.7685269205708603 2.647487638408348 46 68 27
9.830537718049895 1.2571580015106694 2.6669233767690144 52 71 30
10.372042862188938 1.170268017337906 2.7917327081581313 50 71 30
10.426346863206133 1.7266036823172242 1.6421870238607377 43 60 27
10.318966898675804 1.6304710392552306 1.6429312054942844 44 61 28
10.019766833236696 1.6368879803520924 1.9537185554647514 46 62 27
10.090735989768197 1.6448484282463172 2.1763367040000583 47 65 28
10.130318773284065 1.7430895815191119 1.9493266232021162 47 64 27
11.798510606359676 2.405518931294698 2.7155274442835453 51 72 32
12.142177876489175 2.5244746774744784 2.656916287949864 52 74 33
11.911543173732607 2.683700148159491 2.695078921195694 53 74 35
8.724175087715382 0.23222925056983745 2.45433918055062 44 66 25
8.782567837328854 0.03705378319234389 2.141385693052621 45 66 25
9.44673125961411 -0.26399185762039773 2.3658015305747746 45 67 26
9.38473756299909 -0.09800218704780765 2.229417394131405 43 64 22
10.01314128271143 -0.3143050904081061 2.064338879516852 40 61 16
9.679520064898005 -0.4034691210154403 2.341581922186925 45 67 23
9.818765902921541 -0.4685512583422925 2.4794301133846997 50 74 30
9.316026744056593 -0.11322608421365536 2.380210114024406 45 67 24
9.436685449361793 0.05079215161875721 2.533250481210766 43 66 24
9.344688172349949 -0.20300188483890663 1.9829947799386003 42 62 19
9.803593165970236 -0.6371120235861171 2.1967596920474843 43 63 17
10.007271650262911 -0.52818126434793 2.310245691881894 45 67 26
9.53640428038021 -0.4672258577748599 2.0914322888353185 40 61 14
9.80910111249756 -0.164074367711528 2.671194055281153 48 72 31
10.057889980544322 -0.295424935395941 2.8909895622980675 54 78 38
9.46262866757102 0.35980389093485066 2.749275696265447 47 69 28
10.179073045033451 -0.6262649030555635 2.8480671612422386 55 79 39
9.534069062394869 -0.4714361524771156 2.731544974925711 54 78 38
9.464590912333671 -0.8518064947961473 2.748774931366799 55 80 40
10.035376109809794 0.11424893199933103 2.899909087478571 51 75 35
9.380496708369423 0.08068578598612804 2.771008935242563 48 71 29
10.179073045033451 -0.6262649030555635 2.8480671612422386 55 79 39
9.40457844303094 -0.2112564254352337 2.764473354877131 51 75 32
10.799902213978182 -1.1577367550280373 2.2451894858274164 55 76 37
10.081071008866719 -1.2006352268520504 1.9512702551614796 49 67 25
10.20884702375325 -1.0367610307895971 2.4318499140631493 56 77 38
10.0767330669757 -0.8226932202153309 2.4472499601959163 56 77 39
9.64822118878339 -0.7042202549346003 2.502446124101639 56 78 38
10.0767330669757 -0.8226932202153309 2.4472499601959163 56 77 39
9.790588528874782 -1.3038708345058379 1.963165540558288 52 72 30
9.596002021553344 -1.4132592724645248 1.9715717953291774 54 74 32
10.350275207047934 -1.3675541585979285 2.4160882608273795 60 83 42
10.801524649316333 -1.1044061895714892 2.3701550601829586 58 78 38
10.348582025733462 -1.3932712978425528 2.280561488523661 61 83 43
10.26259133938671 -1.5208540640379873 2.2877825563260763 61 85 45
10.801524649316333 -1.1044061895714892 2.3701550601829586 58 78 38
10.453981733337669 -1.5265693839882406 2.152476028018402 62 82 43
10.715898094378968 -1.3038708345058379 2.1364871268933916 56 76 35
10.543398113508216 -1.3332874175435854 2.5486623890478457 54 75 38
10.720802802216221 -1.175964650725076 2.524533558498952 55 76 39
10.439039446172949 -1.4675244209634164 2.7745470519595257 59 84 47
10.523588432793892 -1.214648408801973 2.7541876790453923 55 80 42
10.035480386336069 -1.285498893676011 2.628600437545611 55 76 40
9.79953357733019 -1.00121211427285 2.6731178296118596 54 78 40
10.543398113508216 -1.3332874175435854 2.5486623890478457 54 75 38
10.720802802216221 -1.175964650725076 2.524533558498952 55 76 39
10.20040233909224 -1.4292288742615344 1.8431309692434297 48 66 24
10.165291570326294 -1.3302120791631384 1.7431847547461112 48 66 24
15.367658518703724 -1.2813138484476676 1.5541184559032912 57 76 23
10.02051200784495 -2.865276671506429 1.6450836025755844 56 79 38
10.071534772415994 -2.865276671506429 1.4457340796255274 51 73 30
9.92198104300055 -2.9639328036050903 1.7474561094056618 63 84 43
10.14559667695067 -2.9639328036050903 1.844639898310738 56 77 32
9.848016829625738 -2.9639328036050903 1.4428801658505996 54 74 33
8.792590372424382 -2.2662938174781058 1.6554814651289353 56 76 36
9.129489432164185 -2.586063642691609 1.7629748486125505 52 73 36
10.55465611726346 -2.771832844606551 1.3553619233194178 51 71 31
9.180658673789711 -2.2662938174781058 1.8742919237623112 56 77 38
8.779800642257127 -2.4280016615586737 1.6556051242460206 57 77 37
9.90519742392086 -2.6397669861954096 1.4436226172945268 54 75 36
9.913999122507546 -2.4967624941530357 1.851208026187441 53 74 35
9.65262320293119 -2.733316862437985 1.3348649299935662 56 76 37
9.54582794484199 -2.733316862437985 1.75449519730385 52 72 33
9.37203293878589 -2.586063642691609 1.8679034178996865 53 74 37
8.131848281006217 -2.344163698069872 2.1936431839440376 55 76 39
9.761588958638228 -1.7767117724165322 2.199874064931949 60 84 44
8.752964102462316 -2.344163698069872 2.286570699499509 55 76 39
9.75994144426904 -2.00830112036073 2.078347960301059 57 79 38
9.435508780115624 -1.8970155348439368 2.0975746785900435 59 82 43
9.08699971540641 -1.650075907659299 2.1200288903741953 64 85 46
9.515172983687618 -1.641022421149321 1.9751738430332566 63 85 44
8.639823064209201 -2.075977673781376 2.4663226740521753 56 76 39
9.092783104346468 -1.6999487774468294 2.5898889276854833 57 77 40
9.544424281211718 -1.6618018112561073 2.3554220619263817 56 81 43
9.439375227878385 -2.344163698069872 2.366596263910779 58 81 46
8.750961870600081 -2.2490270933008865 2.143705420964383 53 77 37
9.223007798865645 -1.9414390603139895 2.243060500574556 54 80 44
8.989108954738938 -2.063817694796464 2.1267077699414765 53 77 39
9.746623206926166 -2.109129244097177 1.9650329655040526 53 74 31
8.868125938685756 -1.6775829875969976 2.4347926809494824 55 79 41
8.87913997628516 -2.133772374086757 2.2742784756863426 55 79 41
9.224907575484643 -1.9990150932393855 2.390630986940583 55 79 43
9.174142374088785 -2.750616858884595 2.2473072418029307 67 91 51
9.449612734263953 3.1002163665536973 2.3654907333803874 53 77 34
9.692272290881025 -2.9186436508409863 2.2050883289752194 65 89 46
10.19682249913558 -3.0465025491491704 2.293419164052831 57 81 38
10.378602797154771 -3.0574864326781266 2.1572594590304606 56 78 35
10.34254218505537 -3.0661998845335643 1.941178947403766 51 72 27
9.531149124432519 2.9513238783351246 2.356813697236619 54 76 35
8.911659280324425 -2.797757207861674 2.004342441118415 84 106 65
9.541246657004246 3.1056457025552326 2.216784241608605 56 78 35
9.396178510348545 3.1098158836253713 1.980599948943463 52 74 30
9.549498677371561 -2.943814743971176 1.9736360351246902 66 88 44
9.532945953545148 -2.55560970724257 2.356624995255868 62 87 49
9.532945953545148 -2.55560970724257 2.356624995255868 62 87 49
9.266609321860136 -2.6864622950286963 1.9866819321090239 51 72 33
9.71377745460927 -2.6864622950286963 2.0809929632107633 62 86 46
8.95152732117564 -2.628523801719166 2.129318191229019 60 85 47
10.039852244294964 0.2376721768093456 1.8475997092009675 34 53 13
9.371236199069632 1.382482409701089 2.2305328488101934 48 65 27
9.320803703180323 1.135102171033889 2.1047470423718626 49 64 28
9.51484304399786 1.207351827703841 2.358531050117437 48 66 27
9.532811587185067 0.8613774549492169 2.0916484057267755 46 63 26
10.120523923089522 1.1823281693896959 2.0586397587902687 44 59 24
10.166990248021305 1.4047992029150762 2.1711535951363654 45 62 27
9.619217911840044 0.8770277442160789 2.3476884080847515 46 63 25
9.7399744805581 1.480680389709134 2.6853496070232232 53 73 31
10.552328751472968 0.940955820961533 2.747566270349375 49 71 30
8.90443384597892 0.41721346713949664 2.004718106675495 48 66 28
10.508467509312547 1.4224218160515447 2.039150228952214 45 61 28
10.02057088044789 1.0615824815568546 2.631248073207934 47 69 27
10.130318773284065 1.7430895815191119 1.9493266232021162 47 64 27
10.336875229210856 1.8455188883054152 1.941391834682781 46 63 26
11.266989814081356 2.5244746774744784 2.6155516532036227 51 74 32
11.561022001699264 2.579979076250698 2.763322003114241 51 75 32
11.4727968569973 2.756750305414475 2.585432044568609 53 74 35
9.191878448035599 -0.3535818540978313 2.113060246907333 40 60 18
9.589357990031552 -0.31014237166895176 2.5107518303515794 50 72 31
9.460624158351777 -0.13401617724672849 2.5296267078993857 47 69 28
9.579956901460974 -0.3143050904081061 1.9722815545124814 39 59 16
9.187950949350547 0.0326387008620365 1.9904660558273288 43 64 24
8.870237912361231 0.1707787730476179 2.1350551988725552 46 66 26
9.514498217024311 -0.2295844262244827 2.2189053845308306 42 62 22
9.212536015835397 -0.08637797471195122 1.989275681265237 44 64 21
9.362588411783657 -0.52818126434793 2.2312495101957786 44 65 21
10.94213180894177 -0.8955811182454316 2.234840844365028 48 66 21
9.839994620601676 -0.720224426688569 2.325862646366986 51 71 30
10.357503141629387 -0.8159855170185285 2.279821746647373 48 68 25
9.80910111249756 -0.164074367711528 2.671194055281153 48 72 31
10.538410839639733 -1.4132592724645248 2.14721692171477 60 80 40
10.486080277214013 -0.9929424004610127 2.269350069642381 52 70 28
9.635006844085007 -1.5208540640379873 2.209468069545208 62 86 48
10.582671047447057 -0.9171419754246507 2.3916605072409682 54 74 35
10.529269627443885 -1.2712459472504207 2.265910230245445 61 83 43
10.579358802020057 -1.0544628331985164 2.144702864547939 49 69 24
9.080257349148601 -1.489265850294113 2.5921343862557293 57 77 40
10.720802802216221 -1.175964650725076 2.524533558498952 55 76 39
10.523588432793892 -1.214648408801973 2.7541876790453923 55 80 42
9.946783281064151 -1.489265850294113 2.644660465298057 56 79 44
10.445358857110913 -1.2357694717447605 1.7385181129111964 44 62 20
10.093110539802698 -1.3302120791631384 1.4460028198167443 42 60 20
9.442344945553712 -2.835076684024568 1.8656243344949508 63 87 46
9.644608980922412 -3.0661998845335643 1.5442200171155116 52 71 27
9.828548220390365 -2.6397669861954096 1.5447175010954224 54 75 37
8.909692711328209 -2.6864622950286963 1.883830610868563 51 72 33
9.530220682650004 -2.4967624941530357 1.543900953390672 56 75 33
9.592950569395295 -2.3477709236927367 1.7535826172812912 56 76 36
9.555759016096005 -2.4967624941530357 1.648703788084457 54 75 36
8.932920551025857 -2.2662938174781058 1.7672583764753766 57 77 35
8.989108954738938 -2.063817694796464 2.1267077699414765 53 77 39
8.974646886780505 -2.1720290222827963 2.001095920008558 55 76 39
9.544424281211718 -1.6618018112561073 2.3554220619263817 56 81 43
8.256028305644382 -2.4622253775495286 2.34018909492497 58 81 45
9.650444641470221 -1.6775829875969976 2.5021361868580674 54 78 40
9.208756424388563 -1.7767117724165322 2.1119563203308003 62 86 46
9.98400466259964 -2.943814743971176 2.0659094510776295 71 93 50
9.622006577341445 2.975825259797602 2.2104716080244016 53 75 34
9.449612734263953 3.1002163665536973 2.3654907333803874 53 77 34
9.473518777252524 -3.0322319871028043 2.362923269619325 58 80 39
9.375771714492766 -2.797757207861674 2.101284296239798 70 94 53
9.779841623692784 -2.835076684024568 1.9636203311390248 71 92 53
11.317130595575888 2.918464291018942 2.607970289495185 53 75 34
8.7381112101658 -2.4418285138260845 2.144654396046575 55 76 39
9.846672651401413 0.7041445536474996 1.7488216221145922 40 54 27
10.512527757766648 1.436682168317114 1.7374364046550397 44 61 30
9.481390383954212 0.6200670584752577 1.8643739897160887 42 57 24
9.66809388974876 1.1458992135728068 2.499685581071741 48 67 26
9.318613894889209 0.5245523092191532 1.9842185633950644 47 64 28
10.25364202276385 1.0281661813107512 2.1653790217100517 49 65 28
9.109430851093663 0.7724227803952505 2.404312885369945 45 64 25
9.191921529294989 0.4737081269832058 2.2457552134409684 42 62 22
9.376955879859954 1.497699965752974 2.542457550108516 51 70 29
9.06800658504932 0.2986398272812874 2.1213113452006787 46 65 26
9.065507030326732 -0.374934820432309 2.5947972456776407 53 75 34
10.530933757540673 -1.2298870442393977 2.3969498889634644 60 82 41
10.2217041401429 -1.1032478966093626 2.597131452331279 54 75 38
9.400697683580576 -0.6052046693557755 2.370806146607467 53 75 34
8.903856654625455 0.06234497278995933 2.6253968721702643 46 68 27
9.074465977228344 -1.5208540640379873 2.1208744782509723 64 85 46
9.790588528874782 -1.3038708345058379 1.963165540558288 52 72 30
9.503203978321064 -1.5265693839882406 1.9757129118204344 61 81 41
9.291715509021193 0.042849342102926964 2.3829593132600944 44 66 25
9.40457844303094 -0.2112564254352337 2.764473354877131 51 75 32
9.236655410028579 -0.8331663942537734 2.5650778520640447 55 77 38
9.400697683580576 -0.6052046693557755 2.370806146607467 53 75 34
9.307835135642234 -0.5561072733955135 2.5534206162962985 54 78 35
8.88050820438884 -0.6778378608111852 2.630048694200989 54 78 36
10.31385543727792 -2.771832844606551 1.5459448707154824 53 73 34
9.203559141735932 -2.943814743971176 1.8735127820512947 78 101 59
10.664592705045084 -3.0732799316610815 1.640589539009652 50 69 26
9.622006577341445 2.975825259797602 2.2104716080244016 53 75 34
9.330956959196985 -2.2490270933008865 2.2338856296580287 54 78 39
8.993006929651655 -2.2235990717527927 2.418683055830725 55 76 39
8.257801188512499 -1.6999487774468294 2.5263742586270226 57 77 40
8.949569512745093 -2.5211394921862915 2.002382407345343 55 76 39
8.85379209375975 -2.55560970724257 2.2767094984115657 56 79 42
9.660417481439673 -1.8062752731866434 2.343504163604234 55 80 44
9.837458752748393 3.1098158836253713 2.0739709276330696 53 75 30
9.420220156330132 -3.0574864326781266 1.9794915751139954 55 77 33
9.602079734013296 -2.886290585526442 2.3494446567531 62 86 45
9.155172471466765 1.0758696311704827 2.2489720120149705 49 65 27
9.218866538992595 1.509318893088098 2.3913333023909447 49 67 28
9.831207226671033 1.2900134879874732 2.074320973130038 44 61 25
10.28167467996658 1.3189556469455865 1.9434787321370752 44 61 29
9.48269643824687 0.6411877529556359 2.5263180651560297 46 66 23
9.64826223238901 0.5913389623700508 2.7051173505727926 48 70 27
8.683097131294923 0.19687974607692463 2.29358941106175 44 65 25
10.720802802216221 -1.175964650725076 2.524533558498952 55 76 39
10.981932476262699 -1.2006352268520504 2.1211804845905577 54 72 30
9.168410306326773 -2.4280016615586737 1.874710325496732 53 74 35
8.95152732117564 -2.628523801719166 2.129318191229019 60 85 47
8.992846530454779 -1.8455017948415622 2.418703273389338 55 79 42
8.849832800845885 -2.3462853763617213 2.0075789114101936 55 76 37
8.885032278844541 0.342055822551813 2.2737160687386218 45 66 25
10.200518804017989 1.7634287751512636 2.1689048790883767 47 66 29
11.798510606359676 2.405518931294698 2.7155274442835453 51 72 32
9.745668448964981 -0.3535818540978313 2.2010633546193015 41 63 19
9.218866538992595 1.509318893088098 2.3913333023909447 49 67 28
8.99034404963043 0.28263968904158254 2.6086910132693095 45 67 26
9.975783179947788 -1.8970155348439368 2.184336459064324 57 81 42
8.724175087715382 0.23222925056983745 2.45433918055062 44 66 25
10.2217041401429 -1.1032478966093626 2.597131452331279 54 75 38
9.188290448055076 -2.6895140009155343 2.3949103825039844 72 97 59
9.646812320216785 -1.650075907659299 2.2085597496424576 60 84 44
