19.63894304882447 1.248277577429584 1.171064481114877 68 73 48
12.68580091959282 0.26290045446054916 1.279530810846864 53 60 23
10.544105348122825 0.7467381172388032 1.6046687571521077 47 57 15
10.847171328654357 1.0449967911232103 2.087330463754742 49 59 13
10.995788330662696 1.1415503874728232 2.187241480575171 53 65 18
11.471055777092689 0.5334516570647193 2.0567015433956306 50 61 21
11.863268514589906 0.40369849962336557 2.0393195656532157 50 60 20
12.19867271888095 0.4479479958786937 1.3524086777150837 51 61 23
9.57894228303316 1.280684380508092 1.503628420935782 41 49 5
10.0254625869395 1.1836445338979265 1.4061797371211162 44 52 8
11.411299227058866 0.6865509151566248 1.4263217025750101 49 59 21
11.192903208059747 0.8159093229739188 2.069872427913296 46 58 15
11.121121194045127 0.7407479926009877 2.179278573310161 50 63 23
11.24424748184968 0.6724332756408238 2.067385021907044 52 62 25
11.536201351434718 0.5640642021064188 1.515037324046378 50 61 25
11.846471435056715 0.48727481369692355 1.947434227250485 49 61 19
9.977885607707641 0.9581481000722825 1.6065917311010436 47 55 12
9.52913618225997 1.0449967911232103 1.7136965759274476 47 56 12
10.822544046210417 -0.18702681650569825 1.985144696462298 58 68 35
10.958460985695147 -0.2078591804856647 2.1896570744749164 69 83 42
11.418962257937945 -0.3437244782598144 1.5144642401668973 54 62 33
11.17091696873417 0.11840417995506827 2.070945597107792 54 68 29
10.768821004145938 -0.5895384169301067 1.7914634482715726 54 64 33
10.852133324912709 -0.07828605926755884 1.6961770526423139 49 57 25
11.270868183251187 0.2861294164342904 1.6914957131388788 52 63 26
10.993554046171507 -0.7933585391411011 2.0797838767043233 67 81 50
11.032522450853573 0.19839553345930566 1.6941164494795191 52 63 26
10.33224592881006 -0.7242828887373634 1.605363574555837 50 56 32
10.726941733519885 -0.37593295430355983 1.7923393067120508 49 58 28
10.942662329636692 -0.41442004345313543 2.0823810273859067 72 82 53
10.822544046210417 -0.18702681650569825 1.985144696462298 58 68 35
11.109580972616754 -0.25883151953970435 1.602944046551147 52 59 30
11.170136489737576 -0.31459443305770063 2.176224817661647 74 84 56
10.877638358216013 -0.4615955093621346 1.6036297724864708 49 58 28
10.881205523881645 0.10746240843141502 1.6958403034402736 52 63 26
10.820569101360459 0.014714742798286409 1.6965447326327265 51 62 26
10.257374956532082 -0.6469317891156979 1.9042253507762479 65 74 48
10.803689329403827 0.01808361998787593 2.199897303725164 69 82 45
12.255203700926884 0.5531592048137964 2.4395418765863206 68 83 42
11.907634667034696 0.6536382927001174 2.34875378172273 58 72 27
11.619801537189208 1.0899769906158514 2.3734620257179673 59 73 28
11.907900140641805 1.3331311751694128 2.4747656387927894 65 79 34
12.160837937207889 0.9153989754764611 2.448766831120777 60 74 31
11.807541748870092 1.025710081193587 2.485639449531485 63 77 32
12.355738639630859 1.1529656018736687 2.5648456794093146 69 83 37
12.58387525839155 0.82103669834337 2.409201183652733 59 73 28
12.58387525839155 0.82103669834337 2.409201183652733 59 73 28
12.614761770029249 1.025710081193587 2.5340076068412136 66 81 36
12.173591916404238 1.2963215121714826 2.5882699659905586 69 83 36
11.303696412417835 0.9864784355761259 2.2795085999190077 57 69 26
12.913255627703052 0.7325632984282563 2.5015172687114426 67 81 36
13.020386664851278 0.9441939975231249 2.630589068218848 68 85 38
12.769594031076812 1.0833998587252378 2.6667946018743267 71 89 41
12.593434580557766 1.2464918970695251 2.694773159381223 71 89 42
11.320494520660075 1.2474305489708382 2.278237185093251 57 69 22
12.54736039694281 0.6274032668342102 2.54177656183126 68 84 42
12.657588669513686 0.8390711312990967 2.684309018643438 68 86 42
12.39946021981912 0.9891481902222969 2.728625165670082 70 90 46
13.15267459197686 1.1757007922413194 2.7919969927461694 67 87 45
11.187489772611862 0.438508359879841 2.4143386312175448 70 88 46
10.889459928486643 -0.26701267121051564 2.4456461951782607 69 87 47
10.889459928486643 -0.26701267121051564 2.4456461951782607 69 87 47
10.765512319892261 -0.12439811906078796 2.4595444365824646 68 86 46
11.816423511199122 0.38766091350278753 2.356387554450019 72 86 47
10.70747497453042 -0.10844850321232502 2.32828385691568 69 83 44
10.947328872225373 0.3101190037798633 2.4393421507516333 68 86 46
11.62177746477822 0.24222531106629294 2.25627432833327 68 82 43
11.589303111938339 0.2721029658223904 2.376189970805946 71 86 44
10.73693886922463 0.14861979180483417 2.325691929951455 71 85 46
10.733693375785792 0.023452741695558478 2.4632031785248962 68 86 46
11.399495672302564 -0.5184807811078082 2.3936801138363557 69 85 48
11.102451060846006 -0.3993654839387888 2.4229870372359534 68 85 46
11.08685759103669 -0.6233952424463245 2.2963987604616696 69 85 48
11.55865447482068 -0.7145937810157135 2.2607484097585595 66 81 46
11.102451060846006 -0.3993654839387888 2.4229870372359534 68 85 46
11.08685759103669 -0.6233952424463245 2.2963987604616696 69 85 48
12.4920235414065 0.4277045240740929 2.712027735126111 68 87 45
12.70301421453546 0.5882920971914978 2.6770946546446424 67 85 43
12.365218677846563 0.7020145218453053 2.7349914271068063 69 87 46
12.70301421453546 0.5882920971914978 2.6770946546446424 67 85 43
12.096240865359238 -0.4582892623965922 2.7901988026932547 77 97 59
14.46227927217744 0.0908460532805329 3.0209075059410955 68 91 56
14.50770277204799 0.5887926963576392 2.997371645293727 68 89 50
13.233782096251396 0.033354763942748396 2.775555883883631 72 92 53
13.043959066576464 0.8572355695901945 2.8156261993588814 68 88 46
14.50770277204799 0.5887926963576392 2.997371645293727 68 89 50
14.485910526122185 -0.4520734576727047 3.008128865710091 71 95 57
12.288332885186302 -0.6505872697648645 2.749776363621113 78 99 62
11.232303700643278 -0.701262273535901 2.409866922480515 70 87 52
11.792577041872097 -0.9655312282626392 2.358412547186263 73 90 56
11.909793083186678 -1.1906488138741613 2.474563734197275 76 97 63
11.736988110993138 -0.5406772743389656 2.651801957256852 76 96 59
11.755389385251089 -1.0567892053633776 2.6488737890416107 76 97 62
12.201363105130437 -1.1330898049889468 2.5845960474856295 76 97 63
12.00395616567329 -0.8897895584412708 2.4646638505480967 74 91 56
11.62732715469904 -0.5903406962631116 2.50604975096017 73 90 54
12.018359785842598 -0.6817680985489917 2.6095487730814124 75 95 59
11.14131944255437 -1.1906488138741613 2.4190072250303674 77 98 62
12.645289714441311 -1.0567892053633776 2.686289576689684 75 98 63
15.471732250955023 1.6837775591085589 0.8122126789220531 23 25 2
15.437304596745205 1.505111132146701 0.8100969015365821 43 46 9
14.758011336798976 1.5150727340493597 1.1038937440513568 8 10 0
14.970596566183996 1.6745542767971153 0.9553464080358579 8 10 1
14.93501375676932 1.5105001128754194 0.9536608207499759 25 28 1
8.523312736749702 1.4810682737813246 1.8509941700460468 46 54 12
8.85217670246821 1.4810682737813246 1.9597695030772124 45 54 9
9.559911933049863 1.490821834238886 1.290689860439071 41 46 6
8.965753029989852 -3.0080110424648563 2.3589335941472873 73 93 50
10.02091625992386 -2.922330633205214 2.1348193946303016 71 89 44
9.886085204166617 -3.04007520847931 2.143470433443484 69 88 41
9.691067547543344 -3.0262199625783786 2.2862683655692444 72 90 46
8.927521793331447 3.1163892145660133 2.3632488959119042 70 89 45
9.655708580248449 3.119856701435167 2.289455365127382 69 87 40
9.828574272772835 -2.8933093985350298 2.2741726593704574 74 92 49
10.403684594479051 -2.9453559846456945 2.0029222142075267 73 89 44
12.92186666635185 1.613970711602982 2.6443568946120672 70 86 42
12.11579665543993 1.773563652597541 2.5960416921037397 73 87 42
11.428491547398709 1.9234019875867072 2.5300281530254645 73 87 42
11.803819236830625 1.468614638683685 2.4860493148041423 66 81 32
11.172580896534319 2.1352721819720166 2.563496426642673 74 90 44
11.639442023582301 1.811489970772529 2.6677615408372146 74 90 45
12.47632638909945 1.6223275405848114 2.7147825180419654 68 86 42
10.7475879114324 2.236626309209724 2.6272615289070735 71 87 41
11.009891998782093 1.4810682737813246 2.302616800988333 58 70 21
12.116548162551412 1.3960748859749386 2.7856553201286642 67 87 43
12.05240497907757 1.613970711602982 2.6047695697335884 74 86 43
13.040589501820262 1.6346904847662171 2.8163914798040697 69 87 43
13.040589501820262 1.6346904847662171 2.8163914798040697 69 87 43
9.420665925972724 -2.9467149419533585 2.661823342505411 76 97 58
9.420665925972724 -2.9467149419533585 2.661823342505411 76 97 58
9.38428817036323 3.1045824105187756 2.669327695739701 74 95 56
14.400474526455477 -0.8538644337808312 3.063946089741414 75 98 65
14.422395866788726 1.0058605514985703 3.046389987727645 72 96 58
14.360419470858238 2.60577352490745 3.120046173393251 77 100 66
13.503465342206647 -1.1916234266382826 2.9942172165852177 80 105 71
13.486127652682653 -1.7142266899568128 3.0031458540771814 82 107 72
13.503465342206647 -1.1916234266382826 2.9942172165852177 80 105 71
11.660678477233802 -1.753763962401136 2.502182435680365 78 101 65
11.594798822452592 -1.6096586292863688 2.509862865329428 78 101 64
12.792636929854245 -1.44581551524447 2.6633021716414342 78 101 69
12.774334520253737 -1.6163022981150497 2.666073157342288 80 103 69
12.477403372204686 -1.753763962401136 2.5500249201092657 80 103 69
12.41094691098377 -1.8265375149708156 2.726517941354652 81 104 71
12.83416087056812 -1.7842068003640514 2.657098557125881 80 103 70
12.415858089412477 -1.6096586292863688 2.5574443113630085 79 102 70
9.803933421719675 -2.5539114288368405 2.5913960816301667 107 128 91
10.139092294770588 -2.4084392828620618 2.539662124643846 103 125 89
12.043070546250851 -2.016158297307516 2.4606322689291655 80 103 68
12.043070546250851 -2.016158297307516 2.4606322689291655 80 103 68
11.0530247720072 -2.201523864346742 2.428114970824905 84 105 70
12.943323790661307 -1.6399281931931602 2.8394709616635216 79 103 70
12.961387577478863 -1.3820345552968427 2.835030873761333 77 101 68
13.675805580386859 -1.318064362838898 2.9252760460995297 80 104 73
13.292164983853745 -1.420359080513828 2.7642631944165603 76 100 67
9.086629569965854 -2.9830344172507215 2.5143699602481537 79 100 61
9.732971576518905 2.958854833874104 2.4278135402092236 70 88 44
9.086629569965854 -2.9830344172507215 2.5143699602481537 79 100 61
9.83783420181585 -2.8556747940691327 2.415592724854098 82 102 60
10.048138699750485 -2.8050988571564157 2.5529676700804487 90 110 72
12.0160518245905 -2.2267602888111404 2.3399028441709926 80 103 68
11.84075132346926 -2.312279621797561 2.2412430729382646 87 108 74
10.59873838615483 -2.5112827678096146 2.479159690104403 88 110 74
10.073086111355446 -2.7157795542676744 2.3896607198281115 89 109 68
11.674522054546422 -1.3237823299357008 1.8624710606570638 70 87 56
10.76348797567806 -1.1264121114664878 2.2026180861324054 69 86 51
11.370598939694144 -1.079236673509515 2.061373327484059 67 83 51
11.51246087623886 -1.1712172555043079 2.1557871996491613 68 88 51
11.408659223404596 -1.0432695447601408 1.5144133133264364 62 75 53
10.868025021313471 -0.8612725126574878 1.8848280568977245 69 83 56
12.379998984780809 -1.3439020806124993 1.7623605112850775 62 78 58
13.029441559043597 -1.4365851873728814 1.675140931298397 61 75 68
11.534241540053209 -1.2998430329484416 2.0538105421170747 72 90 54
11.822985689177132 -1.2709197004286092 2.2424351987314743 70 91 54
11.094994753586999 -1.2353427646559942 2.2957483934434015 73 93 57
11.74882049184393 -1.027686058950095 2.2474632855850807 71 88 54
11.695864993968387 -2.020322933957142 2.1454365031789995 77 101 65
12.439175104455327 -1.9456618298722408 1.9286570771763683 79 100 61
12.526579214865759 -1.8633882311097534 2.0126961354176283 74 95 56
12.330558497448777 -1.5088956035568557 1.8465346369612634 72 90 66
11.739549646392806 -1.4963592785504491 2.143028802569705 72 92 54
11.719602754206178 -1.5978198523340394 2.1441254940947747 74 94 57
12.31156918005507 -1.593257545108791 1.8469710785503757 73 94 63
12.515544786697582 -1.7598655450931913 1.84235500851279 71 92 59
12.163275758003016 -1.8912067203450489 2.1207478469258576 75 96 60
11.990127923346696 -1.97980226569423 2.0339719756553585 82 103 67
12.734634824921702 -1.839905864203065 1.8375678777700692 71 92 59
12.159402172547614 -1.6870404695578698 2.0270315269931007 71 91 53
11.70780778787913 -1.5032029236238622 1.9521230022172191 74 94 57
12.934388665754868 -1.513704858493575 1.6759105704692319 52 64 59
13.110858042311143 -1.7454525822479932 1.6744906269611775 79 92 72
13.320159962324416 -1.8198399055904657 1.6728555341681715 82 96 70
13.059274303588422 -1.5915090283729822 1.752282319883369 79 92 75
12.096500352308958 -2.107950190452345 2.1241354816607654 76 100 62
11.881637158461036 -2.244945944251632 2.135344948401464 81 102 65
20.858035631304645 -2.4732866743560016 1.6840443858281393 17 22 0
12.445379621715173 -2.244945944251632 2.203280231135422 85 106 69
11.957230762352161 -1.9246266433259969 2.233541809862742 79 102 67
11.973112006171483 -2.1621464889782134 2.2325069474536114 81 105 69
11.572002500500492 -1.7130128675032663 2.2597968708519707 72 94 59
12.495094505934299 -1.797092633661279 2.2003672057793593 72 93 56
11.505615109819816 -1.6008743571726547 2.2645587287408824 72 93 58
11.916604291620066 -1.9654260101770393 2.3480124713695565 78 102 64
11.916604291620066 -1.9654260101770393 2.3480124713695565 78 102 64
11.530018742851489 -1.730856858387213 2.3815565724800103 75 96 61
11.463388216152806 -1.6047070684834692 2.3876914434864327 74 95 60
12.083537618741948 0.09836585338098706 1.35029360085833 51 59 25
10.625080232901471 0.7467381172388032 1.6988709706925698 48 59 21
8.990493287659213 1.3613637503100326 1.9534720658847409 44 54 8
10.995788330662696 1.1415503874728232 2.187241480575171 53 65 18
10.439245052485743 1.0937013843227998 1.412760713322524 47 55 9
10.88186062461858 0.9581481000722825 1.9827485658930062 43 53 7
11.597567748721842 0.6865509151566248 1.3408911663958967 48 58 20
11.113463490463053 -0.6645260713779436 1.5129140151024125 44 52 22
10.400680196108793 -0.7145937810157135 2.1118865188488067 71 85 52
10.450083199699733 -0.6233952424463245 2.2247495462191846 69 84 48
10.012580383824625 0.02042121423996381 2.2586881903970455 70 83 46
10.681637013737529 -0.28407498285650684 1.8905005013972396 52 61 33
11.31836136099165 0.21816518754442374 2.063840120559061 51 65 26
10.975102720523632 -0.16995312961810266 1.6947649545803076 48 56 30
10.85807639608673 -0.7242828887373634 1.885125647159145 69 80 52
12.153087977633433 0.44431899708845374 2.2210240031400095 59 70 30
12.500388015869383 0.5881798161169485 2.303048416466588 56 68 23
12.913255627703052 0.7325632984282563 2.5015172687114426 67 81 36
12.173591916404238 1.2963215121714826 2.5882699659905586 69 83 36
12.355738639630859 1.1529656018736687 2.5648456794093146 69 83 37
11.85916287751702 0.82103669834337 2.3527887222342114 59 73 30
11.721497727505685 0.7407479926009877 2.249336867370209 53 67 26
11.8551899261045 0.5881798161169485 2.2402776588949673 51 63 22
12.373668871406014 0.7407479926009877 2.312293464621169 54 68 24
12.946047725013061 0.9153989754764611 2.498123473061984 64 78 35
12.122037063614973 0.4932910407868724 2.331474277876377 68 81 38
12.54736039694281 0.6274032668342102 2.54177656183126 68 84 42
12.98778226297029 0.7207096111827499 2.635084531932851 66 84 40
11.121405442144908 1.3613637503100326 2.2936466239479354 57 69 20
11.338070849132153 1.2059481592051318 2.3995384028664026 62 76 31
12.769594031076812 1.0833998587252378 2.6667946018743267 71 89 41
11.848275377305448 0.3469465761279864 2.2407396034105824 65 76 38
10.70747497453042 -0.10844850321232502 2.32828385691568 69 83 44
10.890260522921498 0.2721029658223904 2.3125279823673086 69 84 45
11.62177746477822 0.24222531106629294 2.25627432833327 68 82 43
11.046184154671863 -0.35215724746841304 2.299669663634808 69 82 47
11.980849096660654 -0.3108369919039039 2.6148916607783157 72 90 52
14.485910526122185 -0.4520734576727047 3.008128865710091 71 95 57
13.594539838916965 -0.8156104804824378 2.9544139850923163 82 106 72
12.871555109884662 1.0686605828972682 2.8579076858578176 68 88 47
14.50770277204799 0.5887926963576392 2.997371645293727 68 89 50
13.043959066576464 0.8572355695901945 2.8156261993588814 68 88 46
14.50770277204799 0.5887926963576392 2.997371645293727 68 89 50
13.594539838916965 -0.8156104804824378 2.9544139850923163 82 106 72
12.201363105130437 -1.1330898049889468 2.5845960474856295 76 97 63
11.550362834259431 -0.7966834311460582 2.5151392532640546 74 93 58
12.467374012935956 -1.2269176052827675 2.7163642452664702 75 99 64
11.698236125495542 -0.7947337880517391 2.3665462591879702 70 86 53
12.178304827357774 -1.071230405193934 2.4470408010932077 74 94 58
11.427901649242717 -1.071230405193934 2.3910045945178298 73 92 56
10.938969866368385 -1.3225933972108366 2.4402457306091803 76 97 63
12.55735669325019 -0.799662280817455 2.700807473812602 77 97 61
12.288332885186302 -0.6505872697648645 2.749776363621113 78 99 62
13.76573991677399 -1.0229733402097416 2.897320909931332 80 103 69
15.46868717357015 1.4986661613399077 0.7186787669065197 42 46 5
15.422141097427629 1.5946341108043325 0.8091606628380559 37 39 10
14.758011336798976 1.5150727340493597 1.1038937440513568 8 10 0
14.363177611324234 1.5926740912230457 1.009695461043556 10 13 2
9.837876800141162 1.8773894004717235 2.2733710051851235 67 80 33
10.345801674004788 1.6033948196359413 2.2324982534217592 58 70 24
9.33484495680316 1.724757894940857 2.056414402919457 57 68 27
8.274342902094041 1.6033948196359413 1.7355520366977508 44 54 12
10.27387809529763 -3.050967604672053 2.008757139655209 70 87 39
10.02091625992386 -2.922330633205214 2.1348193946303016 71 89 44
10.403684594479051 -2.9453559846456945 2.0029222142075267 73 89 44
9.691067547543344 -3.0262199625783786 2.2862683655692444 72 90 46
10.956940430357147 -2.9640512214880252 1.8821936065320917 72 87 42
10.833764884380258 -3.059753795456486 1.8858552917804838 68 84 36
12.05240497907757 1.613970711602982 2.6047695697335884 74 86 43
12.05240497907757 1.613970711602982 2.6047695697335884 74 86 43
11.79019395245936 1.9847393445295238 2.643403267843707 74 90 44
11.628620652392488 2.236626309209724 2.6695794872634018 73 90 44
11.172580896534319 2.1352721819720166 2.563496426642673 74 90 44
13.058518742135696 1.3960748859749386 2.8123436817590424 67 87 43
9.562061938366002 -2.7339826664485636 2.634136829419043 97 118 81
14.422395866788726 1.0058605514985703 3.046389987727645 72 96 58
13.486127652682653 -1.7142266899568128 3.0031458540771814 82 107 72
14.40616414437376 1.796619330722913 3.059025473477588 74 98 60
14.40616414437376 1.796619330722913 3.059025473477588 74 98 60
11.612641328955661 -2.128318245648411 2.374100494372809 82 105 70
11.594798822452592 -1.6096586292863688 2.509862865329428 78 101 64
10.139092294770588 -2.4084392828620618 2.539662124643846 103 125 89
12.043070546250851 -2.016158297307516 2.4606322689291655 80 103 68
12.774334520253737 -1.6163022981150497 2.666073157342288 80 103 69
12.774334520253737 -1.6163022981150497 2.666073157342288 80 103 69
13.658686653145535 -1.6641301224624114 2.9310554084525915 82 106 74
13.714655807022337 -1.9898730222929604 2.9127426233172105 83 106 75
13.27455132101508 -1.6256831417537445 2.767625455282987 77 101 67
9.732971576518905 2.958854833874104 2.4278135402092236 70 88 44
9.94549371606712 2.9251452184482294 2.5686118860504648 70 89 46
10.59873838615483 -2.5112827678096146 2.479159690104403 88 110 74
11.84075132346926 -2.312279621797561 2.2412430729382646 87 108 74
10.278578372216055 -2.6466970039271445 2.520182957079982 101 121 83
11.392650820802514 -1.2081827525437148 1.9632396095547846 69 86 51
10.787221514281132 -1.2081827525437148 1.7910808265243459 67 84 53
11.338906063662607 -1.396406170052488 2.0628668456458747 71 91 53
10.540797441387816 -1.1712172555043079 1.9969312905740744 68 86 52
11.81273466990805 -1.4122092305982106 1.9485640700060103 70 88 54
11.54703674798226 -1.2391215572956276 1.6885953714395492 59 76 46
11.01995408147313 -0.7923364414847256 1.6032055998487191 58 67 41
11.609847017511255 -0.9394471382501028 2.150241616155864 65 81 49
10.8917845828128 -1.3531857006707166 2.3123997785572667 74 95 61
11.68780672385537 -1.5953284271322397 1.9528092360016427 72 92 55
12.303784946512648 -1.77683452832287 2.021280527818915 72 93 54
11.70780778787913 -1.5032029236238622 1.9521230022172191 74 94 57
12.526579214865759 -1.8633882311097534 2.0126961354176283 74 95 56
12.80581175002596 -1.9165684333404855 1.7559156151554607 75 96 61
11.719602754206178 -1.5978198523340394 2.1441254940947747 74 94 57
12.934388665754868 -1.513704858493575 1.6759105704692319 52 64 59
13.117801193517169 -1.6690637008662401 1.7514636476278609 78 91 72
12.381245108408676 -2.0620929468450857 2.0182568839263677 81 102 65
12.417228651758952 -1.8520936004832433 2.4242521918646176 78 99 63
11.525932337083992 -1.487977243956594 2.2630935829365093 72 93 57
11.505615109819816 -1.6008743571726547 2.2645587287408824 72 93 58
10.77789563016242 -1.477474112204045 2.322122873565518 75 96 61
9.464355536151146 1.3836713942905807 1.39632286902475 43 49 8
11.550810442286052 0.3137132517132282 2.053058403045905 52 63 26
11.111861587813147 0.01622617980877853 2.073852333109991 59 70 33
11.265457857319968 0.48727481369692355 1.781585101818234 49 60 21
10.837641953431852 0.8807299436842452 1.790039203456021 44 54 8
10.820569101360459 0.014714742798286409 1.6965447326327265 51 62 26
9.276350120581528 1.1415503874728232 1.8277095413720112 44 54 10
12.2199754238373 0.18187473211290334 1.35279553968012 50 60 25
10.581020919603636 -0.5593716621827599 2.1016758381070133 73 83 56
10.705035901745552 0.8807299436842452 1.4167162725367148 48 56 14
12.355738639630859 1.1529656018736687 2.5648456794093146 69 83 37
12.501369273910765 0.8282342062616299 2.5471774516953634 67 83 37
12.530501401290136 0.5334516570647193 2.198310373861928 53 65 22
12.355738639630859 1.1529656018736687 2.5648456794093146 69 83 37
12.217965319935738 1.1757007922413194 2.763959359189385 68 88 44
12.39946021981912 0.9891481902222969 2.728625165670082 70 90 46
13.32144084197194 0.9891481902222969 2.758756279247695 70 89 47
12.027348701297322 -0.9138923439663581 2.608280534120566 75 95 59
10.765512319892261 -0.12439811906078796 2.4595444365824646 68 86 46
12.100855166774004 0.8572355695901945 2.789160145519233 71 89 48
13.056243913061206 -1.1468498482519751 2.812853984440793 76 99 65
11.399495672302564 -0.5184807811078082 2.3936801138363557 69 85 48
10.832086703611612 -0.23381903465954312 2.317459982373312 69 83 46
12.441341577840841 -0.371084530100438 2.7210085362917535 73 93 54
11.645901701615095 -1.0020829640176048 2.5038906817939646 74 94 58
12.01687665075721 -1.2822698969484774 2.6097584726936036 75 98 64
11.14131944255437 -1.1906488138741613 2.4190072250303674 77 98 62
12.1747618909496 -0.4601614845131742 2.588114407640668 73 93 54
11.736988110993138 -0.5406772743389656 2.651801957256852 76 96 59
13.088043678816595 0.5240307582427405 2.8058040406398224 67 87 45
11.909793083186678 -1.1906488138741613 2.474563734197275 76 97 63
8.965753029989852 -3.0080110424648563 2.3589335941472873 73 93 50
9.114209204266515 -2.8556747940691327 2.3426876582995066 74 94 52
12.071801976648649 1.4521657449167755 2.6020756974179022 71 85 38
11.38827271630661 2.0697822345868193 2.71276031331964 74 92 46
10.625264546621063 1.9234019875867072 2.475965604803632 72 86 38
11.668011050099297 2.0584481193228634 2.5013378229954712 72 86 41
9.700458739567601 -3.0080110424648563 2.431691992768911 75 95 51
14.376702840454373 0.21197896575899328 3.0893473492448487 73 96 63
12.943323790661307 -1.6399281931931602 2.8394709616635216 79 103 70
12.105105357022556 -1.9408140193249546 2.597498473922182 80 103 70
11.8111593573916 -1.8906187294051837 2.4852415909709045 81 104 69
11.283677406709815 -2.016158297307516 2.404811233054197 80 104 66
9.048909045703443 3.111605814049468 2.5201436989327424 73 93 52
12.430229685839706 -1.4254047191642005 1.8442665751802902 67 83 61
11.060294422145168 -0.9954838743523674 1.879187321862223 62 76 49
11.027278950832867 -1.377148733942275 2.1852195031665715 72 93 56
11.172827984977399 -1.1224683093434273 1.783359364068842 72 87 59
11.382743332160636 -1.1264121114664878 2.2735702568160696 71 90 54
12.734634824921702 -1.839905864203065 1.8375678777700692 71 92 59
11.386010659974215 -2.1621464889782134 2.1631608906835664 79 103 65
13.458857075739813 -1.8198399055904657 1.7468368917616353 80 94 69
11.784784746980856 -1.6987288287259608 2.1405583440081957 72 93 57
11.463388216152806 -1.6047070684834692 2.3876914434864327 74 95 60
11.568204194949713 -2.0690175160093895 2.2600673406939076 78 102 64
12.445379621715173 -2.244945944251632 2.203280231135422 85 106 69
12.375680872224626 -1.821676060472358 2.312144580490445 75 98 63
11.529095491550807 0.36956652284997527 1.5150029217662042 50 61 21
10.750205107890404 0.8159093229739188 1.9881061494872097 46 58 16
10.943423665698205 0.6141128837418829 1.7878858435766867 51 61 24
10.89549303710176 -0.506208818987465 1.9822019151916743 67 78 46
11.142600682564261 -0.08629060194482606 2.0723349162306692 61 72 34
11.120799254746533 -0.5593716621827599 2.179298741328436 75 85 58
12.1747618909496 -0.4601614845131742 2.588114407640668 73 93 54
12.297124458091451 -0.9523322813191668 2.7480496602238347 77 98 63
9.333064262660493 1.490821834238886 1.3938427374996796 41 47 4
12.939960406689794 1.4521657449167755 2.641786534888373 72 88 44
12.097222912375534 1.6346904847662171 2.7899774358729434 72 90 46
12.495065319999881 1.4294470196722289 2.7114966277975032 70 88 44
9.700458739567601 -3.0080110424648563 2.431691992768911 75 95 51
12.618147951620335 -1.8906187294051837 2.533621770600737 81 104 69
9.665134129110116 3.1163892145660133 2.4359555923970553 71 92 46
9.454141020740858 2.876541895352792 2.6550621716027147 70 90 48
12.163275758003016 -1.8912067203450489 2.1207478469258576 75 96 60
12.512032917647536 -2.0229425175059648 1.8424331608550315 79 103 62
12.373633196905322 -1.6773016794993296 1.8455497918405577 74 95 64
12.330558497448777 -1.5088956035568557 1.8465346369612634 72 90 66
11.957230762352161 -1.9246266433259969 2.233541809862742 79 102 67
10.958460985695147 -0.2078591804856647 2.1896570744749164 69 83 42
10.864419961595274 0.13181234596103708 2.1958353358470957 68 82 43
11.590875186104785 0.36956652284997527 1.68814777718881 52 63 24
12.435582709902391 0.26290045446054916 1.3566346356423375 50 61 24
11.568000609825882 -0.8732812262756313 2.2600818443066264 70 84 53
12.53353128467305 -1.3225933972108366 2.543391897204747 76 99 66
11.344702129332793 -0.4610641541668949 2.2764139958142047 71 82 51
13.289575061462529 0.7020145218453053 2.7647552339236903 69 87 45
14.46227927217744 0.0908460532805329 3.0209075059410955 68 91 56
11.399495672302564 -0.5184807811078082 2.3936801138363557 69 85 48
10.794817805828107 0.170292429637205 2.4562081913662506 68 86 46
12.47632638909945 1.6223275405848114 2.7147825180419654 68 86 42
13.27455132101508 -1.6256831417537445 2.767625455282987 77 101 67
12.028963521763465 0.013460871827188818 1.349276552666908 51 59 25
10.835302725380513 -0.09611284609641363 2.197775668385618 70 84 43
12.094049071474018 1.2059481592051318 2.4554465337010405 64 78 33
9.367651330162792 -2.7157795542676744 2.316680016672563 79 98 57
11.612641328955661 -2.128318245648411 2.374100494372809 82 105 70
11.12005093506393 -0.9199217540778094 1.602913767800121 55 67 44
11.17091696873417 0.11840417995506827 2.070945597107792 54 68 29
11.757614118852185 0.895408188835956 2.246862737030093 52 64 21
11.881637158461036 -2.244945944251632 2.135344948401464 81 102 65
