13.314206818261953 1.0305301005131022 1.5582168160252212 16 21 8
16.111727211814166 2.3902671834619804 1.244298351750983 18 23 14
15.83611004739327 2.2976225224644713 1.3044967847151907 20 25 13
16.825886763976765 2.2185506538411506 1.5608423458295166 15 21 11
16.96409126824697 2.2185506538411506 1.4426773008813059 19 24 13
15.602801602645846 2.2976225224644713 1.3663681810243635 16 21 8
12.64283917890469 1.245726815754298 1.8787796456102652 17 22 9
12.112102851404417 1.1352298252272983 1.892750097042059 16 21 8
12.640115079057052 1.9500934761958253 2.0504018059309224 22 27 16
12.999912407465297 1.757117527340491 2.0360597842881614 22 27 16
12.474428608173856 1.919610510589803 1.7998602201133507 22 27 16
12.85041508097262 1.8646375594445501 2.1313985100841304 22 27 16
13.083938566726653 1.680955322406544 2.21259367248432 22 27 16
13.09790397108781 2.065048758438668 1.711166111666132 21 26 15
12.949537968103579 2.1724649248744923 1.7913142962988435 22 27 16
11.781437631068234 2.4605389998208724 1.556580113328066 19 25 13
10.170294852245645 -3.0842281006584296 1.5543278404855858 21 33 12
13.73897333518511 -0.04534747080502278 1.930223364857647 11 16 1
13.749973720196165 0.1190334513224515 2.0908323105787003 8 12 1
12.90162921500858 0.820378089257787 2.0398878160612317 14 21 8
12.606559681524285 0.9420628991326553 1.9641992735377145 13 20 7
13.259219102374988 0.4630216350402588 2.2998198329335526 22 28 15
12.189646490078424 0.8252775813136238 2.1658076828663737 15 21 7
12.822692802092513 0.8878352397305652 2.13275634972845 12 18 5
13.699322831923753 0.5028968851956455 2.1794274395501176 19 23 10
14.090177395356632 0.38667852116498486 2.160223559812745 19 24 12
12.810705326047058 0.6854278060948131 2.2286301285719556 18 23 10
12.89355700976533 0.20404543750104912 2.568355531116151 25 33 17
12.223450621221689 0.33930690889657994 2.5054576446266927 25 33 17
13.995079809560972 0.03842059684989283 2.2537873662770522 20 27 14
13.233897802542831 0.047093711443581536 2.4083077145953915 23 29 14
13.241324239256505 -0.05913351794506679 2.30102753797043 20 29 13
13.392656693645575 -0.053693325270059974 2.1954751490544786 14 23 7
14.709223787750076 0.1298885937266306 2.3029317183833005 21 25 12
13.24016925512639 -0.06579862529194509 2.407782066509824 21 30 14
12.822240179481696 0.06081802238819265 2.5770298358306056 23 32 16
14.060449068921484 0.1298885937266306 2.250010510084849 23 27 12
13.383029004803817 0.05308395176391599 2.513963500190793 23 31 15
14.196133176449457 0.21922757005152574 2.2423176968850083 18 21 11
13.92234438488193 0.04231759022964026 2.354969600135983 21 29 13
13.809385572459954 0.305154458338947 2.1738838620021093 19 22 11
13.653805828377743 -0.19840220414570764 1.85531166137803 9 18 1
13.300181707647676 -0.13282579380011872 2.0247578039759047 10 18 1
13.45588586131333 -0.21465735745632955 2.0191192366382102 10 19 1
13.768074297984578 -0.13282579380011872 2.0900796757030675 10 15 0
14.223191626187985 -0.284044481121885 2.4365895250396927 21 29 13
12.912858124087286 -0.22718028299179951 2.5660442274636006 23 31 15
14.139859250524767 -0.5285616194637902 2.4435443115350566 21 30 12
13.321715833954732 -0.17704281035076727 2.4010194981905957 21 29 13
13.47328037896101 -0.14490664147824103 2.191167406866033 16 22 7
13.21896334586846 -0.6840004009577764 2.409562709345758 21 30 12
14.153789801321475 -0.2565149992530725 2.338787327003102 20 28 12
13.525443005698103 -0.6979761519828954 2.282374604335029 18 27 9
13.763597424456998 -0.6183430576491771 2.3665422639863127 20 29 11
13.983145968511613 -0.47531261097661354 2.081309728494653 16 24 6
14.129162417620273 -0.6396677877351462 2.24609031521147 18 27 9
13.704020376266683 -0.3847754816052614 2.370990709893983 21 29 13
13.610290132893766 -0.5898008219067495 2.491299723653624 22 31 13
13.998792995447094 -0.4779302667856284 2.349536572388099 18 27 9
13.705136269948586 -0.34894975642414944 2.2711233066673504 20 28 12
14.440442593666084 -0.31901669776470626 2.22894275046004 19 27 11
14.143103504494128 -0.39973676959609616 2.157723149705544 16 25 7
13.998792995447094 -0.4779302667856284 2.349536572388099 18 27 9
13.31151041257942 -0.31901669776470626 2.1097974140381384 13 22 4
13.637088511880107 -0.7702081053042863 2.0127378602444708 16 24 9
13.508115658484122 -0.7085726723512765 2.1011151381800106 17 25 9
13.488498707273713 -0.8301137649930848 2.1019681009038296 18 26 11
13.43274368616688 -0.7682396757033934 2.193325163335043 18 27 10
14.183258115330531 -0.6561915256759658 2.073425525869377 16 24 8
11.792404002380177 0.9635936527921732 2.0881703935189053 13 20 7
11.726189366238934 1.182895375919539 2.0913867858498625 19 24 13
11.641911473534869 1.0953833567438587 1.998845339031718 15 22 7
11.37701814647315 1.242059298073759 2.6144417332451093 22 30 14
11.867088360309372 0.9531754356014838 2.5473156920027793 22 30 14
11.680729590839325 1.3266344083266295 2.4282236058676916 22 27 14
12.657765616316375 0.747171405468596 2.460360412963994 23 31 13
11.885727198995154 1.2904251024380409 2.5449990858395477 22 29 16
11.897646573134681 0.747171405468596 2.407404971037171 22 30 14
12.263158698061735 0.6468989569198166 2.5010863248064967 23 30 15
11.575695178984562 1.0306495484109734 2.43877303575399 22 29 16
11.575695178984562 1.0306495484109734 2.43877303575399 22 29 16
12.270162828925844 0.9031470342330885 2.263134271216307 17 25 9
11.503676991619628 1.1420137115038191 2.2067463857223797 19 24 13
11.452757379868947 1.0922348878776442 2.323888532260339 22 27 15
11.645100965628664 1.3546909181370612 2.3085157168681083 21 26 15
12.384989427648991 0.8317719848885742 2.3647966087461025 23 31 15
12.384989427648991 0.8317719848885742 2.3647966087461025 23 31 15
11.819028688125846 0.7389301816581372 2.5533600583638414 22 30 14
11.69260975857569 0.39193136224022546 2.5697724347456092 24 32 16
12.39145634059868 0.2377282615168663 2.6345666863586192 24 33 15
11.939476207526582 0.5288092288557663 2.538402486913547 23 31 16
12.317232688279026 0.07118560913713572 2.6455236268427713 24 33 17
12.323970624496615 -0.0993696947675484 2.6445143591911546 24 32 16
12.317232688279026 0.07118560913713572 2.6455236268427713 24 33 17
12.111421768793772 0.4625048399733028 2.677895799754004 23 32 15
12.349919287402876 0.6139742682176718 2.64065514960387 22 31 15
12.96227278267592 1.6925434293686126 2.3204727543030548 22 27 14
13.178871356901109 1.7249091820921774 2.535641937377684 24 29 16
13.321424050037361 1.9291315088264966 2.401043459092175 23 28 17
13.120821652778428 1.8211286657623584 2.417925796273662 23 28 17
12.911860354557987 1.5869560316043554 2.3241138537398767 22 27 14
12.933236752832098 1.986078349513117 2.2213305433120336 23 28 17
12.944002668812692 1.5888755278936435 2.433524351343893 22 27 16
12.647696827008163 1.8938073353740676 2.238626987943997 22 27 16
13.211558892569533 -0.0993696947675484 2.6806163107921113 24 32 16
12.865364531805364 0.28437187424024746 2.738160033713419 24 33 17
12.793890549495943 0.08580382827695798 2.7514555344648923 22 34 17
16.953437956150925 2.3253033663685203 2.775917218574089 23 31 15
16.33941044332738 2.1328759354663185 2.89185512227233 23 31 15
16.720798108622237 2.4530221384256765 2.814174278523782 23 31 15
12.411538293447014 -0.26436622386966196 2.631661370477185 24 32 16
12.991904045274346 -1.162506243189567 2.5567335622026404 24 32 16
12.325904337705383 -1.2511742064103235 2.6442252606167425 25 33 17
12.721979140657893 -0.7573278683659087 2.589598640076493 23 32 15
13.13561476971824 -0.6647316922058902 2.5404109084879885 23 32 16
12.442674809957209 -1.0418474899616095 2.4819731166502685 22 31 15
13.198916647685692 -0.8444729900624397 2.411254540906304 21 30 12
12.704264106015943 -1.4427137125627476 2.591867026171156 25 33 17
12.821011836910293 -0.5497130961492308 2.5771811303002563 24 32 16
12.578247638918059 -0.41593557898953776 2.608442810036086 23 32 14
13.115440675462668 -0.8557655971924539 2.542657269514408 24 33 16
12.51493267522322 -1.0991135000316075 2.6170786711619094 25 33 17
13.02737099765041 -0.9138821044703188 2.315830569131158 21 30 13
12.610185287588664 -1.0019808901287635 2.346792358206652 21 30 13
12.72820027455548 -1.7440657584468735 2.588805506059263 26 34 18
13.338673691933463 -2.133514571332418 2.51856163490611 26 34 18
12.8573504310215 -1.8867733617302433 2.5727326228547955 27 33 18
12.37519410958239 -1.9387306470123786 2.636937530786761 26 34 18
13.593449482718853 -1.9647555595855306 2.492930147956236 26 31 16
13.092792303315072 -2.071767636353778 2.4203520360550863 25 33 17
13.676380403475603 -0.5497130961492308 2.6163037027052023 24 32 16
12.68686385878146 -0.8992289692481276 2.772510985537993 27 35 19
13.58358530262582 -0.7573278683659087 2.6282126332582685 25 33 17
13.259644322175719 -0.8723824207648223 2.673367549212978 25 33 17
12.717362194310992 -1.387874432717736 2.766359953266699 27 35 19
13.389868419209632 -1.0991135000316075 2.654488240401411 26 34 18
13.11096228495592 -1.4200922992239846 2.696313454334613 26 34 18
13.11096228495592 -1.4200922992239846 2.696313454334613 26 34 18
13.449065026399618 -0.41593557898953776 2.646242433076562 24 33 15
12.707718356892968 -0.5911998323212783 2.7682913333592163 26 34 18
12.542729965277431 -0.3903009388545973 2.803462602484267 25 34 18
13.726588120214341 -2.2102648026261553 2.610026984872177 26 34 18
13.084407128885557 -1.5980488503872343 2.7005851658427904 27 35 19
13.726588120214341 -2.2102648026261553 2.610026984872177 26 34 18
12.689983414417256 -1.6039912914292809 2.7718759749209765 27 35 19
14.244936889440437 -2.3069137123839396 2.6925144518620194 26 34 18
13.955364421178505 -2.4296443402629686 2.737705149686761 28 36 20
13.351149409910867 -2.3069137123839396 2.6599920190431217 26 34 18
13.457891497003342 -2.0847821106335593 2.6450298709691955 26 34 18
13.457891497003342 -2.0847821106335593 2.6450298709691955 26 34 18
12.94271255371079 2.3380214289601535 2.220773472425859 21 28 15
11.222068255769031 2.7312176963813175 1.7348268479203255 23 31 15
12.607875396801113 2.5301006196418467 2.0517322420993573 19 27 11
12.774452523703614 2.2203490324639166 1.958750615323337 22 27 16
10.36608419783517 -3.0779763182477877 2.0557704946148276 23 32 15
12.58951571356576 2.284328988179276 1.7168743650964864 22 27 16
10.413112335218388 3.002914262117011 1.747699367476745 22 31 12
9.939349333745662 -3.0779763182477877 1.9666440030195371 24 34 15
13.439302542626615 3.0960629551771324 2.3914977025870794 23 32 15
11.304622065365724 2.607166188786725 1.9166737117503523 21 27 10
10.595606525802626 2.907868420989471 1.7446211204423188 22 31 15
12.967387929205318 2.4033812351475135 2.1257455171590434 19 27 11
16.09538138289074 2.247302306316921 2.604909286036553 21 29 13
13.838432019974753 -3.0602568253179276 2.5964389710428075 25 34 18
14.380771142339938 -3.07019777937828 2.5371190373819243 24 33 17
14.242993341041258 -3.0471092883473503 2.6927976875519137 26 35 19
17.508780812886638 2.331146150172741 2.700443516852553 22 30 14
14.849444960468583 2.4933797463822724 2.492830565311511 20 28 12
16.996748726335856 2.5559867649111716 2.769319009571308 23 31 15
10.047720937330837 -2.9703214472252237 1.962140807594776 25 34 16
12.905795493436072 -2.234867342822462 2.4369891493399116 25 33 17
13.273918407959828 -2.501337420706592 2.525383805516367 26 34 18
12.87021898290188 -2.949796695640551 2.4402467343717595 27 35 19
12.993700449051905 -2.5717227615021616 2.429068669006982 26 34 18
13.134050276049893 -2.3976098224155677 2.3083644517562294 26 34 18
13.235151153862093 -2.795019090873963 2.5295319567123906 28 36 20
13.765946672062526 -2.5717227615021616 2.4765766090433012 25 33 17
12.872369802761387 -2.4046578843285484 2.4400489245594543 26 34 18
12.60859180305545 -2.541107936363916 2.2410755658880275 26 34 18
12.542310870089391 -2.7274915575977756 2.352117114562631 25 33 17
11.970123934283292 -2.7684415752031786 2.1782732650636065 25 33 17
13.166811673034509 -2.252396673398351 2.306105907498381 25 33 17
13.80926918643077 -2.614217216943022 2.5999312766155156 27 35 19
13.39371261399959 -2.533936641515109 2.6539466469514936 28 36 20
13.918495331475208 -2.843496872703265 2.743948812966269 28 37 21
13.161516125817938 -2.6768709784727083 2.6883317791757664 29 37 21
16.690742168259302 2.3025827826929617 1.5607617459561376 18 23 14
16.106422077755195 2.344462404202983 1.435814282167273 17 21 12
12.783944747644687 0.989257661983995 1.7942188827358285 13 20 7
12.792070358635739 1.8401816148284704 1.9581878467785487 21 26 15
12.738775667967625 1.919610510589803 1.87638488504775 22 27 16
13.209611133366934 1.7745335869660592 2.205502406441172 22 27 16
12.461993348452816 2.3980163593404455 1.6376506948737222 18 25 12
12.01135635088275 2.5779190699703896 1.5568522547443775 20 26 10
11.537059792794487 2.65144486973617 1.6430194430345384 22 28 12
13.21222054553865 0.035180551545140167 2.02800894741643 7 12 0
13.946415787860737 0.42162622516130954 2.2566296683959273 18 23 11
13.595601449683778 0.5775099337715012 2.0973462434268004 20 24 12
14.43492529167965 0.46313707466702 2.144336158985255 19 23 10
14.669633105534599 0.38667852116498486 2.216919231902571 18 23 11
12.41972689322631 0.6692618723998287 2.361955214568412 21 29 13
12.65995253027421 0.17863331235768337 2.460147362929284 26 32 17
13.596512815612364 0.21922757005152574 2.184706656974617 14 17 6
14.400144662719288 0.305154458338947 2.2311081476594223 17 21 8
14.329465468136453 0.33398105934524236 2.327013794300542 21 25 12
14.124433137608076 0.24067636022322778 2.3407965808820332 22 26 14
13.235053333964157 0.04231759022964026 2.301451837094387 20 27 14
12.828712876846255 -0.08493412395138307 2.5762336703581106 24 32 16
12.587312220050894 0.05308395176391599 2.4672942348112565 25 31 16
13.500384540552758 -0.12259495468688757 1.858636742504066 11 19 3
13.817576457583781 -0.12259495468688757 1.9280867235657577 13 18 3
13.287658136427217 -0.2936755280085156 1.9430167697733087 10 19 0
14.005846453668754 -0.15938445620358524 2.3490397477252265 20 28 12
13.627006825651106 -0.23376091391398593 2.1831304564749607 15 23 6
14.200838578345326 -0.5892534769687044 2.1550214800202663 17 25 9
14.225341874440822 -0.23376091391398593 2.2406869376966463 21 29 13
12.970812864939589 -0.765685204346351 2.3198599566597125 20 29 11
14.078150467603102 -0.14490664147824103 2.2489957747767506 21 29 13
14.440442593666084 -0.31901669776470626 2.22894275046004 19 27 11
13.306914242050983 -0.4820624766495435 2.521891144224746 23 31 15
13.851402307441221 -0.31901669776470626 2.1717963274194285 15 24 9
13.84808971549523 -0.4282977979171529 2.4690483766608966 22 30 14
13.999885393606133 -0.4355735015398261 2.2535081156363166 17 26 8
14.183258115330531 -0.6561915256759658 2.073425525869377 16 24 8
12.99429039875301 1.7068393501395975 2.4290161190680895 22 27 16
12.230199949099683 1.4704086938538796 2.377758402271273 22 27 16
11.844998886567742 1.2445456543250997 2.2932815939838034 21 26 15
11.875613939945348 1.0482440364827517 2.1838163613794763 15 22 9
12.545204637020358 0.39193136224022546 2.6129229123931554 23 32 14
12.39145634059868 0.2377282615168663 2.6345666863586192 24 33 15
11.939476207526582 0.5288092288557663 2.538402486913547 23 31 16
12.227976458698947 0.8407905235815886 2.5049566706709134 22 30 13
12.44175230611277 1.0867859408521165 2.627335917036025 22 30 14
12.263158698061735 0.6468989569198166 2.5010863248064967 23 30 15
12.80037758227185 -0.11968882022870343 2.750224968442301 24 33 17
13.211558892569533 -0.0993696947675484 2.6806163107921113 24 32 16
12.80037758227185 -0.11968882022870343 2.750224968442301 24 33 17
16.50093062564686 2.3159074800744026 2.8559914319043016 23 31 15
12.704264106015943 -1.4427137125627476 2.591867026171156 25 33 17
13.517041326957838 -0.7622372586205279 2.5004237332948582 23 32 14
12.78732882776732 -0.9360484551391196 2.447956966402126 22 31 15
13.13561476971824 -0.6647316922058902 2.5404109084879885 23 32 16
12.216067109309728 -1.4200922992239846 2.661048491076781 26 34 18
13.13561476971824 -0.6647316922058902 2.5404109084879885 23 32 16
12.676857037621732 -1.5939106329600405 2.5954056975656394 25 33 17
13.092792303315072 -2.071767636353778 2.4203520360550863 25 33 17
13.293280980558533 -0.26436622386966196 2.668388723807425 25 33 17
12.884707878138869 -0.31562623373858933 2.7346572841356487 25 34 18
12.822906195726299 -1.1875457802230616 2.745989130593034 26 34 18
13.652704406075308 -1.387874432717736 2.7932068743108314 27 35 19
13.726588120214341 -2.2102648026261553 2.610026984872177 26 34 18
13.259353893316986 -1.9387306470123786 2.673410861684144 26 34 18
12.72430565348553 2.07142312909809 2.1376327066074885 22 27 16
11.252801754024523 2.6919494420680605 2.014680241371908 23 28 13
10.86742134976762 2.816926417392288 1.740230786480787 23 31 15
13.349075731846304 -3.0471092883473503 2.6602893260999196 28 37 21
16.078921313130632 2.4196577158992856 2.6066324967342553 21 29 13
15.610914237136233 2.3351305380036838 2.5357494256850623 21 29 13
13.23096983899995 -2.316083896697641 2.529982284997253 26 34 18
12.863731683232848 -2.629444648738376 2.3276284065648682 25 33 17
13.466078008158991 -2.677171208245152 2.5055117860159455 26 34 18
13.08214883390046 -2.4622861198858033 2.2126959180953345 26 34 18
12.542310870089391 -2.7274915575977756 2.352117114562631 25 33 17
11.91783775675783 -2.252396673398351 2.18132637325947 23 32 16
12.73030053676123 -2.167588593874633 2.3375743178551516 25 33 17
14.061422378227032 -2.316083896697641 2.57082782152393 26 34 18
13.918495331475208 -2.843496872703265 2.743948812966269 28 37 21
13.584177730251477 -2.7440895645270005 2.6281352862604717 29 37 21
13.69516587861052 -2.4145935023591765 2.6139419280472107 26 34 18
15.83611004739327 2.2976225224644713 1.3044967847151907 20 25 13
13.455144032441698 1.1985777136597746 1.7074155442119643 17 22 11
12.54586217069614 1.0592636031802523 1.8812395011153131 13 20 7
12.957721787146959 1.0974342306160563 1.7126949109505731 16 21 8
12.110840176398632 1.2169631019756424 1.981248725499368 17 22 11
13.131547724094945 1.9500934761958253 2.1180140445617583 22 27 16
13.38645668045146 0.03842059684989283 2.195809122737399 13 20 7
13.689186937819843 -0.0491690420859473 2.093376837833421 9 14 0
12.318945339535258 0.8878352397305652 2.0640102657003325 12 19 6
12.223688020712284 0.7529306375423973 2.26629133322913 18 24 11
12.770304748789382 0.5728673493235705 2.4495618257737313 24 29 16
13.469874797336184 -0.19904334539749693 2.5051301863524253 23 31 15
13.610290132893766 -0.5898008219067495 2.491299723653624 22 31 13
13.691866190086984 -0.5629060627939826 2.271940471224 19 27 9
13.389196510854307 -0.5285616194637902 2.3955226961108758 21 29 13
13.61478388812898 -0.39973676959609616 2.0965274317984814 14 23 5
13.765819462421218 -0.5157479972706731 2.1760650356288327 19 27 9
14.021577436027028 -0.8301137649930848 2.16349886760562 19 26 12
12.874120584146738 -0.8363009486917794 2.224829834966424 20 29 13
13.913050427833245 -0.36070073788995166 2.5876589247733484 22 31 13
13.562214027332875 1.986078349513117 2.2800390764575917 23 28 17
11.5815441124353 1.0867859408521165 2.584851438864115 22 30 14
13.129290626871427 1.5913124251827562 2.541113558749724 23 28 15
11.978018673727608 1.2771279727993097 2.1778151499147675 20 25 14
12.317232688279026 0.07118560913713572 2.6455236268427713 24 33 17
12.230199949099683 1.4704086938538796 2.377758402271273 22 27 16
12.270162828925844 0.9031470342330885 2.263134271216307 17 25 9
12.779638570338179 -0.9673559050687222 2.5823154993477067 25 33 17
13.02737099765041 -0.9138821044703188 2.315830569131158 21 30 13
13.338673691933463 -2.133514571332418 2.51856163490611 26 34 18
13.198916647685692 -0.8444729900624397 2.411254540906304 21 30 12
12.809916026208388 -1.2971444572070965 2.5785507571150115 25 33 17
13.134157292773898 -1.7743131035947663 2.692627269627655 27 35 19
13.11096228495592 -1.4200922992239846 2.696313454334613 26 34 18
13.58358530262582 -0.7573278683659087 2.6282126332582685 25 33 17
13.213362712066978 -1.2511742064103235 2.6803415240792994 26 34 18
13.637602370169505 -0.9673559050687222 2.621230518909006 25 33 17
13.279599347023465 -0.6364883028982621 2.6704049377550945 26 34 18
13.569876279096263 -3.07019777937828 2.4952251163290766 25 34 18
12.115996942467577 2.4605389998208724 1.8067633681354809 19 27 11
10.32467623522033 3.100542361463511 1.7492308491660828 22 31 15
13.04006899961968 2.2019775973537508 2.2151102567221796 22 27 16
12.328503947970356 2.3402146289257164 1.886900836847612 19 26 13
11.32688731946037 2.5301006196418467 1.73329534026208 19 25 11
16.654212015837626 2.518918817546286 2.669495666003325 22 30 14
12.120087036641035 -2.111419665897079 2.169697313603191 23 32 16
13.336563845132275 -2.322377816476031 2.3998024095849897 26 34 18
13.429961048000626 -2.8897465684356924 2.6488817561714133 30 38 22
14.101841947758187 -2.501337420706592 2.5663789728331183 26 34 18
15.83611004739327 2.2976225224644713 1.3044967847151907 20 25 13
13.033996721688345 1.5854049797011627 2.2154603047747425 22 27 16
10.194797837316138 3.100542361463511 1.6525484408869953 22 31 13
14.001010311124954 -0.053693325270059974 2.253442783955289 20 29 13
13.233897802542831 0.047093711443581536 2.4083077145953915 23 29 14
13.596512815612364 0.21922757005152574 2.184706656974617 14 17 6
13.389230605216504 -0.07415397755975713 2.513325345561684 23 31 15
12.258071242469429 0.9420628991326553 1.8887807117375166 13 20 7
12.822240179481696 0.06081802238819265 2.5770298358306056 23 32 16
14.040449603248524 -0.7085726723512765 2.1625939038840647 16 25 7
11.880028025952415 1.2041952305102392 2.4090497501628922 23 28 15
12.081644473002783 1.1531163491832233 2.521525426293458 22 29 16
13.089113551703775 1.7954807841092342 2.31148837639058 22 27 15
12.903097329735903 0.7261642194691142 2.7313630888955247 23 31 15
13.517041326957838 -0.7622372586205279 2.5004237332948582 23 32 14
12.187562245832984 -1.5980488503872343 2.6655545272139194 26 34 18
13.061999769674754 -2.017370353060926 2.548677815975272 27 33 18
13.986202097326007 -2.1732860139949226 2.732576907849143 27 35 19
13.490185743726661 -0.3903009388545973 2.8280550768139254 24 33 17
13.955364421178505 -2.4296443402629686 2.737705149686761 28 36 20
12.242641030572736 2.1494933367268234 1.976568564617338 22 27 16
14.374997314507956 3.0904871788195134 2.5377007843950383 23 32 16
13.038568598265483 -2.3269649133802264 2.2151967113309303 24 33 17
13.031061642249032 -2.8347503467788084 2.4257563436818734 26 34 18
13.916473390471763 -2.9237712444046235 2.587261392719662 28 36 20
12.237108083691371 2.030110629202266 1.8893446314816054 22 27 16
16.720798108622237 2.4530221384256765 2.814174278523782 23 31 15
12.778227720469951 0.7571821190771936 2.1349490079167253 14 19 7
12.948055324810774 -0.7497784867929091 2.7234511888917092 27 35 19
13.004712431557314 -1.0148017279276513 2.7137522150736024 26 34 18
13.838432019974753 -3.0602568253179276 2.5964389710428075 25 34 18
17.22566214721377 2.4328743465032705 2.736647294486076 22 30 14
13.045371898156832 -0.4895583483764799 2.706967750111639 26 34 18
12.270162828925844 0.9031470342330885 2.263134271216307 17 25 9
13.705136269948586 -0.34894975642414944 2.2711233066673504 20 28 12
12.240957943435149 -1.7743131035947663 2.65716234237814 26 34 18
11.826295858181803 0.9918879044519141 2.2946764847493952 23 29 16
13.454783223870884 0.1298885937266306 2.19214997885879 13 17 3
11.826295858181803 0.9918879044519141 2.2946764847493952 23 29 16
13.379173450401854 -2.4787919721636893 2.3963335768488885 26 34 18
12.31498491375503 0.8541568214562865 2.6458609833105173 22 30 14
11.945389947585296 0.9238064048563108 2.4029871172157797 23 31 15
12.710686299100129 -2.111419665897079 2.2347243332151674 23 32 16
12.84351714712763 0.8760377509283788 1.8738132018193725 14 20 7
13.726588120214341 -2.2102648026261553 2.610026984872177 26 34 18
13.623639671987753 -0.31797031207631504 2.490012625831776 21 30 14
