21.745304209484623 -0.19621358337805989 1.7475655691722678 48 66 26
12.03288974216233 1.100465959324146 1.9832888395519401 40 53 16
12.062349774891194 1.1384819758590081 1.7225856805331299 43 54 18
11.611383771466922 0.9006060872630145 1.8164620939898108 56 67 30
11.824133040554731 0.774715525454347 1.9001157145396217 55 68 31
10.49705673579357 0.4021995524716768 1.9436605708361387 29 43 0
11.439079062052077 0.6491609034943041 1.7309256132312236 36 50 11
10.49705673579357 0.4021995524716768 1.9436605708361387 29 43 0
12.018837234421573 0.7066916612144729 2.076662687075647 42 56 18
11.990447188400896 0.9170957403523855 2.17622245575512 39 52 15
12.22426937914147 1.0557689814503872 2.1630432798192523 41 55 16
12.809394560331619 1.0557689814503872 2.2278605281868713 46 60 20
12.80917983949777 1.0026959535342457 2.330731154822641 52 66 25
12.652761879403032 0.5005391049506089 2.4597685487969816 59 75 31
12.520280767502477 0.6536578782560359 2.6149718769863157 57 73 29
12.533964880114986 0.7066916612144729 2.1465102319498874 31 45 6
12.52025210809605 0.7731699657714606 2.2458005854839858 36 51 10
11.566919193794282 0.5431047531112153 2.2017942694864825 38 52 9
12.848707091868876 0.5431047531112153 2.327811651178212 36 52 8
12.197971568729512 0.5747685815624226 2.0685458512834147 46 60 19
12.964801959301594 1.100465959324146 2.125088422847627 41 53 19
15.827143091923006 1.9804802837930964 1.8805115128716212 9 13 10
16.352504099058496 1.6384294279801495 2.001269476375182 9 12 9
16.21066015507052 1.918060738536528 2.005291165513933 7 11 9
17.225323333299816 1.7847540061451137 2.1776893771887544 11 14 11
16.675249227171555 1.7847540061451137 2.128409364261529 11 13 12
13.383037832013889 1.2449820054199352 1.9395464116732648 41 53 22
13.40701413141253 1.2172429546039962 2.1047967256778986 41 51 20
12.652324159974013 1.095904351723931 2.5972891596123113 55 73 27
12.453260546800033 1.0987654989135194 2.3582553292783697 53 67 24
17.050110354336887 1.8008722173819918 2.2585841995588822 22 26 19
17.050110354336887 1.8008722173819918 2.2585841995588822 22 26 19
16.902593085357516 1.7258036315380378 2.2657762279053433 5 9 6
16.843163365814586 1.7386746377146336 2.348999316456785 23 27 22
15.855239053119389 1.8988637574691787 2.5129260890397265 63 78 42
10.734039596456451 0.08251422295131616 1.935039046630594 43 62 10
10.703563802220282 -0.01733932798668602 1.936124800880797 40 58 13
11.353846961883564 -0.015762682538849618 1.8221534427576374 42 60 14
10.54633144273174 0.18075058294588636 1.8418664551731991 36 54 11
10.920605390179198 -0.2140949627875972 1.9285337805419382 41 59 15
11.412997539813016 -0.10630639534289214 1.8208228046146893 44 62 18
10.766287664655149 -0.11684940211157598 1.9338973302476112 40 58 14
10.59163345630937 0.30445479095042816 2.043669079109853 26 41 0
11.02766536226727 -0.43437417927056815 2.0235433379748997 42 58 12
10.754553503292437 -0.5219020642779233 1.8364897383277545 46 62 16
11.217314064597877 0.10302259972759886 2.3426788253629147 3 16 1
10.7482031261537 0.09163813568507233 2.143432982052462 27 43 1
12.088523450222965 0.11762207947506548 2.5195063592311655 57 75 27
12.238570911362658 0.33981010953748747 2.3760293748188075 56 72 26
12.04696185610121 0.22460140973642362 2.392724130843239 61 77 29
12.238570911362658 0.33981010953748747 2.3760293748188075 56 72 26
12.197775501979253 0.25540991257384577 2.5071221488470163 56 74 29
10.934527263250851 -0.23705477982219192 2.132485806885449 38 58 10
11.395970816632575 -0.2654011277983466 2.327530877218324 51 70 19
11.188154755531883 -0.021675271456695327 2.345218718217249 0 12 0
10.577034163469385 -0.1457060121411739 2.272033236195826 28 49 3
11.321568622676086 -0.16617587600479314 2.464487416169544 57 76 25
11.908930849667748 -0.021675271456695327 2.405279106983671 59 80 31
11.96533768817552 -0.1457060121411739 2.4000926482379756 58 76 28
12.50768421535389 0.29572889784873 2.616706712805313 58 76 32
12.251697943836101 0.5149078809986634 2.65399800761006 58 74 30
10.73249859836254 -0.1932540929043808 2.5360049452871696 59 77 29
11.083454488478832 -0.23068821597548642 2.6602161738168206 57 78 29
10.887295264378531 -0.34775174255095304 2.5157640474816696 56 77 28
11.083454488478832 -0.23068821597548642 2.6602161738168206 57 78 29
11.510329330752707 -0.028902027106841234 2.5934363520621275 55 76 28
12.420755545021246 -0.9624733073140646 2.360886607810187 53 69 18
10.736193020641766 -0.48105134747546135 2.1441543414371855 40 58 12
11.13013343063166 -0.4867877835654034 2.4861774748360594 59 75 27
11.628190868034746 -0.3778143276163364 2.3088375720398364 52 68 19
10.38841511331597 -0.3778143276163364 2.165926047511517 40 56 5
11.630651704222897 -0.7999949239681954 2.3086451542054824 56 70 22
12.174960017913934 -0.802865214311699 2.509672777923012 56 74 28
11.78486229991244 -0.695948744052098 2.556397747579774 55 73 27
11.30989247185465 -0.48105134747546135 2.2185015174911946 44 62 12
11.294693663807008 -0.5378845858605986 2.336032039946803 56 74 26
12.174960017913934 -0.802865214311699 2.509672777923012 56 74 28
11.871330856280212 -0.8904480924202061 2.4087804279115823 54 70 22
11.162997473187133 -0.574274065587173 2.1196573998004555 38 54 5
11.761215329301914 -1.0221686694734504 2.1897764451984476 42 58 11
12.368266376927846 -1.0221686694734504 2.255675771543424 51 65 18
11.761215329301914 -1.0221686694734504 2.1897764451984476 42 58 11
11.68158313769128 0.4287905692286325 2.756009691113324 58 76 32
11.68158313769128 0.4287905692286325 2.756009691113324 58 76 32
12.389612983331732 -0.6276269507860341 2.838241633481779 61 81 37
12.271305290538507 -0.9963563837776042 2.499025107634718 58 74 26
12.64460709836927 -0.9131356460169519 2.5982982778918666 60 76 26
11.799926335519771 -0.9131356460169519 2.5544739089921134 56 74 28
12.164129475102786 -1.5713964718913014 2.510890040370336 63 79 31
12.204811993684057 -1.4328725981314514 2.506339213889497 61 77 27
12.527578202884781 -1.1751971658458376 2.4721747025839544 58 74 28
12.365059593791722 -1.0459128715047177 2.63698211260759 61 79 33
12.500343632864915 -1.4108838980840823 2.61772169876839 63 81 33
12.500343632864915 -1.4108838980840823 2.61772169876839 63 81 33
12.603538466900776 -0.8141858245647053 2.7880220640167823 61 82 35
13.248178335411454 -1.266755635636993 2.88783376575455 64 86 43
12.944487092126847 -1.380654697469185 2.722435693066016 63 84 37
12.944487092126847 -1.380654697469185 2.722435693066016 63 84 37
12.578277865762596 -1.3365898037642623 2.7935040934918423 63 85 42
12.696631993660487 -1.124739209872827 2.768662581171121 61 82 35
13.059522808753329 -1.2026209062188113 2.703085085998623 63 82 36
10.09894509619712 -2.794300416427516 2.4570776897780826 61 83 40
9.091068192888871 -3.1127320485417362 2.419792255547798 76 98 55
9.164834581030966 -2.948608850032687 2.410695396821767 69 92 49
9.053809799428278 -2.644332803788889 2.614269177981128 63 85 44
9.729584569961565 -2.3355275405582496 2.505017660353194 61 83 40
10.001710300112528 -2.534191651323652 2.321665775136591 60 81 36
9.43533777039735 -2.4464910466382452 2.3792634234586063 60 80 36
8.946491478173675 -2.655397938549126 2.279660246111121 61 82 35
9.729584569961565 -2.3355275405582496 2.505017660353194 61 83 40
9.344417793213701 -2.471453260692668 2.5630896109142394 61 83 42
9.814619400670564 -2.576461132296202 2.4933884903170758 61 81 39
11.999275947178397 -1.1160926739993458 2.281057931822743 49 65 19
13.125809980313566 -1.2194804092662213 2.4165067670610076 57 71 26
14.105778820959964 2.2645572597623795 1.629239238356128 35 44 24
14.047358407958352 2.3651520099380665 1.629482570649206 34 43 23
14.55724453139818 2.16578263699425 1.766020872354127 20 27 15
14.149025115401054 2.1450241053961006 1.9950188621581064 70 80 51
14.149025115401054 2.1450241053961006 1.9950188621581064 70 80 51
13.27599894236762 2.426049345833886 2.0249254541864756 56 69 31
13.200251780783919 2.4928923819811533 2.1140842514084053 56 70 28
13.731157743263608 2.307373445856715 2.090894853074126 55 68 31
13.439026378928709 2.542795359312535 2.019012161512956 61 74 37
12.683522902218016 2.44771921668497 2.3401887867459084 60 78 35
13.718014070299514 2.241585402815338 2.1777143975309334 61 74 38
12.683522902218016 2.44771921668497 2.3401887867459084 60 78 35
13.948125100243592 2.2543462152367852 2.0015337287240658 58 71 37
10.331964066396974 2.9609942695856537 1.7482574664107804 57 75 33
9.43832837697843 -3.1223446830352892 1.87464665746184 59 80 35
9.47287551600732 3.050041654971957 1.873503323094873 59 81 38
10.07215599217894 3.0591491240316406 1.6526889435956993 56 75 33
9.347143240726608 -3.1199406905395435 2.113069366505825 69 91 46
9.261797202117098 -3.0120144500021 1.7690206002914097 59 80 35
9.594916924208972 -2.8764638146645773 2.0975817804435453 58 78 36
19.075462814962314 -2.742389616175183 1.8264581700344829 53 68 27
9.364915794870717 -2.840726312620739 2.241945570793871 62 84 39
9.780395236065152 -3.1168506367544984 2.342997054903277 73 95 52
9.933289581059904 3.038680092186427 2.19728342418278 65 87 44
9.780395236065152 -3.1168506367544984 2.342997054903277 73 95 52
9.184496493282237 -2.975617317197092 2.257643801984887 69 91 48
20.001457206662074 -2.8289475283881234 2.1426078075061765 49 69 29
20.585571290039347 -2.7933436285746183 2.068288566310223 51 69 29
20.10233337852368 -2.720225873248061 2.081389886961452 44 64 22
20.456407069638598 -2.742389616175183 2.0167872336898163 48 68 26
20.001457206662074 -2.8289475283881234 2.1426078075061765 49 69 29
20.28312013472877 -2.7734484522439393 2.1336968543188393 51 67 26
20.508409189401196 -2.7806683517848394 1.7089305980689877 55 75 36
20.394779242038336 -2.7806683517848394 1.6603463807638805 54 74 34
20.34443419263479 -2.8275065441669276 1.7598797244803446 53 73 35
20.06363203930291 -2.875813598665568 1.762558741443089 50 70 31
20.707000175419896 -2.8617916997604778 2.0110090442376753 48 66 26
20.301035173517683 -2.8617916997604778 1.966431971654134 50 70 31
12.862494452365379 1.1384819758590081 1.9552332022982206 41 52 18
12.864905088397458 1.1711219198837732 1.6348836895747116 41 54 21
12.522041050677318 0.7160170166744798 1.8811281475975168 51 65 26
12.279902737122583 0.6491609034943041 1.9745032373450848 51 65 26
11.083637893138743 0.5747685815624226 1.828418783544294 34 48 7
12.613277717322278 0.6297455922728861 2.2399110774694977 28 43 2
12.141962815465984 1.0026959535342457 2.2709951625766234 47 61 23
12.15632858306685 0.9741184822831224 2.0704082226779774 43 54 17
15.184036914038824 1.9804802837930964 1.6912075518776954 10 14 9
17.588131535594684 1.6433043742411662 2.2337024670641314 12 15 10
17.473891097054572 1.6489351339493508 2.3140155940737044 8 12 7
16.753612806843435 1.6555117932743821 2.354281873102476 12 16 10
17.473733694607628 1.6555117932743821 2.3948371525260237 69 77 57
12.332348012066449 1.1572762447626375 2.4924414204819536 56 70 25
12.155905584652366 0.7637928316107971 2.6690728795916114 56 74 30
15.855239053119389 1.8988637574691787 2.5129260890397265 63 78 42
11.162718938409059 -0.307406516994136 1.9204379398115485 46 61 19
10.369636988955657 0.20033593402976177 2.0546523339798224 25 43 2
10.628338355251577 -0.43437417927056815 1.9388334625175627 44 60 14
11.538405037266402 0.33981010953748747 2.315937842496946 19 34 0
12.387051916690261 0.3839994410223776 2.4866440378255654 58 76 32
11.538405037266402 0.33981010953748747 2.315937842496946 19 34 0
11.922420833736483 -0.03468316173291894 2.7089526978086798 58 79 32
11.233416016870686 -0.41034528386383173 2.6352537706375303 57 78 29
11.851061778282572 0.44054700031964045 2.548020487028047 57 75 31
11.248176689741143 -0.1457060121411739 2.340011678616614 53 73 22
10.734073024956734 -0.2654011277983466 2.259743102436612 34 55 2
10.71776760575473 -0.019266388885937184 2.145264821046985 41 59 18
12.50768421535389 0.29572889784873 2.616706712805313 58 76 32
11.94978855573639 0.16398926169640507 2.704019891101273 59 77 31
11.93632950166268 0.10302259972759886 2.4027500630980265 61 79 31
11.321568622676086 -0.16617587600479314 2.464487416169544 57 76 25
10.624899071029084 -0.5659106104477336 2.550790046986992 59 76 28
11.871330856280212 -0.8904480924202061 2.4087804279115823 54 70 22
11.294693663807008 -0.5378845858605986 2.336032039946803 56 74 26
11.85635754367568 -0.7119022867477953 2.410184746712908 55 73 25
11.30989247185465 -0.48105134747546135 2.2185015174911946 44 62 12
11.879087195272536 0.6156934056264655 2.7169204629997576 57 75 31
13.158987313280225 -0.8279820777522194 2.9154409588254824 63 84 40
13.158987313280225 -0.8279820777522194 2.9154409588254824 63 84 40
12.64460709836927 -0.9131356460169519 2.5982982778918666 60 76 26
12.81566895514729 -1.1190072245343663 2.576584735484227 62 78 28
11.799926335519771 -0.9131356460169519 2.5544739089921134 56 74 28
12.944487092126847 -1.380654697469185 2.722435693066016 63 84 37
12.282768501377364 -1.266755635636993 2.8673936086472462 64 86 43
9.345633467431 -2.794300416427516 2.3893689891252876 63 85 41
9.53834796860094 -2.7318769284421873 2.5326596001711255 60 82 40
9.627436674290394 -2.655397938549126 2.3585899455730694 60 81 36
13.88904157628743 2.3661566616720164 2.0034893653189743 67 78 45
13.865898802496018 2.3125516606928884 1.850195602425805 65 75 48
14.865345505150556 2.2215259330304358 1.5589506186755864 2 7 0
15.141698783166369 2.1287024060553636 1.6252367635845788 1 5 1
14.567100348315961 2.105495511330642 1.908319737648215 6 12 4
9.683769233696502 -2.904756164406275 1.8667090867288296 54 74 31
10.202752250212862 3.0591491240316406 1.7505292649385547 56 76 34
9.421320270744413 -2.7641472024215354 1.9887364484785899 56 76 32
9.421320270744413 -2.7641472024215354 1.9887364484785899 56 76 32
20.001457206662074 -2.8289475283881234 2.1426078075061765 49 69 29
20.001457206662074 -2.8289475283881234 2.1426078075061765 49 69 29
19.67660885167678 -2.742389616175183 1.9249570896415304 50 70 28
20.06279162808083 -2.693534172646292 1.9178491445867487 48 65 23
19.754342928643887 -2.7624461732410954 1.7655993742280998 54 72 31
20.21956661201891 -2.811273857409266 1.9150461353351884 51 71 32
10.901446147395484 0.49246036586835484 1.9291908516780987 31 45 2
12.377237886905643 1.06504821754668 1.556569213457637 45 58 22
11.101423756659488 0.44985340689531306 1.5549340541628538 28 42 1
11.920943154878563 0.7731699657714606 2.18026353630111 35 49 10
12.251444160527841 0.6039475800325504 2.3749367097591585 55 71 27
16.210298681180053 1.7707180313781128 1.9382844914310897 10 12 12
15.930376410408536 1.8526916226032613 2.01347181467902 10 12 12
17.079319478563335 1.7147529932528167 2.1836370045585873 10 13 10
17.050110354336887 1.8008722173819918 2.2585841995588822 22 26 19
11.059305954878774 -0.5219020642779233 1.9238495672413023 43 59 11
10.276911218056059 -0.3391329461165345 1.952053672127191 41 59 13
10.734039596456451 0.08251422295131616 1.935039046630594 43 62 10
11.85635754367568 -0.7119022867477953 2.410184746712908 55 73 25
11.455415409035583 -0.6080736901338637 2.450081390464994 56 74 26
10.964644679575205 -0.4258541766129596 2.365360497483003 58 74 26
11.33496637903792 0.22460140973642362 2.332625104495924 9 25 0
11.468416982647126 -0.3012146550940911 2.448713137300974 57 76 25
11.574580075597162 -0.8745859626555169 2.201310762414921 51 67 21
10.780408826239885 -0.12970084171074744 2.1415081956315234 38 59 12
11.248176689741143 -0.1457060121411739 2.340011678616614 53 73 22
12.060297447281433 0.3505462243187591 2.684825743494431 57 75 31
12.060297447281433 0.3505462243187591 2.684825743494431 57 75 31
10.71776760575473 -0.019266388885937184 2.145264821046985 41 59 18
12.389612983331732 -0.6276269507860341 2.838241633481779 61 81 37
12.326752439928534 -1.29944811202734 2.4930398348783096 60 76 30
12.365059593791722 -1.0459128715047177 2.63698211260759 61 79 33
11.981152980749197 -0.9482119183947427 2.6984571486530537 58 80 33
13.059522808753329 -1.2026209062188113 2.703085085998623 63 82 36
9.931868910033929 -2.948608850032687 2.4779578225315713 70 92 48
9.931868910033929 -2.948608850032687 2.4779578225315713 70 92 48
9.453235465463768 -2.2294986194393283 2.3772827573632904 62 80 36
9.43533777039735 -2.4464910466382452 2.3792634234586063 60 80 36
12.934276080445684 -1.331310876096154 2.4333797935564334 59 74 22
13.901627860145704 2.542795359312535 2.0838861598019385 58 73 32
13.996709166988682 2.20742329012853 1.847515283642913 73 83 57
12.525065031876924 2.3690375007163897 2.2454930466554814 64 81 39
13.637103964860668 2.4186506183057235 1.7793813015186537 68 77 53
9.347143240726608 -3.1199406905395435 2.113069366505825 69 91 46
9.47287551600732 3.050041654971957 1.873503323094873 59 81 38
9.077471713339946 -2.716201024357644 2.131067563732838 59 80 34
10.039671226723087 -3.124268245502037 1.6529545154858407 53 73 29
9.41890432972787 -2.9960411693443136 2.108485152686619 64 86 41
20.308103636907777 -2.846253398309374 2.0757232930806215 46 66 26
9.81373827670886 3.0241138343268394 2.3396932918630142 68 90 46
20.06279162808083 -2.693534172646292 1.9178491445867487 48 65 23
11.85268624254731 1.0229502676881936 1.811360853296756 44 58 19
16.108859339133023 1.8963107065961886 1.8104637174193579 11 14 13
12.224073734192192 1.0153273375894676 2.6582766617455897 56 74 30
13.542487375388829 1.2748925591031859 2.2804519761767774 46 55 22
15.134987232364141 1.902105627956617 2.722293869516519 57 77 33
10.764684616376218 0.27559226936382886 1.8362336365240417 31 46 8
11.568679843106185 -0.1932540929043808 2.585230555949281 59 77 29
10.998536024497888 -0.7230327164999775 2.1288276065486857 38 50 3
12.401162705203017 0.13701242177288173 2.6317358730777967 58 76 28
12.944487092126847 -1.380654697469185 2.722435693066016 63 84 37
12.053372075691772 -1.062579106662562 2.3921521410665516 56 72 22
9.361271813178398 -2.9112874470024503 2.5603384150453876 62 85 43
12.395122447594526 -1.2194804092662213 2.362976310288309 53 68 26
12.934276080445684 -1.331310876096154 2.4333797935564334 59 74 22
13.863239551944293 2.1900518193620058 2.0854470037605735 57 69 35
13.587234113505177 2.477719597305092 1.933745463993215 69 80 48
20.236840633837527 -2.7624461732410954 1.8627123199218838 53 73 34
17.55961216302786 1.7386746377146336 2.3895680701123574 64 74 51
11.552772801153226 0.8414014027498182 2.0015487517132926 45 58 21
12.507435626160419 0.44637381836551243 2.35391545235122 43 59 15
12.734173933477882 0.775914239601942 1.714520455750059 49 62 25
10.734808269515879 0.3656186501777899 1.647623469356558 26 40 0
10.689374693228972 -0.3391329461165345 2.0389968261281037 41 57 10
12.06147052462907 -0.02477245609846316 2.522641142537177 55 76 27
11.73146798830984 -0.9624733073140646 2.3008596778761405 51 67 16
12.197775501979253 0.25540991257384577 2.5071221488470163 56 74 29
12.403942597921748 -1.0094010572942391 2.8345723857093907 63 84 37
12.538807126446416 -1.5718278855797545 2.802285580227037 64 86 43
12.578277865762596 -1.3365898037642623 2.7935040934918423 63 85 42
13.096968429481716 2.300802445179514 2.211030876274015 63 78 40
20.12754128523538 -2.7933436285746183 2.024614005669393 52 70 30
12.912789608787637 1.2052441266844478 2.4353249249628677 55 69 24
10.860868609346067 -0.307406516994136 1.8338268955824222 45 63 19
12.6740068804215 -1.1160926739993458 2.3409162143612043 54 69 18
11.382581817143564 0.07503953012112055 1.8215052459557615 40 59 13
10.001710300112528 -2.534191651323652 2.321665775136591 60 81 36
12.368266376927846 -1.0221686694734504 2.255675771543424 51 65 18
12.619428705524518 -1.2581239900662322 2.601611152294253 61 80 27
14.441242196059052 2.008609032126243 1.76760953604808 2 6 3
10.397459072414662 2.8662257552504324 1.5538599923573488 52 70 26
13.798201122852053 1.1845981346244243 2.2646406468055114 49 60 29
11.057529101056438 -0.6367489808975338 2.23588416177053 50 66 16
13.023258538077624 -1.4328725981314514 2.5519182088390306 63 79 30
