11.26555573050358 0.5659203042596822 1.7783127245731214 45 58 21
11.033268110769397 0.48560883993663395 1.8765404059743411 44 58 19
10.865360771704559 0.08816468145140367 1.8814219331827595 39 53 9
10.625966998227021 0.39787782462566407 1.8886626547265024 36 50 7
11.448975057419283 0.37918859158660134 2.38443884253849 36 50 7
11.23501184632075 0.22615088141369383 2.2805246259151204 30 46 2
11.108720026639274 0.1092435728705475 2.2903324634272906 25 41 0
10.835369486082547 0.33711438092805357 2.193669808692022 35 49 6
10.945226937677145 0.7576708424733304 1.9766334902836464 56 69 34
10.146077210880069 0.44009788183465826 2.010734258236184 43 57 16
10.827475889725413 -0.008644430156423341 1.8825453625051045 42 58 13
11.605725702440948 -0.5794446799654939 1.8610087073023018 48 64 18
11.96924390782353 -0.41403865816843394 2.1271664652690365 43 59 11
11.803652653667461 -0.5102984161712167 2.353156138833317 57 73 23
10.71951641204328 -0.00957336624683157 2.0902299243514406 31 46 4
11.593568575559543 -0.2912366595910389 1.9527246191668988 44 59 15
12.002204887434297 -0.2912366595910389 2.0301166192121554 46 61 19
11.301694182515474 -0.11651048062757115 2.164338246048543 34 49 4
11.249449851073395 -0.00957336624683157 2.1674749793720265 28 43 1
11.803652653667461 -0.5102984161712167 2.353156138833317 57 73 23
11.665531718772266 -0.3205269744431026 2.143440822733299 42 58 11
11.47260693483485 -0.41403865816843394 2.0530808655284565 42 58 13
11.44143613531068 -0.2208455818259843 2.1561203996551375 40 54 9
11.784513257519924 -0.2000111026150712 2.0392741230747617 47 61 18
11.892594228439577 -0.14799366887860968 2.4715076092066517 62 81 32
12.278728403331488 -0.4587050790195219 1.9304104465666432 48 63 22
11.611657394456646 -0.5497487082458125 2.146434943103688 43 59 14
11.9823430350995 -0.7703859522222155 2.1264867414889035 40 55 3
12.001685923704995 -0.6948534407084759 2.226858653593698 45 63 17
11.73395970689512 1.1949740988774047 1.5981600640512854 42 53 22
15.084807866478487 1.7765654539344493 2.0775319671632975 12 14 14
14.107259730908103 1.8495238789619648 1.8820994456464626 12 14 14
15.98924223792704 1.7932973874135871 2.2724731886782683 13 16 12
15.569309418768073 1.8715877616815921 2.212649317254604 12 14 15
15.46685666398894 1.8973100563903982 2.3013750077886304 4 7 4
10.460916209952876 1.0724100924909468 2.1044234878041816 43 53 18
11.710519802248962 1.2872538035582761 2.3610922629981816 50 61 24
10.763893763908747 0.9160921469061064 2.1984474751297793 45 57 20
10.801928913289167 0.8393506285133419 2.315499356024449 47 60 23
10.892300803152017 1.2156119535296368 2.081182590706759 42 53 19
11.077606978471595 0.9412984908733201 2.4206124955750585 44 59 19
11.305837319690534 1.248904804011328 1.9629677890417578 41 51 23
11.000429153080557 0.8978725371962962 1.974478217136114 53 66 31
11.521505304916223 1.060942094929112 2.5132669360563633 55 69 26
11.84717123254461 0.9412984908733201 2.4763611031694883 51 65 24
11.830322621378672 1.2488436143373016 2.478178568119194 54 67 29
12.115147238599405 1.1989499589865296 2.5904227838653116 54 70 26
11.022791276931235 0.7468237790473914 2.426289627557149 48 62 23
11.148563974795143 0.555190109080536 2.4133996001100675 39 53 14
11.521437116156145 0.869142462563712 2.6810518686748073 57 73 29
11.659972643888649 1.1319257874443052 2.6576531839864654 56 72 26
11.415874334532164 0.6352499299424365 2.5261163677121314 54 68 27
11.710318536651693 0.692152831054659 2.883028334922801 57 75 31
12.128856777020111 0.14347797299729667 2.5885867503404474 53 69 23
10.746602736962888 0.692152831054659 2.859233188075745 57 75 31
11.898123540216396 0.9784016104566655 2.620853122328866 56 70 27
10.968650826004508 0.9010061380630175 2.796246924885188 56 74 30
15.03465236751663 2.1294548975989396 2.659491742377694 62 80 36
14.888006072129524 1.8991123635324219 2.545582610042488 61 75 36
14.873536358065852 1.9638581178594352 2.4358861827682463 62 73 39
15.101070924995541 2.0077398981470367 2.525089684804813 59 74 34
14.888006072129524 1.8991123635324219 2.545582610042488 61 75 36
15.442621388885913 1.864468753231279 2.4945327764152645 60 71 36
14.366527440500406 2.3277885160758545 2.757737785766651 59 80 33
14.366527440500406 2.3277885160758545 2.757737785766651 59 80 33
14.127111528615465 2.4743109777323724 2.8021544455822847 61 82 36
13.009834401264277 2.121147303229228 1.7501635188964788 5 7 7
14.061284135838395 2.082861695288662 1.8092327914306305 10 13 10
13.864510618132915 1.9462583065723302 1.9646922270856453 12 14 16
10.010311704195248 3.047908625135341 1.804791232496033 55 75 31
12.360396983882241 2.522296500885635 1.8428231961187955 69 78 49
10.947674310018677 2.6727179881297918 1.691760107112544 63 74 35
12.760234279572941 2.2309788565382678 1.753711346560719 6 9 6
11.621594140360516 2.7910147818498108 1.7718667381025424 61 75 31
11.324293346895901 2.875849874629341 1.7772207683769605 57 74 31
12.726317390043606 2.457174504373459 1.7542043661286344 43 52 26
12.68860704320754 2.273123806844055 2.185819962562204 61 73 37
13.363012672592854 2.2830908430293984 2.0635178571382564 64 73 48
13.090463327279835 2.164888429834885 1.9893972256529906 45 52 38
12.315598848967316 2.4700106914143602 2.017569118191459 64 73 40
13.909157742199817 2.2151316775536656 2.2121019728351126 64 74 43
12.71802960883352 2.3423474990878903 2.0909511424342724 64 75 42
12.155110277636062 2.4865643117524954 2.217177813378075 63 75 42
13.456412999734253 2.139458283189346 2.2374635102549307 58 66 42
12.267609151571627 2.5445382943672015 2.112110804331014 60 73 38
13.061879714980849 2.0923297331615514 2.0759372010991464 13 16 9
14.587318859748551 2.1063928789142468 2.4592350644794956 62 76 37
14.88657552303466 2.1675163805172484 2.5457242985159034 64 80 37
11.701423162808464 2.779935502626148 2.3618776230591636 64 84 40
11.989375905017807 2.6713639009373003 2.3378747893953222 64 82 36
11.701490302725661 2.5735493299580785 2.2467616271135595 67 83 40
11.73332145938824 2.818533727885795 2.2445877594232386 58 74 30
11.73332145938824 2.818533727885795 2.2445877594232386 58 74 30
11.315048117231441 2.627450136783477 2.060384733672305 57 72 34
11.839585111011296 2.73144914604787 2.4771782583499595 62 82 38
14.070055781324834 2.3337006437335224 2.63766480213026 63 81 38
12.149060576283421 2.5940720529426855 1.9344261630091903 67 79 45
11.43574532157046 2.8499018964865 2.0547691035668203 59 74 31
12.216390279468063 2.758156085979122 2.1146334071535993 56 71 33
11.212307266856854 -0.5753388225922621 2.4070463719638564 60 76 26
12.143537606646774 -0.1710405957293351 2.5866312491432115 56 77 25
11.740708581810713 -0.7362587399148431 2.8734161542033108 60 81 35
11.66960816166816 -0.45555697441608667 2.4960033194257023 60 76 25
12.143537606646774 -0.1710405957293351 2.5866312491432115 56 77 25
12.273698507268838 -0.3199444475758426 2.5697542346977094 60 76 26
11.791237989512101 -0.37513392199624956 2.636882738794057 60 78 30
11.036871381024316 -0.5636613188632579 2.7794567533610315 58 79 32
12.160872995132982 -0.2477721266259273 2.767775320097675 59 77 30
11.604571020064242 -0.4413647523250778 2.920086806751905 61 79 33
11.553696339978215 -0.038626048187578664 2.940572849080499 60 78 34
12.502761466271588 -0.016790413821490668 2.7033141059029333 61 77 32
11.58312862606003 -0.891017273688308 2.6704301586523003 59 78 31
11.907109241535967 -0.7596593831077949 2.619538861515013 62 78 32
12.502761466271588 -0.016790413821490668 2.7033141059029333 61 77 32
11.269015011284813 -0.7516142089316431 2.728486295678544 58 79 33
11.161065044378706 -0.5272851108398282 2.5591824606605997 61 78 28
11.235868553877115 -0.2477721266259273 2.735269055948871 59 77 31
12.086032150089158 -0.7679639662764807 2.330193579697867 55 73 25
12.439607235562768 -1.1284369361374196 2.2000320331296876 54 69 17
11.614387787985207 -0.6790711047165984 2.369486392540722 58 75 26
12.131613266742251 -0.9903226710039651 2.2186399873326295 59 71 24
12.37771176653935 -1.0817044308292343 2.3080541346074153 55 70 20
12.760020779667508 -0.9903226710039651 2.2811717688404496 59 72 25
12.776519741199353 -1.1828991819144683 2.388452636929282 59 75 27
12.856206699412066 -0.9283453353844197 2.381864044633857 59 73 30
12.168043690502097 -1.1345223701458866 2.4434331667968197 60 76 30
12.731574740608407 -1.2564064430802129 2.5160836990733695 61 79 36
12.55504181495374 -1.293179840976986 2.4074635537866778 62 78 30
12.624529548972124 -1.1454772245599543 2.683165939216764 60 81 35
11.459290121530657 -0.868649078789209 2.5207784238279913 59 77 29
11.937064108594665 -0.955365038321799 2.4668200483127687 59 75 30
11.7361261278635 -1.1454772245599543 2.6454496822755513 60 79 35
13.314321793429318 -1.293179840976986 2.4578021192845125 63 80 34
13.431962855091049 -1.2220186043076373 2.3377501210761586 57 73 23
11.87121357787105 -0.7646102780218166 2.4737838068771048 61 78 27
12.20306625125051 -1.2088928570582123 2.578811860853521 61 79 35
11.807286975604203 -1.171030666907816 2.853608900085459 63 84 39
12.588987793054615 -1.3887225882952503 2.5319402292980886 63 82 40
12.85831063289884 -1.5207172588283673 2.6475978133015126 63 83 43
12.41603732633043 -1.5108983675471708 2.718462757788733 64 84 44
12.480719715258829 -1.319738817807241 2.7070975582383148 64 84 43
13.334169367927666 -1.5108983675471708 2.749261920291861 65 87 45
12.361145974754008 -1.656480671212101 2.425017998694595 64 84 40
12.345376119470687 -1.5330854872631787 2.426485770760102 64 82 36
13.178041701898161 -1.4108229866490296 2.470592515011742 63 81 35
13.131641925247855 -1.656480671212101 2.4750558981838093 63 83 39
13.486267223275812 -1.3658361504585772 2.144625460230512 50 64 17
14.054234004788503 -1.3658361504585772 2.2044173422359714 55 69 22
13.92519700899537 -1.4536348669722847 2.2112423311840717 54 68 21
9.232833813235443 -2.8002225356850627 1.6055754270584093 56 76 31
9.370973848405297 -3.0169847326244503 1.9330654498965214 58 78 36
8.932069831572838 -2.7598364997079132 1.9517558218971214 66 86 42
9.69873597485067 -2.7019939870258733 1.7074289986740316 57 77 33
9.805009452451912 -2.557268763450521 1.916340778758647 56 77 31
9.969177993116446 -3.132404002923902 1.8057748475797624 57 76 33
10.138167641631531 -2.8391219495934825 2.3776685433915414 70 94 51
9.585816695530161 -2.876490040750063 2.159274253433486 74 96 52
9.068946569285474 -2.876490040750063 2.0674270732979414 66 88 42
9.271579360755416 -2.9803292890200166 2.3209698488282626 72 94 51
10.390409644143658 -2.709286741762293 2.3526505056501965 71 95 54
9.852210470934613 -2.7598364997079132 2.141336097654582 73 96 55
9.350078145119625 -2.7598364997079132 2.0512031409992466 68 88 47
10.136526216531099 -2.5188634907283043 2.377837598426466 66 88 45
8.891997662688958 -3.000991549585043 2.078243393359393 66 86 44
10.210005906309872 -2.6531353266496316 2.119005687638655 62 82 38
9.479166752879832 -2.593281189215149 2.1668016132982384 64 86 43
10.136526216531099 -2.5188634907283043 2.377837598426466 66 88 45
9.479166752879832 -2.593281189215149 2.1668016132982384 64 86 43
9.958595918977586 -3.130015921760974 2.2584586800953397 68 86 40
9.271579360755416 -2.9803292890200166 2.3209698488282626 72 94 51
9.951521078317187 -2.4916247107160805 2.134945050519369 60 82 39
9.913891432629326 -2.4123048904573974 2.262168322558953 60 82 39
10.0765924252066 -2.3159178512332343 2.3840689321275397 64 86 43
10.462476417237461 -2.322748113618656 2.2195118573959514 61 83 40
9.890466264918961 -2.322748113618656 2.1388558902692987 60 82 39
21.050812079195616 -2.689060208863755 1.7292214705890827 55 72 34
20.128046613203185 -2.7791442730953575 1.6863673971267064 55 72 34
20.411787297329372 -2.623394313397194 1.6355613018398298 55 72 34
20.128046613203185 -2.7791442730953575 1.6863673971267064 55 72 34
21.309725700208972 -2.6467125581132325 1.4919263772794065 57 71 28
21.357380195369217 -2.7518777715574605 1.492102723536911 59 76 38
21.70156556787063 -2.7092195032422146 1.5395052253971957 59 76 39
20.82307877318023 -2.7332253289008603 1.7798275389654372 55 72 34
20.59201909971744 -2.6670782421577193 1.8321652898306797 54 72 32
11.491701668536335 0.4447103848359159 1.6860074588705745 37 51 12
11.057068805898334 0.49153473590774444 2.2944330837174594 39 53 13
11.071880774401526 0.618544095909247 1.9717233156026654 51 64 27
10.610606609091201 0.44009788183465826 2.0961090346298783 39 53 10
10.757781493634102 0.09758231892960864 2.0881971946289175 30 44 2
11.756866926069009 -0.010725979307395706 2.357119284585195 19 34 0
11.89911768827801 -0.377743457506601 1.9424320137708193 45 61 17
11.806866195590777 -0.13038902795690585 2.3528856484292757 12 29 0
11.940697584474412 -0.24642721055627592 2.3418122496564604 18 33 1
12.155592467961483 -0.35609073907474714 2.3247750964734397 32 47 9
12.238878068225537 -0.4000580130521041 2.4365641596029053 59 75 25
12.025471588490955 -0.27853849923567264 2.457683085125625 61 77 29
11.526590804221767 -0.608467052405172 2.2589912583282583 51 67 19
12.146803550278872 -0.7065645846370786 2.0242372588277617 44 59 12
11.93042157360956 -0.5794446799654939 1.9414095738441084 43 59 16
11.9823430350995 -0.7703859522222155 2.1264867414889035 40 55 3
15.59466313237709 1.7765654539344493 2.133627578118098 12 14 14
15.569309418768073 1.8715877616815921 2.212649317254604 12 14 15
10.889389355831018 1.0337965423248747 1.8807136548568184 46 59 22
10.627168517490247 1.0337965423248747 1.7909777919617174 45 54 22
10.886049315067295 1.161000211333162 1.6924482611214242 43 53 22
11.290340591972127 0.8311984026440288 2.1650168788477204 50 63 26
11.2740660773802 1.175038789848407 2.2775525784093507 44 55 19
11.641958895572245 1.0136687547121297 2.3670573573563685 44 55 18
11.521505304916223 1.060942094929112 2.5132669360563633 55 69 26
11.521505304916223 1.060942094929112 2.5132669360563633 55 69 26
10.838367931245978 0.6617224856411722 2.312404801916681 37 51 12
11.221483086688197 0.7220549534793983 2.7382588934822634 57 75 31
11.659972643888649 1.1319257874443052 2.6576531839864654 56 72 26
11.38128444669236 0.851028319552676 2.5304276192265016 54 68 26
14.888006072129524 1.8991123635324219 2.545582610042488 61 75 36
14.366527440500406 2.3277885160758545 2.757737785766651 59 80 33
14.366527440500406 2.3277885160758545 2.757737785766651 59 80 33
13.61359957067933 2.0167846488400363 1.8172337139978918 11 13 15
9.96925679918566 2.946980312827667 1.7036991044286809 55 75 32
11.910211755796587 2.522296500885635 1.5977550257223154 36 44 23
11.887595280163815 2.7111252914641377 1.4290866206801907 65 77 38
11.621594140360516 2.7910147818498108 1.7718667381025424 61 75 31
12.779517395130188 2.4700106914143602 2.088197478696484 61 71 39
13.27055984339351 2.2309788565382678 1.9024545708087182 18 23 15
12.121321981304472 2.409813363649373 2.1193826109987253 63 75 38
11.701423162808464 2.779935502626148 2.3618776230591636 64 84 40
11.01277504498119 2.779935502626148 2.297992246635855 64 81 35
11.933916410951213 2.8499018964865 2.129008520096854 56 72 32
11.695205954983987 2.6727179881297918 1.9492365064542794 61 73 35
11.006097456231734 2.8499018964865 1.9742582440192742 56 74 32
11.959197608798533 -0.9297075698216924 2.813439451853628 61 81 37
12.54978938969792 -0.20247364580451765 2.6953856207108364 58 76 32
11.740708581810713 -0.7362587399148431 2.8734161542033108 60 81 35
12.54978938969792 -0.20247364580451765 2.6953856207108364 58 76 32
11.601770599636176 -0.6223915401270097 2.6672856977413 58 79 32
11.973216948262527 -0.5753388225922621 2.4630547996584413 60 76 24
12.255634495593505 -1.0574635068302007 2.748534466058844 61 82 36
11.376419102832555 -0.4517764141621292 2.7074510033257178 60 78 32
12.619443037482977 -0.8438560257243326 2.290793967254134 56 70 24
12.430816853868818 -1.0734932223316014 2.5504042270499934 60 76 32
11.459290121530657 -0.868649078789209 2.5207784238279913 59 77 29
12.47684531345916 -1.0250275224794607 2.4144358703233704 59 75 30
12.776519741199353 -1.1828991819144683 2.388452636929282 59 75 27
13.221469071874191 -1.3224117401548372 2.3532097919665405 60 76 26
12.107443791633374 -1.26182922347069 2.7791916508541505 64 84 41
12.361145974754008 -1.656480671212101 2.425017998694595 64 84 40
12.410426795772054 -1.4108229866490296 2.420470949885203 63 80 33
12.87345216366222 -1.684412236141998 2.645418163151895 63 86 45
13.692690945888737 -1.2811220975739224 2.134911261687643 53 65 16
9.514693894725344 -2.8002225356850627 1.817226153730791 60 80 36
9.325236775513128 -2.6531353266496316 1.9349249494150598 60 80 36
9.514693894725344 -2.8002225356850627 1.817226153730791 60 80 36
9.700532468423434 -3.132404002923902 1.6038979693668027 58 75 34
10.004936726499821 -2.9293530892056 1.7032223470293784 54 75 29
10.26045458761715 -2.833130353405516 1.6999058318157014 56 75 33
9.761070618237843 -3.029724764112335 1.603692598695671 54 72 28
10.498139893118214 -2.403540920157781 2.1023299581048605 58 80 35
9.418583347670491 -3.000991549585043 2.171171074457959 71 91 49
10.545761430019333 -2.644573211844118 2.48004377818449 70 92 51
9.610387373068901 -2.425044026348687 2.4368597025731433 62 84 43
9.441416910934219 -2.8391219495934825 2.304334116303224 74 98 55
9.439654331312788 -2.5188634907283043 2.304502422173696 63 85 42
20.412602481379466 -2.7332253289008603 1.6355587118069765 56 73 35
19.979432222280156 -2.5979993283359253 1.7887935280823726 52 67 26
11.303374920594436 0.6940217731739946 1.869006690805847 51 64 29
11.015245961233209 0.8251852649570981 1.783099620825474 55 68 33
11.995802980728206 0.2558504481045239 2.4607228677269193 47 63 19
10.836905060548013 0.5918581019384928 2.1935680365386467 46 60 21
11.802309428527147 -0.4575112274798264 2.239929266413779 40 56 6
11.865870356805251 -0.5004663312049284 2.0358074615809096 42 58 15
11.2273992282106 -0.10529228025630862 1.965859028491448 46 60 14
15.952307877863598 1.8129333258089781 2.3598412096222128 4 7 4
14.84247138460443 1.8495238789619648 2.0107256289194524 12 14 14
11.504111453485303 1.3110280430050112 2.6840968409220576 56 72 28
15.285754677916229 1.8362811527219813 2.4047995808215714 44 48 37
15.442621388885913 1.864468753231279 2.4945327764152645 60 71 36
13.835986854768954 2.051839036376279 2.045253189863054 8 10 10
13.044169293513455 2.051839036376279 1.908437700517605 8 10 10
9.74280045611365 3.047908625135341 1.6037543096718259 54 74 30
9.826711076011057 3.047908625135341 1.7056386689818768 53 72 30
11.935784604968541 2.5940720529426855 1.2574654853326623 59 69 35
11.431246797919904 2.5940720529426855 1.6866194921969688 67 76 47
14.449508650687868 2.2420280337259912 2.591921698030007 64 82 38
11.818307989683328 2.627450136783477 2.135128830636737 60 75 36
14.587318859748551 2.1063928789142468 2.4592350644794956 62 76 37
12.903325368500797 2.4033657146583143 1.9958589131329405 33 41 21
12.155110277636062 2.4865643117524954 2.217177813378075 63 75 42
12.020510098413116 2.7189060044383484 2.2256536789036883 58 74 34
13.335013282844795 2.2151316775536656 2.1519746698573448 68 78 48
12.124256932183162 2.6128932233997975 2.447748049371471 65 83 41
12.903325368500797 2.4033657146583143 1.9958589131329405 33 41 21
11.655690622267928 -0.20247364580451765 2.658352576716238 57 77 30
11.843835961449935 -0.3183032370703172 2.843368061507318 59 77 31
11.47813322662449 -0.6566622597206788 2.5184865231094724 62 78 27
12.094930184203443 -0.014127850613828406 2.5931480209779814 58 74 28
12.11233514069297 -0.020689445174207045 2.7781280343671226 58 76 32
12.758351629297403 -1.2220186043076373 2.281284310188358 55 70 20
13.489021674683622 -1.2542140165817832 2.2355627960935163 54 68 19
12.047586162051985 -0.9087002534277534 2.123127448116348 35 47 2
12.776519741199353 -1.1828991819144683 2.388452636929282 59 75 27
12.20306625125051 -1.2088928570582123 2.578811860853521 61 79 35
11.122272626014443 -0.9947961284337121 2.5644995988910275 58 76 30
12.054229308022528 -1.359642229534797 2.598699724830288 63 83 42
12.540408693883878 -1.6684954066564628 2.5375091331577155 64 84 43
12.524864547437558 -1.5277720806111403 2.5393097383050263 64 84 42
13.334169367927666 -1.5108983675471708 2.749261920291861 65 87 45
14.544868565342336 -1.4536348669722847 2.2663982797172997 60 74 27
9.844825516888356 -3.029724764112335 1.705389049053896 56 75 32
9.238572967024446 -2.905794249617487 1.8247514050248996 59 80 33
20.500808533205873 -2.623394313397194 1.6842568432972367 53 69 29
21.254328953460206 -2.6467125581132325 1.5388465717698367 58 75 37
21.30210737587479 -2.7518777715574605 1.538918256075164 57 74 36
10.43597639791014 0.202544185871943 1.9976982588576888 30 44 2
12.195126883684273 0.37918859158660134 2.4407908019591726 41 56 15
10.798993101409605 0.6802887510418538 2.0860266481783385 47 60 23
11.802309428527147 -0.4575112274798264 2.239929266413779 40 56 6
11.59166368757214 -0.6326401020405368 2.047711388124207 44 60 14
14.888006072129524 1.8991123635324219 2.545582610042488 61 75 36
11.275332877548252 1.0381889217054994 2.727209831287694 58 74 28
13.539484337378116 2.343920341076819 1.9746903751527767 32 38 22
12.315598848967316 2.4700106914143602 2.017569118191459 64 73 40
11.754886084967076 2.5087089548934736 2.3572881229802105 67 85 43
13.178601833212708 2.343920341076819 1.9048585835319822 4 8 2
11.933916410951213 2.8499018964865 2.129008520096854 56 72 32
11.73022172068933 2.758156085979122 2.0416177010430347 59 73 32
11.977254264856516 -0.5636613188632579 2.8090398349241834 60 79 33
12.731574740608407 -1.2564064430802129 2.5160836990733695 61 79 36
12.480719715258829 -1.319738817807241 2.7070975582383148 64 84 43
12.361145974754008 -1.656480671212101 2.425017998694595 64 84 40
12.601048455418956 -0.9087002534277534 2.190737113262191 51 63 14
12.776519741199353 -1.1828991819144683 2.388452636929282 59 75 27
13.34877114233968 -1.706486669636906 2.7466267271424467 68 90 49
13.116798442262773 -1.5330854872631787 2.476495803262423 64 83 38
12.480719715258829 -1.319738817807241 2.7070975582383148 64 84 43
11.972762346724343 -0.9947961284337121 2.6100846576585157 59 77 30
11.87121357787105 -0.7646102780218166 2.4737838068771048 61 78 27
9.439654331312788 -2.5188634907283043 2.304502422173696 63 85 42
10.187261663784893 -2.557268763450521 2.0088321717172293 58 79 35
10.210005906309872 -2.6531353266496316 2.119005687638655 62 82 38
10.299968159693439 0.30318278108423463 1.8990944818638458 33 47 5
11.5892074652729 0.3763255331992586 2.9260524988214076 59 77 33
13.510735392117612 2.121147303229228 1.8963390741856783 5 8 4
10.579571502745805 -2.4123048904573974 2.335049760499038 61 83 40
10.616773725902794 -2.2276153834383186 2.3316961849588353 63 85 42
20.872789474501914 -2.6670782421577193 1.8784639579578233 51 69 29
20.829126470068495 -2.689060208863755 1.6342618866764222 58 75 37
11.124747166422894 -0.13038902795690585 2.289070773015263 11 28 0
11.373456656348653 2.6128932233997975 2.3914911815056645 66 84 42
12.06511148095714 1.1246942506132769 2.4536624372000455 51 62 25
11.793993422011303 -0.026946449552496244 2.857438787829915 59 77 33
12.333040227564283 -0.8540870957460812 2.427638281843677 59 76 29
13.070953998055256 -1.0817044308292343 2.364722621585392 57 73 25
12.43171754693657 -1.706486669636906 2.715670570164053 65 87 46
20.37152352740626 -2.623394313397194 1.5865564741465625 56 70 27
14.602072199692568 2.0617656075852753 2.5750980564167083 63 79 35
11.659972643888649 1.1319257874443052 2.6576531839864654 56 72 26
9.71177237837479 -2.709286741762293 2.279518515967902 76 100 59
12.315598848967316 2.4700106914143602 2.017569118191459 64 73 40
11.521505304916223 1.060942094929112 2.5132669360563633 55 69 26
12.99553202349577 2.5940720529426855 2.078762693442278 60 73 38
