18.405557636315194 -0.14753235971525364 1.1032268674496692 71 84 64
10.669196517896884 -0.231372477141565 1.731222378291035 54 67 36
10.284088650924465 -0.040476806993392754 1.6393329140101967 59 73 38
16.44471680941108 1.2871517273975062 1.177926458441942 60 78 32
16.44471680941108 1.2871517273975062 1.177926458441942 60 78 32
15.419766407777143 1.3179556595816164 1.0027428081592484 60 78 31
15.995327268191042 1.2674901243124206 1.0971711278214658 60 78 32
15.759042248677545 1.3358651039876075 1.0894711058566122 59 79 32
8.771797365597028 1.4260308816436456 1.4225400345388801 51 66 10
8.257694279376215 1.165804051228038 1.5349777842686518 55 68 13
8.669326778191651 0.9974798719499017 2.012285486669737 58 71 16
8.704112114108478 1.4260308816436456 1.6517988957927612 58 71 14
8.444794058625492 1.5376447642610882 2.024889013546835 62 75 18
8.361348037160221 1.2822336332670587 1.9001451037829515 60 73 14
8.723598223698309 1.0599026442186357 1.6516175629779513 50 65 9
9.012557786192884 1.4072639300945107 2.1199552279288523 62 75 14
7.825955253526642 1.1121265000383596 1.9236246697189339 58 73 16
8.399978123849142 1.241329891417069 2.1652247923012595 63 76 19
10.25406315508374 -0.25535755989914716 1.9404048551368227 64 76 44
10.474923756936722 -0.1517899604465449 2.036553731205267 47 62 27
10.395350984557723 0.06312964343053856 2.0404050018511004 51 64 27
10.474923756936722 -0.1517899604465449 2.036553731205267 47 62 27
7.824736528759321 0.8230974658350647 2.2158067678651565 62 76 22
7.993313900556034 1.0435603205014976 2.200032573660272 61 74 19
7.936471482832715 0.9201233613558598 2.056399641512642 59 74 19
7.267594678334984 0.8230974658350647 2.1056310528756623 61 74 19
10.698248157869 0.2151667366412367 2.3748069023915406 63 77 33
11.295348596672106 -0.4310550610968739 2.604382887480665 74 91 53
10.80967435192157 -0.22262034092019445 2.506861227833855 69 85 48
10.596361000744242 0.08047401293517513 2.3848393602564144 59 74 33
11.558413529072077 0.09327724226582475 2.5673173831447014 68 81 40
12.006794594958887 -0.26322553414011635 2.6714836790533574 73 90 52
10.166875407636025 -0.3215018268756164 2.2908490344343266 73 86 51
10.588353000766435 -0.05719110677615718 2.3856406216776875 64 80 42
10.852369551868923 -0.3215018268756164 2.3601770759814285 71 85 49
10.724116905141937 -0.5765993837055361 2.517776378829353 71 89 52
10.732583751040517 0.09327724226582475 2.5166810513214966 65 77 34
11.930329569412066 -0.07889392226218514 2.6842587940611056 69 88 48
9.838045488266598 -0.4401458519526596 2.189302716213441 72 87 55
8.008245079885222 0.9539248348955072 2.363568128363539 62 77 24
12.023784008640416 0.6133279139332156 2.910548065464152 75 94 54
12.805225010928558 1.413390772892866 3.015949312084808 76 97 61
8.431055980987976 -1.4972752271907879 2.723335717502691 77 96 63
9.433682001817886 -1.2195297529367728 2.7457749211238527 79 99 66
11.785527263396022 0.43713302444189095 3.0241077185450482 77 98 62
11.785527263396022 0.43713302444189095 3.0241077185450482 77 98 62
12.466270426195928 0.13669780744558013 2.7901475374143656 76 93 54
12.466270426195928 0.13669780744558013 2.7901475374143656 76 93 54
12.466270426195928 0.13669780744558013 2.7901475374143656 76 93 54
11.785527263396022 0.43713302444189095 3.0241077185450482 77 98 62
9.69319230019883 -0.7983159848635801 1.9629215809804943 72 89 51
10.542001128806238 -0.5807650516364089 1.92984469469942 67 81 53
10.06875168247993 -0.8703370501372854 1.8427168841421426 73 89 52
10.474349828268265 -0.49131072710480356 2.03658127291683 63 76 45
10.064960754469237 -0.49131072710480356 1.9476939983275523 62 76 47
9.532232922229674 -0.8848091382366935 2.0869210765798067 75 92 54
9.812504673040815 -0.95457803408659 1.9578984369893702 74 91 53
8.267661036886006 -1.2332567315536995 2.1760834968453486 74 91 53
9.808361209311386 -1.1029790304182234 1.850126849311771 69 86 50
8.903880295499464 -1.1575484263581146 1.9998719263420346 69 86 50
10.833070191364042 -1.4512046290780916 1.8230968835651336 72 89 46
11.50515640527721 -1.4615941573321296 1.6320493198321007 73 88 46
11.439647813152254 -1.5487642354978013 1.632400525273408 72 90 46
15.92024849641467 -0.6018572313165056 1.9372466989420103 34 36 29
10.316417346635392 -0.6990930741734889 2.414031335530838 71 89 53
8.9675046465687 -1.29457891142422 2.604370601669215 78 95 59
8.9675046465687 -1.29457891142422 2.604370601669215 78 95 59
10.174624285690074 -0.6149110266653762 2.2901811940424777 72 89 56
10.169431170739513 -1.540913883234814 2.1662986170590615 72 90 50
10.169431170739513 -1.540913883234814 2.1662986170590615 72 90 50
8.708497175807075 -1.343667040630048 2.4494110756141696 76 94 54
9.179644338301598 -1.1016826612706188 2.2413320984260103 76 93 55
8.907356784252661 -1.1767579776206372 2.4229017044455596 76 93 57
9.211084990537435 -1.0300462490356914 2.385977161371321 76 93 56
9.609743416129074 -0.90519719812263 2.3429153011494144 75 92 55
10.047127093341798 -0.7138325171572003 2.1745697817539247 72 89 53
9.58155457558651 2.368466582816978 1.7496192750716848 66 80 40
9.668449570387633 2.2193277015757586 1.7479949920252755 66 79 36
8.714256444541368 1.6577604124031227 1.4215537777492733 57 70 17
8.917942366111886 1.6577604124031227 1.3104382554780405 57 69 17
9.985308895149617 1.8806382710525882 1.1260780800239885 53 65 17
9.338836681607491 1.918442181153161 2.0987115415912214 62 76 24
10.61624345533491 2.2193277015757586 2.02987392802257 66 79 32
8.508626910016835 1.918442181153161 1.8942347454889523 63 76 23
8.474164553020215 1.6691564026950103 2.0231979670644233 63 76 19
9.58155457558651 2.368466582816978 1.7496192750716848 66 80 40
9.536202191458266 2.1301484739966994 1.217917787661301 64 76 26
9.041528654560663 1.8806382710525882 1.648769738072696 64 77 23
8.784302669480558 1.6577604124031227 1.7660493875750234 63 76 21
9.041528654560663 1.8806382710525882 1.648769738072696 64 77 23
10.139745032895394 2.9804308916595583 1.342408407204676 69 82 53
9.729172910970737 2.75269551890163 1.3325878987410424 73 87 48
10.962068137423055 2.882404885932852 1.168132087685168 71 83 48
10.41239085824592 2.6588733139066627 1.2487391953556097 75 89 57
10.058702525903698 2.9623815773049427 2.057463988671924 69 86 52
10.239984180252153 2.9804308916595583 1.8380573647629797 73 89 52
9.735550860499771 2.6072926785449013 1.9611229650016773 68 84 45
9.845738893447148 2.8543057765120796 1.9565227304635033 69 86 48
10.244539899216155 2.5170654981881646 1.9407650166844075 71 85 47
10.022410222889345 2.9804308916595583 1.7416740828842172 71 85 54
9.426039757756566 2.8196093602272314 2.093325359311986 70 90 51
9.747813739709095 2.708269030832041 2.0744159956482324 69 88 48
9.480638878228582 2.75269551890163 1.6451514474868456 73 87 48
9.606824807152298 2.75269551890163 1.749143832517683 70 85 44
9.514725693471167 2.8543057765120796 1.8589901280575256 69 85 47
10.760538639146363 -3.1029852491651497 1.5433114046340726 76 93 59
10.126421377320252 -2.898733174930757 1.4424906590027302 76 95 68
10.760538639146363 -3.1029852491651497 1.5433114046340726 76 93 59
9.935494809032036 -2.9974304800438407 1.440011039805614 78 95 65
10.832133691253144 -3.0990294488379986 2.020045967923669 76 95 65
10.704543735757078 -2.898733174930757 1.9241517670010118 79 98 67
9.950268806186468 3.074843209792489 2.063238913343331 70 90 55
10.222470726179933 -2.8722330805638445 2.049006166854301 82 102 67
10.44491254910724 3.08167307927595 1.933335670274223 70 90 55
10.832133691253144 -3.0990294488379986 2.020045967923669 76 95 65
10.353352181475797 -2.8046239936253405 1.6388736948207596 75 94 66
12.335690303239515 2.288484538758054 2.3540911941548885 62 77 30
11.569314360178407 2.368466582816978 2.188897259474663 64 78 35
9.519905647827573 1.6691564026950103 2.213292195053654 64 77 22
9.519905647827573 1.6691564026950103 2.213292195053654 64 77 22
10.203889360471477 2.029797340538655 2.1640123083199265 62 77 26
11.775373745004144 1.935129436628008 2.7117705813682553 74 91 45
11.736337249576595 2.373725163700702 2.5442942326584768 79 98 56
12.233285053192732 2.2561651075460456 2.636259201588431 77 96 53
12.642108620871861 2.1619216312033873 2.5805798962495583 74 91 46
11.736337249576595 2.373725163700702 2.5442942326584768 79 98 56
12.199552205871608 1.8742033942521399 2.6412799237128137 71 87 38
11.451826126208296 2.741592537972903 2.778274988503333 79 99 64
11.632453258627812 2.5379012843007875 2.7394096490965176 76 96 58
12.161877290330349 2.2754316478856453 2.4946436966408814 70 87 41
11.632453258627812 2.5379012843007875 2.7394096490965176 76 96 58
11.807385021501803 2.1619216312033873 2.5355043609709633 70 86 37
11.382968191405315 2.4949344979959887 2.591596880848879 77 98 57
13.315664396384957 2.024587295156564 2.8373886280436773 76 95 54
12.545727047895006 2.224895624304524 2.7732627085172212 79 99 59
13.252704980756493 2.386866814490412 2.8529047090505637 77 97 60
12.545727047895006 2.224895624304524 2.7732627085172212 79 99 59
12.82461327914328 2.0120120096566634 3.0044989638321447 77 98 63
13.081944470448574 2.1655295603148894 2.900724380938997 77 97 60
8.025947650663863 -2.4611553442750247 2.857520526964274 79 100 65
8.460474167185962 -1.7865422044461925 2.715580436022626 79 99 64
8.10859237616955 -1.8713092209799915 2.8244756323051123 81 101 66
8.261125135351895 -2.1974137952814203 2.7723337498261986 81 101 66
11.356701741071348 2.986823300985025 2.800986177625596 80 101 66
11.356701741071348 2.986823300985025 2.800986177625596 80 101 66
11.724828042010717 3.0190490599836433 2.7212735520704565 80 101 67
9.962870813713533 2.8196093602272314 2.180414328757303 71 91 54
10.563096863304438 2.7758056350851694 2.3881801486902616 80 100 59
11.571483735302017 2.719025634552998 2.5655739982237877 75 96 57
11.835070047347125 2.5839901288050204 2.532137556682477 76 97 57
12.586031042553524 2.370631977534535 2.4512629901705316 68 85 39
11.041117983853175 2.9398412712354878 2.343091607738418 76 96 58
11.571483735302017 2.719025634552998 2.5655739982237877 75 96 57
12.253087691804165 2.872580071425964 2.633345693351105 77 97 62
10.934669265910978 -3.0880620407969737 2.352619110661914 79 101 66
10.539313273301877 -2.981218936861785 2.142705908991198 79 100 63
10.942423824003166 3.066259370210375 2.351915736557821 78 99 64
11.112411691830655 -2.981218936861785 2.2184476575338508 80 101 64
10.796348095908561 -2.6731027655483866 2.365421383940836 82 103 68
11.660855941602042 -3.0880620407969737 2.4135125113708775 80 104 67
12.15725559509772 -3.0694938954335402 2.647681207347036 79 102 67
10.26294644866544 3.066259370210375 2.2826672310605804 75 95 60
12.16423079334607 3.0402057685415977 2.646617261434701 79 100 65
10.522869351905989 -2.7979101361684857 2.3922646416962663 83 104 71
10.719490523506385 -2.8722330805638445 2.1319241307070014 82 103 67
11.827392461893925 -3.0801484359136126 2.53306802708544 79 103 65
10.209843863410514 -2.7264529481020134 2.163619145256442 84 104 69
10.452118037127741 -3.094171143324202 2.1480849341946273 77 96 64
11.367525987625601 -2.900209100630877 2.593816608468645 81 103 68
10.339266249910402 -2.9348843230976067 2.4115532225872918 82 104 68
10.548974264205453 -2.0379106688345123 1.5427600392343732 77 93 68
9.983135734079967 -2.140372205867898 2.0614733612930074 74 94 57
10.145317277165233 -1.6501244659812946 1.944560823425588 73 91 49
10.348177741026337 -2.084531818493323 1.9368838076374968 76 93 55
10.681666382112109 -2.0379106688345123 1.731033475117583 78 95 65
10.789727391901572 -1.9496891292634597 1.9212414094502 77 94 61
11.443508680998566 -1.6362696292413415 1.5449521332012026 73 90 48
11.304740332562803 -1.9162665313717169 1.3662985174175744 75 91 67
11.079612604468329 -1.6425353584698659 1.9116941773410736 72 90 46
10.794718329600673 -1.8288044447747924 1.636086152953748 78 94 61
11.338067044390325 -2.508870597921559 1.2758620121926403 73 89 63
10.446544152173763 -2.1700939538876636 1.3492295659862386 70 90 51
10.063824031243517 -2.4500521235366204 1.5414081039851908 72 91 59
11.035296833612447 -2.1189388778938816 1.5439958936304634 71 91 55
9.319096335919856 -2.623664920088253 1.8652190223909288 78 98 63
10.050997865856413 -2.309156741413541 1.6409249139899 73 92 56
9.814762577535241 -2.3014369447496814 2.0706612880832975 76 96 57
10.020873878884846 -2.3815075199917755 1.949436011131366 79 99 60
9.535943018722364 -2.2302493894120885 1.750483909621363 70 90 51
9.946552435959171 -2.6742076866835958 1.7429902730081317 77 96 63
9.412096497899421 -2.4653708239202556 1.975304171561229 77 97 60
10.165750080403454 -2.6742076866835958 1.8400573882585354 81 101 66
9.605588997711877 -2.5316245445648202 1.7491670243250512 75 95 59
10.719190005621005 -1.6713917384755574 2.3727812389860103 71 92 52
10.069639946921573 -2.3925486038930126 2.4419934287244276 77 97 60
10.315578834682242 -1.7756560711344678 2.156730127232551 74 92 48
10.835358925881506 -1.989851978036774 2.1252170913178317 75 93 53
10.367560050407404 -1.9257506953926273 2.2739936457861507 73 93 49
10.024593011223336 -1.6713917384755574 2.3033679374063225 72 92 51
10.546468673038609 -2.2906900304822106 2.389862548211697 76 96 57
11.040601013293664 -1.9257506953926273 2.3431372219762947 74 94 50
10.703337615111602 -2.0996000258818923 2.37431348853663 73 93 54
10.676292407847935 -2.038843638354582 2.2497254874497172 72 92 53
9.877972785288462 -2.562235841514387 2.186429096529145 81 102 65
10.331414897743857 -2.3014369447496814 2.1557131731828045 76 96 57
9.742062460207164 -2.3860399398360865 2.196331904590958 81 101 62
9.742062460207164 -2.3860399398360865 2.196331904590958 81 101 62
10.284088650924465 -0.040476806993392754 1.6393329140101967 59 73 38
15.867014387508618 1.2019173129197473 1.16279001294127 62 76 31
16.28967698382838 1.2019173129197473 1.1064107387330984 59 75 29
15.583463375471824 1.4065499616531156 1.0835772868539424 62 82 35
15.583463375471824 1.4065499616531156 1.0835772868539424 62 82 35
8.721394057263796 1.1121265000383596 2.140515921496016 61 74 19
8.426544575537335 1.165804051228038 1.7744531268804147 53 68 11
8.928780209442603 1.5376447642610882 2.1257072160232613 63 76 16
8.291481016750465 0.9974798719499017 1.9030266354224565 59 74 21
8.291481016750465 0.9974798719499017 1.9030266354224565 59 74 21
9.406963660702825 0.3035711311445135 1.9755377820086233 61 75 32
10.225829778715001 -0.3536292189073783 1.8384363893269215 69 81 50
10.09364411469898 -0.3924172994774936 2.0556332137804767 68 81 49
7.894365980209878 0.7177208117016547 2.0592165741320896 61 74 21
9.768102712887705 0.16965700757308094 1.8513091966971618 60 75 34
7.993313900556034 1.0435603205014976 2.200032573660272 61 74 19
10.039878605735066 -0.050272620284493454 2.1750678031043087 45 60 23
11.124502106143737 -0.26322553414011635 2.630752982974567 72 90 51
8.294489413329051 1.18757441620487 2.3291398247717616 65 78 21
8.428373317225056 1.1143056245305936 2.490533391996427 63 78 25
12.051470750690921 1.1198780378750957 2.900976768590588 71 88 42
12.051470750690921 1.1198780378750957 2.900976768590588 71 88 42
11.87721769041491 0.9023652814302511 2.970738727086327 75 96 59
9.433682001817886 -1.2195297529367728 2.7457749211238527 79 99 66
11.53253350322945 0.13669780744558013 2.7602923370955637 73 90 48
12.161612414401107 0.17795775948469575 2.8664844021365217 76 96 58
10.601789824081617 -0.4452718368498089 1.8287248266992846 76 89 57
9.706128090233063 -0.5469090719834362 2.076784015083109 69 85 56
9.480331145192679 -0.95457803408659 1.860065805861267 74 91 53
10.199964476151738 -0.6414256731769086 2.0501502196841104 72 86 55
9.065570684275151 -1.276003839075822 2.116380627656959 68 88 49
8.594027044510337 -1.1016826612706188 2.150038664979914 73 90 52
9.315694613796426 -1.0501979240833523 1.9797386920664486 72 89 51
9.019999038952674 -0.9855228649412594 2.119450465036932 74 91 53
9.019999038952674 -0.9855228649412594 2.119450465036932 74 91 53
11.50515640527721 -1.4615941573321296 1.6320493198321007 73 88 46
9.160743496417927 -1.0992165381406347 2.5699452646473513 77 95 59
8.883302188111083 -1.5138859644290719 2.6205027484682364 76 94 58
9.457361207484395 -0.8007377149467246 2.218251018487343 73 90 54
8.907356784252661 -1.1767579776206372 2.4229017044455596 76 93 57
8.9675046465687 -1.29457891142422 2.604370601669215 78 95 59
8.883302188111083 -1.5138859644290719 2.6205027484682364 76 94 58
8.87484018767552 -1.2332567315536995 2.268876158238827 77 94 56
9.420372103905727 -1.5243785910659706 2.528430292854383 76 92 54
9.39394265419528 1.9824829155717096 1.6458389522466037 63 75 23
10.212544039905229 2.2193277015757586 1.94198036427926 64 78 36
8.784302669480558 1.6577604124031227 1.7660493875750234 63 76 21
9.604853413109245 2.2193277015757586 1.4354816223038547 68 81 42
8.620231032329249 1.7973592280836488 2.0149788604221968 64 77 22
10.215103251756808 -2.9974304800438407 1.8387243486938967 79 97 67
9.686709574426388 -2.7264529481020134 2.0778951425782894 82 102 66
9.291368819595572 2.6072926785449013 1.3211302301745218 76 89 58
9.096048805810703 2.6072926785449013 1.4278619760022042 73 86 52
10.186761895659536 -2.898733174930757 1.7388906815036833 78 96 67
8.955597915951028 2.708269030832041 1.8775504131455012 69 85 45
10.133490456035393 3.08167307927595 1.8409360130124948 75 92 58
9.127118768493586 2.8543057765120796 1.5383910189225647 71 85 45
9.400658552539834 2.6072926785449013 1.8625891270508623 70 85 47
10.125116376284593 -3.0990294488379986 1.8411650402707633 77 96 64
10.677501583495301 -2.8046239936253405 1.8268547074379722 79 98 67
10.239984180252153 2.9804308916595583 1.8380573647629797 73 89 52
10.768418592988285 3.087236257055857 1.5433315222037076 73 88 55
10.524110593299085 -2.9974304800438407 1.9304827935434123 78 98 62
9.735550860499771 2.6072926785449013 1.9611229650016773 68 84 45
9.65015656466812 1.7973592280836488 2.2032281473084607 63 76 21
9.426957393041663 1.6839748472871645 2.3619747963508297 66 79 24
12.335690303239515 2.288484538758054 2.3540911941548885 62 77 30
11.894688562691112 2.3785048730076688 2.6903855322295667 77 97 57
11.992117702609024 2.6430976190395308 2.673898138878632 75 96 58
12.233285053192732 2.2561651075460456 2.636259201588431 77 96 53
11.894688562691112 2.3785048730076688 2.6903855322295667 77 97 57
11.816989456032141 2.8194623381206356 2.704151364400067 78 98 63
12.382487318905468 2.028128116318641 2.6148907353918727 72 89 42
12.642108620871861 2.1619216312033873 2.5805798962495583 74 91 46
13.48346529999695 2.224895624304524 2.799969544501935 78 98 57
12.80203832752239 2.3785048730076688 2.724453273159637 77 97 57
12.391646014991084 2.741592537972903 2.806957700497248 79 99 64
8.261125135351895 -2.1974137952814203 2.7723337498261986 81 101 66
11.724828042010717 3.0190490599836433 2.7212735520704565 80 101 67
9.535802213811431 2.653292829450726 2.2120451129660976 77 97 58
12.175324645152877 2.4683325095784445 2.4931830031921813 80 99 57
9.535802213811431 2.653292829450726 2.2120451129660976 77 97 58
11.832143004045525 2.370631977534535 2.397418204217859 67 84 38
10.363849099359664 2.910930153579277 2.408906840395174 79 99 60
10.563430590511727 2.9623815773049427 2.1412370521660087 68 88 51
10.36811057991901 2.9398412712354878 2.2739486315241404 71 91 54
11.0297479934035 -3.094171143324202 2.224129612462864 79 100 65
11.660855941602042 -3.0880620407969737 2.4135125113708775 80 104 67
10.527066459389946 -2.839438928518956 2.2612170753746588 82 103 68
12.16423079334607 3.0402057685415977 2.646617261434701 79 100 65
11.29424373111592 3.0402057685415977 2.6045471452893034 80 101 66
10.107055103841619 -2.6731027655483866 2.296052558876562 82 103 68
11.037435752349479 3.074843209792489 2.223596553352796 75 95 61
11.018046322538503 -2.960944019120984 2.3451334603120086 81 102 63
12.660797043772668 -3.0801484359136126 2.578235165035315 80 103 68
11.018046322538503 -2.960944019120984 2.3451334603120086 81 102 63
11.904518690749798 -2.9348843230976067 2.523830294644516 81 104 70
11.827392461893925 -3.0801484359136126 2.53306802708544 79 103 65
12.232302171516238 -2.900209100630877 2.636404456292827 82 103 67
11.620767606970718 -1.7227847700173027 1.459064014167956 77 91 63
11.443508680998566 -1.6362696292413415 1.5449521332012026 73 90 48
11.091567156830664 -1.9162665313717169 1.634336382702011 76 92 65
10.789727391901572 -1.9496891292634597 1.9212414094502 77 94 61
10.877953316153766 -1.854822012315878 2.018016153690808 76 94 54
10.54386700423537 -2.1700939538876636 1.8301743174286722 76 96 58
9.946552435959171 -2.6742076866835958 1.7429902730081317 77 96 63
10.087187315014765 -2.2302493894120885 1.9468219813677279 74 94 55
10.285759577767589 -2.309156741413541 1.3457068698306625 71 88 54
10.384589388672293 -2.309156741413541 1.8342465223401812 75 95 57
10.37007956402548 -2.587329482414388 1.4455214283888511 75 94 63
11.219857349127398 -2.3781700271571795 1.272659744238986 71 88 56
10.423520755780808 -2.2079903890830654 2.269450965078346 73 94 55
10.487273987211214 -2.562235841514387 2.26435545410762 80 101 64
10.531290750597105 -1.8864813983955862 2.143196318034578 74 94 50
8.700149230477301 1.0599026442186357 1.5368000936567088 49 64 9
8.685697853492421 1.5415040577373496 1.4210593735649253 54 69 14
8.149175367949262 1.4072639300945107 1.9090578656246033 62 75 16
9.98272271257735 0.06312964343053856 1.950956890392477 56 71 32
7.329626178978597 0.9539248348955072 2.2676627235035376 60 75 20
8.80142715678256 1.3829721713773422 2.2758951069643913 64 77 18
10.749280261131071 0.18975323393978163 2.2442587040326223 46 60 18
11.785527263396022 0.43713302444189095 3.0241077185450482 77 98 62
11.124502106143737 -0.26322553414011635 2.630752982974567 72 90 51
12.161612414401107 0.17795775948469575 2.8664844021365217 76 96 58
10.902680284009355 -0.2847406256793699 2.233081831863621 71 85 51
12.051470750690921 1.1198780378750957 2.900976768590588 71 88 42
10.064713711642218 -1.012876166547266 1.7409488304244929 74 89 53
9.338836681607491 1.918442181153161 2.0987115415912214 62 76 24
8.925295040955854 1.7717168948525996 1.7629261423331992 63 76 21
9.041918541341126 2.1301484739966994 1.427000357706699 64 75 25
9.5976540397897 1.8806382710525882 1.2202748793243532 55 67 19
8.240134326259172 1.7973592280836488 1.9051773479355292 63 76 21
9.056854543623915 1.7717168948525996 1.314522110388693 56 68 18
9.348292263937752 2.1301484739966994 1.8642721137486427 65 77 27
10.215103251756808 -2.9974304800438407 1.8387243486938967 79 97 67
10.228311388745006 2.882404885932852 1.7382013832635463 73 88 50
10.384587948478833 2.75269551890163 1.1443230243950904 74 85 48
10.548262669641472 2.9804308916595583 1.9296219126921739 70 87 53
10.168217437551101 2.882404885932852 1.4430209495588198 74 88 49
9.638866689966422 2.5170654981881646 1.4359620359609597 71 85 47
9.426039757756566 2.8196093602272314 2.093325359311986 70 90 51
10.868692938116789 2.9952008632235545 1.5435849747967592 68 82 56
8.968927259091243 2.8196093602272314 1.9965564060295167 67 85 47
11.275608574849512 -2.7979101361684857 2.452710326248438 81 104 72
11.807385021501803 2.1619216312033873 2.5355043609709633 70 86 37
12.175324645152877 2.4683325095784445 2.4931830031921813 80 99 57
10.719490523506385 -2.8722330805638445 2.1319241307070014 82 103 67
10.363849099359664 2.910930153579277 2.408906840395174 79 99 60
10.460230334524427 3.074843209792489 2.1475799098230315 74 93 60
11.356701741071348 2.986823300985025 2.800986177625596 80 101 66
8.025947650663863 -2.4611553442750247 2.857520526964274 79 100 65
10.976009446283198 -2.605520514973833 2.4865602166786993 82 102 65
10.746783327852592 -2.084531818493323 2.0238785678779836 75 92 54
9.465768570202929 -2.3815075199917755 1.7518307126990764 77 96 58
11.531669763079769 -2.716321253026257 1.1890791549657884 75 92 66
10.669252559076142 -1.7544110890736084 2.0274195324241333 75 93 51
10.779847658132313 -2.716321253026257 1.4503070752648803 75 94 64
10.063824031243517 -2.4500521235366204 1.5414081039851908 72 91 59
10.703337615111602 -2.0996000258818923 2.37431348853663 73 93 54
9.873499759647999 -2.48663135051272 2.317220563416217 79 99 63
10.35936051667839 -2.3860399398360865 2.2746648539954792 79 99 60
10.578022822801366 -2.48663135051272 2.3866770363298206 80 101 64
11.067074489536038 -2.140372205867898 2.2215503903730727 73 93 56
10.148368500391364 -1.802361236948332 2.292449779615103 73 93 49
10.719190005621005 -1.6713917384755574 2.3727812389860103 71 92 52
10.853857286539942 -2.3925486038930126 2.5013538383983116 73 93 56
15.419766407777143 1.3179556595816164 1.0027428081592484 60 78 31
15.583463375471824 1.4065499616531156 1.0835772868539424 62 82 35
8.736172522017899 1.2822336332670587 2.008672407140014 61 74 15
11.937437364193448 0.11090532494620935 2.6830503990272905 67 84 42
11.930329569412066 -0.07889392226218514 2.6842587940611056 69 88 48
10.985418171619008 -0.36866922453960654 2.485446078917989 72 88 50
11.525175999257268 -0.09734451281550002 2.761887808539293 74 94 55
11.87721769041491 0.9023652814302511 2.970738727086327 75 96 59
10.130317209091618 2.368466582816978 1.9451416248010087 62 77 34
9.577311195675916 2.5170654981881646 1.644399549910344 75 89 55
10.109885485463883 2.882404885932852 1.640515766964301 71 86 51
10.222470726179933 -2.8722330805638445 2.049006166854301 82 102 67
11.992117702609024 2.6430976190395308 2.673898138878632 75 96 58
10.612081617656873 2.1301484739966994 2.1382984500719218 63 77 27
9.857507088894968 2.7758056350851694 2.318722214780211 77 97 58
10.082792033461262 -2.623664920088253 2.056200264193196 80 101 65
10.901658787002273 -1.7371215089510827 1.821475292222841 74 91 53
10.193833847747193 -1.659504486948165 2.1646775323794767 71 91 49
10.785305644784195 -1.659504486948165 2.2415963428441312 71 91 53
10.48815529665522 -0.13717824399009876 1.7340162102518766 53 67 35
8.903069668148285 1.3143032660563303 1.6499848884728665 59 72 16
8.755972545067472 1.5415040577373496 1.7666893258118852 59 72 17
10.596361000744242 0.08047401293517513 2.3848393602564144 59 74 33
11.057164975075011 -1.5466496382754134 1.912414457478025 71 89 47
10.233534016351072 -0.5807650516364089 1.838229951426948 66 79 53
10.581407911325277 -2.8046239936253405 1.3520997249667452 78 94 67
9.163176953737324 2.6072926785449013 1.757878493533469 70 85 47
12.667494976231751 3.0551483056077915 2.5773986085474525 78 101 65
12.986160054027986 1.8526469668389247 2.9328592742322623 76 97 59
12.921595255178289 2.405246505341057 2.9579354745094704 77 98 63
11.964796070706797 2.110825210037599 2.6784397421143002 75 93 48
10.835033574275307 -1.802361236948332 2.3617911779806553 73 93 52
11.331010057087099 -2.038843638354582 2.31846241214388 72 92 50
11.551072509502417 -0.06631447163063114 2.568300371909657 66 83 44
9.36313387022667 -1.37812572517152 2.3688948049417675 73 90 52
9.517377794178936 2.368466582816978 1.4342301712792063 62 75 36
10.460230334524427 3.074843209792489 2.1475799098230315 74 93 60
9.848661321301899 -2.4653708239202556 2.0687825004818503 81 101 64
11.105993088746803 -1.8288044447747924 1.816766880273113 76 92 57
8.533324587376745 1.4072639300945107 2.0198312204231144 60 73 14
10.492911696957412 -0.4999931061253516 2.395338528586999 72 88 53
11.149566904432046 -2.587329482414388 1.1752841081097247 73 92 65
10.052486729840952 -0.7242772125750291 1.8431680552683956 71 84 54
9.580990568640948 -1.1029790304182234 1.749629915565928 68 83 49
10.725580849752625 -0.16985203479827385 2.246023010831326 67 83 47
8.294489413329051 1.18757441620487 2.3291398247717616 65 78 21
