10.240380177455602 1.0070978884457702 1.8943808131540223 33 41 19
10.805868203183831 1.0576805883796114 1.7811287718631148 26 36 10
10.3629880261383 1.143923801025248 1.79026166664113 28 38 13
11.103734609384336 1.1814606084064154 1.6841634230055451 27 37 13
10.76650618728963 1.2680893516534688 1.6877303288563728 27 36 13
10.441751847989988 1.3596598052486364 1.5953256589955238 27 37 13
10.454858302632088 1.5524152291548752 1.7883020089083568 29 37 16
10.272704661696556 1.2374877496859173 1.8933257044165006 30 39 16
10.285516763724859 1.5524152291548752 1.6932254642152362 28 37 16
12.029155859936681 0.6486463211854496 2.1177390053772127 34 43 19
12.116071527392664 0.5664242086736208 2.2129013229501204 39 46 24
11.378148537636156 0.786944891569424 2.262334439406643 37 45 24
9.847029233889371 0.9468889442534373 2.017751798653106 37 45 23
9.847029233889371 0.9468889442534373 2.017751798653106 37 45 23
12.121721391512496 0.6269223360644356 2.32006015104575 39 47 27
11.7961876040138 0.5155884406875261 2.032614398588549 34 41 20
12.107930960672128 0.7217709480991168 2.0198399694721765 32 40 15
12.365184503724215 0.4746263875709754 2.30189706430204 40 48 25
12.37781478537407 0.3049554015497486 2.100675114796199 34 41 18
12.440291297818758 0.4293849405462096 2.193550364138713 39 46 25
12.211130181386926 0.39160507371843944 2.015771494705729 30 38 15
12.15716621520086 0.2133202320779038 2.111339873799226 35 40 17
11.91359016504167 0.2357273594931822 2.2256724917967663 39 45 22
12.353890913304202 0.02250517778644775 2.3027172892619907 39 43 21
12.673748748418074 0.39160507371843944 2.08705160080192 35 42 21
12.37781478537407 0.3049554015497486 2.100675114796199 34 41 18
12.13866710547667 0.33581473834072684 2.2115100117054896 37 45 23
12.149943192076831 0.4196524811820481 2.436918670596488 41 49 26
10.426491766415229 0.9772635719107472 2.340509828813985 39 47 27
10.268157688440377 1.0214506098866734 2.5048708278516743 40 48 28
10.603163431017244 1.5504192858784844 2.0894494981556266 34 40 17
10.066601400692836 1.096351115232642 2.375766051144202 38 46 26
10.32112752072697 1.547937159124462 2.222001463735404 34 42 19
9.184246914159107 1.2760848294493226 2.180098729551698 35 43 23
9.77890891770081 1.2003180596389336 2.021093345190757 33 42 20
10.21225413453391 1.4425095672054171 2.000679222522176 32 39 18
9.79094471496449 1.2760848294493226 2.2639526667262064 36 44 23
9.79094471496449 1.2760848294493226 2.2639526667262064 36 44 23
10.061702897928596 1.1543567294504493 2.2418018538559226 37 45 25
9.500094358794277 1.3102903760281603 2.0353305668685886 33 41 20
13.363799234256891 0.7934043988702663 3.0145524052253942 47 55 37
13.908870860348179 1.526223508355009 2.8340101746977626 45 53 35
13.439846414890134 1.4859753915033054 2.9760464748988644 47 55 36
13.3108046900449 0.17240273015413193 3.050902526874969 55 63 47
13.363799234256891 0.7934043988702663 3.0145524052253942 47 55 37
13.69008206430964 1.2161103848763857 2.8891282813598105 44 52 34
11.028068013529687 -1.5534136624883643 1.7768292131780397 44 51 44
11.376501128586092 -0.6590858670936365 2.3828701697874966 40 50 25
10.992651472948843 -0.5499442596317724 2.4204572952410452 40 49 27
11.092378922234197 -0.24449246348786405 2.410288601904069 39 47 27
11.65460189908359 -0.09657591725964354 2.3580230521212595 40 44 22
10.535025172690235 -0.7524876515315891 2.2066175988411665 41 46 23
10.972189167129981 -0.4939196555374388 2.574742931941036 47 56 35
11.268332913181114 -0.6313599164671498 2.534703527286814 43 53 32
11.745922086523441 -0.10991088459046 2.478393895202342 44 54 31
11.061023872183446 -1.0377919200865482 1.965769973777701 45 49 30
11.212050978691167 -0.9186154225430013 2.2746627171631086 43 50 29
10.736482878916439 -0.9834896624775274 2.082376164940643 45 47 28
11.259852203315807 -0.9834896624775274 2.159894596833307 45 49 28
11.424792136220288 -0.5882406563480302 2.685331122690344 48 57 38
12.02758560943955 -0.7195432039160292 2.781480408864554 52 61 47
11.424792136220288 -0.5882406563480302 2.685331122690344 48 57 38
13.45879563015247 -0.34783916681287824 2.9678218205236346 57 66 50
13.554540616974352 -0.6866362351777899 2.931360529233011 54 63 49
12.070569928625302 -0.8527245875965136 2.586171575197114 50 59 41
11.70949473200433 -0.736015205737464 2.6380513151295206 49 60 41
12.077828460476658 -1.0476661212800953 2.7705896676276422 49 62 45
11.761096530814626 -0.9839255703243946 2.630143882946194 50 61 42
12.20285962920725 -1.067770813103109 2.5689412229502246 48 61 42
11.694992214344552 -0.9448963571564657 2.483988203703383 47 59 39
13.332813394760972 -0.5888416488038899 3.034270793425186 56 65 49
13.548484390175032 -1.5037219278183829 2.933465738240948 53 64 50
13.548484390175032 -1.5037219278183829 2.933465738240948 53 64 50
12.715009106249154 -1.3685930474822086 2.6578515256844666 51 64 46
12.715009106249154 -1.3685930474822086 2.6578515256844666 51 64 46
12.660813156243373 -1.5384190628593781 2.66606350824181 52 63 50
12.291666487869033 -1.3279130093007667 2.7281691432565185 51 63 48
11.469846286211283 -1.1667200896409935 1.9509561896253764 37 45 29
10.679714727020585 -1.5516391029852434 1.9807013380621272 43 53 44
10.48969675687189 -1.1825317065815817 2.209810733427032 45 53 37
11.115122360207225 -1.1825317065815817 2.2820891351216757 49 57 42
11.482466084658206 -1.0183723922386105 2.373185109670672 45 54 35
11.143702572961159 -1.256117046094334 1.96267898734148 38 45 32
11.177825391214695 -1.4501143552232763 2.0603431031281527 42 51 42
10.785862058921204 -1.0183723922386105 2.308705058232305 46 52 33
11.15669129225293 -1.1320588107382616 2.4038869356282673 47 58 39
11.354838252020494 -1.5467244107478115 2.384884721181405 51 60 49
10.728836029265938 -1.223019294040109 2.0827763657786447 45 51 38
11.402040879653699 -1.5494610885258617 2.2606008114356158 48 57 47
11.011124501132084 -1.3269595715381566 2.175067046543763 49 56 45
12.303266812885575 -1.5431825629486855 2.5564044628953226 52 63 49
11.482951155421743 -1.5431825629486855 2.508283601470247 52 62 49
11.68797248573031 -1.2592502888925141 2.484766291967106 48 61 44
12.35903074936482 -1.397718615719751 2.5496296014283333 50 63 47
10.86559259035397 2.396491957143807 1.7799554381057903 46 54 48
10.967715711035307 1.9282620467603766 1.685575541953782 31 40 19
10.824890842130202 1.8396630234912965 1.78075361972149 29 38 18
10.484693382899735 1.6502195932550914 1.7876731732007571 31 38 16
11.34762799073927 2.853270252096197 1.6817166818618872 38 42 37
11.40010981461621 2.3315766148412433 1.6812039562947245 51 62 52
10.483396086363758 1.963382615427151 1.8866165691458767 30 39 18
11.110969853862976 3.0304393658247024 1.7752700736681106 25 29 23
11.73224822442242 2.7705411021916397 1.4216021718464529 40 43 39
10.315841618703319 1.6502195932550914 1.6928637657319203 30 39 17
10.886979687171891 2.0524360273106192 1.874527172009231 29 38 19
12.405034385943567 2.249494776309287 2.29901956985147 35 44 30
10.755302931832007 1.7651619655100013 2.08139401501658 31 39 19
10.351348052520214 1.669461869080644 2.219778388391034 34 41 19
11.309822277395734 1.900941588743149 2.267346621570389 33 42 22
11.174097907837673 2.249494776309287 2.165031846651312 25 34 22
11.302563332266088 2.159550769575001 2.267883916248388 34 44 25
10.8690906838792 2.1011464285498738 2.0755394761562314 31 40 22
11.347328562251823 2.1870294532387975 2.0524009173115294 28 38 19
12.569147810042198 2.3233888888746326 2.3985515458368023 44 52 37
12.57959527533878 2.121608875184864 2.524037871181708 43 52 33
12.117450590545934 2.202800835037111 2.579968371422389 42 50 30
12.533768365298572 1.9057566035095879 2.6861404135447966 43 51 31
12.428620849863142 1.725568730754613 2.7037298203306497 43 51 31
11.870052751629483 1.8171673764880383 2.46512058797169 40 48 28
12.313467589839156 1.9962337243593198 2.555155393660252 40 49 29
12.015490738018425 1.7009397865711076 2.5936026898868034 40 48 27
12.33481328342993 2.0573703218236585 2.4194706699757833 42 52 31
12.468253366836448 2.3168465185186693 2.5367250743078675 41 50 31
12.341250915659314 2.160086468303348 2.7191044475086494 45 53 35
13.560196829930161 2.258368693091068 2.929414630733287 48 56 38
13.25966369085249 2.160086468303348 2.750032571170374 45 53 35
13.084110515782319 1.9775844564015153 2.783926991005251 45 53 35
12.983420765880581 1.761556048322931 2.8052895173082706 45 53 35
13.729663916926532 2.4762640223254935 2.8781846281235626 48 56 38
12.797669300001534 2.0852062983759465 2.8496357761174647 46 54 36
13.662642985094257 1.8189028004454066 2.8970346905504103 46 54 36
13.3356888230094 2.1632775805544613 3.032287675763964 52 60 44
13.282582124991139 2.892317376719905 3.078439723938372 56 64 48
13.604780880071191 2.7362490772693375 2.914703866053573 49 57 39
12.632412903459919 2.7362490772693375 2.8968957850729415 52 60 44
13.3356888230094 2.1632775805544613 3.032287675763964 52 60 44
12.944340098045735 2.4232355595425528 2.625141856293135 45 54 37
12.309248510431681 2.4422540345518344 2.7249252964570587 47 55 37
11.993383584040144 2.7787305758449454 2.596630274514155 48 57 38
12.516727477577 2.51509255256856 2.531145493858961 44 53 36
12.654735560132062 2.5537972607364576 2.6669970093878668 47 56 38
13.023678337774271 2.6168667000635546 2.7965562226201652 48 56 38
11.885990638585971 3.0874001346592745 2.8145792896220114 52 60 44
12.24342708010546 3.0986455772045987 2.7372441116504573 49 59 44
12.301020898399589 2.8958880346423284 2.7264391478052397 47 56 35
11.850216931217751 2.9368743118762826 2.6169003532884823 49 58 37
11.857391088823253 2.396491957143807 2.030047013762966 28 35 27
11.50631303609475 2.607926794743832 2.0451928696650263 24 31 24
11.865703541796314 2.5537176837017923 2.2287753305584848 39 46 35
11.588642764808904 2.527967309852829 1.9468632003422757 26 31 24
10.705809263326268 3.1112447938412666 2.4514885878229693 51 60 45
10.697650371630292 3.120519895637743 1.9799729413866825 43 48 32
11.368336957885658 3.1151274396096573 2.383627996654492 47 55 36
11.57870036498209 2.866289652489295 2.3646242574827108 44 52 34
11.348090035724038 2.9203731047150256 2.0523658469149053 36 41 30
10.809227739798775 3.1181294573376697 2.1880212212404864 44 52 32
11.810161329086075 2.752086321269403 2.3448893180511643 45 53 36
11.584159699171233 2.8257222682596916 2.041745083284692 33 38 29
11.584159699171233 2.8257222682596916 2.041745083284692 33 38 29
11.430340925144474 2.9883304637307115 2.3779146000081286 44 52 34
11.597147849314084 2.6962082471304654 2.140582370484746 30 37 27
12.238504521467787 2.588386946374135 2.4284505600977493 45 53 35
12.72319108856869 2.7016317427584244 2.5083201718975467 47 55 37
11.494631747645181 3.1112447938412666 2.5069008324754725 48 57 41
10.583884843384112 -1.9420336300896957 1.6897574749188506 51 56 54
10.435808172056419 -1.850446464989701 1.7887054564834264 48 55 50
10.913946449758418 -3.0683637801592063 1.686143534713746 37 40 31
10.539514890298609 -2.07155116037284 1.8848772089267136 52 59 53
10.615163364999734 -2.1548706678398664 1.6894052897856477 49 56 50
11.520914186594688 -2.106430629563717 1.4188443637755228 52 59 54
9.439163131099612 -2.5912770515389942 1.812147861086706 45 52 44
10.428728428253022 -2.42586120005993 1.6915359401720473 46 53 47
10.913946449758418 -3.0683637801592063 1.686143534713746 37 40 31
10.42688999404629 -2.289140672781188 1.6915573326573647 46 53 46
10.282146362545937 -2.6434317063946735 1.7920157678088853 45 49 42
10.759222811296677 -2.772714614542198 1.7820544252463437 46 52 44
10.459893372360323 -2.451998069733589 2.3374197807197064 49 58 46
10.458060416675613 -2.2639742911087737 2.3375886010675786 52 60 51
9.74532435692336 -2.357846355316726 2.1404568184338784 51 58 52
13.401483908624694 -1.9961648894295205 2.9941629946633084 55 64 50
13.499055676543936 -2.36151145841099 2.951582326475477 55 64 52
13.284256535319235 -1.932292853033516 2.7455728251912968 53 64 51
13.580615965922227 -1.7101155986147818 2.696266843572853 53 64 50
13.185095315956781 -1.7386842477054194 2.7639658222061456 53 65 51
13.812043802389246 -1.7817734440754625 2.8569056256393726 53 64 50
11.470051555272201 -2.784908051467801 2.6773561642247756 52 61 50
11.668267832184798 -2.615694338933036 2.6445026152782742 52 61 46
11.292641010777421 -2.5092771699879397 2.7097862778407875 52 63 49
10.799827182522344 -2.615694338933036 2.600332938582398 51 61 47
11.815262348458978 -3.005963544000504 2.6220343737507514 52 61 47
12.85983561383269 -2.936460557983646 2.8339593771130343 54 63 49
11.10057019685677 -2.4740770317184526 2.5568250019239818 53 62 49
11.382314568437046 -1.674661704931728 2.382331577075502 54 62 53
11.35098643412885 -2.0822005159892223 2.385244179493567 54 62 54
10.165830745367703 -1.8803490579853008 2.002773926262782 52 59 53
11.429403721393365 -1.6629206429211523 2.258627287608431 52 60 52
11.696433274527198 -1.917125970495527 2.354439962340723 54 61 53
11.091961219440854 -2.123990532821309 2.1700440123886535 55 62 54
11.820844591386892 -1.9633110415441635 2.470322574788005 54 62 54
12.619214471787487 -1.9633110415441635 2.5196309618456896 54 63 53
10.703281609745394 -2.68958196424166 2.195064101918849 51 60 48
11.162373354256886 -2.8346468656263704 2.165741755667985 50 57 48
10.105553655194267 -2.5912770515389942 2.0055255241609005 49 54 46
10.836318371745618 -3.051825162701375 2.1862480273277143 48 56 38
10.691738384368334 -3.040408597190346 2.316739088236174 50 59 41
11.022071163160202 -2.798220829634468 2.289387515369447 51 60 47
10.844929991458416 -2.960838705795077 1.9740911871263958 47 52 40
11.507035597147574 -2.9159678698356086 2.3709786361039185 51 60 42
10.519993560772571 -2.357603533637568 1.987307999085038 50 58 51
15.866358889805369 0.28058044990747827 2.863343352331769 47 57 37
15.866358889805369 0.28058044990747827 2.863343352331769 47 57 37
14.301244227736984 -2.36813418845577 3.0621183758206088 56 65 51
14.301244227736984 -2.36813418845577 3.0621183758206088 56 65 51
10.520424369901088 1.4549601924189448 1.7869248761898833 28 37 16
10.625616587339097 1.143923801025248 1.8822461369990333 29 39 16
10.211740697139499 1.5524152291548752 1.5958782768586537 28 38 15
10.00765678227169 1.3375119248430838 1.9021900448591276 31 39 17
10.240380177455602 1.0070978884457702 1.8943808131540223 33 41 19
11.372129260079458 0.7123020251852235 2.1533113915745288 35 43 21
12.27445514148546 0.5155884406875261 2.105614748114103 38 45 24
11.769452924565947 0.1306032576419747 2.235111433308414 39 44 21
11.835141353491897 0.26327273940119994 2.342827919656142 41 47 24
12.061682276288733 0.37329989559236887 2.324700525870406 42 48 26
12.365184503724215 0.4746263875709754 2.30189706430204 40 48 25
12.37781478537407 0.3049554015497486 2.100675114796199 34 41 18
11.726999659608074 0.5295283644241471 2.351845945807983 40 48 27
12.912106950156312 0.3049554015497486 2.167551253959643 34 43 20
9.988193022626508 1.3102903760281603 2.1249592363244876 34 42 20
10.066601400692836 1.096351115232642 2.375766051144202 38 46 26
9.472362861236615 1.1543567294504493 2.159025044168057 35 43 22
13.63976099984303 1.5123519383319075 2.903850207276706 46 54 36
13.312244858731807 1.4165517475023495 3.049720585082281 51 59 43
13.490913180749805 1.0770818518019305 2.954746467605881 46 54 35
13.312244858731807 1.4165517475023495 3.049720585082281 51 59 43
13.259044260497351 0.8339629182310728 3.1205308485142575 55 63 47
11.341776873886353 -0.8404895950966741 2.386105178189939 44 52 30
10.992651472948843 -0.5499442596317724 2.4204572952410452 40 49 27
11.157910307063187 -0.7524876515315891 2.2787891026378935 41 48 26
11.643097447212106 -0.7458991920715601 2.4897814007353287 44 53 31
11.277313970577474 -0.2820758499148509 2.5335574406910077 48 56 38
11.745922086523441 -0.10991088459046 2.478393895202342 44 54 31
11.061023872183446 -1.0377919200865482 1.965769973777701 45 49 30
13.213526103211537 -1.3279130093007667 2.758578034720521 51 64 49
11.694992214344552 -0.9448963571564657 2.483988203703383 47 59 39
12.428207104956702 -1.1426296666031293 2.703800933729937 51 60 44
11.424792136220288 -0.5882406563480302 2.685331122690344 48 57 38
11.233274294282298 -0.8527245875965136 2.5392133193728013 48 56 36
12.298341640863356 -0.8719280338717282 2.7269336834403166 48 61 43
10.844356128769803 -0.736015205737464 2.593540630913905 47 56 37
10.856776500634878 -1.4365459505569627 2.1849162858807487 48 56 47
11.327799754196644 -1.3510215052725452 2.0533021671123293 41 48 38
10.438369295985957 -1.1320588107382616 2.3394076909575374 46 55 37
11.011124501132084 -1.3269595715381566 2.175067046543763 49 56 45
11.067212356215475 -1.1263402846754953 2.065675921124924 44 48 32
11.327799754196644 -1.3510215052725452 2.0533021671123293 41 48 38
10.870633757407386 -1.2971287182621658 2.301637077037898 49 59 45
12.101427963707334 -1.5467244107478115 2.4416466426321133 53 62 52
10.865805794784752 1.7465292495708227 1.875138000544184 31 39 18
11.047173512552797 3.122468345901107 1.7764677748795823 30 33 25
11.26353672566728 2.9402578932512005 1.7724619938115234 25 29 23
11.455966656103541 2.2078197346833996 1.593153659015555 31 41 27
11.501342010715938 2.853270252096197 1.7682366440593396 32 36 30
11.1517794383902 2.263616040205249 1.8670933749678917 33 43 31
10.85172889619934 2.527967309852829 1.6868078433858438 45 50 44
10.442285262694076 1.7465292495708227 1.691378423702389 32 42 20
11.302563332266088 2.159550769575001 2.267883916248388 34 44 25
10.632582374483057 1.6588038644427077 2.087870950413989 33 40 18
11.103483540806932 1.788144917617634 2.282992815449413 34 42 21
10.755302931832007 1.7651619655100013 2.08139401501658 31 39 19
10.984653546455803 1.669461869080644 2.2923705345781653 33 41 19
11.001118403159436 2.0056734848727946 2.1756951606039583 33 42 24
12.679603777026546 2.159550769575001 2.389117441777289 43 52 35
12.716921114808631 2.0660325291810993 2.65756542426412 42 50 31
12.124221660820663 1.8548946044709946 2.579081422214286 39 47 27
12.33481328342993 2.0573703218236585 2.4194706699757833 42 52 31
13.381020929377568 3.027976775522772 3.004844867271151 55 62 49
13.381020929377568 3.027976775522772 3.004844867271151 55 62 49
12.944340098045735 2.4232355595425528 2.625141856293135 45 54 37
12.341250915659314 2.160086468303348 2.7191044475086494 45 53 35
13.433738481504106 2.5541403811980645 2.9787903656433388 48 56 38
12.60679211253078 2.307047263993815 2.6744534348376257 43 51 33
13.463068181552881 1.9235207481491294 2.966023177792815 48 56 37
13.560196829930161 2.258368693091068 2.929414630733287 48 56 38
13.433738481504106 2.5541403811980645 2.9787903656433388 48 56 38
11.885990638585971 3.0874001346592745 2.8145792896220114 52 60 44
12.216990557045026 2.637429160533207 2.567149646110423 47 56 38
12.97709800831866 2.2907578217447035 2.806686037797143 47 55 37
11.903041391499116 2.4889917669120685 2.3372888940048973 44 51 37
10.791699736220828 2.3280663213240884 1.9761967536088527 26 36 25
11.776940264243143 2.4702238761044617 2.130831944643607 28 35 25
11.478903250706884 3.005494824590101 2.2550890912492534 42 49 32
11.85716816078344 2.7925904231375873 2.2293318018178274 35 42 30
10.809227739798775 3.1181294573376697 2.1880212212404864 44 52 32
12.119963659023234 2.647636866648035 2.320195067672154 43 50 36
10.664280480031408 3.1151274396096573 2.3191209046035546 50 58 42
10.763518567394467 3.0192191034631763 1.9773206922672764 39 45 31
12.508636336516862 2.8283189629430687 2.532070717813423 47 55 37
10.945804946753483 -2.6871992540292093 1.5027821118864146 42 46 40
10.689251480754528 -2.5600371835294906 1.4069189369154687 44 51 43
9.516914729283334 -2.436869889972627 1.9199881980989315 47 54 47
11.19207738052623 -2.8887862701484135 1.504280944644265 41 45 39
10.963047550747039 -2.9772418477895584 1.594159065445405 41 46 37
9.846036455664263 -1.9798938858235298 1.8019886078313787 52 59 53
11.050191423209478 -2.0275394909723476 1.4123178308550663 54 58 57
11.171756668469781 -2.3574229516257774 1.4140566542398674 44 50 45
10.041064576933621 -2.5633863680490796 2.3784144908418137 51 60 48
11.281001745308567 -2.693616961087695 2.5330879120549614 51 60 44
13.402914333660302 -2.7290500576020653 2.9934460734597357 55 64 50
11.075857025741108 -2.842343379753673 2.5602041028498834 51 60 48
13.499055676543936 -2.36151145841099 2.951582326475477 55 64 52
12.685461086717018 -1.7101155986147818 2.6623039662555605 53 64 52
10.696114737991241 -2.0257599612643022 2.19554686687243 54 61 55
10.40344118882819 -1.7740600360029561 2.100441772379485 52 59 51
10.413703095949277 -2.187144196086137 2.215243839735411 53 61 53
10.612818797868275 -2.211620602083328 1.9834418783603627 52 59 51
13.27147496365473 -1.831515221486127 2.5832656880119016 53 62 52
11.623580930522847 -1.831515221486127 2.4919849763032276 54 63 52
10.852978164020927 -2.884204730565545 2.435221670081849 51 60 43
11.55527560935168 -2.9408471529738907 2.2497090910998985 50 55 41
10.72502284364178 -3.0609317060418713 1.9788664356175059 47 52 38
11.06225684712262 -2.7524796571309955 2.4133284759960816 52 61 45
10.72502284364178 -3.0609317060418713 1.9788664356175059 47 52 38
10.651183551298773 -2.633535860396893 2.320263179931441 50 59 45
10.73316092797079 -3.0256798990640963 2.44840735755241 53 62 45
13.519612690626664 -1.2544558818416796 1.6638402445713325 68 74 63
14.279385604992743 -1.3385124831988433 3.084480276125254 55 64 48
11.45233522208825 1.1005685633772337 1.5931607495094817 24 34 8
10.715235375826566 1.5524152291548752 1.8795548070514925 31 38 15
10.679634624719252 1.3596598052486364 1.7836529125878737 28 36 14
10.21225413453391 1.4425095672054171 2.000679222522176 32 39 18
12.70074397093616 0.2133202320779038 2.1789014075943602 36 43 20
12.403462541739964 1.5347757215845026 2.708082510046824 42 50 29
10.268157688440377 1.0214506098866734 2.5048708278516743 40 48 28
11.629417608080232 0.025252752145628152 2.3601989316908 40 44 22
11.378148537636156 0.786944891569424 2.262334439406643 37 45 24
9.853980158779917 1.04441477159185 2.133410244454008 35 43 21
11.98946556232179 1.5405752558574326 2.5971695960290155 39 47 26
9.817776380757062 1.4270807517338153 2.135737326721841 34 42 20
12.440291297818758 0.4293849405462096 2.193550364138713 39 46 25
10.458241030055728 1.2760848294493226 2.3375719622219826 36 44 24
13.55759553934824 -1.5384190628593781 2.699837638395159 53 64 50
10.672983223891558 -0.6590858670936365 2.318364095052326 39 49 23
13.16138310686073 -1.5316705217897153 2.7685341555339047 52 65 50
12.02758560943955 -0.7195432039160292 2.781480408864554 52 61 47
12.303266812885575 -1.5431825629486855 2.5564044628953226 52 63 49
11.855508305664312 -0.24449246348786405 2.4666501266125405 43 52 32
10.835543587924985 -1.0777210719817532 2.1862985861327826 44 50 33
13.378155244570166 -1.4665394013953081 3.0064104306395274 55 64 50
12.797669300001534 2.0852062983759465 2.8496357761174647 46 54 36
12.313467589839156 1.9962337243593198 2.555155393660252 40 49 29
12.60679211253078 2.307047263993815 2.6744534348376257 43 51 33
12.373196953283534 2.4026741187324574 2.301316413247437 40 47 34
12.063286680327757 1.9428586899636897 2.4454092480068006 39 49 28
11.810161329086075 2.752086321269403 2.3448893180511643 45 53 36
12.891958306200305 2.8350224692248522 2.826211378092756 50 58 40
12.516727477577 2.51509255256856 2.531145493858961 44 53 36
12.439000105308594 2.711635277021821 2.7019509228130887 47 56 36
12.106604321348113 2.411094614484297 2.4411391171127566 44 53 36
12.24342708010546 3.0986455772045987 2.7372441116504573 49 59 44
10.478242506732851 -1.7537898383808812 1.8867772843182018 45 53 47
11.49703518913292 -1.7992924177179923 2.3718749820566845 53 61 53
12.267350903469582 -2.978236920112099 2.732710798591922 54 63 50
9.996774680476076 -2.633535860396893 2.2469687371950036 50 57 48
9.84934964878158 -2.528453230447172 2.1337067369433154 47 54 45
10.690970170526668 -2.3581902937668073 2.453171690046145 51 61 49
12.788497026152765 -1.873994570154616 2.647025141638365 52 63 51
11.429403721393365 -1.6629206429211523 2.258627287608431 52 60 52
11.035429998164526 1.1814606084064154 1.5940057993818293 25 35 9
10.27885766319919 1.4549601924189448 1.5957144674063386 26 36 12
12.27043807148272 0.5941347760704104 2.013467843340252 34 42 18
9.617033410402478 1.4074708898616954 2.2790694699269496 36 44 23
11.980589148094618 -1.2097296217053182 2.5983945366452255 48 61 42
11.415236244784486 -1.4195662459999658 2.3792975685971602 49 60 46
11.15669129225293 -1.1320588107382616 2.4038869356282673 47 58 39
10.972189167129981 -0.4939196555374388 2.574742931941036 47 56 35
11.915702565181894 -1.1320588107382616 2.460362796278028 48 60 42
11.126679421522878 1.9282620467603766 1.7749772977634537 30 38 19
11.634446234325644 2.5775831389302946 1.506813540498523 43 47 43
13.084110515782319 1.9775844564015153 2.783926991005251 45 53 35
11.1079226363536 1.8171673764880383 2.408730403802222 37 46 25
11.626643037269734 2.8962175187822514 2.244766177360014 40 47 30
11.493222236677434 2.736571359830288 1.9501435828673364 27 31 26
12.983420765880581 1.761556048322931 2.8052895173082706 45 53 35
13.011272034402996 2.588386946374135 2.478752280153751 46 54 36
11.85716816078344 2.7925904231375873 2.2293318018178274 35 42 30
12.716921114808631 2.0660325291810993 2.65756542426412 42 50 31
13.433738481504106 2.5541403811980645 2.9787903656433388 48 56 38
12.288100109068882 2.3280663213240884 2.2024726007526247 26 34 23
13.433738481504106 2.5541403811980645 2.9787903656433388 48 56 38
10.931689064763328 3.1060276158597104 2.5805901563278852 51 60 47
11.419152221394077 -2.6082638070523196 1.5056055281984595 40 47 39
13.667878243583724 -2.146363072846924 2.895504502303593 53 64 50
11.292641010777421 -2.5092771699879397 2.7097862778407875 52 63 49
13.667878243583724 -2.146363072846924 2.895504502303593 53 64 50
11.35098643412885 -2.0822005159892223 2.385244179493567 54 62 54
16.264385008102927 0.4022069524077837 2.787630665312463 44 53 33
10.149006178704497 1.0989715990340851 2.003538313891392 33 42 19
10.736482878916439 -0.9834896624775274 2.082376164940643 45 47 28
13.906735317982635 -2.016521938342212 2.8344939524259436 53 64 50
10.960230191547062 2.1339217845687233 1.6856542792590625 28 37 18
13.571520271366909 -1.8538262808682804 2.9255756896576406 53 64 50
10.709187224592746 -2.8642672772054847 1.8797349485029256 47 52 45
11.144202389004642 -1.6535589881047748 2.0619513140090824 44 52 46
11.335049704176882 2.6537369414025775 1.7711723189432322 30 35 32
13.599143210714052 -1.1687664288184199 2.91650659771789 52 64 47
13.429456598928857 -0.9858229561460804 2.9807431059098075 55 64 50
11.478858911667924 -0.4240307203459762 2.508769331496308 44 52 30
12.298851191276682 2.5081106618925237 1.4285233953166205 60 66 64
15.973570449248646 0.484998886926665 2.8407398548158933 44 52 33
13.574345134876422 -2.866694618213784 2.924629396597684 54 63 49
13.084110515782319 1.9775844564015153 2.783926991005251 45 53 35
11.790421232505484 3.1060276158597104 2.6257298517415757 48 58 44
11.629417608080232 0.025252752145628152 2.3601989316908 40 44 22
13.571520271366909 -1.8538262808682804 2.9255756896576406 53 64 50
12.917853943152947 2.2303170670246626 2.4880715420213817 43 52 35
13.45879563015247 -0.34783916681287824 2.9678218205236346 57 66 50
11.464027322987398 0.6269223360644356 2.2561481276122874 38 46 25
10.69604826324638 1.2680893516534688 1.5947423661605087 25 35 11
10.93950471418018 -2.735123250017232 2.071986838887754 49 56 47
10.525638571104869 1.867260318856672 1.9870707504333431 30 38 18
11.555958094895301 2.9662625645127005 2.4997284247771017 47 55 36
10.913134004305947 -1.2592502888925141 2.4287855205527435 50 60 44
10.262854348302639 -0.5499442596317724 2.35608006984644 40 48 26
13.78940973333568 -1.5213708302900932 2.8625695199588614 53 64 50
13.599143210714052 -1.1687664288184199 2.91650659771789 52 64 47
10.785878956737887 -2.5633863680490796 2.4425442319601265 52 61 47
