11.519959310243593 0.6085980944838857 2.1568180716636913 6 12 17
14.637920411898962 1.4326950519159882 1.9465053570725512 9 17 17
13.259633376275758 1.245488650371664 1.9878553955596077 1 6 7
11.68234634426233 0.5179497281317431 2.2535897468629646 2 6 8
10.667371079302571 0.27325703192793677 2.0984524592865164 21 28 32
13.203586916155821 1.1356979605737092 2.0743370554378666 1 7 6
10.943824773865204 0.37441382581621957 2.0837930352243883 36 43 47
13.167910725450206 0.8280347732072224 2.259739202093157 1 6 7
13.966750801141613 1.2168981923975555 2.2134987940800244 19 26 23
13.232370649421252 1.1830744501656467 2.2557339202919175 44 50 49
13.949687672735637 1.0163760335031933 2.21441497601168 8 13 12
13.886607992552438 1.1830744501656467 2.3115330441549293 45 51 49
13.55036764013804 1.0494606253621692 2.334466569297827 47 57 55
15.724605342843692 1.4217927261611476 2.2092481089148808 27 35 34
11.726369518862475 0.4718162733014646 2.656062259037456 49 59 45
12.736004418559244 0.652304342471305 2.5223450227389472 0 1 0
11.978407115740884 0.6209873116637175 2.6175798492392586 49 57 49
12.17607566806772 0.4005100273982654 2.5901364291647577 0 3 0
12.134172475223977 0.46944672985284985 2.453237528027501 3 7 5
11.885438432004024 0.3471532327800377 2.4790882035981987 3 7 5
11.020061189735475 1.2416088831049443 2.5874835050865057 45 59 36
11.045795079110393 0.7132917071568156 2.7902764473252275 45 62 33
11.101126397155404 1.077568905193611 2.7769204437640256 44 61 29
11.313005076778861 0.8814129023817894 2.730647172025546 44 61 31
11.454671633143633 1.1750842573722755 2.703130534152258 45 59 31
12.373002508324902 -0.5830595409200359 1.2731301427337383 0 4 2
10.903599305768768 0.044776318927976566 1.5130883260851278 28 35 41
10.935541340219391 0.05484891073064879 2.192729106416423 17 25 26
11.547892361867541 -0.05771377420699806 2.263095927641003 16 24 23
12.8954937425271 -0.5396097122228558 1.755720818796229 44 53 51
11.6334265671173 -0.7024885454387216 1.602703284187874 30 39 27
9.709725821109103 -0.6107750315379739 1.7124813270316226 0 5 0
10.225557786665318 -0.6910273223780932 1.6070980914748432 34 43 31
11.088936519541404 -0.520391311034922 2.1828478945280545 4 9 7
11.588614232507739 0.18666905980034082 2.3780019934409125 0 8 6
11.504216181680137 -0.0650234541814903 2.3856964205740683 0 6 4
11.503107618915681 0.06179753495329746 2.385798657689819 2 9 8
12.01763309234628 -0.41959758673400943 2.341402281079309 2 8 6
11.930353467602544 -0.08706323710717974 2.6245922225012164 1 5 4
12.531217032618565 0.2130579714096031 2.545655881346109 1 5 0
12.011757728866574 0.24795845780729314 2.612795198303502 0 3 1
12.460958859194518 0.29613395001066983 2.7202486146619806 73 80 72
12.80820351706738 0.08275284077405987 2.663339209241403 0 4 1
12.460958859194518 0.29613395001066983 2.7202486146619806 73 80 72
12.534269643900874 -0.21659943642705531 2.545296870771048 0 5 4
11.890801992857075 -0.35042996243759056 2.4785102184960963 1 6 5
12.181311258928009 -0.4041859266478499 2.5894380809818527 0 2 0
12.464028677677359 -0.30091364489623107 2.719699414849418 77 86 77
12.624480818649086 -0.475958916143383 2.6922208095216518 75 84 73
12.711042490190849 -0.17652077151662093 2.909808233607665 47 65 34
12.10480975104254 0.3665082478322186 2.7916399481076586 50 61 44
12.973807373667954 -0.13157444238746474 2.835592595682166 47 65 33
12.022974846992305 0.12509955645735293 2.810793005829352 47 60 40
12.710039186602144 0.16790863458179586 2.9101429160471013 48 65 32
12.76215243329994 -0.9298537699925794 2.8934095431813454 47 66 36
12.76215243329994 -0.9298537699925794 2.8934095431813454 47 66 36
12.790469352213478 -0.484433698344266 2.88481851056459 46 66 34
13.051635255074977 -0.3722329566588007 2.817248994384865 49 62 40
12.273077827457746 -0.5753408098697683 2.7558242733118794 53 66 44
13.20494937112563 -0.5753408098697683 2.7843228374694373 45 63 32
11.178141931534237 -0.655040463537984 2.417171786918173 2 7 0
11.945421950549933 -0.655040463537984 2.472677759281879 42 51 34
12.775241734818666 -1.2430249050491338 2.6683405259514243 47 66 39
12.832749100788385 -0.8613448225680101 2.659662509356645 57 71 48
12.349995587824884 -1.2053608661621937 2.4322585450110936 56 69 36
12.942780341674913 -1.326274957833263 2.5002709577766966 54 67 34
11.915096896691672 -0.8467628597498974 2.4759039928191973 53 67 43
13.237534001675982 -1.2905455919611295 2.6041217508691954 52 66 35
12.409473764830908 -0.9282811992494225 2.426692771710288 37 51 24
12.552080470113978 -1.1436719124884454 2.3008522373771587 34 47 12
12.9597792405834 -1.0901486784465164 2.641246406699178 45 64 37
12.389110456783065 -1.2905455919611295 2.5627861808183097 52 65 32
12.62028001277697 -1.0946454800554581 2.4076582044106187 50 63 31
12.258804821325178 -0.9952403821803595 2.3224752736918512 27 40 11
13.177523150230567 -0.8849870092215494 2.7899406799260067 45 64 35
10.813202669840644 -0.5389198573711238 2.4561796972082455 0 3 0
12.516147347379306 -0.7364631829194338 2.7105158411280517 56 70 48
12.993504246702969 -1.2773431683370917 2.2708445279754326 43 54 18
13.568624878371404 -1.3943399665998673 2.2356540121456403 55 66 29
13.568624878371404 -1.3943399665998673 2.2356540121456403 55 66 29
14.52685924542095 1.5008759808812342 2.102976821804871 35 45 45
12.681959338637832 1.8364467409285143 1.9226863488692796 36 52 36
12.857815435898251 1.7537551060859884 2.0017442639652065 36 51 39
13.277979543876237 1.6606823503721213 1.9062536215034316 39 51 43
12.453560590499999 1.7707589029219706 2.1078312678561053 38 51 38
12.993591494133211 1.7707589029219706 2.174006720176836 38 51 40
12.80187969459743 2.1959547497799203 2.1843597001360697 39 52 17
12.52475335880585 2.066121191785321 2.104450276603038 41 51 18
12.702785986376313 1.980974328546638 2.189864102647385 42 52 18
12.149836347890542 1.980974328546638 2.122782467727938 41 51 22
12.505123813147888 2.1441089862115765 2.0147507334839205 39 48 15
12.505123813147888 2.1441089862115765 2.0147507334839205 39 48 15
12.314810191920527 2.2691917791755447 2.0221139520295215 40 51 13
12.314810191920527 2.2691917791755447 2.0221139520295215 40 51 13
12.484020573632954 1.94558184632274 2.015554885647803 38 51 27
12.285396963220236 2.3970496104552983 2.0232746839954627 40 51 12
12.16197470715266 2.256488391634471 2.2219187396668105 41 52 14
11.573207586485958 2.3275181305383716 2.2612834764352066 41 52 12
11.04376017950278 2.411097513804795 2.3015713603852253 41 55 14
11.573207586485958 2.3275181305383716 2.2612834764352066 41 52 12
10.582539580121889 2.5093490998894312 2.3413553007331434 44 56 13
11.702840834873218 2.467837189281008 2.047619490072816 39 50 10
13.03273175249297 1.889037172463928 2.2683117568089597 39 52 34
14.850577149358866 1.494811671020193 2.2536734799639606 39 49 49
14.775229110463602 1.4875981825403457 2.348894986377725 38 50 44
14.775229110463602 1.4875981825403457 2.348894986377725 38 50 44
13.03273175249297 1.889037172463928 2.2683117568089597 39 52 34
11.33403836421695 1.3783150218104465 2.72640904658531 46 60 30
10.485900876049653 2.088552649631676 2.4952998965323188 43 58 20
11.300944609188111 1.5987486589502327 2.733103194446936 47 61 29
10.99944441964271 1.8829795207247273 2.8019599815386393 46 61 27
11.89449884011803 1.606758105024658 2.843841329598063 47 61 29
10.849971003646518 2.1791835158730573 2.613362425175038 46 58 21
10.849971003646518 2.1791835158730573 2.613362425175038 46 58 21
11.379350788933504 2.30153830857448 2.7174662574778403 46 59 22
10.917624232437326 1.773095654949529 2.6028380247320566 45 59 27
10.894616654288956 1.4127490614510643 2.6063815716727072 45 59 34
10.894616654288956 1.4127490614510643 2.6063815716727072 45 59 34
10.485900876049653 2.088552649631676 2.4952998965323188 43 58 20
10.860183951586938 1.5936565776027178 2.611753101308832 45 59 31
11.065506870410362 1.9403464525091652 2.58088140420277 43 58 22
12.614615547582487 2.023244189123663 2.2964240784016603 41 54 17
11.616681502730946 2.215465796086896 2.5093351657537486 45 56 16
12.286488955593608 2.485357379091329 2.320371174368012 43 55 12
11.301875618675098 2.5093490998894312 2.404884960984366 44 56 13
10.416668092249148 2.544158084248705 2.5041625193454635 43 57 16
12.653989811485538 -1.235868711396131 2.9297547687726118 47 66 36
12.624356679355033 -1.6206848870366761 2.94096136589686 53 71 40
12.624356679355033 -1.6206848870366761 2.94096136589686 53 71 40
12.493916643178979 -1.0466274822535389 3.001276480122764 49 68 36
12.412592316846212 -0.5302941937699738 3.059828765171664 50 67 35
12.860788725037478 -1.606497219752457 2.8647594622381827 48 67 37
12.889878324160199 -1.3267958095268801 2.8569246032809454 47 66 36
13.197517504217602 -1.3793764308984073 2.7858344511344515 47 66 36
12.637588702748838 -1.5935508499434612 2.690074937407017 49 68 40
12.234506249022473 -1.5985907602363336 2.763663010094835 49 68 38
12.277661883631088 -1.4373138921103188 2.576828639462894 54 68 37
12.247118222143685 -1.590057951178103 2.580777068211589 55 69 38
11.939782988053075 -1.5855333493997246 2.347752024261391 55 66 31
12.011459581353249 -1.5874946071552456 2.465752995231663 54 67 34
12.277661883631088 -1.4373138921103188 2.576828639462894 54 68 37
12.417124868268113 -2.0109678537554987 2.728195632520735 53 71 39
13.01773476742531 -2.086560688589519 2.6331633578944706 54 71 39
12.814464290661451 -1.9387872346498047 2.662397592238086 52 70 39
12.341441895377956 -1.9226675850885075 2.3162345263129627 55 65 28
11.447041520677686 -1.8465049887329514 2.3910098879905988 52 67 33
12.197418092009274 -1.8465049887329514 2.44695787657005 54 67 34
12.126840670124848 -1.8154735317208406 2.332696077623823 53 64 29
12.639014004357799 -2.0182339972070436 2.533194036332464 56 70 37
12.197418092009274 -1.8465049887329514 2.44695787657005 54 67 34
12.410798988367807 -1.9650370404312532 2.426569774130334 56 71 37
12.965433315169706 1.0961705539542865 2.175503551081094 13 19 18
11.758846659745412 0.3059425165973244 2.362996471096982 0 5 5
14.632285819367397 0.9653511051938313 2.3585686954223988 0 1 0
14.942848398169055 1.4090378119004274 2.248660787183885 47 55 52
12.142688458425372 0.6736416178960076 2.3314516254836684 5 10 11
12.852514599623413 0.6736416178960076 2.3878428057638463 13 18 18
11.607461412764984 0.7328383451377939 2.6758487233190578 44 58 34
11.978407115740884 0.6209873116637175 2.6175798492392586 49 57 49
11.020061189735475 1.2416088831049443 2.5874835050865057 45 59 36
10.828689318107505 0.9249570933808281 2.849853502100255 45 62 32
12.418990039936245 0.5357156265504236 2.559114632454798 0 2 0
10.673901818243241 -0.47239308561579 2.3330793788090274 1 5 2
11.546787992286148 0.05484891073064879 2.2631752383436634 34 42 41
11.635262053935604 -0.168837063939176 2.2568853092318153 14 24 22
11.80698217692518 -0.2759196880273726 2.245034206040834 16 25 21
10.919437419979236 -0.753637834240033 2.311823589676374 39 50 28
12.333480593590053 -0.18979457477350123 2.4338199402203804 0 7 4
11.503107618915681 0.06179753495329746 2.385798657689819 2 9 8
12.382508058365579 -0.10480455126055344 2.734615516551978 76 85 77
12.181311258928009 -0.4041859266478499 2.5894380809818527 0 2 0
11.731805803254778 -0.475958916143383 2.65518481021765 72 81 70
12.011757728866574 0.24795845780729314 2.612795198303502 0 3 1
11.632482832392595 0.07075879019733147 2.5074832595375405 0 5 3
12.946876507960805 -0.7183434281089858 2.8422469466823475 46 64 35
13.051635255074977 -0.3722329566588007 2.817248994384865 49 62 40
12.516147347379306 -0.7364631829194338 2.7105158411280517 56 70 48
11.896605358914014 -1.0946454800554581 2.3513269517752793 40 53 20
13.124962459163468 -1.2053608661621937 2.4819041170988667 54 67 34
12.844773687129683 -1.034123719283215 2.5105618286459888 51 65 36
11.60463702638756 -0.5389198573711238 2.5107533190790488 58 68 55
12.141526967223228 -0.47239308561579 2.4525014736624824 0 4 3
12.982599742800716 -1.2451439466497531 2.377227487430425 52 64 30
12.832749100788385 -0.8613448225680101 2.659662509356645 57 71 48
11.021493264780922 2.485357379091329 2.1871499753713133 40 52 12
12.662625904592257 1.8604401921308815 2.098029303306605 39 52 39
12.253402596005312 2.1959547497799203 2.117585645259235 39 51 13
12.046875037276768 2.066121191785321 2.0329222911066096 41 50 17
12.16197470715266 2.256488391634471 2.2219187396668105 41 52 14
13.30660235818218 1.7537551060859884 2.0700770818079435 38 52 43
12.414098775073535 1.889037172463928 2.2065329522965684 38 51 32
11.628222663879784 2.485357379091329 2.2573810769054536 42 53 11
12.019365977022916 2.523591800664708 1.9430046707557262 38 49 9
14.850577149358866 1.494811671020193 2.2536734799639606 39 49 49
11.300281665405297 2.088552649631676 2.548618604486828 44 59 18
11.765837011410047 1.4127490614510643 2.6497429130190095 45 59 32
11.33403836421695 1.3783150218104465 2.72640904658531 46 60 30
10.476038174923062 2.30153830857448 2.6781736697251453 45 58 20
11.146241562033605 2.118168588023336 2.766460782627702 45 60 24
10.976608342471582 1.3250819621295382 2.807898089509064 46 62 30
10.70100162445048 1.2326889285193536 2.8926490032831707 45 62 31
10.485900876049653 2.088552649631676 2.4952998965323188 43 58 20
11.3561557086161 1.8165403783846807 2.722012686422643 46 60 26
10.860183951586938 1.5936565776027178 2.611753101308832 45 59 31
10.816575209410857 2.4398342691221186 2.6186775590570055 44 58 16
12.624356679355033 -1.6206848870366761 2.94096136589686 53 71 40
12.653989811485538 -1.235868711396131 2.9297547687726118 47 66 36
11.674145921416056 -1.9650370404312532 2.370378953667906 55 68 35
12.234506249022473 -1.5985907602363336 2.763663010094835 49 68 38
12.126840670124848 -1.8154735317208406 2.332696077623823 53 64 29
12.28552264153895 -1.8152062881624522 2.7533376119669617 53 72 41
12.909330348567556 -1.8808558256104777 2.8518196219440273 57 75 45
12.298082296259045 -1.7419152298246319 2.5742133911461234 56 70 38
12.06341927866552 -1.719497358579562 2.4603989413701868 55 68 35
12.66719088043789 -1.413468242437906 2.685279531015722 48 67 39
12.686984339796485 -1.772184863397008 2.6821114045544054 53 72 42
12.429551543959917 -1.886252227874997 2.5578259448220453 57 70 37
12.639014004357799 -2.0182339972070436 2.533194036332464 56 70 37
12.70169277875514 -1.4791207658275851 2.290358964967887 53 66 29
12.458436362401507 0.5782950529197713 2.4221772052637522 9 12 11
13.55036764013804 1.0494606253621692 2.334466569297827 47 57 55
12.010202733714811 0.4168929678959604 2.3420030893713197 2 7 7
10.54619668881928 -0.520391311034922 2.105161607356357 1 4 0
12.42047719699531 -0.46918521353606824 1.7628797784128587 9 15 14
12.521821734210974 0.2543018556012883 2.9862929120642057 49 66 34
12.603453085099675 -0.6789947263697403 2.949287390732007 46 65 34
12.946876507960805 -0.7183434281089858 2.8422469466823475 46 64 35
12.10480975104254 0.3665082478322186 2.7916399481076586 50 61 44
12.972824392034523 0.12509955645735293 2.835832531406816 47 63 32
12.014942318813318 -0.2520343414731724 2.612341752471859 0 5 3
12.79839128563295 -1.3540518812472295 2.392359121727328 56 68 35
12.10480975104254 0.3665082478322186 2.7916399481076586 50 61 44
12.973807373667954 -0.13157444238746474 2.835592595682166 47 65 33
12.522840117394832 -0.2670040499458631 2.9857743415818594 48 67 35
13.20494937112563 -0.5753408098697683 2.7843228374694373 45 63 32
11.551961250070748 2.4030438889524732 2.154980267371166 41 52 12
12.464326879784997 2.025389606874304 1.9291049330462544 39 52 22
11.04376017950278 2.411097513804795 2.3015713603852253 41 55 14
11.764507071893556 2.1959547497799203 2.044913612814338 40 49 15
12.141758672476612 2.3314412523990105 2.1231922266387717 40 52 11
10.355218281775144 2.3142131361339024 2.512219577015241 46 58 15
11.73485779366446 2.411097513804795 2.3650708943592287 41 55 12
12.277661883631088 -1.4373138921103188 2.576828639462894 54 68 37
12.247118222143685 -1.590057951178103 2.580777068211589 55 69 38
12.04260095893269 -1.454910715709836 2.4625343025513917 54 67 34
12.410798988367807 -1.9650370404312532 2.426569774130334 56 71 37
13.133287092876785 -1.4373138921103188 2.6175925962167272 53 67 36
12.411564887706728 0.5083147321005261 3.060845239621979 50 67 33
12.860788725037478 -1.606497219752457 2.8647594622381827 48 67 37
12.637588702748838 -1.5935508499434612 2.690074937407017 49 68 40
15.149949328398169 1.4217927261611476 2.156218500825778 37 46 46
12.619429092794302 0.4718162733014646 2.693051567579651 61 68 61
10.319820399606481 -0.6759037419260515 2.118193907997146 39 48 31
13.47859864516106 -1.003627708766447 2.7333870404944483 44 64 35
13.301261025020665 -1.1770961532044557 2.765403842517067 46 67 36
11.76426793641582 -0.30888487427657707 2.362529443872728 1 7 4
13.305760004154955 0.0996267371362362 2.76454876166127 71 80 71
12.9960778619266 -1.080601821010795 2.830214142142705 47 66 36
12.273077827457746 -0.5753408098697683 2.7558242733118794 53 66 44
11.633579067010443 -0.07444933959905008 2.507355140880017 0 6 5
12.452184763368424 0.07075879019733147 2.55508005051016 0 4 3
13.41571403344345 -1.155141639100648 2.582237361884279 49 63 33
12.966123943465703 2.1441089862115765 2.084454829460847 40 50 16
12.35464286398234 2.1140796599101583 2.2100889036737534 40 53 18
10.79265811010459 2.422489948841215 2.4585111097079495 45 57 14
11.065506870410362 1.9403464525091652 2.58088140420277 43 58 22
10.894616654288956 1.4127490614510643 2.6063815716727072 45 59 34
13.03273175249297 1.889037172463928 2.2683117568089597 39 52 34
11.99205325289201 -1.7022429112494608 2.3434752442550497 56 67 32
12.06341927866552 -1.719497358579562 2.4603989413701868 55 68 35
11.025450527809383 0.1660429311138899 2.1868957321608833 11 20 22
13.484225026401797 -1.3762338073171454 2.3391737206311447 55 67 31
10.713080819160888 -0.5558530660110924 1.793974228118961 25 31 29
12.464326879784997 2.025389606874304 1.9291049330462544 39 52 22
10.826127682635887 2.215465796086896 2.4547208780984846 43 57 18
10.917624232437326 1.773095654949529 2.6028380247320566 45 59 27
10.942433647156054 1.606758105024658 2.8170276987635514 47 62 28
12.36780926482552 -0.958172291364297 2.5654271814467897 47 65 37
11.66012773535304 1.0010564040482919 2.666941106553478 45 59 33
10.60523207485692 2.013156613686815 2.6543606623880494 47 60 24
12.83613985555014 -1.454910715709836 2.511482929176572 54 67 34
13.558934677373028 1.0961705539542865 2.2362143801431786 42 48 47
12.626138678784645 0.7564213166118114 2.295614788489526 5 8 8
11.078581478336616 0.5179497281317431 2.1835041767351906 3 8 10
