11.840162590498496 0.22268971604190999 1.5319416098845897 37 44 8
10.64184846437855 0.8611355488697541 1.9099143924854753 42 53 11
11.171641758558026 0.45043091777915606 1.8932344504549596 41 49 13
12.084253053007767 0.22268971604190999 1.3657985796176622 38 45 10
11.095006417323996 0.6589577254541505 1.801782986913806 39 50 13
11.151309942887508 0.24303099254987232 1.8005956947457422 38 45 9
11.449222266743936 0.7281240655856503 1.5306141903920154 39 50 13
11.008237438991136 0.7200515607642786 1.995910450943553 38 48 10
11.174580164577021 0.5318602322623052 1.7090553999245623 42 50 15
11.64289497697436 0.9992807902866611 2.066706809796757 46 58 14
10.83497693234934 0.9992807902866611 1.9036337932086096 46 58 15
11.381675033038821 1.0480541524014986 1.7958635181739624 43 57 12
22.363695798062185 1.6956182558293174 1.084087739153584 44 57 21
21.811754646057636 1.8060268336716296 1.0706490918770686 44 59 20
22.227431711587517 1.7944391992047681 1.1311747037140032 42 56 15
22.727057084217936 1.6415519768306563 1.141489218158154 42 56 17
12.93346659007081 1.7634860507760357 1.4576751689217566 71 84 40
11.645433810771369 1.4267817795512534 1.971274090528722 48 62 21
12.073625679810972 1.2489253298599716 1.9563065882871107 46 60 17
12.22226046895357 1.7986483929300912 2.0412346105417827 50 64 20
11.19730686664283 1.6141992023950602 1.8924687706245606 44 55 15
11.976949874294233 1.695939888139063 1.784499046850366 48 59 20
12.129746145567518 1.8604376348431915 1.6153354435988456 52 64 24
12.22226046895357 1.7986483929300912 2.0412346105417827 50 64 20
12.044378947687532 1.9687026473453433 1.8691205004295082 53 66 22
11.713535367722585 1.695939888139063 1.5315213624944688 50 64 21
11.98673395525477 1.439033319752042 1.784321912215142 51 65 24
12.061979156500565 0.9417963333089802 2.2460693953988313 49 61 16
12.605640823911273 0.40026884930446094 2.3151274869266056 49 58 21
14.056224072978418 1.2488778704095342 2.5339454173715987 54 66 21
14.481892886481527 1.393969703334231 2.492879567752971 56 66 20
12.634916402975902 1.1809281014177984 2.3129954402052526 52 64 18
12.153467603247652 1.2180389305289512 2.1390058156792655 49 62 15
12.560907887623786 1.4267817795512534 2.118430146328021 50 62 17
13.630512970850546 1.412039448451495 2.3460613600650833 56 68 19
13.630512970850546 1.412039448451495 2.3460613600650833 56 68 19
16.398920613228512 0.522331001545259 2.816520196078795 59 71 24
17.115098078350595 0.6359837020470195 2.8816404588709954 60 72 25
12.698024826341198 1.9163752605118956 2.206568033590979 53 68 19
12.46266378820934 1.821414271990421 2.2205781155866786 54 67 18
12.941262769361716 1.7216164125538738 2.291495385181442 54 66 19
13.310678878906842 1.9528765991052786 2.36988804796251 54 66 19
14.52688389630787 2.1008309501794478 2.488805583627964 56 68 21
12.474778496880631 1.6141992023950602 2.1226461850569383 50 62 18
13.086341216128504 1.8491039548106045 2.3876704066742342 55 67 20
13.619426346224497 1.6242603037734042 2.455772143451526 56 66 20
22.306867380353587 1.904902599840661 1.0827391631225682 39 53 14
21.58153297388216 2.0410597366078616 1.3150258950190552 72 83 46
22.12691352696669 1.9974452748227591 1.1784725495638102 55 66 28
22.65246000230614 2.0186252937258184 1.0403687083320998 33 44 6
22.423823590159863 2.0418532205855975 0.9816446408540815 42 53 17
13.05495713558709 2.1835331788555115 1.4587323342109364 46 59 16
12.915655415830184 2.010356574847172 1.4575185003694981 46 58 17
12.177278200766349 2.230812519420425 1.533017782683267 58 70 23
12.949127373289988 2.5124821723579704 1.612515452740483 58 70 22
12.440456357674648 2.162554306694649 1.944368952636593 55 70 21
12.240841192394063 2.4640074563604197 1.6969446671552324 57 69 23
12.10863959964333 2.2143862388941304 2.0460120818147702 55 67 19
11.93233926881779 2.2846448783310707 1.8720090933515645 54 66 19
12.704439135614356 2.7262720314022997 2.0220271847429854 59 71 24
12.083499631823974 2.478178739960855 2.047082898321435 58 71 24
12.633852835009886 2.57786159379216 1.7732287210509732 60 72 25
12.363000630187848 2.7589368059003276 1.5335855726645269 58 70 22
12.276500317110886 2.917434572418169 1.8633114943905278 58 71 23
12.276500317110886 2.917434572418169 1.8633114943905278 58 71 23
12.527505762494659 2.836211209685156 1.8572829046675572 60 72 23
12.854182334775356 2.6861797915969725 1.6908956116223417 59 71 24
13.301794038477906 2.135866211736143 2.267931481538779 54 67 19
13.80991560442577 2.2745195369366797 2.3334092409182254 55 68 21
12.505806543894984 2.3461080286397467 2.121119409957894 54 67 20
11.79445572850339 2.8721245705903327 2.1585628142199913 58 72 25
11.6304548191096 2.842056539972606 2.27615102515258 59 73 27
12.58601164975994 2.3445651657227065 2.316564931549698 57 70 22
11.89510066761366 2.738013592231347 2.2573562382279637 59 73 24
12.653204908125556 2.4966110693341466 2.311670656266673 61 73 26
13.348547996211757 2.4966110693341466 2.3669766735463424 61 74 27
13.26745794187589 2.555855488027066 2.2701006465769225 60 73 26
12.876315453037503 2.6424352859262483 2.2959341692042416 60 74 26
11.721019102283222 -0.22273527286355996 1.9685455656053141 47 59 14
10.740940922886256 -0.13085621941573497 1.714675340063158 43 53 10
10.772447896781507 0.15186820275297305 1.7142516114557418 39 46 9
12.016753187440337 -0.642204862868387 2.049950563979467 49 64 21
12.15698081817635 -0.8385908682130855 1.9535256484856016 53 66 24
11.47675970640363 -0.9871212726652794 2.0745550210773867 56 72 25
12.276255616788767 -0.5140839734297439 2.0389992467081557 48 62 20
11.951998512772057 -0.3944472674355201 1.8714981356513811 47 61 22
12.32940198475346 -0.6589330346363443 1.7782994779431092 49 63 20
12.345054565098863 -0.5900062808921857 1.9473999462124596 47 61 20
12.345054565098863 -0.5900062808921857 1.9473999462124596 47 61 20
13.142132626989277 -1.0495209018887381 1.6119024180938457 53 64 24
12.0425792374987 -1.0808893761537743 1.7833165071852213 59 71 28
13.08357837545099 -0.9429531794556515 1.766178865483057 51 65 20
11.80719838086328 -1.0377045655784065 1.965480964639577 58 70 27
12.549346710488091 -0.8941451012238678 1.8567702365525522 50 65 19
12.616813900971483 -1.0808893761537743 1.938895723155517 57 69 24
12.534028438574797 -1.0089371298968766 1.7748636119537375 56 68 25
11.807282437447228 -1.1203969319349467 2.0591898652931153 58 70 27
12.51877070205196 -1.191481737508229 1.77511584438911 61 75 32
11.263631351783934 -1.3310509105815842 1.8905071299111573 59 71 28
11.081120747529239 -1.423693676778686 1.8959649215123995 59 71 28
11.348710145823278 -1.5189437860596613 1.9823694668767473 59 71 28
11.43990280472169 -1.423693676778686 1.9788925363411225 59 71 28
12.210890172472286 -1.1588100704185913 1.9517489451185552 59 71 28
11.43990280472169 -1.423693676778686 1.9788925363411225 59 71 28
19.613200466047036 -1.4915755248888742 1.7006692770371694 50 59 14
11.174293673636853 -1.8271884612888205 2.0895371469518826 58 70 27
11.933523704793807 -1.611252127906727 1.8719782590634622 59 69 29
12.026591308902427 -1.803429560578799 2.049525614190773 59 71 24
11.862421874091917 -1.7105285048212917 2.0567217460809815 61 73 28
12.80923777653349 -0.04055083482792726 2.300584496055929 53 64 19
12.051492534765991 -0.341183395107864 2.1444174681668455 48 62 20
11.809505193226075 -0.24520167657024972 2.1577139208633698 47 61 15
11.581978876201308 0.06417064055241117 2.1708373755775767 39 48 5
12.238075529359309 -0.14439307932535267 2.23459789935424 51 63 17
14.72048578776835 0.21077040132887073 2.590358481985521 57 68 24
13.970639387668962 -0.5909237340939755 2.5428111354651697 56 71 21
12.509455073391175 -0.7736358910697045 2.3222328936815857 56 70 23
12.926586586858184 -0.5270083877927498 2.4009265328894562 54 69 19
13.523042747356008 -0.6890981744175341 2.464528705702165 55 70 20
12.601133920464587 -0.562807810312571 2.212254463847514 51 65 20
11.836395030564267 -0.846212503114888 2.1562037080620398 54 70 21
11.92066408687686 -0.9273987739124009 2.2555999660609496 56 72 22
11.991503346898845 -0.9871212726652794 2.1476530086463033 55 70 25
16.925563536997334 0.17149920891674933 2.9277570754706876 59 75 28
16.81137970038985 0.5659422222904457 2.9616922560173826 59 73 26
17.207584783050592 -0.29656383831395516 2.862145533366548 59 75 28
16.991193061060986 0.42763372848369 2.9106434968994717 59 74 26
17.22726896074401 0.3414348020126111 2.8581909146071935 59 73 26
16.971235071682536 -0.3735201903929905 2.9156989919735112 60 77 30
16.991193061060986 0.42763372848369 2.9106434968994717 59 74 26
11.304494698768137 -1.497949294070544 2.4271490054069207 58 72 27
11.133100370382982 -1.1240134537533553 2.3148364852562873 58 72 25
11.208918061238212 -1.171494692706694 2.193791419983414 55 69 25
11.39604118113145 -1.3653863310842962 2.4179353657795226 58 72 27
11.382604045146014 -1.3893087176999803 2.2948414824241326 57 71 28
11.74151683238777 -1.9385664634471655 2.5192368979001807 62 78 32
11.21182073338323 -2.0673742307709184 2.43673269316013 60 78 32
12.5675517379242 -1.9385664634471655 2.565638942370214 62 79 33
12.31693586530803 -2.1804709522401278 2.4567979825829926 59 77 33
11.556692336987078 -1.892373824064839 2.4023392685601124 63 77 32
12.140874324225656 -2.114068190394166 2.350986648901504 59 77 31
11.40871554105622 -2.3645457414201934 2.5611298071242423 62 82 40
12.128262431328418 -2.059624227628367 2.2417001016017157 61 73 30
11.5597045788357 -2.1804709522401278 2.40205350100744 59 78 32
11.287487162049858 -1.6256977305495095 2.30231762374402 59 72 29
11.543442208384219 -1.8562056157355036 2.282587050661297 60 72 29
11.543442208384219 -1.8562056157355036 2.282587050661297 60 72 29
11.92967240390368 -2.23873155446583 2.6541149340089394 61 81 39
12.819032359988723 -1.8356194467597833 2.6910923665634656 64 82 36
11.385749513288216 -1.7660454405980996 2.4189589889375567 61 76 31
11.829321607912455 -2.2624297054497204 2.508964698569627 60 77 31
11.489604166854118 -2.141849038722609 2.5504813260119037 60 77 31
17.733490519283645 0.23688211236136905 2.9937617739893905 59 75 27
17.72711892565201 -0.15126492401631506 2.996195256776396 60 77 31
18.12200468544647 -0.08506042566014493 2.8874847139353954 59 75 28
11.543725356015056 -1.4082844177360834 2.1731064265472693 59 71 28
11.453359371273473 -1.5134314656560286 2.1785411850903835 59 71 28
11.53356547093759 -1.7251898119418974 2.173712199048927 59 71 28
12.279603814850985 -2.014425768106573 2.132461324717316 62 70 26
12.075644479585224 -2.9172483934700026 2.0474185180245623 69 85 40
11.918352662622897 -3.009770044521424 2.054244772797297 65 82 37
11.85322788852373 3.0830633826031133 2.0571314634236293 59 75 28
12.688403423270053 -2.5477771476880173 2.022639684474927 59 75 29
13.005512977864326 -2.6660432920819326 2.0108395285402394 58 73 28
11.532284963486722 -2.494972022629032 1.975431517356494 59 75 29
12.51706873607457 -2.5934440077206835 1.7751440192867713 59 73 30
12.108669187817565 -2.2978238726704525 1.955132401534882 60 72 29
11.776566423435673 -2.4238533266074787 1.876121015529915 59 73 28
12.103161547410265 3.0017744327868736 1.8676273726179675 58 73 23
12.55638866193675 -2.9362526711963066 1.9407523923808243 63 79 33
11.58016841540246 3.0881600601459933 1.7041835002127352 57 71 24
11.570408805905325 -3.1078359755998632 1.7042966848616892 60 73 26
12.784246385153118 -2.854243156274827 1.933849468553809 56 73 27
11.979257819635626 -2.9362526711963066 1.7844572362601687 56 72 25
11.646820138666959 -3.0211558508636034 1.7034156399813312 59 75 29
12.531988538243835 -2.7760173259832843 1.7748972981240927 54 70 22
13.149332123325424 -2.702203470227105 1.8433798680740825 59 72 26
13.26980968790509 -2.1936937625496076 1.8408427869275727 56 69 21
12.821619589844696 -2.2423657765141356 1.9327423680841425 57 71 23
12.670920340465113 -2.173614443052187 2.0233094428266942 59 71 26
12.730882028306345 -2.304352298149391 1.6920644970252687 57 70 25
12.88128762325053 -2.1936937625496076 1.6906416759884129 57 69 24
17.847939050671496 -2.199484796146362 1.4889065695319574 48 58 16
11.454249520320385 2.928680197724286 2.4122024109860773 61 78 32
11.346715422849616 -3.089764868921596 2.422869192282101 68 88 45
10.971518760320919 -2.7876909083157284 2.462886071079771 74 96 54
11.231575281978957 -2.65874702941334 2.4346675082478804 68 90 45
10.872714957192184 -2.8319463213671283 2.3371119216446052 76 98 55
12.205055694197771 2.972728603954447 2.2367158759296966 60 74 27
11.50788269629504 -3.100707210584923 2.1752494112052805 64 82 38
12.12937252565823 2.953215364609952 2.35192551949995 59 75 29
12.11352318300321 3.076893388228629 2.2426662464381772 62 78 32
11.613924631162078 2.972728603954447 2.1689566030159884 60 76 28
11.417693152563562 -2.9791043312947934 2.2921272386601643 74 94 50
12.331245765340036 -2.8944465975396105 2.228701347271615 70 88 44
12.79356823424099 -2.8284652827664236 2.1073765334083414 60 79 33
11.828433359472013 -2.7608152275084077 2.2619842794084297 70 90 46
11.581786405075151 -2.86661542208509 2.2797345623444674 79 99 57
11.2967368283048 -2.4465870477857887 2.3015828693052782 60 78 34
12.444207569302355 -2.2271928293687293 2.1241593284934206 62 74 31
11.572482133122843 -2.545093440993113 2.400843955823148 63 83 41
11.806367873934166 -2.3619457861725417 2.263531516695906 60 76 32
11.806367873934166 -2.3619457861725417 2.263531516695906 60 76 32
11.79339826433396 -2.2894171221513644 2.1586225620149317 61 75 30
11.289728499846872 -2.5162322315659655 2.1886583581142096 60 78 34
11.79339826433396 -2.2894171221513644 2.1586225620149317 61 75 30
11.806367873934166 -2.3619457861725417 2.263531516695906 60 76 32
11.635302457813356 0.9734591156827213 1.5312571500621899 45 59 16
10.727845798010632 0.7902749041525802 1.6211603957608884 42 53 14
11.154253704992662 0.33026105202715 1.6192335269883429 41 48 13
11.864932608626415 0.6061817434332236 1.361953710132199 42 51 17
11.596682197436612 0.41257959196542004 1.4445693144477947 44 51 17
22.048511847760913 1.7454591551699015 1.1273547105871293 43 56 19
21.913809091721603 1.6956182558293174 1.124432935575559 40 53 17
21.501050394540652 1.6956182558293174 1.1663977574200584 39 53 14
11.879762480930369 1.7796186562871046 1.5320711927293882 64 78 35
12.050948410943509 1.8860256509168132 1.9570703647139744 52 66 21
12.448793041423206 1.9375497042686793 1.5338421324250642 48 59 18
11.200796189259657 1.5200457649759653 1.8923649579509574 43 57 16
11.645433810771369 1.4267817795512534 1.971274090528722 48 62 21
11.472320762969789 1.335967396357515 1.8844907219421434 51 62 22
11.987693265620413 1.1296492620090282 2.051210408652796 46 60 14
11.634655309832395 1.6104658582442848 1.6172320573318397 46 60 18
12.238236066066882 1.335967396357515 2.0405709120414506 48 61 17
11.857238965096377 0.26736443081770184 2.155038797393673 39 49 10
11.97253397712943 0.7200515607642786 2.148684305040702 38 48 10
12.46266378820934 1.821414271990421 2.2205781155866786 54 67 18
16.398920613228512 0.522331001545259 2.816520196078795 59 71 24
13.846416020867458 1.2841198106492326 2.4359776027877746 54 66 19
12.477910592475105 1.5200457649759653 2.122491656513717 49 61 16
12.869832573922697 1.5147769006593024 2.2963806598311693 56 68 20
12.314183998852718 1.0857789627157728 2.2297724698806958 49 61 16
13.106826423506789 1.3125633675124404 2.280454062204043 51 63 15
17.296026214852745 0.7957295495947239 2.8448466292497443 60 72 25
22.038023653046793 1.8561810665247855 1.076251509935475 44 58 20
23.096277599582137 1.9520312554403143 1.0516019516345532 40 54 13
21.339548884386883 2.0637255029310424 1.2136709975286646 25 35 9
12.376462869383014 2.8090415472710313 2.034908957606157 59 71 23
12.253846938225035 2.4088990406683526 1.9503452947139381 55 68 22
12.073629562994327 2.5315533980529095 1.8683756072169446 58 71 23
12.122330327288692 2.896817373017595 2.0454310514150684 58 71 24
13.040232814293608 2.292539639591332 1.3810175961891589 56 68 20
12.430869714518291 2.230812519420425 1.7765812949812327 59 71 24
12.122330327288692 2.896817373017595 2.0454310514150684 58 71 24
11.855470539616348 2.917434572418169 1.7010681907241634 58 70 21
11.767414437995923 2.917434572418169 1.616707802230708 58 70 21
13.239926954808004 2.618255455494319 1.5360511975832463 60 72 25
13.139011752837659 2.2745195369366797 2.2783519140530695 52 66 18
14.102200621501796 2.19305099620613 2.4149453413756063 55 68 21
12.05550191924582 2.776800838022502 2.144202608535508 57 72 23
12.391975916626569 2.6879291674336723 2.126765184884504 59 73 24
12.499975835183427 2.416371782667844 2.2183119054969613 58 71 24
13.14455899885436 2.2143862388941304 2.181722887759138 54 67 19
11.118013057286388 -0.14439307932535267 2.0924294527852334 46 57 13
10.915212838768625 -0.22273527286355996 1.7123625743392854 47 59 15
11.721019102283222 -0.22273527286355996 1.9685455656053141 47 59 14
11.17657956274218 -0.3109526317391616 1.7090305077443726 46 60 20
10.847759753165725 -0.03670680623317817 1.8071468157306927 44 53 11
11.148454427494885 0.1675063744659927 2.090860825924243 33 40 1
12.169481394635847 -0.7131869016963004 1.9531121489575405 50 64 21
11.991420581653243 -0.9085780820987798 2.0510484294011917 56 70 26
12.582457951549959 -0.544843807650664 1.7740671408269288 48 62 22
12.105543717480682 -0.47252629765919774 1.7821943154168212 47 61 21
12.846001120436519 -0.9429531794556515 1.6128505659848194 49 63 20
12.370195218299731 -1.0089371298968766 1.695618614279092 52 66 23
13.221035857508756 -1.0495209018887381 1.6875476857076845 54 68 25
12.774271331827817 -1.0089371298968766 1.851596917119327 55 68 23
12.226613299079052 -1.0377045655784065 2.041053580201662 59 71 28
12.941565512234178 -0.8326655936996753 1.768351048323047 49 65 18
11.61660709862685 -1.1588100704185913 1.7912357909067536 60 72 29
11.87550776163332 -1.2424118493904228 1.963086157708277 58 70 27
11.781137760271774 -1.6151420856572722 2.060369353646978 60 72 27
12.026591308902427 -1.803429560578799 2.049525614190773 59 71 24
11.31468484368873 -0.9273987739124009 2.187091697534769 55 71 19
12.310423917216626 -0.2725838419768291 2.3374468116513896 52 66 17
12.509296396201258 -0.642204862868387 2.1209482503808985 50 64 20
14.72048578776835 0.21077040132887073 2.590358481985521 57 68 24
12.542750752058573 -0.37761559690010843 2.319755632154052 51 65 19
12.601212681090358 -0.6204228974973285 2.3154512024431733 53 67 18
12.310423917216626 -0.2725838419768291 2.3374468116513896 52 66 17
16.79120798664409 -0.4999774205220782 2.9684223652109494 62 79 33
17.22726896074401 0.3414348020126111 2.8581909146071935 59 73 26
17.22726896074401 0.3414348020126111 2.8581909146071935 59 73 26
17.162542214150584 0.1342308947404893 2.87144216037506 59 74 27
10.934426820642459 -1.2768290103975959 2.2119461011954926 56 70 27
11.382604045146014 -1.3893087176999803 2.2948414824241326 57 71 28
11.39604118113145 -1.3653863310842962 2.4179353657795226 58 72 27
11.573586687350248 -1.2397262017807136 2.400739597288278 58 72 27
12.090049515147355 -1.9993103419921567 2.6296552143502465 61 78 32
11.99104096055377 -2.0673742307709184 2.490793293650579 62 78 33
12.971100047369577 -1.9993103419921567 2.667430248047556 61 79 33
11.74151683238777 -1.9385664634471655 2.5192368979001807 62 78 32
11.372300217012974 -1.7432543565846332 2.2956429380313 61 73 30
11.301037394279778 -1.6331117822807677 2.4275018194655353 59 75 29
11.810122080834255 -2.008938945950724 2.379096962529748 61 77 31
11.952691080140482 -1.9240252727120208 2.1497673414106426 60 70 26
11.543725356015056 -1.4082844177360834 2.1731064265472693 59 71 28
11.946754871955395 2.988607391025889 2.052997042013347 59 74 25
11.843693291535523 -3.1046118575523307 2.057557125529311 61 78 32
11.948981666557438 -2.2271928293687293 2.0528995023553795 60 72 29
12.62415575041399 -2.744497675078087 2.0251111451346135 59 76 30
12.269035143721336 -2.478673031282686 1.7793354708700366 59 73 28
12.181191935608066 -2.3605803476809 1.7808617592225673 60 72 28
11.951372436307835 -2.5477771476880173 1.871514380661775 60 74 31
11.961343387731088 -2.494972022629032 2.0523587760412103 59 77 31
12.757631006725806 -2.5934440077206835 1.851973137826751 57 72 25
11.675882884064825 3.0017744327868736 1.7030835921267835 57 71 22
12.55638866193675 -2.9362526711963066 1.9407523923808243 63 79 33
12.00144317388888 -3.1078359755998632 1.8702207873184933 60 76 29
11.646820138666959 -3.0211558508636034 1.7034156399813312 59 75 29
13.084762704878807 -2.7760173259832843 1.925138819034618 56 72 25
12.256983747495823 -2.2423657765141356 1.7795435416991852 56 70 23
12.88128762325053 -2.1936937625496076 1.6906416759884129 57 69 24
18.45836373109454 -2.243469800998438 1.6543282180221417 8 16 3
12.565879545717973 -2.9172483934700026 2.118188876782068 65 81 37
11.746466829011196 -2.8944465975396105 2.1612874912267594 73 91 47
11.356667269954093 3.0596193223475963 2.4218680639604653 63 82 38
11.339737982837613 -3.0958813167834527 2.298189053856235 68 86 42
11.135079251942368 -2.715442788837662 2.314672905463571 70 92 47
11.447337625231313 2.953215364609952 2.289852118444098 60 76 31
11.588618110046895 -2.8319463213671283 2.399322580576029 82 102 60
12.009513831746768 -2.65874702941334 2.4887759329004737 68 90 49
11.581786405075151 -2.86661542208509 2.2797345623444674 79 99 57
11.584706451109305 -2.996023492852923 2.170676292865063 70 88 44
11.454249520320385 2.928680197724286 2.4122024109860773 61 78 32
11.479309924194103 -2.363006102739291 2.409763306118694 61 77 31
11.806367873934166 -2.3619457861725417 2.263531516695906 60 76 32
11.98117756075704 -2.2781871266732248 2.364265141813257 59 77 33
11.884550306550036 -2.2073872169884443 2.2580840175247765 60 76 30
11.987343414123675 -2.4465870477857887 2.3637425467090827 61 77 31
11.974131091343859 -2.5746274166918215 2.148597322953759 63 79 33
11.572482133122843 -2.545093440993113 2.400843955823148 63 83 41
10.923875816373123 0.9417963333089802 2.1026738348052922 42 55 10
10.827486405054525 0.921425066545585 1.6206965304616914 46 57 19
11.607752465854738 0.36205839266642814 2.068345429189974 39 48 11
11.76911176608729 0.24303099254987232 1.9668293352733466 35 42 4
11.623839481325273 0.5815091356227119 2.0675939160280836 38 48 10
21.913809091721603 1.6956182558293174 1.124432935575559 40 53 17
13.086341216128504 1.8491039548106045 2.3876704066742342 55 67 20
13.698360574001839 1.393969703334231 2.448760605274013 56 67 18
12.551571389219294 1.7075910986424043 2.118883849817581 51 63 19
13.604999743102153 2.0486854886791876 2.347900676921542 54 66 19
12.290157932858937 0.49530267841511216 2.2312873643044466 43 51 14
13.006216985842208 2.0052746673591253 2.1891912916096183 53 68 19
12.866795882162531 1.6187076534626506 2.2965900193130793 55 67 20
21.44202836837443 1.9974452748227591 1.2647676438556064 65 76 38
13.019970100172102 2.5124821723579704 1.458429925708535 55 67 20
12.202818152696342 2.0460174841368257 1.7804839154765733 51 65 21
12.029047474711708 2.836211209685156 1.6157085434097123 58 70 21
12.710176048493057 2.6491223146064273 1.9360642795142302 60 72 25
12.436653020000831 2.117643880543551 1.6142356240093472 49 63 19
12.797929821325248 2.60612945405759 2.1071738385663568 60 72 25
11.901752528950777 2.690622252364448 2.3710707146413306 60 76 27
12.419263623193064 -0.544843807650664 1.695122880512228 46 62 16
10.858168918179315 0.05809621743788251 1.806915929724087 44 51 11
10.740940922886256 -0.13085621941573497 1.714675340063158 43 53 10
11.037941607713998 -0.04055083482792726 2.0966036963266896 45 54 10
12.308049716044678 -0.9623507089000396 1.9485892587260714 56 69 26
11.616777969344435 -1.3310509105815842 1.9723186419467382 57 69 26
11.460094430242828 -1.2102578181173504 2.0753567435212936 58 70 27
11.784454214517888 -1.5189437860596613 2.060219404546635 60 72 29
11.081120747529239 -1.423693676778686 1.8959649215123995 59 71 28
11.936797821042404 -1.5234903188421607 1.8718930577363613 58 69 29
19.50890805148231 -1.4915755248888742 1.649820414183703 50 59 13
12.207150227419847 -0.4745943084471817 2.2365810820419574 50 64 18
11.849317578368636 -0.7736358910697045 2.2605269932489933 54 70 23
17.155958575934704 -0.08506042566014493 2.872831432423102 61 75 28
11.556692336987078 -1.892373824064839 2.4023392685601124 63 77 32
17.162542214150584 0.1342308947404893 2.87144216037506 59 74 27
10.944545598840048 -1.9385664634471655 2.465947628199515 59 79 32
11.49017310855623 -1.0198080557342306 2.2865932655909305 56 72 23
11.449947016470027 -1.6198590244552435 2.178748495558702 60 72 29
12.916067363147407 -2.702203470227105 1.768746219118197 59 71 24
12.217883503945684 -2.854243156274827 1.780221508634268 55 71 25
12.191405845183711 -2.0976900757996555 2.0425220137323334 62 70 26
12.700459093478496 -2.623978686322828 2.1117427232995185 61 77 31
11.47885226639511 -2.6100427103068164 2.287451273582898 64 84 40
12.563187554593911 -2.7978069298190227 2.2145120726937466 64 84 40
11.98117756075704 -2.2781871266732248 2.364265141813257 59 77 33
12.560907887623786 1.4267817795512534 2.118430146328021 50 62 17
13.622295262098858 1.5082888744782506 2.455514826265145 56 67 20
16.936600249872853 0.7997396709520216 2.924776685632194 60 72 25
23.096277599582137 1.9520312554403143 1.0516019516345532 40 54 13
12.803624843954273 2.5315533980529095 2.018276739217862 61 73 26
12.877255771718437 2.4030759931485237 1.4571792499770853 56 68 23
12.61285859995639 2.7589368059003276 1.7735703632115913 59 71 23
11.920497572122452 -0.7752118406345013 2.0541503091633975 53 67 24
12.616813900971483 -1.0808893761537743 1.938895723155517 57 69 24
11.871494959020577 -0.43105690673674674 2.0563181253677527 48 62 20
13.531467425697791 -0.6698527678835013 2.592181362946786 57 72 22
11.849233819975312 -0.702860371267348 2.1554855921718303 53 69 24
17.22726896074401 0.3414348020126111 2.8581909146071935 59 73 26
12.42917862453521 -0.702860371267348 2.2226268333649544 53 67 19
11.797156598551167 -1.9621616244786557 2.2641797159540884 61 73 30
16.91888768363986 -0.10892608198334695 2.9295817807297038 60 76 30
12.878377878251927 -0.1610268320280413 2.4050299616468385 54 66 20
11.290948615639316 -1.5066095292352693 2.302042462806045 57 71 28
11.702349262641107 -1.8271884612888205 2.163816528293531 59 71 28
12.075127231742561 -3.0211558508636034 1.8683375694256708 62 78 31
11.438785341692348 -2.3611711078334556 1.9789347752235673 60 74 29
11.276164678062537 -2.433588471949246 2.08438715704986 60 76 30
12.037264526165382 3.0692717901324262 2.359541196080031 62 80 35
11.799662241222903 -2.433588471949246 2.158268831793615 57 75 31
11.83556657237712 -2.464812664949603 2.508245354589543 63 81 39
11.955603549610077 -2.147955151087738 2.1496081040611026 61 73 30
12.139570588937222 1.7796186562871046 1.7815928242223207 53 64 26
21.855947161873512 2.0410597366078616 1.270745732107632 75 86 49
11.622229090954054 -0.3109526317391616 1.8803092250543885 47 61 22
13.534328138255685 -0.8827300345210867 1.684833210275059 49 63 18
12.79484558516331 -0.7212199635140695 1.6914552905232516 50 62 21
16.81137970038985 0.5659422222904457 2.9616922560173826 59 73 26
11.563649869791078 -1.0747329157987402 2.171922267560288 56 70 25
12.01085254465299 3.0881600601459933 1.869978954488577 58 74 26
11.819065654418097 1.1666481717384098 1.7873989635894945 46 59 17
11.970339799839993 1.7796186562871046 1.6998110645524434 53 64 25
11.36940700414721 0.7910164837341405 2.183686525513765 39 51 8
12.085617433053857 2.347289468964206 1.6154981793225498 57 69 22
12.366213962039103 2.0874134486327756 2.0353238740490522 54 69 20
11.6372579531036 2.8047211545618413 2.3947771462276894 60 76 29
12.646948291160575 2.555855488027066 2.2095518116322115 61 73 26
11.34526631535572 -1.6151420856572722 1.982501970167005 60 72 27
11.263543238089014 -1.2424118493904228 1.7982653623627818 60 72 29
17.207584783050592 -0.29656383831395516 2.862145533366548 59 75 28
12.391309538099268 -0.24520167657024972 2.22496101478337 50 63 16
11.424622982567962 -2.957785092689665 2.415108414405345 76 96 54
11.191765282676174 -1.3066298835503398 2.0886461480495657 58 70 27
12.481594355727097 -0.7764153942010117 1.8583666785250972 50 64 21
