13.088611679681721 1.8436636755838902 1.6691905379919014 48 55 19
14.160548588349778 1.7540643790058805 1.8049673094766623 50 63 21
13.824195695083372 1.9606395087193764 2.4098944839923213 47 59 16
14.094472779846527 1.8660017804148077 2.1140496510938727 4 10 1
14.509178315714722 2.049541731733752 1.7992393235988415 14 17 23
13.760549088891928 1.9847115785071787 1.6643714405985306 12 17 22
14.00167250988351 1.9159718944505237 1.8818791001506299 9 12 18
15.284419692986189 2.2060800877622424 1.9239164627544239 10 13 22
14.252143181466197 2.016160221035142 2.0275535686069595 6 10 16
14.631052902148598 2.354250208747198 2.1728227126069095 45 52 14
13.768725755825786 2.1436277824477075 2.3109616917330285 39 51 6
14.701497312883987 2.2375332466107567 2.169534005089705 48 55 19
14.821777176867428 2.169456811791984 2.2478442312253044 48 58 13
14.058596059152013 2.0122872222656394 2.292286880105372 43 55 7
14.497581166968764 2.0523794196178726 2.179162483175687 46 55 22
14.14776950369547 1.975018093837928 2.1964889975917035 11 18 8
13.950208833193946 2.0523794196178726 2.120306242506605 9 16 12
14.854268141380313 2.189740907416791 2.0834402879287865 10 15 14
14.14776950369547 1.975018093837928 2.1964889975917035 11 18 8
15.369476738625526 2.189740907416791 2.1401708042982612 30 36 14
14.161472077032045 2.2706901514964644 2.4929997500960126 42 57 7
13.803145062825589 2.174292083288698 2.5280663740988345 42 57 8
13.889921588451136 2.5057435046757206 2.4046403256297118 45 57 14
13.89469503673432 2.201681869695382 2.4042618497777726 43 55 4
13.820138781813485 2.353654428619354 2.4102214446888555 44 56 11
14.847058318777554 2.651214422059975 2.434316968992637 45 58 15
13.620260449928121 2.2828112055615573 2.3209638285214433 43 55 7
13.092925675549377 2.353654428619354 2.3591877173208355 44 56 9
13.728091615739684 2.3531948426943337 2.5358735683954015 45 58 9
13.803145062825589 2.174292083288698 2.5280663740988345 42 57 8
14.627567070364199 2.532287777242836 2.5679044706178136 44 59 13
13.853691308517718 2.3525322087034817 2.6612196245413497 44 59 9
13.558686178729978 2.475673198952162 2.704810958944711 45 61 13
14.348481676455773 2.6431512260415433 2.598745879098769 44 60 12
14.82900550214811 2.7007513559631295 2.5472122933069703 44 59 13
14.27519345755989 -2.288539916185676 2.3753688747525805 47 58 34
14.154058165499938 -2.4925552757844627 2.286369051663069 52 61 38
15.876780592710515 -1.9415984597766882 2.690084047129095 59 73 44
16.065261894915412 -2.068763914421942 2.666462843029539 58 72 43
15.370953897174152 -2.2379605551714783 2.763580500399128 65 79 47
15.30991048453179 -1.7706302022754918 2.621531220792027 51 63 39
15.690106173338572 -2.1424478166068894 2.7152763765416235 59 72 42
13.332335838661855 2.6281281681479536 2.7427251923407954 46 62 16
14.406673324160398 -3.080869862413697 2.592087437632273 46 61 23
14.03788930654264 -3.040699189157492 2.8127661400062447 47 62 23
14.259127326663167 2.6281281681479536 2.769965498289099 45 61 15
14.622332652635246 2.8150583537893774 2.5684586898493906 46 60 16
15.024856005601475 2.9621850911064516 2.5281936868435366 45 59 16
13.475832913819728 3.0432947957057173 2.7181721348659607 46 61 22
15.1602470285769 2.8511792542260452 2.5156198698030434 45 59 15
15.051480904132097 -2.829211535079502 2.821248107625387 46 59 22
14.955250115282013 3.0778271931606414 2.5348363566258367 45 60 21
14.11509547043789 2.8118849771128582 2.797095079521114 46 62 18
14.622332652635246 2.8150583537893774 2.5684586898493906 46 60 16
14.952348110990014 -3.0879905595905326 2.5351160313016576 47 62 24
15.1602470285769 2.8511792542260452 2.5156198698030434 45 59 15
15.016188666030093 -2.97207626297963 2.5290140622278154 48 62 23
14.456694711014688 -2.883159057786652 2.7363441107328086 47 60 23
14.259127326663167 2.6281281681479536 2.769965498289099 45 61 15
15.451735300456834 -2.541309160153876 2.6057204078852845 52 65 36
15.44479149461876 -2.1805461994116033 2.606477988229255 57 67 40
15.073323069430002 -2.6060374451796755 2.5236409711752055 51 62 35
15.88882602125884 -2.1147853658736757 2.5610596588640706 55 67 41
15.391677520460817 -2.2072035760102766 2.495111494916474 55 66 41
15.398645277328608 -2.5132657507226766 2.4945121416899667 51 62 36
15.383395400684984 -2.3610850903128395 2.6132491789229926 57 69 42
14.60748617361121 -2.825461964274773 2.5700353957675754 52 65 31
15.967800827869803 -2.860567551400067 2.553562189310282 51 63 28
15.374442866348723 -2.487683916028393 2.7630094489247163 79 92 60
14.792648106767361 -2.5813370569845455 2.686301592461551 68 81 50
15.33989367945484 -2.755778624660478 2.4995980294633995 52 64 33
15.458013634208235 -2.825461964274773 2.605036847502353 51 64 33
14.932867402889334 -2.27727646226407 2.5369991946241157 56 67 41
15.180918464606716 -2.6428486950606636 2.7964713073114176 85 99 65
13.075510867788855 -2.193652207192738 1.7465119590806981 50 57 44
13.148098224511475 -2.098388295465164 2.15811479504471 49 57 40
13.999824126198869 -2.015826869662591 2.295985965679648 49 58 39
12.939424300292364 -2.296993102105497 2.0780563309414424 46 55 36
14.146477408500663 -2.226875099878627 2.2868349643405543 51 60 41
12.743323443627956 -1.9458428107137715 1.8315845509628539 55 62 51
13.530942843539803 -1.8681091356756852 2.0539199642682 55 62 50
12.947688154135307 -2.055780598774913 1.991321782514648 55 63 46
13.795516395547034 -1.8946716637093879 2.2150639161830927 55 62 44
14.806246450372422 -2.060758263205291 2.437547678055941 51 62 40
13.961293321326558 -1.531499180883662 2.0378171081326433 22 26 20
13.259547515815585 -1.69144748711437 1.89992773383975 31 38 30
14.991165193634396 -1.7475201975519365 2.5313933056301052 50 61 38
14.72698493518645 2.6959132842598703 2.343997604473911 45 56 16
15.47105386211254 2.7656406715774478 2.2145506974261973 44 55 17
15.12672373866676 2.8164222373799688 2.3185223975465448 43 59 15
15.207455922210372 2.8429521384496823 2.227622137014052 42 56 13
15.379763696125167 2.4590568142147586 2.0643111544420725 27 33 8
15.525861976841759 2.404370035741297 1.98761965640753 16 21 9
14.86714203741892 2.3544542934064183 2.007324643717343 1 5 0
14.86714203741892 2.3544542934064183 2.007324643717343 1 5 0
15.150814207034546 2.304720307499887 1.927168590237512 4 7 10
13.492995786470184 -2.464049319719662 1.5919767950617298 55 62 44
14.76849520332622 3.0845167167123755 2.4405630700345116 47 62 24
15.586533465638185 -3.105110422971594 2.2090025848960293 49 60 25
15.428614207225657 -3.098176221062311 2.3912904534650337 48 61 26
15.586533465638185 -3.105110422971594 2.2090025848960293 49 60 25
14.77781483081529 -3.0038808073978243 2.3406463679128393 50 62 27
15.075864827396074 -3.0256816117324132 2.15268735315861 49 59 31
14.961553216007403 -2.8888068351346226 2.4254107637660014 51 63 26
14.99152973366878 -2.9313197931751653 2.2387756534597836 50 60 31
14.597521658621854 -2.849854334901622 2.1744019096166354 50 58 33
15.157878567167815 -2.792976256180233 2.410653673214293 53 64 29
13.851273594484663 -2.772181350253431 2.041826184883201 50 58 35
14.700440723851255 -2.703369934060755 2.3457612791256883 52 61 36
14.36818124516542 -2.620690026361061 2.273486524971556 52 60 42
13.903642380380761 -2.566748960443751 1.7359465991947889 62 69 53
15.44596623374039 3.094417887433852 2.2995216979749395 46 59 18
14.92417431845154 2.904164813008468 2.3311830706346006 44 58 15
15.219358337577251 2.941021094504459 2.1464972429979388 43 56 18
15.513370519402425 3.008298764558915 2.2956499995782345 44 58 16
14.83897713958363 2.980707471785493 2.4349543026355986 46 60 17
13.86141782670675 1.8921860618997188 2.2114972594721767 28 37 10
13.770390168446667 1.9232561892094613 2.3108512964668986 49 62 17
14.088852956648191 1.9847115785071787 1.8061814099678795 12 15 22
13.391498551866874 1.9159718944505237 1.6669581070426662 0 4 0
14.37618310626943 1.9432774345833537 2.102258329548709 2 5 9
14.701497312883987 2.2375332466107567 2.169534005089705 48 55 19
14.667789984457961 2.084308981789368 2.0136749917757344 11 15 17
14.198531145942251 2.2219459766557543 2.283649529421244 42 52 9
14.936473030004539 2.249889701617798 2.0051601555130465 12 15 20
14.410572539547356 2.09442312955875 2.270997843252405 48 60 12
14.198531145942251 2.2219459766557543 2.283649529421244 42 52 9
14.111302717294159 2.0565304993805773 2.3875141084472062 41 53 9
15.384074875636102 2.249889701617798 2.0641604181225945 18 23 5
14.159130523209894 2.436234854800864 2.4932179570615576 44 57 11
12.95660631899754 2.4248829020946303 2.2646457372920685 43 54 12
13.620260449928121 2.2828112055615573 2.3209638285214433 43 55 7
13.378182170438302 2.2706901514964644 2.447831349610171 43 56 7
13.166563277112063 2.5057435046757206 2.3535771668402985 44 55 14
13.529304209777289 2.1096744212572536 2.4345070549403114 42 56 4
15.359683653835152 2.7470555607234384 2.4978766925079863 43 58 15
13.92330595284163 2.570113989102013 2.651711131297645 45 61 13
14.210743845233832 2.452068147749982 2.6150320869773687 44 60 11
13.853691308517718 2.3525322087034817 2.6612196245413497 44 59 9
15.151475866628356 -2.571442040854635 2.41112510505088 51 61 38
15.440655323124348 -1.895525669900092 2.606930035866967 52 63 40
14.259127326663167 2.6281281681479536 2.769965498289099 45 61 15
14.472921069730836 -2.9500219868900843 2.584658272162828 51 64 27
13.178178437722387 2.8118849771128582 2.771464769979556 46 62 18
14.390372265716271 -3.058916891756302 2.747225625234139 45 60 22
15.012117360462382 2.7691497057021284 2.657296452409785 46 60 17
14.606272278755595 2.7091536378133836 2.7131003841918213 45 61 13
13.914688299934676 3.0583177813259934 2.652873837306375 47 62 23
14.040980313395508 3.0216900419313673 2.8121215769212276 46 61 20
14.606272278755595 2.7091536378133836 2.7131003841918213 45 61 13
15.012117360462382 2.7691497057021284 2.657296452409785 46 60 17
15.330068709416365 -2.360330775744014 2.5004557360513573 50 62 36
15.057743723155603 -2.4615173134285997 2.65156789436439 60 73 45
15.391677520460817 -2.2072035760102766 2.495111494916474 55 66 41
14.591409458618587 -2.722215813185416 2.7153357294259033 62 75 40
15.19351558309662 -2.6534935771482 2.635069677225951 56 69 38
14.997656742045267 -2.7807679592550594 2.659132429687541 58 71 38
13.5975352429973 -2.1737169900365174 2.1362693183812436 50 57 43
13.373919197905174 -2.087544567008455 1.7425517932706442 56 64 48
13.541294464125075 -1.6117347561997988 1.9718018163939077 30 35 27
12.925798009996612 -2.3035702544993284 1.7485687681891409 44 52 34
14.410894438208643 -2.148288508622108 2.3656331916754496 52 61 41
14.208002254355824 -1.8064004372162696 2.2830733925462754 56 63 50
15.678088281560806 2.793229899496049 2.127621252204187 44 55 18
14.714504870551975 2.409697298775454 2.0887943757774603 39 46 14
15.678088281560806 2.793229899496049 2.127621252204187 44 55 18
15.527997434930391 2.304720307499887 1.9875587664424732 10 12 16
14.86714203741892 2.3544542934064183 2.007324643717343 1 5 0
16.53664951995885 2.7244842720832665 2.1670257556987234 30 40 16
15.10662858539364 -2.8238557273450904 2.3197566953063675 50 59 29
13.904029763015656 -2.662726674456172 2.1223415629547713 49 57 34
15.616291249799783 -2.911980429017385 2.3784854009337133 52 63 30
13.621910612234846 -2.4766466795571707 2.0504199493773547 49 58 35
14.860442649325464 -3.0157132271637552 2.245754597621428 50 61 29
15.366308445381938 -2.7405481321857046 2.3041586100529705 49 58 31
14.976048695417012 2.8802705973033653 2.424299360518714 44 59 16
15.644534408242398 2.9241190984338035 2.288248543327163 43 57 15
14.786621896468185 2.9957878404502467 2.340069158105734 45 59 16
14.83897713958363 2.980707471785493 2.4349543026355986 46 60 17
15.431426646095344 3.089937063756937 2.391094956281067 46 61 24
15.543268375582354 -3.0936176598898086 2.4822965873139906 46 61 23
15.443156442755873 -3.1019440652069 2.2996841175334026 48 60 24
14.716758060142253 2.299029742854636 2.0887071231538523 32 38 8
13.092925675549377 2.353654428619354 2.3591877173208355 44 56 9
14.05695160815462 1.8436636755838902 1.9562991420914986 30 37 11
14.906385794551248 2.123963036983261 2.1601856611793404 39 48 19
14.481382439866323 1.8921860618997188 2.266884720628054 47 58 20
14.906385794551248 2.123963036983261 2.1601856611793404 39 48 19
14.213076895947456 2.2537894306508246 2.6147497773070074 43 58 8
15.09921177284281 2.5975338909475854 2.5212329458761946 44 58 16
14.820729162744913 -2.659184494760201 2.436397770737064 53 64 38
14.866623682956124 -2.9214773577570643 2.676241431377812 50 63 26
13.55303894702598 2.8684949118524967 2.7057043319332283 46 61 19
15.967800827869803 -2.860567551400067 2.553562189310282 51 63 28
15.876780592710515 -1.9415984597766882 2.690084047129095 59 73 44
15.634395241603691 -2.0107760080823134 2.5863605174488575 54 67 41
15.648111500655652 -2.7102457735696883 2.5849490879823613 51 64 34
14.591409458618587 -2.722215813185416 2.7153357294259033 62 75 40
14.80213807897521 -3.0715710264899267 2.6849938513900353 46 61 23
14.406461432443189 -1.926226453387601 2.3659468156304513 51 61 40
14.195973134706941 -1.8302608376607798 2.3811851774758006 53 61 41
14.745113885614899 -1.7142336505876508 2.342798449094927 55 62 49
15.571474468828745 2.56145585703513 2.057700275175086 25 31 9
15.79367910218526 2.692768520247339 2.1993085689724357 44 55 18
15.391704358009235 2.7335695764485344 2.302672992203594 45 56 18
15.177905866947444 2.7849387404845722 2.409183220132195 43 58 16
15.418030360133494 2.8655823351317946 2.138156376437698 43 56 18
13.844266628076916 -2.5907134001726044 2.042083953479017 57 65 47
15.157878567167815 -2.792976256180233 2.410653673214293 53 64 29
15.44596623374039 3.094417887433852 2.2995216979749395 46 59 18
14.751034119280998 2.1475996427417 1.9372768933700304 13 17 21
14.00167250988351 1.9159718944505237 1.8818791001506299 9 12 18
13.820138781813485 2.353654428619354 2.4102214446888555 44 56 11
15.62967374810508 -2.3621758854050228 2.72387118002267 65 78 48
14.936438211449415 -1.8302608376607798 2.427344880800586 51 61 38
15.051480904132097 -2.829211535079502 2.821248107625387 46 59 22
15.015323879139391 -2.43149017102891 2.4213058656382564 51 62 36
15.44479149461876 -2.1805461994116033 2.606477988229255 57 67 40
14.079420897564912 -2.3597780543132267 2.290986448789038 46 55 32
14.997656742045267 -2.7807679592550594 2.659132429687541 58 71 38
15.227237647704799 2.692768520247339 2.146161434229324 45 56 21
15.61907674474053 2.6246684948672834 2.1299750231489134 38 46 20
14.830201165656435 -2.9896120575179954 2.4356477592815513 50 64 25
15.58931741462323 3.0981838394265244 2.2088701275882827 47 58 19
15.49889416417305 2.9957878404502467 2.386438543656441 46 60 18
13.728091615739684 2.3531948426943337 2.5358735683954015 45 58 9
14.914416102076718 -2.530974379679314 2.8502167987616476 79 93 57
15.690106173338572 -2.1424478166068894 2.7152763765416235 59 72 42
13.56714763848193 3.069364496771264 2.553220408225588 47 62 23
14.936458703917832 -2.4440142130580464 2.5366512751819856 52 65 39
15.943647935582028 -2.2615269651177066 2.681510866284836 60 71 43
14.801240106196992 -1.7291610456019784 2.437946061084457 51 61 40
15.322401554232258 -1.964241963986221 2.501126518909535 52 63 40
15.656104542072116 3.0188422871883085 2.205710440066187 44 57 18
13.558686178729978 2.475673198952162 2.704810958944711 45 61 13
13.58064284504302 -2.5245452433334887 1.8918631704985915 55 62 45
