12.356860069661971 12 17 17
11.686301832391804 7 11 13
11.686301832391804 7 11 13
11.806680231411864 0 2 4
10.97803743981006 1 3 1
10.74149235676054 6 8 8
11.311962126286042 5 7 7
11.624757095245483 8 10 10
11.258569240246814 9 12 10
11.447972959294864 7 9 8
11.130210891973972 4 6 5
10.95463074518071 2 5 2
12.08093756003183 3 5 5
11.442078885307634 42 45 26
11.706558396089145 37 41 20
11.485862706673133 2 3 1
10.650565265947895 33 35 23
10.758563047204419 25 28 20
10.934206909861281 39 43 28
10.565242002776367 3 4 1
11.348957174743429 3 6 3
11.442078885307634 42 45 26
10.72951080561267 6 7 1
11.188316456920088 4 6 6
10.723808179201855 4 7 5
11.351928769320752 8 10 9
11.202257071530074 3 6 4
10.72951080561267 6 7 1
11.129645955919482 37 40 30
11.048023225768903 11 12 8
11.420963767701814 0 2 0
12.333438272882374 34 42 15
11.276164107592956 34 39 14
11.135654187549976 36 41 20
11.685921172359501 0 2 4
12.020536419687279 35 40 22
12.095598278878725 33 39 14
12.111279614889687 0 2 0
11.468717154389855 8 10 4
11.527546435395466 0 1 0
12.26528731031599 33 41 12
12.02609957124972 35 41 14
11.454601695117882 0 1 1
11.468717154389855 8 10 4
11.50525773520897 1 2 0
11.169690530930403 0 3 2
12.671663185437929 35 44 13
11.159409924645285 4 7 0
12.270004394812428 38 43 18
12.188701434765655 40 45 22
11.41872234396411 5 9 3
11.592056985341438 9 12 6
11.348000281686486 40 47 23
11.784590829651872 40 45 19
11.69991520650714 41 47 23
11.935390115934956 48 54 33
11.93491107643521 43 48 28
11.42893108205173 18 22 13
11.348000281686486 40 47 23
11.159409924645285 4 7 0
11.247646875324087 5 9 1
11.076458075931129 6 8 7
11.797342266867977 37 42 16
11.607876892081968 38 43 23
11.700403867243173 42 49 25
10.798672256948327 18 23 11
12.20697981086638 42 48 23
12.288161835106072 40 46 19
12.137176757475938 38 45 15
11.347160954973734 18 22 15
10.704190696274436 37 44 31
11.575354051672859 36 42 22
12.0209064836306 14 21 13
11.569574164203056 11 14 7
11.754940217397685 13 19 11
11.378727967350583 33 39 13
11.56715277536201 34 40 12
13.246618897250283 17 24 19
12.36227187299288 16 23 13
11.611942157922288 29 37 19
12.302462027803452 15 22 14
11.36539522716538 36 44 25
11.486698099379625 36 45 13
11.230940802947263 34 44 13
11.730695854703198 36 44 12
10.923774685727551 38 47 19
10.747960340341617 37 46 19
11.35704233401722 36 44 23
11.081698755190338 38 47 20
11.066573060801 35 45 17
11.413993219598133 38 48 20
11.40315845475144 37 45 30
10.947769611582855 38 47 19
10.394945520706361 35 43 23
11.531849879786831 41 51 21
11.617258369153006 42 52 21
11.934650641384549 43 53 23
12.34556666571513 41 51 22
11.275595562609 41 50 21
11.851529671995282 43 54 19
10.662934203431472 41 50 20
10.755776634421466 39 48 20
11.209989356608807 39 48 22
10.662934203431472 41 50 20
11.380174327913194 41 50 20
10.576629627884254 38 47 21
10.507203966152744 38 47 21
10.315656547378744 40 46 19
10.21937569706496 39 47 20
10.431873764587248 31 37 21
10.259109400668278 31 38 12
9.906160174540885 23 31 4
10.174324343957643 29 36 8
10.275980172361319 29 36 4
14.44543325609849 26 32 5
14.8305260514415 32 38 11
13.14972328542624 13 21 0
12.697983920956894 23 31 8
11.16298469461134 39 46 21
10.763982472297688 40 46 23
10.963499744820197 39 46 20
10.767646507507834 29 35 9
11.110779361794442 42 48 29
11.446575145950025 42 50 28
11.800734226378616 43 52 25
11.866398562520246 39 48 23
11.373613786419051 42 50 26
11.71095311387264 42 50 26
12.203841817559953 41 50 25
10.734305542606707 39 46 23
10.71815621616677 37 43 20
11.290261113407517 43 52 25
11.091106696571755 39 47 23
10.64498205474734 37 43 18
12.2714022140969 40 49 22
10.244889717359976 17 23 3
10.939957209067146 42 51 25
12.289557589156065 42 51 24
10.945024859840231 44 53 25
10.583299906447843 43 52 24
10.402831568237428 41 50 24
10.126325977901159 40 50 22
11.785502271176277 37 46 16
11.436221331261509 35 44 16
10.97506949166428 38 47 19
10.311634695014055 41 50 22
10.126325977901159 40 50 22
11.973169960824166 41 51 22
10.775342184395665 39 48 21
11.430471333626434 41 50 22
12.120245683802805 40 49 20
11.464081363960023 39 48 19
11.352925641375379 39 48 18
11.97225267256082 38 48 18
11.278851616729305 38 47 17
12.041207701040472 40 49 23
10.898008091167675 41 50 22
11.179411795012042 42 49 23
11.492171953762854 42 53 18
11.910388259311922 46 57 22
11.009435235032713 41 50 20
11.418500539532772 44 55 22
11.551376744128733 36 49 16
11.73703019755836 40 51 18
11.861944517865057 43 52 22
11.861944517865057 43 52 22
11.936087733563566 43 54 19
12.254832583970861 45 56 23
11.73703019755836 40 51 18
10.095655915845638 40 49 19
12.031232345009979 0 1 4
11.616874995013529 1 2 3
11.877462898835466 1 2 4
12.716518251599704 0 2 4
11.820375258865955 0 2 6
12.297023902756365 15 21 19
11.434932137501784 36 44 25
11.478643397038415 4 6 6
11.9109260631856 3 5 4
10.983608072637782 1 4 1
11.355403094141835 11 11 14
11.025853987032448 5 7 7
11.752227031910119 1 3 1
10.639072325975176 5 7 6
11.431381748971466 7 9 8
11.285702576917572 37 41 19
11.285702576917572 37 41 19
10.91992410189748 41 44 27
11.146686291905024 1 1 0
11.387678473292993 38 41 24
12.278470832241169 35 42 13
12.262117302343988 0 3 0
12.041871411190256 0 3 0
11.497006456489949 35 38 28
12.020536419687279 35 40 22
12.095598278878725 33 39 14
11.284576867316819 35 40 22
11.347496445296406 38 43 20
11.434782059963913 38 42 21
11.158897573198246 5 8 0
11.331313021256063 1 6 0
11.935390115934956 48 54 33
11.952620892723612 38 43 17
10.798672256948327 18 23 11
12.431475094757433 36 41 16
11.863025378232509 38 41 19
11.087497645309549 33 37 21
12.207448173965002 41 50 23
12.449397032331142 39 44 16
11.528368125446327 40 45 30
10.404070860555857 36 44 26
10.805993547805885 29 36 27
12.372728848228908 36 43 12
11.519697287617781 9 16 13
11.624440652108204 40 49 21
11.241879399137396 2 5 4
11.29190934520882 37 45 26
12.04826850018423 24 32 18
10.893063728954342 35 45 18
11.575354051672859 36 42 22
11.730695854703198 36 44 12
11.875478886004856 14 21 16
11.857605761309104 40 49 21
11.38706495318177 35 41 23
11.517265412671476 34 43 20
10.947769611582855 38 47 19
11.787673951993817 42 51 21
12.10059713876793 42 52 22
11.531354076291194 41 52 20
10.218816214250062 41 47 22
11.380174327913194 41 50 20
10.788415099966906 37 45 22
10.939620477531419 40 49 20
11.627205847053395 39 48 22
10.089450005472013 26 34 3
14.509885143439687 32 39 11
14.65850520573474 20 26 0
12.697983920956894 23 31 8
10.76546940284159 41 50 24
10.163867774068635 33 39 12
11.436281966194196 40 48 23
10.618149442985342 4 9 0
12.199297097034918 40 48 25
11.190922674166732 43 50 28
11.955012350093288 41 50 25
11.205880522739825 42 50 26
11.71095311387264 42 50 26
10.945024859840231 44 53 25
10.89842757100577 35 44 16
10.682562536962719 42 52 24
10.682562536962719 42 52 24
11.450359448995453 36 45 15
10.708165952867853 37 46 18
12.139531857856964 42 51 23
10.969077760601161 39 48 20
11.269419952459797 37 46 16
11.695213344454137 40 49 22
12.050889121112153 39 48 18
11.816845147787703 38 47 19
10.796013737850553 41 49 21
10.898008091167675 41 50 22
10.796013737850553 41 49 21
11.343555566545275 38 47 17
11.887567289954452 36 46 19
11.887567289954452 36 46 19
11.155402600603773 40 48 20
11.519300887109724 42 53 20
12.064211956489267 42 53 20
21.51655956878825 41 53 22
12.215312937873266 8 10 10
10.984868935286178 5 10 1
11.173437644757657 7 11 6
14.75159296387154 35 41 14
11.988629673018805 8 10 10
11.46503885208929 7 9 9
11.410246835904678 2 4 4
11.338676432653745 9 12 6
11.423577610137976 5 8 4
10.940322473686168 34 38 19
11.185301395609196 7 6 0
10.9913722424137 6 9 4
12.65888915788365 34 43 15
10.871641655137164 32 36 21
12.18917050020223 41 48 24
12.207448173965002 41 50 23
12.200561929191254 37 41 18
10.965092596705487 29 36 27
11.851047242714147 43 53 23
11.531849879786831 41 51 21
12.763017709726082 36 44 12
11.851529671995282 43 54 19
10.663470384628578 41 50 22
10.663470384628578 41 50 22
11.047908365439636 0 2 1
11.241879399137396 2 5 4
10.289632116970022 39 48 20
10.86279228553696 32 41 15
10.21937569706496 39 47 20
10.068917557288106 32 39 7
10.058351408067152 29 35 7
10.74840968111986 34 40 14
9.783563193755402 26 34 6
11.337254281589225 39 48 21
10.248739335527175 34 40 19
11.535578682767076 39 48 20
11.627205847053395 39 48 22
11.78604621888702 41 50 24
11.055783077388012 40 49 22
11.25460816496319 45 51 28
12.064211956489267 42 53 20
11.255347978211287 43 54 21
10.94223333136955 39 48 18
11.848780080179234 41 52 21
11.270788672337192 1 2 2
10.55945066344777 2 4 2
12.017931085893023 32 36 21
11.431381748971466 7 9 8
11.685921172359501 0 2 4
11.390138016000087 0 1 0
12.18917050020223 41 48 24
11.150059614742872 33 43 16
10.864780603459568 38 46 22
12.772992563819551 17 24 18
13.39095546641813 19 25 2
11.543218505446465 42 51 25
11.215365621201034 41 49 23
11.61033935884049 40 48 23
11.283767067717132 37 47 17
10.5564190523745 39 46 22
12.433774451761794 40 49 23
11.923484677056953 46 57 24
10.825720732461088 41 51 21
10.757371215171148 41 50 20
11.258569240246814 9 12 10
11.374015264329614 5 7 7
11.502822807517987 34 40 17
11.207716259795658 1 3 1
10.550459716086939 4 5 3
11.950601197873977 40 46 25
10.947769611582855 38 47 19
10.816369325878316 37 46 20
10.875533058263688 37 43 18
11.47087186988079 42 52 24
10.348504259140672 36 42 15
12.142723726657875 38 49 16
10.981630055532978 1 3 4
11.754940217397685 13 19 11
10.131800593034601 41 50 22
10.755776634421466 39 48 20
11.247827679393662 32 40 22
12.00339331322587 40 51 16
12.404651467465774 16 23 16
11.152509383634337 36 44 26
11.700403867243173 42 49 25
11.290261113407517 43 52 25
11.883671021931727 34 47 14
