10.162090126987536 55 66 70
10.317785840553277 45 55 59
10.614279357393242 18 21 20
9.590856114593656 11 17 18
8.853118625929067 0 4 6
10.862200087337602 55 67 71
9.892138784390701 32 40 40
10.862200087337602 55 67 71
9.725722105996642 55 66 70
9.729634156901408 42 51 53
9.624329880833635 55 65 69
10.098879916168762 56 66 70
10.058628358961322 53 64 68
10.11754087544029 40 48 48
5.545416390327627 48 67 91
6.065451188011464 118 147 175
10.46948507598098 57 67 72
9.037423760769219 36 60 77
8.419129352085394 105 137 164
7.701539858482417 15 28 35
8.130752826411808 127 151 167
8.751074790488683 174 193 208
9.291950402522309 152 185 215
10.063887154654614 155 186 216
8.630550349149926 51 76 94
8.81350570329845 152 182 205
9.053346589959219 150 182 210
8.664096586948745 45 58 63
9.48525154514255 52 64 70
8.846196842173535 39 50 54
8.56246765480801 114 147 177
10.601137756479096 160 193 221
10.601137756479096 160 193 221
9.090893481623809 153 182 210
8.822299768015956 153 182 210
8.691822104765059 153 182 208
8.224343597518217 169 191 208
9.8915489254108 95 117 138
9.689210252431876 56 77 96
11.310920935131321 127 162 190
10.755819342529675 1 2 2
10.041029712859066 1 3 4
9.695922163312924 16 18 20
9.074696095737623 63 69 72
9.440520385839761 0 4 11
9.896201102087202 29 40 51
9.707519956914302 43 53 64
10.823949935141735 163 198 226
10.816783338118347 153 186 213
10.383360384831615 153 186 215
10.750210526193152 152 185 214
10.402711657052075 163 196 224
10.15026014037389 161 194 222
9.99195436412511 160 193 221
11.065325650900364 157 190 218
9.944730747288796 139 176 203
9.116290966607652 126 160 187
9.302824109600962 117 150 177
9.346331232717402 116 149 175
9.93229697060326 159 192 220
9.973058418045616 146 183 210
9.93229697060326 159 192 220
9.973058418045616 146 183 210
11.011485043261397 158 191 219
9.584937577719002 154 184 210
10.245369742577257 153 185 212
9.542518392503833 155 184 210
10.245369742577257 153 185 212
10.205695961796124 154 186 213
10.41794067316713 154 186 213
9.604597137505461 153 184 211
10.66405723784968 156 185 213
9.769181904145416 153 187 215
10.158236488311628 152 184 211
9.133665148105395 156 190 218
9.393359895969652 143 178 208
9.269203422373906 132 165 193
9.525203576976399 130 165 193
9.229121979576314 163 196 224
9.8386703730174 162 195 223
9.269203422373906 132 165 193
11.301674258666761 141 176 204
9.133665148105395 156 190 218
10.789910884890665 157 190 218
9.406506081379392 136 171 199
9.406506081379392 136 171 199
9.393359895969652 143 178 208
10.708376320791988 148 183 211
10.708376320791988 148 183 211
9.430246337720035 152 184 212
9.430246337720035 152 184 212
10.14351112504981 55 67 71
10.016173103726363 12 16 17
9.984156126078007 8 12 13
8.574863447031731 0 3 5
10.035130093784433 15 21 22
9.886366583004119 54 66 70
10.109085634349904 12 18 19
10.058628358961322 53 64 68
8.782305253802233 90 120 146
6.724865158992947 96 124 152
8.05746014235874 96 125 156
5.7933594778513555 75 98 125
8.419129352085394 105 137 164
9.098046800023731 156 185 213
8.704592976769833 154 173 187
8.772603250673933 100 124 142
8.664096586948745 45 58 63
10.518139961783316 147 184 211
10.518139961783316 147 184 211
10.518139961783316 147 184 211
9.22330874569073 51 69 84
8.410493469671483 152 181 206
8.511826989990736 164 188 207
8.511826989990736 164 188 207
9.090893481623809 153 182 210
9.336031294264792 34 41 45
9.693959532873416 1 3 8
10.582475948003518 11 12 12
9.707519956914302 43 53 64
10.995942236781634 155 186 214
9.116290966607652 126 160 187
10.236241223879324 155 188 216
10.486623064454575 153 186 214
9.116290966607652 126 160 187
10.02014853125632 159 193 221
10.00431399640052 139 176 203
9.99195436412511 160 193 221
9.99195436412511 160 193 221
9.116290966607652 126 160 187
9.346331232717402 116 149 175
10.402711657052075 163 196 224
10.263764366309559 154 186 213
10.263764366309559 154 186 213
10.41794067316713 154 186 213
10.245369742577257 153 185 212
10.410494582630063 153 185 213
9.604597137505461 153 184 211
9.393359895969652 143 178 208
9.730488141211913 155 185 211
9.876278361829412 129 164 192
10.962437246345612 154 187 215
9.761850631746182 137 172 200
9.430246337720035 152 184 212
10.113024538052224 158 191 219
10.789910884890665 157 190 218
9.486203856727647 164 197 225
9.486203856727647 164 197 225
9.74918361878095 151 186 214
9.683919629239801 54 65 69
9.68588429404416 50 60 63
8.720006122234047 0 4 9
8.348239942924597 104 137 161
7.935648275901627 15 31 39
8.324528240489533 75 99 117
10.063887154654614 155 186 216
9.053346589959219 150 182 210
8.838960540534686 113 146 175
8.570103968059163 30 44 53
8.410493469671483 152 181 206
9.525203576976399 130 165 193
9.525203576976399 130 165 193
10.823949935141735 163 198 226
10.00431399640052 139 176 203
9.68198931457673 152 185 213
9.393359895969652 143 178 208
10.985835347586914 160 193 221
9.14718457021239 137 172 200
11.169407113180995 150 182 209
9.74918361878095 151 186 214
11.301674258666761 141 176 204
10.162090126987536 55 66 70
6.724865158992947 96 124 152
5.545416390327627 48 67 91
10.46948507598098 57 67 72
9.11875613120728 150 183 212
9.090893481623809 153 182 210
8.846196842173535 39 50 54
9.693959532873416 1 3 8
8.99219742132232 138 173 201
10.383360384831615 153 186 215
10.057077913583433 134 167 195
10.205695961796124 154 186 213
10.06509468018324 42 49 52
8.76735488528772 150 181 208
10.750210526193152 152 185 214
9.495539932471699 115 148 178
10.237125898351188 55 66 70
10.031228438171787 153 186 214
10.15026014037389 161 194 222
9.074696095737623 63 69 72
