12.665798830922355 0 3 4
11.68748064803024 5 10 11
12.85422329975094 0 3 4
10.964364682078497 3 6 7
12.062812724469003 0 1 1
11.138917224077979 12 16 15
11.398844720764988 11 15 15
10.867918042042193 1 7 8
11.751692276368319 0 4 5
10.989776408031044 6 11 12
11.461501037445283 73 80 85
12.084268656452853 64 76 83
11.073995193324157 6 10 11
11.246846383987705 4 8 9
11.505907320674595 0 4 6
11.512068416609694 0 3 3
11.307704289498064 0 5 6
11.560693661924345 79 86 89
12.24286457511393 60 73 80
12.479820393252076 57 73 79
12.78949464111632 14 17 20
12.403822196752158 0 2 5
12.328690970471712 0 3 6
11.888358932814116 4 6 9
11.978100603692157 0 1 3
13.288498931425144 85 105 119
13.733795242627775 115 148 172
13.632605712899926 123 157 179
12.614219744460852 53 68 78
12.60859721796191 50 69 80
11.950083036404017 105 135 157
11.860129367768373 107 139 162
13.072901884429628 113 145 168
12.846889881861404 111 143 166
12.622448714499551 107 139 162
12.833280636349318 55 72 84
13.05952816661265 59 76 88
12.541661916757016 89 119 137
11.852760216401684 68 90 103
12.541661916757016 89 119 137
12.609902922732388 76 99 114
12.761968334233776 79 102 117
13.69420967759568 99 127 149
13.33472949134903 97 125 147
12.609902922732388 76 99 114
6.888515279974973 68 74 79
6.3307993214706375 10 11 14
5.276450036626064 36 49 60
5.397692371098245 0 5 15
5.23597909838872 0 2 7
5.592285861972217 0 1 6
5.8978692851513825 5 10 12
14.37532815911913 131 168 194
13.929086282607768 137 176 205
13.190394867190058 125 160 185
13.59903274486321 129 165 191
13.59903274486321 129 165 191
13.085003764208867 129 163 188
11.019726244697596 140 178 207
12.034841606472813 127 163 189
11.926429700241213 152 189 218
11.019726244697596 140 178 207
11.565073555214141 155 188 216
10.627585212586851 160 195 225
11.558940711880318 163 199 228
10.727878793477485 157 194 223
12.271789306711783 50 65 73
11.738460457044907 52 65 74
12.33187276187625 56 71 82
12.304939775762245 66 83 94
11.547400111086157 1 6 8
11.753629576102496 6 12 13
12.982043814488188 75 101 119
11.941783116369894 0 3 11
12.093379580902628 59 78 91
12.093379580902628 59 78 91
11.885694213144918 23 28 34
11.268810718744376 51 56 59
11.982749549157033 55 78 94
12.373155743612836 9 14 19
12.039649791374751 23 26 31
12.633117507880407 79 99 118
12.885831853008513 94 123 148
12.885831853008513 94 123 148
13.515741842682564 73 99 120
13.904970035857724 102 125 152
13.330235361711894 85 101 117
12.69075208860812 81 105 121
12.365814676670606 84 108 124
12.789719134825896 87 112 128
12.874457635971272 116 150 172
13.11081520643046 114 147 171
12.697634915495039 113 145 169
13.090903269215149 111 143 168
12.432473185864072 98 128 149
12.697634915495039 113 145 169
12.122140922036019 103 134 154
12.114931145533307 62 81 93
5.01770685264112 61 71 73
6.386556179388008 59 69 71
12.540448969759286 124 159 184
12.519629922242768 123 155 180
12.331974313140085 111 139 166
12.995497272004085 121 154 181
13.699938256553727 131 164 191
13.23093697435495 137 170 197
12.892610535368549 121 154 181
13.50411871887408 120 153 180
13.754981249572904 137 170 197
13.953877959865489 141 177 205
13.953877959865489 141 177 205
15.373054319241469 139 175 202
12.359846855379088 3 5 7
12.120545789904577 1 5 6
11.505907320674595 0 4 6
10.879297258479497 1 4 5
11.138917224077979 12 16 15
11.68748064803024 5 10 11
12.084268656452853 64 76 83
11.467685990996985 79 87 90
11.978100603692157 0 1 3
10.867918042042193 1 7 8
12.78949464111632 14 17 20
13.370076578807412 117 148 171
11.942769390064589 66 87 100
13.05952816661265 59 76 88
11.950083036404017 105 135 157
12.682070329723281 52 70 82
13.072901884429628 113 145 168
12.628065073752216 119 152 177
12.626761247088758 88 114 131
13.978181667770881 103 133 151
5.23597909838872 0 2 7
6.731257446101692 1 3 9
13.956786006782242 130 167 193
13.956786006782242 130 167 193
11.02615900777901 140 177 206
11.02615900777901 140 177 206
13.30387017300372 3 5 6
11.776200847282754 0 4 6
11.389983825803927 1 5 5
11.4893860695636 0 6 8
11.894715855465476 7 13 16
11.99721925524228 56 70 79
11.738460457044907 52 65 74
11.538106905885272 37 41 46
10.871096362748764 0 3 4
11.78182291252932 0 4 7
11.20977293057041 6 10 14
11.885694213144918 23 28 34
11.941783116369894 0 3 11
11.751936594921 60 79 91
14.288231191607306 87 113 139
12.432473185864072 98 128 149
12.01767754437104 100 130 151
12.37287826216881 103 132 153
13.08422731884694 77 101 119
12.697634915495039 113 145 169
14.035378063574802 110 139 167
12.114931145533307 62 81 93
12.995497272004085 121 154 181
13.24939592119713 123 157 182
13.50411871887408 120 153 180
12.351691219510927 0 2 2
10.989776408031044 6 11 12
12.007138081911028 71 80 85
12.101859230365244 51 66 74
12.989458025923808 81 104 120
13.69420967759568 99 127 149
12.626761247088758 88 114 131
12.53600684737704 92 122 141
5.861966560995679 1 7 10
12.500805920655367 125 157 180
13.306972140671634 124 158 183
13.085003764208867 129 163 188
13.63248696297358 125 161 186
10.727878793477485 157 194 223
12.73643991749086 60 73 82
12.7887981781669 72 90 105
13.497647146845928 92 120 146
11.153262952250548 0 4 5
13.448048982314408 111 140 168
13.546717844581288 111 142 168
13.08422731884694 77 101 119
12.911553178219046 96 124 151
13.053511033027988 129 162 189
11.60472038376848 4 10 11
11.960328013976989 0 4 5
11.45848648259167 2 6 7
11.711323431405471 8 14 15
12.712586025811971 117 150 175
5.384539625284875 50 70 91
5.069428866476181 25 36 45
11.639041817263784 162 199 227
13.515741842682564 73 99 120
12.505664542300094 58 77 91
12.258025978838681 88 104 120
12.101859230365244 51 66 74
11.90181779319279 0 1 1
12.622448714499551 107 139 162
11.84677630373619 71 93 107
12.609902922732388 76 99 114
13.306972140671634 124 158 183
12.479106647295401 56 79 94
13.208401243028103 0 3 4
13.053511033027988 129 162 189
12.860974936601266 124 158 183
12.500093372956627 130 163 190
10.966013793776453 0 5 6
10.620911048212648 161 196 226
12.874457635971272 116 150 172
13.027614190805656 86 110 126
13.478619908978233 98 126 148
12.328690970471712 0 3 6
12.123499018420315 126 162 188
12.60859721796191 50 69 80
12.55838322125473 0 3 5
