11.733010188955035 9 12 5
22.02128645210583 32 36 32
11.515560248098165 9 12 10
12.495641047350949 9 11 11
11.00430378662862 7 10 5
10.74514245996471 14 15 4
11.460236107803713 10 13 10
11.912512430981808 8 10 10
12.064523511562097 8 10 10
11.531058366397792 5 7 3
11.818059896258028 7 7 4
12.575119178555687 16 17 8
12.589235370432174 24 25 18
11.803021429035907 7 7 4
10.794190289431981 7 8 1
11.105345186251526 11 12 2
11.70838938059377 24 25 14
12.03004322428171 5 7 2
11.019547873128774 10 13 10
11.74809327926864 5 12 9
11.73812360130289 3 10 4
12.204961205891793 8 12 6
13.138224983853066 35 47 46
12.146991218426518 4 11 8
12.935039452649454 4 15 15
11.718203910778525 5 9 2
12.880355711889527 1 12 11
11.687895894173998 6 9 2
13.250041537787283 4 16 20
13.049182082180097 1 9 7
12.949037533544264 1 4 0
12.994978670128605 0 3 9
13.084973660466149 0 5 9
12.816625556999993 21 32 32
13.708607812488788 0 7 10
12.816625556999993 21 32 32
13.303205746356069 0 7 5
12.514690235655687 2 5 1
12.149547411146512 65 73 64
12.450752198484125 0 2 2
11.512900806351965 37 42 36
12.241769261841796 98 109 101
12.731294027979029 0 2 2
12.708488887468611 1 7 3
12.786615267679215 0 3 0
12.24143598034596 71 79 71
12.731294027979029 0 2 2
13.234442373808262 0 3 1
12.708488887468611 1 7 3
11.830408587774661 65 76 63
12.658863469919705 5 12 7
12.481133139813211 1 7 3
12.005578258085075 0 4 3
12.83381488284468 3 10 5
12.778697980245596 10 18 12
12.73225537855145 1 5 2
12.620570608011388 12 18 18
12.573868427233776 3 10 5
12.597565028522759 13 20 16
13.127963276555818 14 21 17
12.787253403377095 42 49 43
10.494752392968241 10 13 5
12.83907931136137 66 66 44
11.99135532749218 65 69 47
11.505690775150459 71 75 54
11.99135532749218 65 69 47
12.267635978681144 64 66 42
11.591972121563423 1 4 0
12.044754359569172 9 12 5
13.262709841353917 55 57 37
12.69634523871689 61 65 50
10.645978184510145 25 26 13
11.18456712112127 60 59 39
12.377699977214242 59 58 34
13.364502312112823 56 56 29
12.738243873959764 50 51 23
12.147494570083317 52 52 23
12.339814293243617 59 59 31
11.698734618236877 55 55 30
11.408731700134952 56 56 33
13.465828291057996 55 54 24
13.151931672077543 57 56 26
11.415506655902485 65 78 63
11.861428938623426 76 82 62
12.08234442281341 73 79 62
12.313724939847765 63 76 61
11.745923852680061 64 74 63
11.861428938623426 76 82 62
11.26617012262637 73 81 61
11.831098298646003 66 79 63
11.431768746206656 75 80 64
11.798633127699812 57 67 41
11.162941649027026 57 71 45
11.84839140678894 54 65 43
11.325018384193498 61 73 52
11.906824892426613 65 78 60
11.682590839939271 68 78 56
11.701912195501427 70 78 60
12.034150436951306 69 78 62
12.141550731337762 69 82 66
12.347694192921763 5 8 5
11.631421834345382 77 83 61
10.976099896327794 70 79 59
12.09232398328386 66 74 64
11.797287891563755 69 77 60
12.410226894949252 86 95 84
11.797287891563755 69 77 60
12.030136379054259 66 79 57
12.030136379054259 66 79 57
11.570931306984747 71 81 60
12.347694192921763 5 8 5
12.410926977290654 60 69 40
12.603424669111185 63 73 43
12.32455318095653 63 75 51
12.570146514749755 67 75 53
11.586271020834149 71 79 56
13.271117349127959 77 82 65
13.543273820574852 74 80 58
11.586271020834149 71 79 56
21.20965420068893 51 58 47
20.51028373312763 50 58 50
19.996231424227407 46 54 47
19.984548744665787 55 63 47
12.543368016932481 55 65 39
19.034879251517115 61 64 45
19.559133950300115 54 63 47
20.119692609579836 57 65 44
18.860781888468367 58 65 57
18.860781888468367 58 65 57
19.329176793561565 92 96 80
12.345110602177249 61 70 38
19.362743680958264 57 58 40
12.496377313517312 60 66 39
19.398925438771826 71 77 63
12.803372727365408 61 66 35
20.496179527227724 54 56 39
20.732849910085925 106 110 92
21.847746427230884 7 10 7
21.206988645272176 53 56 47
21.727481042649615 54 57 45
22.00792446784777 62 70 62
22.00792446784777 62 70 62
21.973445377680378 29 36 30
21.973445377680378 29 36 30
20.853024273817816 7 10 6
20.86173545084307 31 33 30
20.86173545084307 31 33 30
22.008690007189056 61 62 46
21.79382374563378 79 84 74
22.04129301123539 54 49 36
22.06577978257324 58 62 45
21.42774019297172 57 61 48
21.42774019297172 57 61 48
21.507012167082216 57 61 45
19.11684690043144 10 13 10
18.831879558695224 117 120 116
18.67167715857194 9 11 11
20.274176611756936 54 55 46
10.784102824324732 12 13 5
10.36153902875465 10 11 4
13.97029696444531 75 73 55
14.713368987355166 71 60 37
13.813838431688504 72 66 48
11.919386755088818 10 11 5
11.165494079522857 5 6 2
11.521654997519178 58 59 41
9.656099422879578 69 69 43
10.360743762121128 60 60 36
11.865124233606764 50 51 37
11.409804485768458 59 59 35
12.051559895838931 54 54 28
11.232785879032683 59 59 32
11.853876322238461 58 58 34
11.201164499401852 57 57 30
12.435536226778998 59 59 30
10.635742620271742 57 57 32
11.232422659646053 58 58 30
11.992892511783293 65 65 42
11.854564667732744 56 56 31
12.435536226778998 59 59 30
11.884104346719921 58 58 30
12.149173771353075 60 59 29
12.163740828002204 69 69 43
12.740165453716417 68 68 41
12.095267512111391 70 69 37
12.90964294030105 69 69 44
12.149173771353075 60 59 29
12.407638308095905 50 49 19
12.633989301565764 68 73 50
11.870479906496723 68 70 48
12.647717214188246 70 70 45
12.120280139677618 65 63 38
11.93960324325177 67 65 40
12.379347952225077 62 62 32
11.978754757505397 83 83 60
12.120280139677618 65 63 38
12.804594807482 61 59 34
11.840906238471474 69 71 47
11.895920747562235 73 78 53
11.840906238471474 69 71 47
11.826241815990283 70 75 50
15.866158636060325 53 55 48
20.532488160282224 72 75 67
15.65738722736661 112 111 96
15.045331235243518 39 28 5
13.059677747144276 70 70 46
16.942034700939335 66 64 48
15.881608692219407 75 67 45
15.614235786218243 68 59 35
15.690384137156647 60 48 26
15.332806876957743 69 60 34
14.109812434147264 69 57 34
14.860873270491373 64 57 34
14.669331529387996 77 82 65
13.608088420746082 77 84 63
14.125696277497441 76 84 64
14.075966396648065 77 83 61
13.146286380935953 79 85 63
14.669331529387996 77 82 65
13.924202585250182 77 83 61
14.125696277497441 76 84 64
13.608088420746082 77 84 63
13.655764169667 77 83 62
14.291171583861209 82 88 67
14.291171583861209 82 88 67
14.57334012380289 76 82 61
14.11827839520499 75 81 59
14.026022508966637 78 83 64
13.9331178401167 77 82 65
13.65568674771015 74 79 62
15.084924488479905 64 52 31
15.351477513979011 71 57 34
14.714128987129621 64 57 33
13.49539652819756 70 74 53
14.26294490409662 77 83 63
14.26294490409662 77 83 63
13.84841732456425 75 79 60
16.27403874172222 57 48 24
17.280135543503818 46 33 10
16.730235936370025 53 52 26
17.337704053754788 71 58 34
20.72013437608862 77 71 50
21.70183865387666 58 50 30
22.04088084447401 61 53 33
21.769550832283237 70 64 44
21.84187385854091 107 97 76
22.05899257932118 102 94 72
21.89846332725234 87 79 59
19.42228767721929 68 64 43
20.20880621337607 69 64 45
20.176849135366083 72 66 47
20.171045858169826 73 68 49
19.91819755115846 97 91 71
20.35928396746904 107 101 82
20.765592602417527 96 92 70
20.18524179068734 99 97 77
19.951129444652064 75 72 51
19.449465703103403 76 72 51
21.10453410057498 91 74 59
18.681627316278266 67 51 28
12.317027035336682 72 76 63
13.879606637705201 0 6 6
13.219894572527648 77 82 71
12.249743672714553 69 74 58
13.157229099120434 76 82 70
13.241818996372338 30 35 30
13.605312115768442 73 79 68
13.254917404144123 23 28 23
13.254917404144123 23 28 23
12.35922126038697 58 64 48
12.821666245302902 68 71 62
12.990080460256408 52 55 44
12.533850773852256 59 65 47
13.106927379717485 19 30 21
13.54386652621497 0 5 3
13.439079760068461 67 70 51
13.439079760068461 67 70 51
12.429883147146267 55 60 33
12.971850380179575 53 58 30
12.908296833549594 62 65 32
12.908296833549594 62 65 32
13.303051988210148 54 57 26
12.472349811652544 55 58 27
12.089455322458297 58 61 35
12.143007867841405 59 66 44
12.590363672160368 68 70 45
12.761830685887155 65 66 41
12.401600910223397 62 65 43
12.761830685887155 65 66 41
12.143007867841405 59 66 44
12.482913413192628 74 78 56
12.496807285833448 72 76 54
12.548946657917904 75 80 61
11.919076300052627 74 78 63
12.548946657917904 75 80 61
12.799022129912835 71 75 55
12.849935305907476 73 76 56
12.799022129912835 71 75 55
12.496807285833448 72 76 54
13.600672584372463 59 64 35
13.36529946126555 69 71 45
13.36529946126555 69 71 45
12.580821200741664 65 68 38
13.11247877303579 72 74 52
13.250731101190329 71 75 54
12.254727746405708 72 76 55
13.162179510146606 72 76 57
12.858607774942145 68 68 36
12.273277646793446 71 71 39
13.452289383400256 47 48 21
12.935827538682505 65 65 33
12.92204906353044 67 70 37
13.254842849607767 63 63 33
12.09454915811326 70 72 38
12.52950793337636 72 72 40
13.539546318544234 53 54 28
12.09454915811326 70 72 38
12.908021715071126 58 58 29
12.514998377787098 62 62 30
12.99893262748943 59 59 31
12.92204906353044 67 70 37
15.125099144341686 76 79 57
15.17964291635907 75 79 58
12.52983355243824 72 71 41
12.858566664166553 72 71 43
12.191862203722021 74 73 44
15.35636607727942 72 74 46
15.475111432254325 71 77 57
15.268393791863867 80 82 59
15.322427481487114 79 83 62
14.846911332678701 75 80 56
14.846911332678701 75 80 56
15.475111432254325 71 77 57
15.279755038658918 69 70 47
12.786733031586559 73 81 63
11.75077441894823 72 81 63
12.48389389089247 74 82 62
12.318351926547583 73 81 65
12.549596878856342 74 82 62
11.988555984260433 70 80 63
12.071342708600426 69 77 62
12.693659723077243 75 80 63
13.55044331057536 72 78 56
12.89228417835993 74 82 64
13.26136969839821 76 82 60
13.74453433179384 78 84 64
12.732053206093902 81 85 66
14.03663968130893 73 77 56
14.03663968130893 73 77 56
14.236579240986964 75 79 58
14.969425876179344 64 68 47
13.424572661163397 77 84 62
14.502866041817578 71 73 52
13.659223110855068 83 89 69
13.611637150151124 63 68 48
13.235212632012772 79 85 66
12.992906855562728 78 86 67
13.851789995407099 80 87 66
13.06010016013856 84 88 69
14.372979363770865 78 84 63
13.547179716525942 70 76 56
13.986517569158611 78 81 61
14.211892856676199 81 87 67
13.50809251890634 77 82 65
13.25515065048542 65 65 33
12.909918024230187 67 67 40
13.166628782962421 68 68 44
12.960395567896546 73 77 56
13.317928369480489 75 75 50
12.909918024230187 67 67 40
12.960395567896546 73 77 56
12.960395567896546 73 77 56
12.688770178826356 64 64 38
12.896469219687532 70 74 52
20.864821116748896 9 12 8
21.03900015617807 92 94 90
21.57999038672613 130 133 127
19.804679611426106 79 65 42
13.986847063031599 83 87 66
14.400780478854537 73 77 56
14.595732710013651 82 86 65
14.684723620718534 86 93 69
14.91114819452743 79 85 62
13.94932231487861 75 79 60
14.327764155884202 72 76 57
14.684723620718534 86 93 69
14.42175840949699 81 83 61
14.42175840949699 81 83 61
14.400780478854537 73 77 56
11.14848482648394 7 8 0
11.788316671086985 9 11 11
12.050175092338963 9 11 11
12.682431630779721 27 28 17
12.589235370432174 24 25 18
12.074254202635903 26 25 16
11.976711015335656 18 19 8
10.782960362825634 6 7 0
11.531058366397792 5 7 3
13.049182082180097 1 9 7
12.980442245471163 33 44 47
12.935039452649454 4 15 15
13.142561699242298 0 8 6
12.519026755580702 5 14 13
12.949037533544264 1 4 0
12.701594702522302 0 3 0
13.138805808439578 1 9 9
11.852672086695089 7 11 6
11.718165632177246 5 10 6
11.718203910778525 5 9 2
12.24143598034596 71 79 71
12.996821618369081 75 86 77
12.708488887468611 1 7 3
12.29594920412964 4 11 7
12.517606993694667 11 18 14
11.589030693362062 71 78 67
11.830408587774661 65 76 63
12.879574515236913 12 18 17
11.830408587774661 65 76 63
12.708488887468611 1 7 3
12.597565028522759 13 20 16
12.573543948550084 5 10 9
12.61249580096554 4 7 2
12.305700922200037 40 42 22
12.908062668337761 53 54 25
11.753765320372795 61 60 39
11.505690775150459 71 75 54
11.753630394369074 58 61 32
12.738605655436809 52 52 24
11.753630394369074 58 61 32
12.645458953126692 45 47 22
12.908062668337761 53 54 25
11.878144327920841 56 62 35
12.62032475956809 64 75 65
11.513963886285973 60 73 59
11.930560406315866 76 80 63
11.590086790420761 67 79 62
11.57155203700261 63 72 57
11.490123960879401 59 70 42
12.166723226539203 64 71 58
11.140895120092708 71 80 63
11.631421834345382 77 83 61
12.180679637909504 66 79 62
12.452390505617268 6 12 6
11.682590839939271 68 78 56
11.570931306984747 71 81 60
11.752774305506403 68 79 58
12.72309845354922 76 87 74
11.797287891563755 69 77 60
12.74635715615723 71 79 60
11.50557141100069 61 70 44
12.509639824259486 63 72 48
13.306578858662608 75 81 59
12.952502879253247 78 83 66
12.30033063326968 72 80 58
12.820444932198605 67 75 53
21.528915589400693 51 58 50
19.353568611427395 65 69 50
19.13037906740416 71 79 61
20.453012761165326 58 66 46
20.119692609579836 57 65 44
19.88726384815798 57 65 46
20.755814243890114 42 36 19
21.10966538408897 59 61 51
20.72428142389715 46 58 53
20.724503795969195 62 61 45
19.49264177380191 52 60 52
20.561969941487092 75 79 60
20.47016611169935 50 58 50
12.439765415191616 59 68 42
21.917397693814955 1 3 3
21.861437641095005 66 67 52
22.008690007189056 61 62 46
19.761539735894377 9 13 10
20.095203907178018 136 139 129
18.25740289789889 9 11 11
20.43621086961047 21 22 13
10.366592800153887 30 31 17
14.769433364217777 35 28 4
9.594932188748164 56 56 37
14.978995691267231 74 65 41
10.920099633489768 1 4 0
20.504973047080668 53 56 46
9.758693368749189 65 65 40
11.440492605903463 52 52 21
12.47280407055514 55 55 30
12.844828776808523 61 61 33
12.581271543181101 56 56 28
11.854564667732744 56 56 31
11.895920747562235 73 78 53
11.870479906496723 68 70 48
12.685004945349043 65 65 43
12.407638308095905 50 49 19
12.647717214188246 70 70 45
12.341136738113036 69 69 43
12.855209664627225 63 63 37
12.855209664627225 63 63 37
11.968933046372094 67 67 45
12.149173771353075 60 59 29
11.826241815990283 70 75 50
12.633708209619195 69 67 42
12.120280139677618 65 63 38
14.83238566700091 47 38 12
15.605002473285396 73 68 50
15.049866753682887 72 64 39
15.049866753682887 72 64 39
15.690384137156647 60 48 26
14.029756329382035 77 84 66
13.146286380935953 79 85 63
14.029756329382035 77 84 66
13.94936021104042 82 88 66
13.297629868347087 75 81 59
14.57334012380289 76 82 61
14.11827839520499 75 81 59
13.9331178401167 77 82 65
16.6100479210726 68 53 30
16.44658534051374 57 45 21
16.800445294422445 81 86 62
16.800445294422445 81 86 62
14.26294490409662 77 83 63
16.449985627619153 75 79 57
22.048752650848456 67 59 39
19.956818724183393 74 70 51
19.838478296693552 78 72 53
20.24945588333138 85 81 60
19.835601546078436 92 88 67
13.879606637705201 0 6 6
12.263901708070142 67 72 55
13.254917404144123 23 28 23
12.990080460256408 52 55 44
12.533850773852256 59 65 47
13.232129663131737 5 12 3
12.78454067533098 55 66 51
12.729809906198296 70 77 67
13.819932904157886 0 8 6
12.472349811652544 55 58 27
12.472349811652544 55 58 27
12.908296833549594 62 65 32
13.759297120820435 55 57 31
13.303625616596653 69 69 45
13.339000703727706 69 75 50
12.890385275079796 60 68 46
12.761830685887155 65 66 41
12.785456676396153 72 76 56
13.11247877303579 72 74 52
13.099237936434266 69 73 52
12.482913413192628 74 78 56
13.500963107572872 68 70 44
13.250731101190329 71 75 54
12.789316337103715 53 58 28
13.165389257871212 59 59 31
13.316396549302798 59 61 29
12.09454915811326 70 72 38
12.42054586315562 62 62 30
12.935827538682505 65 65 33
12.68780553339604 64 64 32
13.179142677534488 77 77 45
13.452289383400256 47 48 21
15.279755038658918 69 70 47
12.27394247150489 68 68 40
13.553182078826495 67 70 39
15.322427481487114 79 83 62
15.268393791863867 80 82 59
12.251408859536932 79 83 64
13.829947536238922 74 78 59
12.071342708600426 69 77 62
14.969425876179344 64 68 47
12.32231499677704 77 81 62
12.80061586324378 78 84 67
13.06010016013856 84 88 69
14.211892856676199 81 87 67
12.48389389089247 74 82 62
21.456868777933604 10 13 9
13.166628782962421 68 68 44
20.864821116748896 9 12 8
13.317928369480489 75 75 50
13.00050185378776 65 65 39
12.896469219687532 70 74 52
12.909918024230187 67 67 40
13.25515065048542 65 65 33
14.91114819452743 79 85 62
14.360937573375036 84 89 67
13.986847063031599 83 87 66
13.924126655884503 78 84 63
14.400780478854537 73 77 56
14.153945763633994 78 82 61
14.45471611279972 80 85 65
14.91114819452743 79 85 62
14.116865195914686 82 88 66
14.855583067795317 84 86 64
11.413328803946847 6 9 4
11.047092120050314 9 12 7
11.597161529250549 11 13 8
12.050175092338963 9 11 11
11.39730561249021 7 10 7
12.839556389982976 32 49 54
12.312730911395366 77 84 77
11.840600488104656 29 34 29
12.540511841137164 65 75 64
12.074166639726997 24 28 16
12.922130881022 58 58 32
13.276094952703808 54 56 33
12.030294479827909 48 50 32
12.589193380004666 43 44 28
11.408731700134952 56 56 33
11.072848219226913 5 8 2
12.908062668337761 53 54 25
11.971182078153618 6 10 4
11.415864050093619 69 80 66
11.96158042049236 60 74 47
12.141550731337762 69 82 66
12.404397383969952 98 106 99
11.165893464809763 70 82 65
12.347694192921763 5 8 5
13.306578858662608 75 81 59
12.272002656752036 5 9 6
11.39141427653494 79 91 74
11.513963886285973 60 73 59
20.22441503902304 52 61 49
12.368915611451005 61 70 40
21.344020963216465 58 60 50
19.123183449225557 0 2 0
21.862370748201467 59 63 46
20.832325356646596 52 55 45
14.813060772120444 44 33 8
20.504973047080668 53 56 46
15.21245442986797 77 75 57
18.139899722783564 45 33 9
16.49169737438513 68 67 54
10.264169284632723 59 59 33
12.540475193062022 71 71 47
12.322241297688247 79 81 59
11.855852063540054 69 74 49
18.139899722783564 45 33 9
11.988864640100712 5 5 0
11.840906238471474 69 71 47
12.341136738113036 69 69 43
14.266616717957074 77 83 61
13.43424124409614 74 82 63
13.94936021104042 82 88 66
14.693213405561309 76 84 64
14.50817002946408 73 81 62
15.867601485456639 70 55 33
14.714128987129621 64 57 33
15.166243006104008 73 63 39
15.435813528436926 62 53 28
14.26294490409662 77 83 63
13.84841732456425 75 79 60
16.800445294422445 81 86 62
21.68809174492818 68 60 40
21.742133947577855 89 79 61
22.04088084447401 61 53 33
21.742133947577855 89 79 61
21.774737048182438 78 70 50
20.219977960572493 103 97 77
12.317027035336682 72 76 63
13.241818996372338 30 35 30
12.263901708070142 67 72 55
13.343159312871833 8 9 7
13.83248388878228 2 10 8
12.27394247150489 68 68 40
15.125099144341686 76 79 57
13.162179510146606 72 76 57
15.058567804638647 75 77 55
12.321983893859398 74 78 59
12.321983893859398 74 78 59
12.52950793337636 72 72 40
12.858607774942145 68 68 36
12.20070571356314 57 60 32
12.733686433804207 65 72 52
15.058567804638647 75 77 55
12.590363672160368 68 70 45
15.213900033921501 69 71 44
13.940048910518193 80 84 63
14.079322104921163 82 88 66
12.850887781153695 74 82 64
13.235212632012772 79 85 66
13.424572661163397 77 84 62
13.405755521887185 60 60 34
13.502854443917178 71 75 54
12.909918024230187 67 67 40
14.327764155884202 72 76 57
15.265764741454271 86 88 66
13.94932231487861 75 79 60
21.77139211270678 13 17 14
11.64235404118199 9 11 9
12.276929470803095 5 5 3
12.166723226539203 64 71 58
12.09232398328386 66 74 64
13.267427712376413 3 9 6
11.338571540341032 60 71 59
12.594691010461547 60 60 32
12.658863469919705 5 12 7
11.57155203700261 63 72 57
11.513963886285973 60 73 59
12.406322951925166 55 55 28
11.103234397652809 72 78 60
18.89518088778476 60 68 51
19.474623322366273 66 75 63
21.24005390714039 56 60 46
21.805663370698568 55 59 44
20.914993162505272 2 4 4
11.815001630438632 64 63 31
12.16311344127247 58 58 28
11.352387910323793 57 57 29
12.379347952225077 62 62 32
12.105323756956007 61 61 37
10.799797166743279 51 52 37
12.511875281507143 66 66 36
13.907930834035252 75 82 62
16.449985627619153 75 79 57
12.93913919208134 76 81 64
19.983269780229865 84 78 59
13.940048910518193 80 84 63
12.52950793337636 72 72 40
12.191862203722021 74 73 44
13.500134811927632 65 65 43
13.452289383400256 47 48 21
11.75077441894823 72 81 63
13.741316834881397 77 82 65
15.268393791863867 80 82 59
12.303261751685412 67 78 64
12.761830685887155 65 66 41
14.400780478854537 73 77 56
20.30478521714523 3 6 3
21.94775945035069 16 17 12
13.566921027654148 68 68 44
11.728724079767455 60 69 42
12.23918913866525 26 43 54
12.175864879990575 4 10 3
12.73225537855145 1 5 2
11.738656707871762 51 64 37
21.933203015789758 8 12 9
11.872492998398414 9 9 7
12.419735744672154 66 75 49
19.398925438771826 71 77 63
20.72428142389715 46 58 53
19.557870357839743 9 13 12
20.947577060832124 53 57 44
20.88991721542661 1 4 1
14.075966396648065 77 83 61
14.258530590499326 51 42 16
11.895920747562235 73 78 53
15.52842583080117 73 77 56
11.988555984260433 70 80 63
12.548946657917904 75 80 61
13.553182078826495 67 70 39
12.401600910223397 62 65 43
13.303625616596653 69 69 45
13.961719122277838 69 75 55
12.786733031586559 73 81 63
14.595732710013651 82 86 65
11.856623641406669 71 80 63
21.736537831693475 0 4 1
12.631447444015976 56 56 26
12.118260265758776 56 55 26
12.519026755580702 5 14 13
12.711063226126399 61 68 37
11.883761034473109 58 58 31
12.549849614227421 91 91 67
11.61960942105437 3 4 0
12.538721917026171 62 62 38
13.772199610675086 56 57 30
12.496807285833448 72 76 54
12.786733031586559 73 81 63
12.548946657917904 75 80 61
15.268393791863867 80 82 59
15.136567946009462 67 69 45
12.469331258032039 76 81 62
13.857698565051095 68 71 40
12.936458313969421 68 67 37
11.830408587774661 65 76 63
11.641787940591353 72 82 62
10.535176628258895 9 10 3
15.45337211516333 70 68 52
12.858566664166553 72 71 43
12.52950793337636 72 72 40
11.840600488104656 29 34 29
11.063150953711025 45 47 28
12.496807285833448 72 76 54
14.211892856676199 81 87 67
