19.40912120331928 2 43 62
14.10505482814493 46 98 127
13.536058524736779 120 168 194
15.062097676195839 0 11 24
16.128018250905605 1 11 15
16.689804909348766 0 10 12
16.28985393826755 2 12 16
9.770845357776881 136 177 208
12.95041990434415 138 180 210
15.368854501175438 0 9 12
16.51818485528585 0 7 9
16.792395762633475 0 6 8
9.328738282674495 27 43 49
10.37144456156295 16 30 37
7.70202536629397 7 25 34
10.52678635301963 3 19 25
9.23893112228734 12 26 26
9.83548136964545 10 25 25
8.77844319285543 11 26 25
9.40256683283893 12 25 28
10.36893436454061 11 22 26
9.23893112228734 12 26 26
9.922922205304147 11 26 28
8.412150824730267 9 24 25
9.361098063928944 11 24 24
9.83548136964545 10 25 25
9.642476607091515 10 25 26
10.323399128991184 6 19 24
10.695044210671318 9 25 31
10.174384266565223 11 28 35
8.86227824242813 8 27 37
11.508261932834579 3 19 25
11.258972592216244 7 20 27
10.38088706028956 8 24 28
19.328214127270584 0 41 59
19.86812825120389 0 29 40
19.630058583813696 2 51 72
19.630058583813696 2 51 72
19.67409475267275 54 114 143
20.055738909195274 38 94 118
19.67409475267275 54 114 143
19.84784185742647 0 54 77
20.437616422952697 23 83 111
20.268948901885903 48 106 134
20.14855861154285 24 79 102
20.268948901885903 48 106 134
20.14855861154285 24 79 102
20.597601741828036 9 61 84
20.338265639186247 12 58 73
20.338265639186247 12 58 73
19.933596409527414 15 61 78
20.338943850049624 56 110 132
18.925684858207045 46 103 129
20.338943850049624 56 110 132
8.979521403520547 12 31 33
8.917694086821722 7 25 29
9.312116537509953 1 15 21
9.799751264119505 13 30 32
8.434736193982157 8 22 23
10.560405049657083 12 29 33
8.979521403520547 12 31 33
9.799751264119505 13 30 32
10.434653197694267 134 176 201
11.110854126864217 134 175 200
10.025090562576946 23 54 67
9.941167532308087 12 47 64
10.13899522536869 6 30 41
10.13899522536869 6 30 41
11.647669838119791 137 175 199
11.575516566244145 135 173 197
11.515803848847003 122 164 187
11.414436787138136 131 170 193
10.914518235401344 136 174 196
11.339583350359575 30 67 81
10.663970887772901 8 42 62
10.914518235401344 136 174 196
11.414436787138136 131 170 193
19.277943261910742 71 134 166
10.365619770355366 132 177 203
10.420182232528273 130 176 203
10.407302661500056 133 176 202
10.420182232528273 130 176 203
10.91816644284645 140 186 211
11.343053121922743 148 194 221
10.366996071414807 133 176 201
10.544089536444117 135 179 205
11.086459086720096 131 176 203
11.086459086720096 131 176 203
19.898956599075 47 110 142
11.316900367953341 129 174 199
9.748902776593088 140 179 210
10.127026693103137 142 186 213
9.568389382401483 138 180 210
10.606582908766018 139 180 213
9.894795642758297 142 181 211
9.716992890690904 137 179 210
10.266158521382746 150 193 221
10.082770445526927 147 190 220
10.13769482064008 141 182 213
10.289725287431173 139 181 211
9.549930362811986 138 180 210
9.595157393135478 136 179 209
9.989934750938602 138 180 211
10.822465602399845 150 193 221
10.302994796014692 142 181 214
10.098880890289408 138 180 208
9.628732641763294 155 190 218
9.500297064159854 133 176 204
9.362586069768968 130 175 207
9.301822046153971 131 176 208
10.876048021767453 141 183 209
10.733414002051344 140 182 212
11.271473353219534 144 181 212
10.21471001423671 140 181 212
11.512303919135778 148 191 219
11.498207269352987 153 195 223
11.498207269352987 153 195 223
11.889971794149293 137 177 203
11.271473353219534 144 181 212
11.158205671217107 139 180 204
11.224599644513471 150 193 221
11.912681772666561 152 194 222
11.364607165946206 140 182 207
10.885982142434415 146 188 216
10.81115353514002 146 189 217
10.677788408462046 147 190 218
10.690342107103877 153 196 225
15.711633814414984 1 11 13
19.40912120331928 2 43 62
14.10505482814493 46 98 127
13.183094191327148 130 173 201
13.118336626630045 122 166 193
9.52849108984984 135 178 210
17.256765529515338 0 9 11
16.415589706834222 0 8 8
16.300806924133507 0 8 10
15.066898887835855 0 10 14
10.13691811526585 18 34 41
9.865404246553169 7 18 24
10.199400466789223 12 23 26
9.728767876338045 7 20 26
10.162388425487723 10 25 27
9.230034764393706 9 25 26
10.389967038770099 13 27 30
10.035190403683552 10 24 28
11.28050735262817 2 18 24
10.488254263896904 5 21 27
9.563575333378964 16 33 41
7.649277176640092 5 25 34
7.723054179570598 9 29 38
20.161891252078057 0 40 60
20.437616422952697 23 83 111
20.077314029976556 32 89 117
20.268948901885903 48 106 134
19.630058583813696 2 51 72
20.71538252071251 7 59 82
20.374090037672037 40 95 120
20.2402711771947 0 51 73
19.210607039254423 22 75 99
20.338943850049624 56 110 132
19.919316598357984 8 56 75
9.264019171953114 12 33 36
10.560405049657083 12 29 33
9.317746698881951 9 25 23
8.47641663344141 9 36 43
8.621775991296913 2 19 21
10.899648489440445 133 172 195
10.942936663466318 132 174 199
10.7435325523353 145 185 208
9.237953341038558 4 34 47
10.914518235401344 136 174 196
10.025090562576946 23 54 67
11.110854126864217 134 175 200
10.610617510963792 132 175 200
19.300387868484247 33 97 131
10.91816644284645 140 186 211
10.599079347245882 153 203 231
10.185423732754655 147 192 219
10.407302661500056 133 176 202
10.365619770355366 132 177 203
18.994162975762823 52 115 147
9.523035225639422 136 179 209
9.964227330918424 141 181 214
10.12561777481628 150 192 220
9.743352650064892 135 178 207
10.552984244516407 141 180 211
9.771101535162941 141 180 211
10.460523175602049 141 184 211
10.500470763286934 151 193 221
10.022187546415514 144 181 210
9.348249506875616 132 175 203
11.172731309699017 139 181 206
10.939253450855997 149 192 220
11.889971794149293 137 177 203
10.164367202308744 144 181 212
11.498207269352987 153 195 223
10.21471001423671 140 181 212
10.876048021767453 141 183 209
10.939253450855997 149 192 220
10.63716549797935 148 191 219
11.032605399619197 148 191 219
11.033898505281561 143 187 215
10.690342107103877 153 196 225
14.02340145302825 101 149 178
13.536058524736779 120 168 194
14.980318368712677 41 56 94
15.111380359896811 0 11 42
13.319781991708926 138 183 213
16.789053319227975 0 9 11
9.997367426359611 22 38 44
10.106233441093574 4 17 24
9.648084763425587 11 25 28
9.759593423828257 12 23 24
9.132680390263264 13 31 39
20.527915677205836 8 60 83
19.542602136899163 15 65 86
20.161891252078057 0 40 60
19.328214127270584 0 41 59
18.4901261207161 42 103 132
9.312116537509953 1 15 21
9.606028637489906 11 26 30
10.942936663466318 132 174 199
10.942936663466318 132 174 199
11.177347771175102 149 192 218
18.66765769339205 32 97 131
11.316900367953341 129 174 199
10.470851528931007 144 186 215
11.205314880811114 146 181 211
10.430790506839868 150 193 221
11.172731309699017 139 181 206
12.209612846994208 143 185 212
9.753026185331835 136 178 206
11.512303919135778 148 191 219
11.098935495330675 15 28 35
9.565057508666433 10 25 26
20.083993321282627 21 79 107
20.268948901885903 48 106 134
11.647669838119791 137 175 199
10.420182232528273 130 176 203
10.772358127032096 134 177 203
10.599079347245882 153 203 231
10.685515246718515 144 181 212
9.60912558301088 136 178 208
20.077314029976556 32 89 117
10.129373964412423 14 29 30
19.65892480629278 0 51 75
10.420182232528273 130 176 203
18.994162975762823 52 115 147
10.625488238339733 13 28 30
9.711201445688195 12 28 28
9.348249506875616 132 175 203
9.989934750938602 138 180 211
10.528687985724371 138 179 205
11.044755813268957 145 188 218
10.685515246718515 144 181 212
9.770845357776881 136 177 208
10.848932627466178 4 17 23
19.65892480629278 0 51 75
20.02005748897576 1 53 76
18.0993917181713 36 98 128
8.800088525364524 8 24 26
11.441613595874456 13 53 74
9.738833516216436 12 28 29
9.716992890690904 137 179 210
9.748902776593088 140 179 210
11.647669838119791 137 175 199
