10.510966239204155 37 62 76
10.771477289486699 28 51 63
10.42155451119885 20 44 58
10.50642432273836 17 42 52
12.125747586063856 24 37 46
11.387778100294659 19 32 41
11.86868032791718 24 42 52
10.562999970442169 19 43 55
11.624167931159606 16 39 49
11.588331672666357 20 37 47
11.611748648321434 21 38 45
11.510059870069208 23 40 49
12.290550027689715 21 41 50
10.879020684987138 27 49 60
10.683128974411808 21 42 53
10.480108574870414 22 49 63
11.65336331783519 20 42 51
11.41787866977598 50 80 99
11.183223449151455 32 61 78
10.695460986363495 22 41 53
11.57896589967207 50 70 83
11.183223449151455 32 61 78
11.706435035972342 12 29 40
11.54436932685115 7 24 35
10.917548894410803 35 58 71
11.357853080798114 43 62 74
10.877874731365488 52 81 97
11.537082879137886 18 47 64
11.57896589967207 50 70 83
10.654212375207162 33 59 72
10.804449020991337 17 36 48
11.016350971424597 52 82 99
11.016350971424597 52 82 99
9.579463120689876 33 57 70
10.036647031072158 40 64 76
10.41606673366625 41 65 78
10.061350517826119 36 59 72
9.959065421678602 4 25 35
10.775127092042162 21 37 45
10.285471548132639 23 46 59
10.446779116263006 13 34 44
10.073653065558247 46 70 84
10.317298872810808 61 85 96
10.041053481670831 70 94 107
11.998251532252652 43 73 90
10.54051170932229 37 61 74
10.711776605347024 39 66 80
11.255859268557613 42 71 86
11.255859268557613 42 71 86
10.849439063312534 38 65 79
10.650384777835285 33 59 74
11.659000073755733 29 44 55
10.75308258989205 32 53 64
12.217228888623179 31 50 61
12.095144140163715 27 41 49
10.800954367062543 29 47 57
11.135035439393087 28 49 62
10.325013146632307 33 60 72
11.159801496379144 21 47 61
10.859706650937424 22 47 62
12.108417357138805 38 68 84
10.574581706454078 22 50 63
12.065734160851232 35 64 79
10.093441631009648 28 53 65
10.619840246666945 22 47 60
10.904191785276277 26 54 67
11.02095954148153 28 57 72
10.439537776147084 21 39 49
12.604421120018669 51 86 108
11.57445414974911 26 43 51
11.755842409965577 24 41 49
12.435416754876846 46 82 104
12.33595987594277 28 58 78
11.08402281806576 21 40 50
11.448295900597085 45 79 99
12.222922834449962 21 40 50
11.965283143896654 21 40 50
11.347597852218387 33 48 60
11.628914860049203 4 13 22
12.55165724932322 29 46 56
11.682143425061803 28 43 52
11.337377788199989 35 52 66
12.294066699287999 120 144 159
12.39385976252531 139 162 176
11.587212385927906 129 155 170
11.318976711215162 44 60 68
12.237606168590766 48 82 101
12.27381675373593 59 88 103
10.901312992531869 31 61 78
10.792565164988892 23 42 52
10.418403090166336 45 71 87
10.559890761502205 58 74 80
11.44860108766329 48 78 95
11.652890544262311 100 129 146
12.329708023301237 55 85 102
12.61164263663488 101 129 145
12.123937886905022 65 94 111
10.940404256410972 34 55 66
11.168002298890487 38 55 65
12.502053111887076 57 82 98
11.045220172231529 62 81 93
10.102897816199372 30 47 57
12.237526352450868 63 83 99
12.43693816834819 77 103 120
11.473082640483076 56 90 110
11.579952896361709 71 104 123
11.580254613728187 56 85 102
12.724121259446585 34 68 87
12.230732723058157 112 146 166
11.79551300169267 71 102 121
12.920336368664264 54 86 105
12.56274909588608 51 81 98
12.360858982767283 48 79 97
12.089911373845084 63 92 109
12.458239687660447 55 84 102
10.461767595744119 24 51 65
11.978376732399925 20 41 50
11.113654136552274 24 43 54
10.367277473493793 27 46 56
10.364206776389405 21 46 56
10.79560736231331 26 48 59
10.424608315833497 35 59 72
11.233914654027252 20 39 51
11.142757459781787 24 43 55
11.581714528273627 34 65 84
11.537082879137886 18 47 64
11.416182619517253 15 25 32
11.415090591364992 52 71 85
11.757577688470265 17 32 43
11.229261630578337 38 66 82
11.828113522921713 31 61 78
11.57896589967207 50 70 83
10.14731297193999 30 51 63
11.582744790274653 27 57 74
11.998251532252652 43 73 90
10.993392345026587 40 60 70
10.587087747789884 28 54 70
10.206224765226207 72 95 106
10.866027656877762 47 71 85
10.04581183182051 45 69 82
11.000947426965912 29 52 64
10.741924769746745 25 48 61
11.018071024744621 36 64 79
10.71400710342052 40 67 81
9.90260651003634 14 41 54
11.449255444093385 24 54 68
10.733861881117296 20 40 49
10.949310110035714 34 50 59
11.467532649094249 18 35 45
11.692062132362093 34 47 56
11.304857675795802 118 139 152
11.110699023292991 19 40 49
11.403448461325949 51 80 95
11.764979209543377 36 66 83
11.256611601358227 23 41 51
11.680992641895427 89 116 132
11.43494765979408 56 85 101
11.652890544262311 100 129 146
12.232971877225426 26 55 71
11.039768884705452 48 67 81
13.048124073718789 79 108 125
11.270701784156929 41 60 74
11.294821799962762 26 49 64
11.839803224170817 76 95 109
12.030179598518119 45 69 85
12.56274909588608 51 81 98
11.973261086253181 90 124 144
12.023268810459065 53 85 104
12.089911373845084 63 92 109
10.52922151896332 36 58 69
11.415090591364992 52 71 85
11.010570762149259 50 69 82
11.142757459781787 24 43 55
10.460626929833195 43 65 79
10.569024959421412 30 53 65
11.016350971424597 52 82 99
11.301601564729761 48 78 95
10.955490261542243 43 66 77
11.298784793916841 38 65 80
10.482676438105731 52 75 88
10.788830606771878 80 104 117
10.775127092042162 21 37 45
10.71632828407343 17 34 42
10.907159370323258 35 60 70
11.449255444093385 24 54 68
10.150358892092743 27 52 65
12.849251872154799 49 83 103
12.345353294425028 35 68 87
12.64874881720843 52 84 102
11.35040250935301 29 64 86
11.477636819543624 24 41 50
11.628914860049203 4 13 22
11.35040250935301 29 64 86
12.123937886905022 65 94 111
10.809471169922366 35 54 66
12.701699180297618 92 113 129
11.039495233726587 59 89 106
11.79551300169267 71 102 121
12.46754097721354 49 79 98
11.61174598457743 35 59 74
10.507937531839147 25 49 62
10.461767595744119 24 51 65
11.65336331783519 20 42 51
11.363456640578462 54 83 98
10.974047528630669 42 71 87
10.487991017538027 38 62 75
10.685179735060865 31 55 69
11.016670813239804 14 36 47
10.649639711115832 19 40 51
10.559890761502205 58 74 80
11.787118342084995 26 43 53
11.755842409965577 24 41 49
10.404211692253806 17 36 46
13.165679457490011 53 87 107
12.232971877225426 26 55 71
12.56274909588608 51 81 98
12.023268810459065 53 85 104
11.21183997048481 21 42 52
11.976670862530488 19 35 47
11.664286248218339 23 42 52
11.445515231695438 35 46 55
10.898392764646005 19 46 60
12.514897242774849 33 62 79
11.473082640483076 56 90 110
10.212808287574724 32 59 71
11.01639939619546 15 30 39
10.681590641352225 22 36 42
10.726350587458663 55 80 93
