15.927781216154656 18 29 38
8.850322254994627 21 34 43
8.97119885823058 23 37 44
9.984615023109084 17 31 39
9.562026281192116 25 44 53
9.646668656089766 24 44 51
8.892400552770198 36 56 66
9.104294990885386 20 32 41
8.396322581736435 21 32 41
8.828074252790511 20 33 39
8.56115455051599 11 25 27
9.449078342492411 10 26 29
9.17582873958168 7 27 29
8.15469069826935 22 43 52
8.56649722898631 19 36 42
9.044369305077506 22 39 47
8.15469069826935 22 43 52
9.070780279517367 15 34 41
9.000596887562855 26 42 48
8.889730916227395 22 49 57
9.645496435030736 44 71 82
9.813033491729465 22 45 54
10.155782086526848 9 26 30
9.180813721808251 19 44 52
9.266693004634643 9 26 32
10.167011409919862 64 90 106
9.472801366860976 51 79 90
10.326090540037606 4 27 40
10.298858444859468 0 23 39
10.455931813992795 11 32 45
10.908816447391448 31 56 72
9.912316348827359 6 28 37
9.661482389807514 18 39 50
8.858659539198028 19 39 56
8.858659539198028 19 39 56
9.231241736614349 18 40 56
12.818522481888046 53 73 78
10.00042666805758 15 34 44
12.902596997139577 8 28 33
13.094376537737705 56 77 84
9.203440256989868 40 60 74
9.201179362093086 34 55 69
10.128103466703909 18 37 49
9.598220045796054 50 73 89
9.55152594837444 49 72 87
9.474572367571886 58 78 92
10.4474124127136 17 36 46
9.389751804925156 51 75 92
9.437246370798329 46 70 88
9.849873509470678 17 37 53
10.210496854525308 40 60 74
10.380750614524882 59 82 97
8.748330336964747 52 78 98
9.526012989417751 54 71 85
8.851408411245874 75 98 119
8.579478754230218 17 39 56
8.79838848011664 27 50 69
9.29819550513629 75 111 134
9.173418938184154 45 70 90
9.866641766922912 104 135 158
9.641524156600486 37 70 97
10.10398906002843 60 93 118
9.382067844920208 41 69 94
9.173418938184154 45 70 90
9.402915970121327 113 141 164
8.474946948774912 22 45 54
9.303164892136234 25 49 58
8.212831140521835 20 36 44
9.015573551549627 19 38 44
10.237502646428947 52 80 101
9.09544895015423 25 53 65
10.884954139529077 72 103 123
10.273579493245098 91 121 142
10.204518892909563 95 132 158
9.151943804128399 66 103 127
9.09544895015423 25 53 65
9.064520452349408 43 83 101
9.25318170738653 31 64 79
9.990855196485994 30 57 68
8.962127870529699 54 88 104
9.618500497217 41 71 86
8.233553339186958 37 71 87
9.589259160183476 66 100 118
10.141403815360755 64 97 115
10.338746648254212 57 90 106
10.150071977229631 15 21 24
8.819378524815779 8 14 15
9.218587214555614 0 2 8
10.563801750885178 6 7 8
9.430440132591704 58 84 106
10.227852525257084 50 81 109
9.538071713138365 71 100 128
8.623413176076728 49 75 98
8.842693363789662 57 83 105
10.141321118878952 90 126 153
10.185311686014877 98 134 157
10.572709447054962 99 135 160
10.422799731661462 64 99 124
9.838942175134795 31 65 87
10.614912395158814 117 155 179
10.096355282403136 87 126 152
10.059147667415377 81 94 103
9.497844485390843 47 71 86
9.672243613631261 76 89 96
10.386761576770727 57 81 98
10.137997640448125 50 76 94
9.417213143191262 144 156 159
10.718582226525776 89 121 140
9.814176412604969 124 136 141
11.248206978013506 117 147 166
10.519057856527919 62 92 115
9.116406105153704 28 50 59
9.430738645236636 20 46 56
8.666058767330291 30 48 58
9.390492797170989 53 76 89
10.14501503902812 94 106 114
9.400913297172712 32 56 72
9.105660021483628 43 66 77
10.539630960998242 62 99 125
11.136409287093292 49 90 107
9.916846556524217 70 102 124
9.961828433108915 71 111 134
10.190837461531888 90 116 138
11.245653621155073 108 140 167
9.955560908305227 12 34 55
9.552047475160768 22 42 59
9.81698618877447 8 31 50
10.52563343381227 69 97 120
16.367599580640682 18 29 38
8.673083887655196 22 36 43
9.367093134240267 21 37 42
9.660574125440638 10 24 32
8.752803802812625 9 25 32
9.501093051013639 19 34 41
11.02560369579277 20 45 55
9.222832588648764 18 35 43
9.23678647493841 5 28 38
8.35218565502792 23 44 52
8.704440874135205 12 36 48
9.553457927620277 14 33 43
8.58695951213453 24 44 60
8.42590639009544 24 44 59
12.417503225897738 48 68 75
13.175083649280722 22 42 47
8.869101091178532 63 77 88
9.379279056675584 46 59 72
9.813045242270375 23 47 62
8.921742692379821 60 81 97
9.858500749703081 54 78 94
8.59088304783194 27 49 68
7.897147087102226 11 36 55
8.547707082787738 32 54 72
9.224283496893442 59 84 106
9.651673632564934 52 82 106
9.65382902376685 118 154 181
9.72680032633554 109 137 159
10.432189132371054 97 132 158
8.077063547653143 22 45 54
8.570815658849904 13 37 46
8.28968671842309 21 46 54
9.16627195929663 20 37 46
9.868750207972726 70 106 128
9.57995702738677 40 68 82
9.589259160183476 66 100 118
10.943781846746841 53 90 116
9.50585855555926 31 65 80
8.492580298147713 78 117 136
10.127051037964492 32 59 71
10.205376381515832 48 77 92
9.22278217980408 42 78 96
8.972910732705788 14 19 23
10.327541644378867 0 3 6
9.358719021145108 1 3 5
9.167691051553998 1 3 9
10.843724876840373 93 124 146
9.924116461280356 92 98 102
9.880267931585623 117 128 129
10.141321118878952 90 126 153
9.454219568113846 91 117 132
10.281769651833129 62 90 115
11.198943714711792 98 133 158
10.527136698471514 68 93 109
9.584831355324997 50 81 107
10.792615499018657 99 132 158
9.836827344986402 52 83 109
10.466363183744043 52 84 110
9.912147132647055 71 85 95
10.08331177058325 58 85 105
10.055702162919566 51 75 88
9.430738645236636 20 46 56
9.881954239685172 75 92 102
8.538428351376131 27 47 56
10.624132011799116 50 89 113
10.332052132213752 63 93 108
10.418996372757995 54 85 97
9.909951661922207 33 61 74
10.84107625429197 79 110 134
10.516327464269464 47 73 96
9.40753080246558 24 44 60
8.883820122235518 16 33 41
8.387628608562387 16 28 37
9.033496155505143 20 31 40
10.298858444859468 0 23 39
10.298858444859468 0 23 39
9.689163274370298 9 25 32
8.77414980795035 8 27 35
8.66135266847319 22 41 50
8.746382738108466 54 74 86
8.921742692379821 60 81 97
9.035435992779028 51 73 88
9.021410803146852 65 88 104
9.984202508323273 13 35 46
10.020401736104981 17 36 46
9.638028334873384 55 79 97
9.57995702738677 40 68 82
9.95375368334804 22 49 60
10.104855079506443 75 106 125
9.581215283276867 38 76 97
8.789620862721254 47 72 94
10.084590384874202 34 67 94
8.374216701131793 30 50 65
9.513046334498256 50 90 115
8.831709199739578 33 55 75
10.406075666283265 65 97 120
9.430440132591704 58 84 106
10.85091016695211 75 105 124
9.951995271474898 97 135 160
10.259329884225224 85 117 135
7.976420226953142 51 77 100
9.793395888076578 65 97 123
17.89001176547555 17 28 37
16.357691836448094 17 28 37
8.97119885823058 23 37 44
8.914393938198195 29 47 56
8.658471771729243 7 25 29
9.568038745017505 9 29 38
8.752330472238217 10 26 31
9.670277702728331 18 38 52
9.693079962952808 51 74 90
9.395745472509656 23 43 57
8.748330336964747 52 78 98
9.064520452349408 43 83 101
9.994737569237909 132 165 192
9.695943795959021 53 84 103
8.955381411552118 30 57 68
9.989480631106066 37 43 46
11.0100954486343 67 101 121
8.884286447402415 29 48 58
10.007398751843944 70 108 135
10.298008740266255 99 125 147
8.778848397463056 22 33 42
9.94748107095674 9 30 38
9.864829940937565 57 75 90
8.974441001812574 21 40 47
8.84995163234013 50 74 92
10.169057572853774 45 75 89
9.458708515080069 28 61 73
8.524767719924261 23 43 60
8.41828251639853 32 53 70
8.579478754230218 17 39 56
10.103673447659876 18 39 50
