9.096007179563326 39 51 63
10.119189808279835 35 46 57
9.837689943995482 35 48 61
8.825178173003291 44 57 75
9.54097442402189 55 65 81
9.928279384549304 45 55 71
8.322720082630292 41 48 60
8.220641647160889 51 64 79
9.796254675705198 40 50 66
9.200437592943308 49 61 79
8.695229370665889 59 67 82
8.803500935824244 44 56 74
8.345480984999648 7 11 20
8.959124446253053 42 56 74
9.225522808212 50 58 72
9.478738760181967 37 49 67
9.333634335447298 20 29 37
9.593041028170568 61 68 81
9.85417452467711 72 88 106
10.653455458442291 17 27 36
10.671375462573192 40 49 63
10.428801264099231 64 79 97
10.270681409769788 56 66 84
9.895367265832492 86 101 118
10.53872461450129 65 81 99
10.216543189742914 112 127 144
9.527420229189781 15 23 33
10.217122646096566 18 27 37
8.28342305054569 46 59 74
8.615854941682588 39 54 69
9.55359810271752 17 28 37
4.970517625993569 11 11 16
12.378831722186046 37 46 56
11.28805467354394 40 49 59
11.456876627725254 40 47 61
9.862990883018796 25 34 46
9.773091016227538 28 38 51
10.169857981493731 34 43 53
9.767084958419765 25 34 46
9.121472950929258 27 36 47
9.121472950929258 27 36 47
9.058853340372522 52 67 81
9.289110097937048 14 27 40
7.9146953480251865 47 62 77
9.563259915685938 17 28 39
8.14004062605686 55 70 85
9.481847148810228 15 26 39
7.9146953480251865 47 62 77
8.856916218446113 72 87 104
9.571485710376585 36 46 58
8.829810355320484 28 40 51
8.851423160662936 15 26 39
9.934273700921251 119 137 154
9.160583784039188 85 101 119
10.152434930744988 40 58 78
9.22561510607889 65 81 100
9.593897606025541 20 31 44
9.501452001029008 14 27 40
10.493816828917893 32 40 49
9.64582149141528 73 88 105
8.62931349503528 32 45 60
9.521540378849082 88 101 118
10.499407176853278 29 39 49
9.870360343090026 60 76 95
9.701081128145319 108 126 144
9.36010013676051 68 85 102
10.591897630681435 88 106 126
8.9076760683394 54 70 88
9.012731745258412 49 66 85
9.722444993561906 0 1 8
8.768010888010474 4 4 11
9.710738196584083 50 65 83
9.710738196584083 50 65 83
9.754959337215437 40 56 74
9.63208651396629 113 127 143
9.61222916676126 12 26 39
10.291914971817313 56 75 95
9.2573630812397 61 81 100
10.691382270095517 90 109 130
10.691382270095517 90 109 130
9.595879963614339 81 98 117
10.931666554849814 48 66 86
8.56543317678343 44 62 80
7.811820755127892 41 58 76
7.9867906963083515 56 74 93
8.289134245039792 58 72 89
8.76510729875962 42 56 72
9.47147018691595 46 62 81
9.350614396187137 46 62 80
9.350614396187137 46 62 80
9.201614394756573 66 82 97
9.16370717195586 61 80 101
9.50555996201963 69 87 106
9.301240168952116 72 85 103
10.323778996121927 129 148 170
10.330916463025346 68 82 103
8.574616259338958 52 67 84
9.931285319987849 86 99 116
8.783892586452815 47 59 71
9.545797265283042 36 47 63
9.592346092420604 19 28 38
8.104757364257779 31 35 45
9.437556583211439 80 92 110
9.141497401738443 72 81 95
9.139458049825107 56 65 79
8.84890909349434 41 56 73
9.934326787717762 30 39 52
9.437556583211439 80 92 110
9.093147596026483 53 68 86
10.860311139334998 28 39 57
9.87603930062623 52 62 75
11.256991460580297 41 57 77
9.2273937070711 79 94 112
10.371317032323738 83 99 117
8.87483259375071 63 79 97
10.653455458442291 17 27 36
9.55359810271752 17 28 37
8.98735199729539 39 52 67
9.74315835407351 33 44 54
11.282732874858695 51 60 74
5.738535356650716 11 11 16
11.183138401693839 55 64 78
9.862990883018796 25 34 46
9.438427271958838 29 38 48
9.767084958419765 25 34 46
9.058853340372522 52 67 81
9.153582136350932 24 34 48
9.696020240085131 24 37 48
8.637265967281055 55 70 87
8.984978187358921 112 131 148
9.736896496897426 113 128 145
9.515375544852434 69 84 100
10.499407176853278 29 39 49
10.591897630681435 88 106 126
8.31576894508325 54 69 87
10.152434930744988 40 58 78
10.188530529994972 60 78 98
9.495274124604322 16 29 42
9.258986661436653 73 89 106
9.864413508970845 53 69 87
10.313862355421215 67 82 100
9.58207340007253 57 77 97
8.921400566904273 51 68 88
9.61222916676126 12 26 39
8.862976251988586 54 70 85
9.754959337215437 40 56 74
7.911535066332806 84 100 117
9.711267047454278 49 58 72
9.551460007367451 33 40 52
9.399744972735814 22 31 41
8.71326867981996 44 57 75
10.09928778130849 25 36 49
9.959019827612208 65 81 99
10.782411387134355 35 51 71
8.049832354840023 55 69 84
11.95045165194622 32 41 55
10.658559087401766 37 44 54
9.773091016227538 28 38 51
9.906067227846693 18 31 42
9.177708458141526 14 25 38
8.851423160662936 15 26 39
10.591897630681435 88 106 126
9.156865811206753 33 44 56
9.959382232321879 36 52 70
9.993810894843955 88 104 122
10.583139052870969 31 38 46
9.57762141964117 29 39 48
10.834388503277157 48 66 86
8.986693246450136 2 1 7
10.023623577231358 82 100 117
8.786879253578288 48 65 83
8.9515879944473 80 98 115
9.909504109821686 84 102 122
9.936690155667833 116 133 153
8.703377882416554 61 79 99
8.703377882416554 61 79 99
8.543096888584778 47 62 78
9.059054875132606 1 2 11
9.670932513645761 50 60 78
9.162877953362099 55 70 86
7.948706938818707 49 64 81
9.036225858534257 55 69 80
9.876404750223104 29 40 49
9.565255623542235 87 103 121
8.649689571021105 121 135 151
10.181293245722754 55 73 93
10.330916463025346 68 82 103
9.017573407502951 42 58 76
8.669459425556068 43 56 70
9.957610717904092 20 27 35
8.062086485055035 41 57 73
11.174877225487617 38 47 61
10.188530529994972 60 78 98
9.301240168952116 72 85 103
9.458559479412315 36 48 66
8.271496834481285 47 62 77
9.661712632850037 32 41 51
9.44001261753765 12 23 32
9.707128024361015 99 117 137
9.639736138389427 98 113 130
9.565255623542235 87 103 121
10.023125926291184 107 127 148
9.603573790103939 42 53 70
8.986693246450136 2 1 7
9.797633164615803 106 125 142
12.132412610181849 40 50 64
