11.362921977751085 33 36 26
12.626925337236557 23 23 22
11.842270329752017 27 31 19
12.374909254464757 23 25 16
12.679297660990049 22 22 23
11.662547250312482 29 32 23
11.654531883591305 22 23 18
12.187708192225228 23 23 22
12.378000051502376 25 25 23
12.570939055389756 20 20 19
14.002766559154937 1 1 1
13.854674392260838 3 3 3
12.923792383834298 41 42 32
13.286709533380321 40 40 27
12.95233980891972 38 41 26
13.023581490612727 7 10 3
13.905906535434026 38 42 28
13.645523940149697 6 7 5
13.785822096211223 39 43 28
13.281987103961512 37 41 29
13.256565435045424 20 22 16
13.71637333465713 2 2 2
13.082426318350622 40 41 28
13.610612321920245 16 18 12
13.951184165760042 6 9 3
11.934247420891268 35 39 24
11.468532992921862 32 36 24
11.840688464185524 38 42 25
11.073763430578817 39 43 28
12.922444150664127 40 44 28
13.199091602392208 39 45 26
12.152444762271136 40 43 25
12.647833729248273 38 42 21
12.542607648931218 44 45 28
13.611588708512045 39 43 25
13.729595896128902 39 45 22
13.386982651836759 40 41 25
13.055181378360292 40 41 26
13.856818812821244 44 46 28
13.856818812821244 44 46 28
14.169861372294712 44 46 27
13.456813728589646 38 42 24
12.601589240381536 39 43 24
13.152450202278837 41 45 25
14.606872909821405 45 49 30
12.671846478952702 38 44 22
13.90225631565192 41 45 26
14.166371515229846 46 48 29
12.181494089233103 36 40 20
12.7313759598133 42 46 26
12.671846478952702 38 44 22
11.894947908784994 37 43 21
12.54144372627544 37 41 23
13.546361193145296 44 46 26
14.087737228312102 44 45 28
14.65645082215115 44 45 29
13.025521760113577 42 43 29
13.12545028842233 43 44 29
14.23115477954885 45 46 30
14.117340757315773 46 47 31
14.559325683366243 45 48 29
17.55519359571205 49 55 33
17.55519359571205 49 55 33
12.713004662728077 38 42 24
12.382839061050852 36 39 25
12.247830726624432 43 45 32
12.20855924625128 39 41 30
12.867906756637499 43 44 29
12.464295651995874 47 48 32
12.263695505904627 47 50 33
12.53287204744803 46 50 33
11.7702496290187 46 50 35
10.686750952207147 44 49 30
12.154158677810097 46 47 33
11.623697562081224 45 46 32
11.078842509160859 46 52 31
13.312329519377656 45 46 30
13.293155181998026 47 53 33
10.442569923942303 40 48 30
10.239398986417587 42 46 30
10.973557235123026 41 45 28
11.692080342487388 29 32 24
12.042885065077588 46 57 61
11.011323336901846 37 45 27
12.032939890993603 44 54 53
12.021058941607684 45 52 40
12.26046341446689 52 62 63
11.308295621078477 35 42 28
11.011323336901846 37 45 27
11.969307486360652 33 41 38
12.229068077564547 36 43 48
11.417102484277112 35 43 26
20.42276670615301 50 52 56
12.789077351867025 26 33 26
21.073589742733084 72 74 79
12.643033016436252 22 32 35
20.27648258466461 54 56 58
10.785877296874682 37 44 18
11.162699195653614 39 45 22
10.345636111094109 39 45 23
10.785877296874682 37 44 18
10.39871021088009 41 47 25
11.331543510010937 41 45 29
11.202895421539845 40 44 26
11.640140725459869 41 45 23
10.801743976991913 40 46 23
11.084429073461834 40 47 23
11.94540719346691 38 43 27
11.295652504881849 38 43 25
10.585337251149706 42 47 22
10.965229576288065 44 50 24
11.110181662327765 36 43 18
11.110181662327765 36 43 18
10.972323755787649 40 45 23
11.006832070458104 39 47 23
11.043118912609945 44 50 23
12.606855545377949 53 56 35
11.790682627639733 42 46 29
12.174566675448741 36 42 30
11.790682627639733 42 46 29
21.678352086130428 25 24 22
21.678352086130428 25 24 22
12.968967183116536 50 53 31
13.09276770198191 52 55 32
12.227006535551734 56 56 36
13.665291981604051 45 54 28
12.164602135242335 38 44 24
12.715972513905095 52 62 38
12.695138366832422 45 50 27
12.715972513905095 52 62 38
12.044855026750211 38 44 22
13.116918880929475 47 53 29
12.422731792898585 50 56 31
12.05086211404005 51 59 34
12.190572158063476 49 55 32
12.409545575495457 47 53 28
12.992187825038448 52 59 36
12.528071416710425 45 52 29
12.422731792898585 50 56 31
12.769020403708204 48 60 37
13.025402497465095 49 59 36
12.685519826782695 51 61 40
12.967222893781223 49 60 39
12.29587048314132 50 60 39
17.415102919294416 48 56 34
17.489969635201494 47 55 33
13.063949979984523 49 54 32
13.186858814018017 50 56 33
13.360631479518405 52 56 35
11.993185808710685 50 59 36
12.126951890049138 50 60 36
12.581312270382346 50 60 37
12.391558477431332 49 57 35
12.679794075650728 53 58 39
12.937944425277177 53 59 39
12.807750811740297 47 55 33
13.110231321666095 52 58 35
13.063949979984523 49 54 32
12.962384070161795 51 61 38
13.238196896998144 49 59 36
12.581312270382346 50 60 37
13.360631479518405 52 56 35
12.831668208237295 48 56 34
13.309375205557984 48 55 32
13.600704129356028 51 58 35
13.039122446524699 54 58 37
21.948068437970917 74 76 78
21.741773759028 10 10 8
21.64527272289803 9 9 7
11.695289406616501 49 57 34
10.855493487146363 48 52 33
10.455029097099052 45 49 30
10.42753318058786 49 57 34
10.02347480035644 49 54 31
9.794689461391373 48 52 30
10.315455439672803 45 51 28
10.271787012714128 47 51 29
10.721134564782057 48 54 31
10.180002982591574 49 56 33
11.369588983800167 48 56 35
10.258601472186816 45 51 28
10.026538446487198 50 57 35
10.078245610227407 50 55 33
10.764863792092628 47 53 30
10.67085809056877 46 51 26
10.406418480898484 46 51 26
10.530388272679227 51 57 35
13.196941427593506 54 58 39
10.55280798916403 51 56 34
10.810827771273127 49 54 31
11.677694171677794 51 57 35
11.463337320711608 49 56 34
10.762640741888033 50 56 33
9.86688857464938 43 48 22
10.276371501175731 43 49 24
9.86688857464938 43 48 22
9.810937908164492 43 45 23
9.8566482706431 42 46 22
10.022797895360053 41 46 18
19.939236712699493 50 56 35
19.939236712699493 50 56 35
20.480854192813897 49 54 37
20.480854192813897 49 54 37
19.7978066417302 52 58 38
20.125956755643294 54 60 38
12.055246982374747 51 59 36
12.865883367240288 53 59 39
11.974047658442036 22 22 20
11.372790074102852 22 25 17
11.452225073298527 21 22 19
11.654531883591305 22 23 18
12.378000051502376 25 25 23
12.603075602420565 31 32 26
13.304151483351989 6 7 5
12.09779186447717 42 43 26
13.561836972687955 35 37 29
13.800313209736537 7 10 5
13.662434593403882 38 42 26
13.652370436716234 6 7 4
13.023163631686696 40 44 26
13.723184484507161 2 2 2
13.132982299497483 43 46 33
13.047002969635402 26 29 20
13.336491140036074 35 37 26
12.906623345916769 39 43 23
12.462956069743745 31 35 21
13.634096058057757 39 43 23
13.01824510751962 39 43 24
13.634000103298268 43 47 27
14.166371515229846 46 48 29
14.139043044308995 45 47 30
13.80668880514116 44 46 28
13.978490600229456 45 47 29
13.826562886833067 43 47 29
13.055181378360292 40 41 26
12.396639895263288 41 47 25
14.606872909821405 45 49 30
14.669710994277798 46 48 30
13.687102444096704 40 43 28
12.382839061050852 36 39 25
12.448686522957491 42 43 26
11.611397877606034 46 50 33
11.00480160692654 44 48 32
11.385945891145903 47 51 30
10.773397655643778 47 51 35
11.4962313040562 33 41 40
10.684018631728035 35 44 27
11.145267308555056 35 39 27
11.023608569756473 43 48 32
11.375626161707261 39 45 34
11.308295621078477 35 42 28
20.271873398038036 45 48 51
12.019131083624584 31 38 30
20.752423153054277 47 48 50
11.162699195653614 39 45 22
11.110181662327765 36 43 18
11.211906208996455 40 46 23
10.585337251149706 42 47 22
11.316556225010661 38 44 23
10.779842005414414 40 44 23
11.458882195414372 39 45 24
14.230820480349541 2 2 2
13.022322436727642 48 51 29
14.840163988355279 1 1 0
12.848087624619325 54 57 37
12.588094671523674 54 55 34
12.99258780795447 51 53 31
12.85956893392603 47 54 29
13.621872415586646 49 58 32
11.687205536799459 39 45 23
12.84845239021947 48 56 32
12.05086211404005 51 59 34
13.116918880929475 47 53 29
11.667792004409762 47 53 27
13.36137119504088 48 54 31
12.023942896884218 50 60 39
17.415102919294416 48 56 34
12.315688786836887 50 58 36
13.360067120274817 53 59 37
12.315688786836887 50 58 36
12.018724308050038 49 59 35
13.605870118524269 54 58 37
12.366789937123812 50 57 35
12.49716086651299 48 56 33
13.360631479518405 52 56 35
13.0873991774604 50 55 32
13.06279560174765 50 60 37
12.933094647335619 49 57 35
21.64095506923178 11 11 11
10.02347480035644 49 54 31
11.143005256835458 48 56 34
10.006893456935877 47 51 28
9.850732417022536 47 52 29
10.762640741888033 50 56 33
10.695855169987404 48 53 28
10.599051451513995 46 50 28
12.61183077656239 54 58 39
10.524900379238678 43 47 28
10.27411627138419 42 47 19
10.521634793931225 41 47 22
10.386265714855647 44 50 27
14.704161070047832 39 45 17
11.105543974104448 43 47 25
11.105543974104448 43 47 25
20.027493138240725 53 59 38
19.748404844330892 49 55 36
11.757040116431005 49 59 38
12.42698544751473 53 59 37
14.127529700925955 9 9 8
14.595818234994766 0 0 0
11.545687108725213 39 43 23
11.840688464185524 38 42 25
11.35469510521237 23 26 20
13.300025316686405 46 45 26
13.001960966428827 42 43 27
13.184253208704384 41 43 27
13.300025316686405 46 45 26
17.629465401241834 48 54 32
14.285407021042912 45 48 29
13.636348538588011 40 43 27
14.392324152482447 45 46 29
14.580370108642011 46 48 29
11.00480160692654 44 48 32
11.680568938137139 40 41 28
12.80754935171136 46 50 33
12.455292365224091 47 51 32
13.228520666927954 49 50 34
11.014443739283136 38 42 27
12.021058941607684 45 52 40
11.417102484277112 35 43 26
12.643033016436252 22 32 35
11.068967612354895 41 48 23
10.814964506975514 37 46 20
11.534793575297778 41 50 24
14.840163988355279 1 1 0
11.697576752712525 48 53 39
11.774820888042228 21 28 19
11.697576752712525 48 53 39
12.190572158063476 49 55 32
11.82412476465696 45 50 24
12.992187825038448 52 59 36
12.788105466657301 50 60 39
12.783015529397229 53 57 35
12.679794075650728 53 58 39
13.110231321666095 52 58 35
13.43003814825664 49 57 34
13.186858814018017 50 56 33
13.0873991774604 50 55 32
12.315688786836887 50 58 36
12.938708306153702 51 60 37
10.853837397139852 43 47 25
10.696560096152231 51 57 36
11.463337320711608 49 56 34
10.409369421107643 47 53 29
10.124367818461028 44 50 27
19.748404844330892 49 55 36
12.055246982374747 51 59 36
12.51568425372217 41 45 26
11.073763430578817 39 43 28
14.602219176862489 0 0 0
10.75775181081587 41 45 29
13.660090642815108 40 43 29
12.448686522957491 42 43 26
11.375626161707261 39 45 34
10.546760713913503 38 46 23
11.372653479614595 42 48 23
21.311742947038358 39 41 43
12.20972672761042 35 45 46
12.86177486605098 47 55 32
12.496557511981202 51 58 37
11.507525998268587 45 52 25
10.23853754341287 49 53 30
10.23093456565701 50 55 32
10.477261550302295 48 55 32
12.574295883709684 54 57 39
12.437872470087157 49 57 35
12.247830726624432 43 45 32
11.662547250312482 29 32 23
14.745330747487106 44 45 29
12.181494089233103 36 40 20
13.073948779214648 39 45 22
12.210688588249587 36 40 24
11.81097857792625 47 51 35
12.501805543628674 38 41 24
10.345636111094109 39 45 23
13.267772768958404 52 54 32
14.718650956675301 41 46 17
10.06984787456106 45 49 27
10.762010328781585 45 50 24
10.06984787456106 45 49 27
11.677694171677794 51 57 35
11.813750982087193 22 23 16
12.818701367111302 47 48 32
11.918576744846678 22 23 20
12.20855924625128 39 41 30
10.755116944329849 44 48 29
11.842270329752017 27 31 19
10.546760713913503 38 46 23
12.661326357259865 51 61 38
12.738427126600364 46 55 29
10.002626036420846 42 44 24
12.19439063793195 21 21 18
12.984794533678238 45 46 30
12.971417755730322 46 47 33
11.110181662327765 36 43 18
