15.194028708643057 12 16 26
14.795428258739461 5 7 22
14.795428258739461 5 7 22
14.458926862927772 12 21 35
14.795428258739461 5 7 22
14.355270107643154 12 15 26
14.323765068411504 7 4 18
12.695753712402723 140 168 195
13.327883048079107 14 30 48
12.198424039488103 14 30 47
12.026873258630987 14 29 46
12.386702907345821 0 5 22
11.515185253339881 67 77 99
12.070458039792392 143 160 183
12.159433619966718 153 172 196
12.576309605538231 157 181 209
12.638913966430252 12 24 45
12.988143413883678 8 28 46
13.192948252259686 25 40 64
12.416629541847222 11 31 51
13.192948252259686 25 40 64
12.434979284114458 144 172 202
12.762536643667403 160 187 224
12.37086133819878 153 182 215
12.049650572399578 143 174 207
12.481421221531653 30 44 72
11.536221184139034 147 172 202
12.891678562618845 65 93 119
12.382264282482927 42 51 55
12.441916596775418 13 17 21
10.921029924191213 0 5 9
11.002792908208322 125 143 150
10.921029924191213 0 5 9
10.921029924191213 0 5 9
12.626292161781643 63 117 156
12.174444881614306 76 127 165
11.964852919243478 89 141 181
9.995342933480973 53 108 146
11.130627105362617 50 102 142
10.690707849628042 69 121 159
10.690707849628042 69 121 159
10.690707849628042 69 121 159
12.050552308110529 67 119 159
10.902684074924592 54 107 145
10.682736286984479 82 127 158
11.126954535778363 84 133 169
10.448935705304658 58 112 151
10.631292899059945 66 119 160
11.46854603977698 70 120 161
11.463365242101162 57 111 150
11.463365242101162 57 111 150
11.715497172797445 50 105 144
11.422265338808613 66 117 156
11.675284870278777 61 114 153
9.081043704570893 49 86 124
8.644014492637325 39 59 79
10.460299640016673 44 94 134
9.754605075726724 87 138 177
9.754605075726724 87 138 177
11.591935854008723 65 116 155
11.910239153069767 70 121 161
12.176831021527875 92 144 184
12.19174004065836 77 129 170
11.089933998575864 148 176 205
10.698946487044038 146 175 205
10.799227963174966 145 173 204
11.09409816134879 141 170 200
10.710793048006737 145 172 205
11.186178443499596 165 189 220
11.284704798495262 147 175 204
10.81817105860347 144 172 202
10.81817105860347 144 172 202
11.471625611646305 140 167 198
11.193143295687909 152 177 207
4.427696606364163 0 16 20
4.177155559710531 4 14 19
12.887114369349167 148 176 205
11.890784303384653 145 174 203
13.878765739819974 20 49 64
10.367834620091449 67 122 161
10.367834620091449 67 122 161
10.603423593973373 81 124 152
10.596071123074017 62 118 159
11.558619053205192 57 113 154
10.225037775279972 51 106 144
10.225037775279972 51 106 144
10.17893905582689 54 109 148
10.171279744174274 67 121 160
10.17893905582689 54 109 148
10.704599972965797 61 119 160
9.970926640856028 73 113 136
9.760302731439447 78 121 151
9.394082502035316 46 96 136
10.01836272290624 57 92 125
12.107087422955376 57 102 140
10.46073584620379 37 59 83
14.142761620875534 72 115 143
13.292582709655598 80 119 140
13.827361087854646 57 98 129
13.420113590512724 64 110 145
12.992750312605342 46 87 113
13.861331532633551 55 101 131
13.020125674859983 16 45 59
13.81479727542258 31 68 85
13.491731992225088 34 67 89
13.530936218398399 31 62 83
13.491731992225088 34 67 89
13.82769107765417 27 51 71
12.841078739851278 73 112 139
12.841078739851278 73 112 139
13.82769107765417 27 51 71
13.895875677030414 11 22 32
12.841078739851278 73 112 139
13.153059830724247 85 131 167
13.643519990922472 17 40 60
13.643519990922472 17 40 60
13.975504293104704 62 102 130
13.153059830724247 85 131 167
12.719938574199483 39 74 104
13.113073857772482 39 71 95
12.758668562805024 30 47 62
9.670203770847868 26 30 38
9.05175441631333 15 20 31
9.82639104738751 15 36 47
10.392387491848233 26 42 51
9.61452835158887 15 38 51
10.026605334399195 21 40 52
9.82639104738751 15 36 47
9.648267086231403 14 38 51
9.703012963177562 17 40 52
11.936909638226512 15 29 45
12.77158120136804 7 25 42
12.329140060294758 153 175 201
12.15090050713182 154 179 208
13.254832028156871 78 93 118
12.988143413883678 8 28 46
11.172769013310027 147 175 205
11.72503038073849 24 30 33
11.362791291627767 0 4 8
10.682736286984479 82 127 158
11.4740249508745 106 156 195
11.675284870278777 61 114 153
10.59850448890859 49 85 107
10.448935705304658 58 112 151
12.452306704483304 52 104 144
10.631292899059945 66 119 160
11.720566522079729 68 120 161
10.362803684223259 34 89 128
9.469985545324258 40 63 87
11.8925346179773 52 103 141
11.910239153069767 70 121 161
11.850362120831234 86 138 179
10.698946487044038 146 175 205
10.71806682127041 146 174 204
11.28903563223145 145 171 199
11.471625611646305 140 167 198
11.008573646081215 145 173 203
4.158456432624066 3 13 18
13.098035601133054 148 177 206
11.455779444526275 143 171 200
14.063755578247495 37 69 85
9.970926640856028 73 113 136
10.329920918085024 46 102 141
10.171279744174274 67 121 160
10.17893905582689 54 109 148
10.603423593973373 81 124 152
10.371775991937017 79 130 170
13.81479727542258 31 68 85
13.865616374696524 41 77 101
13.105424750437148 72 113 137
13.82769107765417 27 51 71
13.153059830724247 85 131 167
13.568661491369893 43 64 81
9.669465249942304 16 38 50
10.042343146700963 14 38 50
9.989457096346937 15 38 50
10.138952752002634 16 39 52
14.832436186653855 2 3 19
11.345006440116617 166 189 220
12.695753712402723 140 168 195
12.473422849516387 7 17 37
12.026873258630987 14 29 46
11.343495878995707 142 172 203
11.368388974580625 142 169 201
11.69029435753654 154 182 210
12.423817643135077 112 138 164
12.046195535569547 9 14 42
12.382264282482927 42 51 55
12.098754958985989 97 140 166
10.766982995897685 67 119 157
10.448935705304658 58 112 151
10.86116871746622 81 128 163
11.720566522079729 68 120 161
9.469985545324258 40 63 87
9.213401750051617 63 111 149
11.695913555040516 76 128 169
10.61287614283973 82 134 174
10.596071123074017 62 118 159
12.439350245695003 55 98 133
13.82769107765417 27 51 71
13.865616374696524 41 77 101
10.360314958609061 58 113 152
10.471287570187103 59 115 154
14.142761620875534 72 115 143
9.289648513555106 36 56 74
9.859404817732528 17 39 50
10.08657325909083 13 39 52
12.473422849516387 7 17 37
12.880140329934832 17 31 53
13.572389334777794 62 76 102
12.37086133819878 153 182 215
8.955434461196578 46 66 88
10.219936545501971 71 124 162
11.12528894752679 56 108 146
9.977152342514335 45 99 139
11.695913555040516 76 128 169
4.177155559710531 4 14 19
11.890784303384653 145 174 203
13.861331532633551 55 101 131
13.113073857772482 39 71 95
13.967000718165858 66 111 140
12.395199420074686 38 72 104
10.603423593973373 81 124 152
13.975504293104704 62 102 130
14.464887753772365 48 85 108
10.17893905582689 54 109 148
10.01836272290624 57 92 125
10.22322524600654 73 124 163
9.579358360317313 13 37 50
12.329140060294758 153 175 201
12.070458039792392 143 160 183
8.866860968365003 46 82 119
13.861331532633551 55 101 131
13.034819409526134 54 97 135
10.217413020814725 61 115 153
10.047005274428196 22 40 50
15.190418976826086 10 16 31
12.808256090695567 164 189 226
11.489545915801207 93 145 185
13.38058466532493 60 108 143
10.603423593973373 81 124 152
14.731407844026906 11 15 26
10.138952752002634 16 39 52
12.77158120136804 7 25 42
12.95650274889184 47 84 111
