9.109648816568827 17 24 36
9.135785921275946 28 43 61
8.728462051937884 47 59 77
9.136479454188823 34 43 59
9.210699729834994 19 28 42
9.622969409842167 24 34 52
9.67521355496229 25 35 51
10.080981672280828 21 31 47
10.351028571930968 29 39 56
8.98195997807385 39 51 70
9.39132407028396 31 46 58
9.840489576069219 18 33 45
8.98195997807385 39 51 70
9.893227647164816 45 64 80
9.925433017367974 40 56 73
9.408399561432514 15 24 34
9.062952859794231 28 45 62
9.454438006726026 43 61 79
9.6611315470683 31 47 62
10.459922965367932 44 60 75
9.893227647164816 45 64 80
9.232629511699223 51 65 76
9.285597052853214 56 71 88
9.54367946084176 52 68 88
8.864512957758114 29 46 66
9.124369573714674 70 86 103
10.045916244217388 70 89 106
9.124369573714674 70 86 103
8.531178054926842 50 66 87
9.342549260126848 97 107 123
9.963272180120386 88 100 118
10.096599559982037 71 85 106
9.7442054445705 76 92 114
10.446746605037635 81 97 119
9.172243961201785 91 112 131
8.99649194567342 18 38 59
8.599132770223672 23 45 66
9.457224487216008 71 89 109
9.440436547768044 82 102 121
8.8008822935166 71 89 109
9.126864785929099 94 106 124
9.181932143726645 111 123 142
8.35399401940373 47 64 85
10.254313666579604 98 114 135
10.303357018174669 62 80 101
8.629237869922346 67 85 105
8.639215744622842 50 64 74
8.121669689335473 25 48 71
8.571578809476692 54 74 91
9.007678744003394 83 105 126
9.573763009963105 53 73 93
9.34430815862622 88 103 121
10.685298310609072 55 74 95
10.28680332447354 27 38 55
9.983655258154386 55 77 97
10.724851168786026 44 66 87
10.066761414763658 114 136 157
9.983655258154386 55 77 97
7.998857069026278 3 8 14
9.182526661707865 0 3 7
9.079302499173982 28 48 65
9.961595536890716 37 53 71
9.92018868031758 42 57 75
10.572916148147085 39 55 67
10.080389546506233 22 42 60
9.972605925426416 26 41 50
9.83003696617414 34 49 60
9.117048275262439 6 20 37
8.82015302548286 72 88 105
8.704899235478475 50 65 83
8.629578757529424 59 76 95
8.713436907894906 58 73 90
8.393437963034122 51 67 85
9.5103122511302 10 25 41
9.143877278485693 31 49 67
9.233063013344841 35 50 65
8.550117091927476 44 62 80
9.999173407195576 15 29 46
10.164100485911113 26 36 53
8.591780363308896 48 67 89
8.580811172442125 44 63 83
9.173665487063765 35 57 76
8.850123118334395 39 62 83
8.697709415139613 36 58 79
8.111649716194583 42 61 82
9.281830462965786 41 59 79
9.848001948687362 32 48 63
9.398321176411356 75 94 108
9.469621929549994 95 116 134
9.425002313422183 84 105 123
9.704430285268968 93 118 139
9.425002313422183 84 105 123
8.972011016272448 56 75 90
9.128871279156565 60 83 105
10.099854417048448 56 76 98
10.64688308964226 82 106 126
9.026696026461499 77 93 113
9.934050085959246 114 137 156
10.239818936459715 58 81 102
9.48740327860465 81 106 126
10.64688308964226 82 106 126
9.063982088111407 63 79 99
10.328678007617514 42 65 88
9.68702836294191 48 71 94
9.547983471130037 40 58 78
7.7229937801637245 1 7 13
10.097909141714048 28 48 65
10.455468871038228 63 82 96
10.606299407698682 39 59 75
9.252637269849886 30 42 60
10.204138480117846 43 60 73
8.840236815622255 38 50 68
9.622969409842167 24 34 52
9.35669719978624 34 44 61
10.590184586129707 29 40 56
9.311920740833061 41 56 76
9.436973710699393 50 66 78
9.698501335902069 50 69 86
9.019430979124405 37 55 73
8.65220087212429 43 56 75
8.02814261197889 52 67 79
8.303812466048509 32 54 76
9.7442054445705 76 92 114
9.483071773280994 61 80 97
9.605988216031122 100 110 126
9.7442054445705 76 92 114
8.81888779458597 54 71 92
9.708032913333277 70 86 103
9.729602008422841 55 76 95
9.608554107394957 73 89 108
9.573389258526358 31 46 64
9.181932143726645 111 123 142
9.325554883691012 93 108 129
8.571578809476692 54 74 91
9.573763009963105 53 73 93
9.181037182653421 101 111 125
9.924268152333099 7 9 14
8.029400330430184 6 9 15
7.2550958544377355 1 7 13
9.237262200692568 1 4 11
9.236372600843245 8 10 13
9.260626530210486 37 53 71
10.212187990278125 46 64 78
9.280742474349697 23 34 50
9.586665429374515 54 69 86
8.19294397507825 43 61 81
8.85606979117722 46 61 79
8.90332978730414 15 30 45
8.85606979117722 46 61 79
8.9422391006988 15 29 45
10.755919600685457 47 70 93
9.460519912889403 39 61 82
9.460699317309565 58 80 101
9.460519912889403 39 61 82
9.026696026461499 77 93 113
9.547983471130037 40 58 78
9.917069608915872 14 33 49
9.423950334913316 53 75 94
10.097909141714048 28 48 65
9.346807348213597 34 44 60
9.674364226727779 24 34 50
9.64236753892939 27 38 56
10.303357018174669 62 80 101
9.272993178624745 29 48 64
10.448319621610796 54 73 93
8.61755981639223 72 90 109
9.206767340501738 32 49 69
9.457224487216008 71 89 109
9.440436547768044 82 102 121
9.080050224143367 62 80 100
9.765947245689734 33 49 64
7.2550958544377355 1 7 13
9.729602008422841 55 76 95
10.488766158192442 32 54 74
9.260626530210486 37 53 71
10.212187990278125 46 64 78
9.235210338405826 18 31 47
9.582010649442795 26 41 58
8.481969785431083 44 60 77
8.735049444122856 47 63 81
9.512594715717881 76 93 113
9.668783276833825 79 99 117
10.099854417048448 56 76 98
8.658846281736363 46 65 86
9.244554052845142 33 53 72
8.746040244065252 63 86 109
8.580811172442125 44 63 83
9.063982088111407 63 79 99
10.430674583213223 32 47 59
9.080044661362953 26 35 49
9.827772184987918 25 35 51
10.080981672280828 21 31 47
9.829444257204678 26 36 52
10.312511937115145 83 107 127
8.99649194567342 18 38 59
8.54666922347275 45 59 80
9.464215387811794 41 57 76
9.605988216031122 100 110 126
10.715157564880604 33 49 63
9.999173407195576 15 29 46
9.469621929549994 95 116 134
9.009314629331001 45 71 92
10.072234706456811 35 51 67
8.552435891129013 33 51 71
9.708032913333277 70 86 103
9.573763009963105 53 73 93
9.110390186437984 87 111 129
8.923371484579267 62 77 95
10.036705550227268 64 83 99
9.469423306796934 43 65 88
9.372421257591137 117 138 157
9.210037203579166 3 8 14
