24.531283499985225 5 7 7
23.12193945854822 10 11 4
23.62729241498308 64 62 46
23.62729241498308 64 62 46
23.563832451582645 62 58 39
22.9266076266837 4 1 0
23.018122641539076 46 36 18
23.17426830226076 59 54 35
22.69637158010737 36 31 11
22.63030127606453 44 34 16
22.26473477747565 34 31 20
23.19572069158502 52 47 28
24.45037552571818 59 48 33
23.564055374500878 66 68 49
23.627737061252525 68 69 53
23.25475558001375 2 3 4
16.848647541248884 73 67 64
16.82543109067565 79 62 60
16.80732065732529 75 65 63
16.570307936836173 73 65 63
16.241702078245535 36 28 27
12.054261904973949 88 79 76
12.086646460282664 8 5 6
12.513320157365287 6 4 3
12.457619558713688 5 3 4
12.388841146796215 8 6 4
14.138455793883518 6 6 5
13.79912890370611 77 66 62
13.79912890370611 77 66 62
23.014724469142184 21 22 17
16.08823142875993 56 46 31
16.08823142875993 56 46 31
16.499306854201272 62 60 47
16.7099333848448 29 26 16
16.202751574569547 9 3 1
12.80437420095497 62 59 43
16.202751574569547 9 3 1
16.647470147026464 54 44 30
15.408295634876547 27 32 27
13.483570882125436 13 16 13
15.653431924783115 67 70 63
13.614254839756578 65 67 56
12.960034898269589 67 67 54
13.647676376177728 59 59 43
13.503432226611618 64 65 53
13.474656037544884 63 58 43
13.503432226611618 64 65 53
13.962513584867683 62 63 49
13.151720705197016 68 71 58
12.960034898269589 67 67 54
17.119037609710208 57 62 57
18.01008793788439 72 79 73
17.36866582071271 65 72 64
17.119037609710208 57 62 57
17.446467821029625 50 57 50
17.146400849621315 79 80 72
17.446467821029625 50 57 50
15.939784439923454 57 48 30
14.962794238711815 54 44 26
17.097403315263392 55 41 26
13.123966048311921 115 105 89
11.550857925200374 107 93 78
12.450731045217166 86 74 61
12.704794879173761 75 66 53
13.362094021074785 93 83 68
11.061623121425402 53 47 30
20.1492814438219 113 114 104
15.207944428314926 37 31 14
16.059302081034556 65 59 42
14.952880843687396 61 52 34
14.037364691687882 51 41 25
13.869009565758539 29 19 3
16.87373151892045 68 59 41
22.409842495719733 68 57 39
13.299985416958291 69 68 54
13.560195173173287 62 60 45
13.899717619279556 69 67 52
13.681599979381696 67 66 51
14.839755215840675 69 65 50
14.839755215840675 69 65 50
21.94048483178725 67 57 39
21.94048483178725 67 57 39
13.292751172300996 64 56 45
12.830593446336785 42 32 18
13.41364778995023 81 66 51
13.356277997178369 69 60 52
12.369932802837925 50 43 31
12.711391030191784 73 55 41
12.020179091633462 83 73 62
11.591430218251647 77 60 49
11.950008753677066 85 68 60
12.103312414729743 89 72 60
12.304728640172078 64 55 43
12.737897416614882 62 56 40
12.737897416614882 62 56 40
14.774895853556064 14 4 2
14.311449044346526 58 42 36
14.754268662814392 28 23 19
14.084784659810802 15 15 17
11.45352881027276 70 73 63
15.64297635559957 70 71 63
11.112150471995156 70 75 64
11.876826976744958 16 22 20
11.973695033503134 69 74 62
12.675614052305074 68 73 60
15.846099157081786 59 60 53
15.44311350690484 56 58 51
12.703210493412447 1 4 1
11.985396163557924 20 24 23
14.725841697199913 49 53 55
12.436510474829262 4 4 4
14.70568875918308 49 59 66
15.09506981261573 44 52 57
15.498872634390805 42 34 29
21.925846147886343 6 3 7
15.453582905552091 57 55 48
14.899697365346523 49 34 23
14.986997207173808 29 12 3
15.549196802984042 11 11 11
15.468290171790633 72 79 82
14.898346081946464 57 68 72
15.468290171790633 72 79 82
15.039071462432448 10 12 14
15.657854818237643 8 9 11
21.771658982007793 73 52 47
23.937735767743664 10 11 3
21.97772130042125 2 2 0
21.97772130042125 2 2 0
23.54271549225793 63 61 43
23.506286664797383 57 55 39
22.63030127606453 44 34 16
23.183654548809265 5 8 4
23.432344248433317 11 14 10
22.010943304821307 38 40 36
16.63442280409902 73 57 56
16.217616773630088 70 55 52
12.020570032960253 4 4 5
14.138455793883518 6 6 5
15.653096343456612 50 53 47
15.621289257954254 61 64 57
15.74846570921728 22 25 19
16.877091881542103 65 62 49
17.083061126006434 67 62 50
16.019465531137858 61 61 51
16.202751574569547 9 3 1
13.610797828405852 60 59 43
15.424997917814414 60 59 46
14.687328085457835 59 62 54
13.962513584867683 62 63 49
13.647676376177728 59 59 43
13.215718660107006 65 67 54
13.151720705197016 68 71 58
17.551829010841427 50 54 48
18.01008793788439 72 79 73
15.039189372527344 30 34 29
13.757337075612485 66 67 54
15.981396203869668 62 56 37
11.761506208571896 110 95 80
12.681016332556604 87 68 60
11.120065598480092 47 41 24
20.26553043605544 125 126 117
15.207944428314926 37 31 14
15.217691665927163 55 46 28
22.873703102604708 71 59 41
22.28858983782002 66 57 39
11.833025415753484 96 81 67
13.4394442657266 37 29 16
12.401069479790786 85 70 57
11.92053111430048 78 64 56
14.801328996599779 34 32 29
15.017181989350428 53 37 31
14.095875166787232 25 17 11
11.45352881027276 70 73 63
11.361261939786111 70 74 62
13.048947941070688 70 70 57
15.760905537352007 65 66 58
12.416546785869128 3 3 2
12.33596774068763 8 8 6
14.647656733637556 41 52 57
14.204649070086889 9 10 12
13.963931377145068 15 15 11
13.333365595429486 7 10 7
14.986997207173808 29 12 3
15.217245701611994 55 61 67
24.830634039893717 68 49 35
23.54271549225793 63 61 43
22.9266076266837 4 1 0
22.60831238258597 30 23 6
24.085627026364758 50 43 27
12.028970295282337 7 3 3
16.198826812686363 75 64 61
15.985443738925678 54 50 38
15.80621534234179 62 53 37
13.403748455049534 67 71 58
12.85938982773789 67 72 60
17.747910951409 86 90 81
13.104715875965104 64 67 57
14.70579303851647 58 49 31
11.617128636722443 61 55 40
16.941646356748315 65 55 39
21.327991945232153 58 61 56
14.7084642450807 49 39 25
15.329220718294879 36 27 9
13.44892710186987 62 57 42
13.571327313592986 58 53 38
22.6715464456107 71 58 40
22.203462912175233 71 59 41
16.33759291203412 63 55 39
12.7351128623877 81 62 48
13.278237472675848 44 37 25
12.094303496323178 71 53 41
14.774895853556064 14 4 2
14.862928755543084 44 32 27
11.609316988794369 69 75 64
11.70780965214346 70 75 63
12.035882294275849 16 19 18
12.855729828587359 66 67 54
15.870789641410653 5 1 0
12.738334959589823 24 25 27
14.472716310351453 66 68 70
15.13998642657109 69 48 39
15.217245701611994 55 61 67
22.69637158010737 36 31 11
23.21319849909593 63 61 41
23.14883028120117 68 70 51
16.570307936836173 73 65 63
16.253737901173086 78 72 71
12.054261904973949 88 79 76
16.848647541248884 73 67 64
12.85938982773789 67 72 60
13.58571338845653 64 61 47
14.164956485623804 25 16 0
13.645398380134173 71 68 55
13.681599979381696 67 66 51
12.617203278639199 100 81 69
12.698790632944002 65 60 45
12.755496844196951 62 53 41
15.815198686075268 41 35 29
22.77799975322271 20 22 28
15.215319245993712 63 63 56
15.82906547462883 57 62 65
13.757337075612485 66 67 54
16.24821615161195 68 71 61
16.45287948197027 67 68 60
17.512617657981046 78 80 73
14.037364691687882 51 41 25
12.648085928384702 7 7 5
13.502847146349358 80 66 61
14.230426414711534 18 13 10
14.944295331060014 64 67 58
13.560195173173287 62 60 45
15.335466226737266 61 52 34
17.36866582071271 65 72 64
13.869009565758539 29 19 3
23.14860335963213 65 63 42
17.795387192605173 87 92 84
15.74846570921728 22 25 19
14.166076549904552 12 12 13
