9.047871707461788 29 39 11
9.346220017178757 31 41 13
11.144592467948996 10 18 0
10.510999796158337 14 25 2
10.392081998591673 12 22 1
10.714464535053912 9 18 0
10.60042716912699 12 22 1
10.036515490167774 39 53 22
9.873146357134727 39 53 23
9.456424516960817 25 36 12
9.533163692769584 34 47 18
9.487980482760289 33 44 19
9.456424516960817 25 36 12
9.702259231133498 37 50 21
10.992498030109651 33 42 12
9.977218173674569 32 42 12
9.388433920594245 33 43 18
9.951753137126204 33 43 14
9.325482377409609 35 48 18
9.202494907616087 31 41 13
8.394152216331916 29 39 11
8.841592543174867 29 39 11
9.93517267379452 32 42 12
8.942176683891864 35 49 16
9.357479926114706 35 49 18
9.506146042172645 32 43 14
9.39440003556585 32 42 14
9.945117987036468 32 43 14
9.776954328594705 33 48 12
9.278116278968687 31 42 15
9.357479926114706 35 49 18
9.663000162626835 32 42 12
9.695245562386537 31 41 12
9.715617219245605 29 42 14
8.287297437904684 41 58 27
9.222043227592753 34 48 18
9.076963484165667 37 54 23
8.618538480856365 35 50 21
9.246914315878017 35 50 16
8.618538480856365 35 50 21
9.546294383826496 36 51 17
9.303780567178151 34 49 16
9.38176839355803 36 53 21
9.600012477278465 33 47 16
9.222043227592753 34 48 18
9.520818662976927 34 48 16
10.498875882418451 32 41 9
10.19631146242553 38 51 20
8.505229081735587 44 59 31
8.505229081735587 44 59 31
8.620470773514269 45 58 29
8.939374870689456 41 54 23
9.612396762935957 43 53 23
9.157514876790424 47 60 32
8.037446677175426 45 58 30
8.666758500939835 47 61 35
9.172826152464674 40 50 20
10.137645655210788 46 56 28
8.802635447189973 50 60 34
8.982549986475235 47 57 29
9.3960689110514 43 52 20
9.019308448737261 48 57 29
8.691302271593226 43 57 25
8.986932401848222 40 55 21
7.9657441589040285 41 58 29
9.078798208126928 43 57 30
8.88968960937484 40 51 14
10.946123463562362 32 47 11
9.694788766225201 34 49 11
10.649766457591964 33 46 13
10.397162582579988 34 50 15
10.536481021809477 31 44 11
10.193295544162272 33 48 10
10.074878697648861 32 47 10
10.12851115505082 34 51 17
11.177288452565916 33 43 13
13.191328179779232 41 58 26
12.466488284612277 41 58 28
9.88149231077229 37 54 21
9.953516296634893 36 52 18
9.142841239339974 48 67 39
13.057445676548886 43 59 31
8.760080765101447 47 63 38
9.25619798291197 44 61 33
9.660749716046864 31 41 13
9.375827992180144 27 37 9
9.51221404310258 25 35 7
9.973181816646374 32 44 14
9.013336477361525 31 41 13
9.013336477361525 31 41 13
9.527656035886354 29 42 15
9.091983776453116 30 40 12
9.409057599515391 28 37 9
9.48442404409193 27 37 9
9.643358845701663 28 38 10
8.808642280353713 31 41 13
17.0236405714849 26 36 10
8.417950148893114 28 39 11
9.239807277991474 31 42 15
9.438538329794483 31 42 14
9.306226078613788 29 39 12
8.948392694878049 35 49 18
8.991524509367638 40 55 22
8.633766975578895 32 42 14
8.50306111740781 32 45 16
8.967391421882262 35 45 17
8.865104686228875 33 43 15
8.755226595324176 32 42 14
8.95821991281172 39 53 21
8.235229802581953 42 58 29
8.655138626286325 39 54 18
8.565270706674092 32 45 16
8.554992115370984 33 46 17
8.510212942859964 45 61 36
7.924046112946911 45 61 33
8.019455329755646 45 61 36
9.085604257745445 49 62 35
8.4719787268117 49 62 36
9.951580436179455 50 60 32
10.163443340393412 49 58 30
9.87276823985739 51 58 28
9.408602412291375 48 58 30
9.852484937295626 49 56 26
9.242129882500551 47 59 35
8.916424167573993 53 65 41
8.414119813464374 47 61 36
9.69475984155797 53 66 39
9.231427248646154 45 60 35
9.69475984155797 53 66 39
9.128343100012618 50 64 39
18.52051309265605 25 32 4
18.018690950638426 23 32 4
14.870137839664471 47 54 24
18.984229074989287 23 31 8
18.349376800055257 23 31 8
11.168770445336545 45 62 32
9.363963626545232 29 42 11
10.61941778476042 35 49 18
9.786425895735572 33 43 15
11.502522730745275 31 45 14
9.210643067938335 36 47 19
10.99062225812075 34 49 15
11.158214233885039 35 48 17
12.762258316650366 45 61 34
12.829154477575162 45 62 32
12.97301706921186 44 61 32
13.183831894736626 44 61 32
12.97301706921186 44 61 32
12.97301706921186 44 61 32
9.134101097710616 45 63 37
10.784529536019964 49 69 44
10.955274737854015 49 69 44
8.885159222760768 43 62 36
10.990533461241746 48 68 43
11.158126770710659 49 68 43
12.836857883744361 45 61 34
10.265544815602672 44 60 32
9.57714923412221 39 53 22
10.473356034528035 45 61 34
9.243663883916456 41 58 27
8.809638295967243 35 49 18
8.824628278049966 45 61 35
8.825860172196954 46 61 36
8.654626932859905 44 61 32
9.123271734703255 44 62 36
10.954495099767161 45 61 34
9.123271734703255 44 62 36
9.075230724072345 45 61 35
9.942856694266634 44 60 34
9.763421744383319 47 63 37
9.227085579390709 46 65 40
9.345666688350095 46 65 41
9.512568261676826 47 64 40
9.497416606721886 47 64 40
9.028443730339825 48 64 40
9.48248655746929 49 65 40
9.426698405888128 48 64 39
9.07145188021732 47 66 41
9.789138588207042 47 65 42
9.227085579390709 46 65 40
8.427754608584955 46 64 38
10.283072455644577 48 67 41
9.411408507983765 49 64 39
8.863268494923844 46 60 33
9.705956111790861 46 62 36
9.304798329169898 48 64 39
9.107851549571691 52 66 41
9.304798329169898 48 64 39
8.874415143043091 45 61 36
19.15817868668708 24 32 10
10.145441922252571 32 42 14
9.612381587997609 30 40 11
9.66743126761262 32 42 14
9.93517267379452 32 42 12
9.854203726678794 38 52 21
9.520818662976927 34 48 16
8.826410235395214 36 52 18
9.922321691328223 32 43 18
9.779983933459585 33 47 18
9.174371741822526 31 43 13
10.441449677447956 6 16 0
9.488447235163909 35 44 18
10.036515490167774 39 53 22
10.98830032673289 9 19 0
9.643185518653274 31 45 12
9.612381587997609 30 40 11
9.961681897162958 32 42 12
9.212978150429384 31 44 13
10.086656846797172 30 40 10
8.332267076212007 41 54 18
8.640190590983192 37 50 17
8.527168910917228 44 58 31
9.612396762935957 43 53 23
9.28723856537641 38 51 18
9.612396762935957 43 53 23
9.27493847017807 45 56 27
8.779880268991477 48 58 30
8.779880268991477 48 58 30
8.669777809937752 42 57 27
8.527168910917228 44 58 31
8.817483664388778 49 58 30
9.953516296634893 36 52 18
13.191328179779232 41 58 26
10.108741016550443 34 50 14
9.189721556155865 46 62 36
9.877157238637235 40 57 25
9.933397877316544 34 50 17
9.274600319465186 26 36 10
9.529868710660338 28 38 10
9.372419052799236 29 39 11
9.286449091482599 35 45 17
8.513402407435125 31 44 15
8.019024775539824 43 60 33
9.311398479534219 34 44 16
8.294538208565836 37 52 17
8.510212942859964 45 61 36
8.569000753663397 32 45 16
9.438538329794483 31 42 14
9.626020219968225 49 62 35
9.049115100076085 50 62 38
8.330710392579824 48 63 38
9.536681708364902 49 63 38
9.87276823985739 51 58 28
10.078869642217414 51 60 32
9.209225379151043 47 56 28
10.143741284905072 48 57 29
9.535297196777595 49 59 31
9.86519061697108 50 62 34
9.242129882500551 47 59 35
18.16665257192849 24 30 5
18.73395997396289 24 32 9
9.94726124477665 36 50 19
9.786425895735572 33 43 15
9.801130778851407 34 44 16
10.912461241723786 37 50 19
13.042294896225101 45 62 31
12.829154477575162 45 62 32
13.183831894736626 44 61 32
12.97301706921186 44 61 32
10.990533461241746 48 68 43
10.912371808827771 48 68 43
10.160513717487916 35 49 18
10.230478166965602 45 61 34
9.461612963795334 46 62 37
9.038699688628311 45 61 34
8.567967047659844 45 61 35
9.038699688628311 45 61 34
10.254190946834733 46 62 36
9.32969864800022 45 61 36
9.705956111790861 46 62 36
9.54728629334003 49 64 39
9.632081169948988 48 64 40
9.497416606721886 47 64 40
9.587121020943258 48 64 40
9.789138588207042 47 65 42
10.140989832572474 32 42 14
9.601848896589592 31 42 14
8.87644970532569 39 57 27
9.65719998736959 32 42 14
9.765600772227367 31 44 15
9.513544139311474 36 47 21
9.63463313513883 15 25 4
8.190200980598775 42 59 29
9.248341999568186 35 52 18
10.011410822279373 15 25 3
9.771675019657645 31 41 13
9.513544139311474 36 47 21
9.28723856537641 38 51 18
9.624265586148763 40 51 16
8.715803682408653 47 63 38
9.90171619297137 39 58 26
9.817791121226096 35 50 12
8.898957953012033 46 62 34
10.377904243646777 35 50 14
10.527094404677312 32 42 12
8.959022028825864 29 39 11
9.036375958364594 29 40 12
8.749406176673459 29 39 11
9.958730984239974 30 43 14
9.452634288969973 33 43 15
8.99734414828683 31 41 13
8.798648000612676 31 41 13
9.637546849696633 27 37 9
8.77564344703624 34 47 18
7.954637342424643 45 62 32
9.251645094228335 47 59 35
9.466503075738823 51 63 39
8.840142049201615 47 60 33
9.887344711769757 49 59 30
18.992789008626225 23 29 6
9.363963626545232 29 42 11
11.168770445336545 45 62 32
10.784529536019964 49 69 44
12.836857883744361 45 61 34
9.853597192382196 43 59 29
11.35911378550491 45 61 33
9.44054969037212 34 47 18
9.89999091838332 39 53 22
10.733379625103982 44 60 32
9.837865691545314 41 55 24
9.365886802360087 46 62 37
8.874415143043091 45 61 36
9.304798329169898 48 64 39
9.705956111790861 46 62 36
9.36106396630005 48 65 41
9.50192492986156 49 63 38
9.803839402527396 47 65 42
9.749373146129196 33 43 18
8.841592543174867 29 39 11
9.490763109087398 33 49 15
9.958028785323936 33 45 18
10.368684575010736 9 18 0
9.152795497618518 31 41 11
10.124489048726197 30 43 15
9.158554048958948 36 50 20
8.875072160462372 32 43 15
8.481676040412129 43 57 29
10.54846919630234 37 54 22
10.734049090780605 32 45 14
10.649766457591964 33 46 13
9.296110555961778 40 58 26
8.760080765101447 47 63 38
9.290115382343124 25 35 8
9.393738988260944 27 37 9
9.572895472762431 33 43 15
9.46668462596722 29 39 11
8.294538208565836 37 52 17
9.251645094228335 47 59 35
8.759766012723123 46 60 34
8.782307899042543 50 64 39
9.369666625207225 52 65 38
10.227787110628318 41 55 24
9.283525220011903 45 59 33
10.99062225812075 34 49 15
10.954495099767161 45 61 34
9.185943404384766 46 61 34
9.426698405888128 48 64 39
9.023698854728284 47 64 40
8.930393154156903 30 40 12
9.70740782192396 48 58 30
9.562538659946664 30 40 12
8.109377516115778 45 62 33
9.60134325855616 39 53 22
9.159572022600031 35 49 18
12.762258316650366 45 61 34
9.075230724072345 45 61 35
12.332060356107814 42 59 27
11.113739894447558 45 61 34
9.107851549571691 52 66 41
9.48248655746929 49 65 40
8.795721394500667 34 48 15
8.640190590983192 37 50 17
9.075534535694734 49 65 40
10.620002539357127 37 52 22
9.720503937900395 28 41 13
8.235229802581953 42 58 29
8.68264451629638 46 62 35
9.831580419261744 36 46 18
8.493388220222917 34 48 17
10.076897509157929 46 65 40
