13.483756911621084 4 4 4
13.178909830131024 3 3 3
12.637694413997488 3 3 1
13.018117794149989 2 2 0
12.912608575419478 3 3 0
12.653514239130656 3 3 1
10.4132953544018 7 10 2
11.869859018545611 11 11 9
12.816947603567643 11 11 7
12.49025863953667 11 11 9
12.714804415845162 10 10 11
12.049809361268155 9 11 7
13.26778868814919 11 11 9
10.61507705151799 11 16 0
9.986413032140087 14 19 8
10.81705401904054 12 17 6
10.876597940593943 15 21 7
10.769010442940202 10 18 0
11.02510495971884 37 42 25
12.19196062096233 32 42 21
11.647662593993248 35 45 24
11.857141463009404 37 46 28
11.857141463009404 37 46 28
11.693771168156243 33 42 22
11.39331351067907 35 45 24
11.28948887340392 31 41 20
10.999282400794197 28 36 18
11.303469567067252 34 44 23
9.966168916978365 25 32 14
10.792437127133253 32 42 19
11.303469567067252 34 44 23
11.490051569210076 11 15 8
11.15018473614076 20 30 7
11.307443298985692 21 31 7
11.081288974679634 17 26 4
11.871039658732359 23 31 8
12.143552375691895 34 44 21
12.282425239413003 38 47 27
12.579748615229434 41 50 30
12.920790896989553 37 47 26
11.82937910422446 36 45 23
11.259752827219776 27 35 12
12.920790896989553 37 47 26
12.070924256349063 32 42 19
12.34874177087329 37 46 27
12.552080781413526 41 46 29
10.892313109756394 30 40 15
12.7833948188272 37 47 24
12.410603435507106 35 47 24
12.134202351709245 32 40 18
13.39084772312463 37 47 26
12.770528033438586 41 49 29
12.168556152665566 33 41 17
12.191430275928393 35 43 22
11.942761542905323 40 48 28
11.884336237674406 36 45 21
12.166415196404225 41 49 29
13.390406716046675 19 29 16
12.503874216891546 9 9 7
12.124481234761122 3 3 0
12.559417816620421 7 7 3
11.745401686329892 4 5 0
12.013426909646766 1 1 0
12.50691034842463 1 1 0
12.545862518899119 9 9 7
11.364233609602818 34 39 26
11.715211730213515 27 34 21
11.715211730213515 27 34 21
11.307257864890808 3 6 1
11.671420040565714 8 13 5
11.854868662040232 32 37 21
12.234658793083 2 2 0
11.438993170410113 21 25 12
12.33105190660339 2 2 0
11.455065695703066 19 22 12
12.491084233663942 0 0 0
11.52728157648404 25 32 17
11.424108508035294 27 32 19
11.40799236777359 35 39 21
12.161511446525127 28 33 16
12.392015619528443 30 38 20
11.97754861248874 30 38 18
12.34444938159812 31 43 19
12.761417484947673 31 39 19
10.704068361759948 32 40 20
10.801734112786535 30 36 16
11.182371178936974 30 35 21
10.704068361759948 32 40 20
10.300909367766533 30 40 17
12.456452886402083 2 2 0
12.700049395656695 1 1 0
13.322127598175127 1 1 0
12.376042581681505 29 35 16
11.510108575183175 23 27 12
11.479299827210564 33 37 18
11.875958649415574 33 37 21
12.588016328797998 29 37 18
12.32729303671069 29 35 21
12.581830676108332 18 21 11
12.581830676108332 18 21 11
12.65760697851009 1 1 0
12.609945997178949 3 5 0
12.222058066952282 7 9 2
13.57156433988242 2 2 0
12.601526282296515 30 35 18
11.712850818738108 1 1 0
12.442914467047864 29 37 17
12.810848744121534 31 39 19
13.258112082624566 32 44 20
13.894936527596187 36 46 23
13.66019455994814 35 45 22
13.894936527596187 36 46 23
13.136714186765943 35 45 22
13.319518409283855 32 44 20
12.732263207036452 42 52 31
12.208431465659665 43 51 32
11.732591077469277 43 51 33
11.595232512565403 41 49 27
11.732591077469277 43 51 33
12.14386911741341 41 50 30
11.88465988784685 41 48 28
12.674274973756612 41 49 29
12.506351571074672 38 48 25
12.615259026262198 38 46 25
11.702067644681911 46 54 34
10.801958844523563 44 54 32
9.099210231616782 33 49 26
9.099210231616782 33 49 26
10.801958844523563 44 54 32
12.537021075909733 38 51 32
12.319629835715846 41 50 31
12.715065825191548 39 50 29
12.088889305028978 41 49 29
11.717029935784 38 50 31
11.996367289232719 39 50 29
12.751395124118243 46 54 34
12.608173656464698 44 54 33
12.562342448288325 39 48 26
11.844019312647067 40 50 29
11.590599869267168 45 55 34
12.102480798184365 45 55 34
12.608173656464698 44 54 33
12.049415345399641 42 50 30
12.301075006149567 41 50 29
12.19580364143746 42 50 31
12.343810640167616 44 52 32
11.757619868806358 47 53 33
11.044706999165692 44 53 32
17.507248399961934 37 53 29
13.160336600658878 45 53 33
13.242018260110283 2 2 0
9.11086715123863 31 47 21
9.143537722280929 31 45 18
10.406778764830907 28 40 16
9.402739941967123 32 46 23
9.169035329135728 34 49 26
9.950200065596368 33 44 24
9.950200065596368 33 44 24
10.60916013347973 40 52 31
10.60916013347973 40 52 31
11.20272573637407 41 51 30
11.222377369517066 39 47 27
10.497515234843872 41 49 29
11.54942296680507 41 50 31
13.178909830131024 3 3 3
12.754888473882081 10 10 9
12.727269403093386 2 2 1
12.737325415519832 3 3 0
12.926849019083521 2 2 0
12.809343677244641 6 6 4
10.995683963642103 11 12 5
9.809170013568037 17 22 9
12.24361795109658 13 11 11
12.867115430843489 10 10 7
10.81705401904054 12 17 6
9.5530152076822 17 22 9
10.938615987542619 42 47 36
11.516474269606547 9 12 5
11.5412173627057 36 45 27
10.662667969224666 9 14 4
10.382334447128724 7 12 2
10.679303439449642 33 43 22
11.177881947552239 38 45 27
12.146130867663034 33 43 22
11.052639228357165 6 9 1
10.914383270782352 23 32 12
11.350976366961048 32 44 21
10.634124020460122 37 47 24
11.081288974679634 17 26 4
11.070393725564259 26 34 11
13.258323741491683 35 47 24
11.011375001350817 27 35 12
11.59321162067493 35 43 22
11.738597068745037 39 44 27
12.128450761045842 34 44 23
11.971896902832883 40 47 27
11.589378242157505 27 35 12
11.399436021213283 27 37 14
11.399436021213283 27 37 14
11.492835661781758 28 34 9
12.166415196404225 41 49 29
11.290587983330177 33 42 16
12.18961851868482 10 10 8
11.40799236777359 35 39 21
12.75894869508123 4 4 0
11.557962425663838 13 16 9
12.50691034842463 1 1 0
11.567280592855681 28 36 20
11.98391218358664 18 21 11
11.307257864890808 3 6 1
11.745401686329892 4 5 0
11.671420040565714 8 13 5
11.424108508035294 27 32 19
11.316782462517057 32 38 18
10.45396357286264 37 42 29
11.129636319472507 31 41 18
11.97754861248874 30 38 18
12.078872016522185 0 0 0
12.456452886402083 2 2 0
12.19304836792033 26 30 17
12.541193504379331 34 44 20
9.124909453219221 32 46 20
12.951829222336755 32 40 20
12.997739225148408 36 46 23
12.513147967779496 41 49 31
12.160678841338706 41 51 30
11.890529403643413 38 46 26
12.688782898709281 41 48 28
12.240977186526043 40 49 29
9.182988682823776 35 51 29
11.590599869267168 45 55 34
11.641185807602662 41 50 32
11.318727350651434 46 53 33
11.937722143249438 41 49 29
11.901480712419561 42 51 33
12.706080530513049 40 50 27
12.102480798184365 45 55 34
12.5714304786344 39 49 27
12.343810640167616 44 52 32
10.091218884250084 31 44 17
9.11086715123863 31 47 21
10.603124190390794 38 50 29
10.321731233427073 36 46 26
9.359640120039293 35 48 25
12.203312057629045 38 51 31
11.296080925459236 42 50 30
11.858430457800827 27 36 19
11.049250338711927 43 51 30
10.947945768793998 42 51 30
12.218767777194707 10 10 8
10.662667969224666 9 14 4
11.11719874212131 16 23 5
11.501127703095563 34 44 23
12.24361795109658 13 11 11
11.960775449949171 35 45 24
11.54945575641928 22 32 8
12.276743090602526 40 48 28
11.476314456322248 36 44 21
11.143345062892067 31 40 17
12.410603435507106 35 47 24
12.166415196404225 41 49 29
12.166415196404225 41 49 29
11.942761542905323 40 48 28
12.176630322225671 29 34 19
12.377159842809373 29 37 17
11.786870689577778 4 4 2
11.364233609602818 34 39 26
12.600123650697077 3 4 0
11.52728157648404 25 32 17
12.505804679134881 1 1 0
12.746992228951276 31 39 19
12.759124310507003 3 3 1
12.900794522169008 27 32 19
12.809769309160142 29 37 20
12.900794522169008 27 32 19
11.510108575183175 23 27 12
11.666817649741564 20 23 10
12.228425709132706 29 35 15
12.955579843536272 0 0 0
12.951829222336755 32 40 20
13.319518409283855 32 44 20
11.405325584141377 42 49 28
11.234499062641415 46 55 33
11.891880703110992 40 52 33
12.208431465659665 43 51 32
12.228853699263427 39 51 31
12.372001588331472 45 53 33
12.608173656464698 44 54 33
12.521054067430022 38 47 25
13.063030762866076 1 1 1
9.427611792312723 30 45 21
13.063030762866076 1 1 1
11.630182058987693 42 51 31
11.711564984027248 39 50 30
10.603124190390794 38 50 29
12.593943944651787 3 3 0
11.419960038985465 28 38 17
11.062383052173624 34 44 23
11.960775449949171 35 45 24
11.768177616843893 40 48 28
10.728971552355844 30 40 16
11.64297383155171 1 1 0
11.905740998868458 15 18 7
12.286209549848774 2 2 1
11.98391218358664 18 21 11
11.636423814162688 35 39 20
12.809769309160142 29 37 20
12.433140382164567 3 3 1
12.69937854159723 45 53 33
11.867518982946908 45 53 33
11.983868573627626 38 47 27
12.128709403752865 43 51 31
11.960784841513835 41 49 29
9.483837447255933 32 46 22
11.837375468554118 37 46 28
12.191430275928393 35 43 22
12.49025863953667 11 11 9
13.063030762866076 1 1 1
12.934640837640991 39 51 31
11.866650005820418 43 50 29
12.290193705423833 38 51 32
11.6691878746569 30 35 18
12.772277845123782 5 5 1
10.849826040571513 26 36 12
9.0851282080788 32 47 24
11.134145003269339 32 40 18
12.538046565196742 22 31 14
12.168556152665566 33 41 17
