17.870178470511647 50 34 14
17.99487807356602 50 34 16
20.68163887847755 45 22 0
19.313001413966056 55 27 6
20.68163887847755 45 22 0
20.7269898646865 51 28 6
20.7269898646865 51 28 6
19.827651160342914 68 38 16
19.838954411710763 62 36 14
14.899296676772902 46 32 18
18.537006080931246 46 21 4
18.365574063440786 45 20 1
19.464521523466598 84 51 35
18.82538817190565 77 49 34
18.400483598734176 33 14 0
18.690972207077102 54 32 16
17.224644072055842 47 26 8
17.600898845843872 49 33 15
16.505261690328023 45 48 26
16.36597630402423 51 53 32
16.451255953975217 49 53 30
16.774886550143712 47 52 29
16.456803435283696 43 48 23
16.981696549340263 41 47 22
17.070820308631696 45 45 22
16.655475447728666 46 46 22
16.691501439671928 46 47 23
16.517700291725394 45 47 23
17.070820308631696 45 45 22
17.145942536711697 44 46 21
16.888726865839253 39 48 22
17.08324140098075 53 55 34
16.494403274470944 51 53 32
19.808495631401758 27 35 8
19.196316756820817 36 45 19
19.850698108996305 44 52 28
19.850698108996305 44 52 28
19.86712820072432 28 34 7
19.95208270070926 34 41 7
16.1900904498064 49 51 29
16.42835433499708 48 54 29
16.707418407678365 49 54 29
15.747663550643805 54 56 34
17.27381930964436 52 53 30
16.754029719898423 49 51 29
16.080280905702566 35 33 13
16.30640578962505 46 48 27
10.232282550818333 36 37 15
15.967531512674654 53 55 34
11.309932341628523 32 36 14
11.460195743960384 38 38 16
11.758607487191966 35 37 15
9.808332444536818 10 16 0
10.484398561286895 31 36 9
10.347101353388737 17 19 0
11.32611748470087 47 54 47
10.812950538821356 3 10 5
9.721402800338415 30 32 7
10.95685788264828 24 28 13
10.37248378960808 60 67 63
11.8056690958515 33 42 15
10.984778213873941 32 38 15
11.158820630254048 43 48 21
11.158820630254048 43 48 21
11.538663896743067 30 36 11
10.667505785371358 28 33 11
10.647388073802665 34 36 14
10.668630482953773 30 34 12
11.277799338690153 32 37 12
10.947313509838365 29 34 10
11.205491291785082 30 34 12
11.437221637411936 30 34 13
11.574064166412688 35 40 15
10.747792410002768 30 34 12
10.681664979992837 31 39 14
11.234769449959463 34 43 17
10.022179082061625 35 35 11
10.713092798891768 45 48 24
10.04639424466503 42 47 20
9.793428217070936 45 47 21
17.58747514190308 43 28 10
9.929362640535972 49 54 26
10.070495580033432 53 54 29
10.195475395363635 48 51 28
10.71218010447699 49 54 27
10.888904708297911 50 55 28
10.679859790150763 52 58 29
10.344279663969724 46 51 24
14.712887029412125 44 43 13
14.953861283467825 42 43 12
9.829581940353092 49 58 30
10.547587381963995 56 65 37
11.18775535429482 53 63 40
10.618620927714538 53 63 39
10.450431361426533 55 65 41
10.464996432545238 55 65 41
11.536090939796297 53 63 39
10.282877192035853 55 65 37
10.219497261497525 53 61 33
19.220579828324954 32 39 5
10.906586098868729 54 64 40
10.502430804462865 50 60 34
11.752040347891525 41 51 22
11.656270598695773 38 48 20
11.738150134229725 37 46 18
11.874743079126977 34 43 15
11.514562878479712 32 40 12
11.359292226901866 30 37 11
20.420970112037626 61 35 13
19.46458182871951 48 23 4
18.968569233770804 72 53 36
15.170127500548203 60 49 40
18.495106273232714 61 34 18
18.379421951977765 34 14 1
18.30870599265103 30 15 0
18.15243791310715 39 20 4
18.054344734797215 39 18 2
19.25066062844408 55 33 14
16.40263815075369 51 53 32
16.32947843878992 48 48 25
16.27513651861636 46 44 23
16.614082497334692 40 47 22
19.094414318754524 28 34 8
16.533784577825035 49 51 29
16.080280905702566 35 33 13
16.258511240882655 48 54 29
15.09299310933507 38 32 13
11.051822120759539 32 36 12
10.174697709649413 30 35 10
10.699882748071872 31 34 23
10.38232275945505 11 16 4
10.000639223494339 4 10 2
9.837368794814031 12 17 2
10.678800568386533 46 50 47
11.5392228422779 73 79 69
10.49261230320516 31 37 11
11.415604731999913 28 32 10
11.645114033903063 33 38 13
11.508073757878533 33 38 13
11.377407403064165 32 38 14
11.589186416391374 35 40 15
11.589186416391374 35 40 15
10.720005185654765 33 35 13
10.569633544252486 36 38 14
11.404997590702346 32 40 13
10.613622644447995 55 63 40
9.994360386840277 50 52 26
9.771738398571163 28 30 5
10.02467761572478 49 54 26
10.913344265457074 48 53 26
10.339537737169858 48 53 26
10.316670117038264 53 58 31
10.542233407064165 50 56 29
14.712887029412125 44 43 13
9.847383489422345 50 56 29
10.83658962205741 54 64 41
10.663018390392857 52 61 33
10.791594846587769 55 63 40
10.458837549214492 61 71 44
19.916166697664124 34 40 6
12.080061899432058 38 47 18
11.926128046747086 38 48 19
11.661405339389127 41 52 24
19.059036651319513 29 36 8
19.30762414727728 31 16 1
15.758785547374144 63 52 43
20.7269898646865 51 28 6
18.970733956366452 56 27 9
17.94729612929803 37 17 2
17.83074219156401 44 21 2
18.632558408087487 36 13 0
17.596393949845147 36 15 0
16.36597630402423 51 53 32
16.420262524907677 44 49 25
17.064135002774012 43 47 21
16.548754261976413 38 37 16
16.739280285281524 46 46 22
16.888726865839253 39 48 22
16.87003783904678 45 51 28
16.20301922030791 37 34 14
19.709758505048217 29 35 8
16.640843453750616 49 51 28
15.853087607579482 48 50 28
10.961699659647206 74 79 76
10.767954234466085 43 48 21
11.437221637411936 30 34 13
11.645304754989073 29 33 12
10.624262786314727 32 39 14
10.020981830740665 50 52 28
9.994360386840277 50 52 26
10.486244513133435 52 56 29
11.165407600909626 53 58 31
9.847383489422345 50 56 29
10.5493102957724 53 63 40
10.808184094390311 59 68 42
10.870281591219898 53 63 39
10.352865446277741 54 62 38
19.326892406309664 28 35 1
19.766894748688976 26 33 0
19.95508291928288 40 45 13
11.463766179877622 44 55 29
11.243699703480354 53 63 39
11.310625231327112 32 40 12
11.539204916963165 34 43 15
18.859884402880912 28 37 7
20.374937991701255 65 40 21
17.973275824808358 46 28 11
18.854668297149775 43 19 6
15.708020359398029 52 54 32
16.43297285022738 50 51 29
16.406773650088954 54 56 35
9.981630421926386 14 17 0
10.047588467892071 30 34 9
11.07245128335636 26 32 12
11.885947234136838 42 50 33
10.402739581202127 31 37 11
11.270828982590896 48 53 41
10.274893740129581 47 52 27
11.438859014966427 48 58 31
19.204813479775137 27 33 6
10.986230407667497 28 34 9
11.193718089423328 31 38 11
10.704355391200385 52 59 47
10.183440194498104 28 32 12
11.892837512484633 50 60 34
16.718822649258236 47 40 21
15.986138774888234 36 33 13
19.196316756820817 36 45 19
10.123213284465866 34 35 12
10.414960565603996 35 38 16
10.860674004149676 30 38 13
19.927419741221783 43 46 13
11.46675445110904 55 63 40
20.937634603721655 23 29 2
10.232282550818333 36 37 15
16.49835128149887 47 33 19
10.489127846710813 48 53 26
9.808332444536818 10 16 0
17.260836362371094 50 53 29
