18.235933988400987 48 32 20
16.28183072011561 58 43 28
16.967401094727634 48 40 22
16.6873560200441 53 37 24
18.104563826013965 54 56 34
17.8684965921122 52 56 35
18.074275577867073 51 55 33
17.378044230682963 55 59 37
18.202130339029747 42 37 18
17.6275571563017 33 28 9
18.26620066561742 54 56 35
8.39840617015567 36 43 11
9.383726017384372 32 37 12
8.453757407252912 36 38 14
9.012946121957963 34 41 10
9.317157602011992 37 42 17
8.724073256359189 38 45 15
8.244474173130213 39 46 14
8.355614841721769 37 46 11
8.987519977509416 42 48 26
8.90035069983299 29 35 11
8.744877809503954 36 44 21
9.009598187575454 60 68 46
8.355614841721769 37 46 11
8.433049732142747 37 46 11
8.692813444117277 41 49 18
8.746004550263613 47 52 22
8.687363746371522 38 47 17
8.635253593011067 26 34 13
8.902942105352022 42 49 20
8.59462814886149 39 48 18
8.390344383919887 44 52 22
8.295402361658937 38 47 12
8.270134606401419 35 46 11
8.270134606401419 35 46 11
8.065464334305366 32 39 9
7.9895716155811884 37 46 14
7.442615626687561 40 49 19
8.116122201900755 38 47 17
8.034578767881682 40 49 14
7.442615626687561 40 49 19
7.980924433271504 38 47 15
7.901475267548719 38 48 17
7.5569077763948656 40 48 17
7.9895716155811884 37 46 14
7.9102093015668435 39 48 18
7.826520783573207 37 48 12
7.826520783573207 37 48 12
7.818445172751642 41 51 15
8.13757965186178 45 54 20
8.480423052384749 51 60 30
7.766268042171267 50 59 26
8.089416722968732 46 54 22
7.808425438127992 50 58 24
8.922720868907783 52 61 30
7.729249016613606 42 51 18
7.818445172751642 41 51 15
7.8899827968328875 38 49 13
8.24695652103699 50 59 25
8.13757965186178 45 54 20
7.4282850344695746 46 55 22
7.815670274574587 42 51 19
7.486248580150046 42 51 17
7.799067731232193 44 53 17
7.706317491762522 41 51 17
8.961910668185263 36 41 14
8.129053095709077 33 35 12
8.129053095709077 33 35 12
8.9710852451974 38 43 16
9.142000007773445 33 38 13
8.66663320646472 37 39 15
8.799976502214554 38 40 16
8.676120030720103 39 41 17
8.51578272810458 39 46 14
8.65145136820497 39 46 14
8.626837002721178 28 34 7
8.796763877856346 39 45 14
8.787407300830692 37 42 14
9.006791230506431 31 35 13
8.891231603024794 35 40 15
9.401202560711283 29 33 12
8.676709850725913 30 36 11
8.610902344005963 41 48 18
8.610902344005963 41 48 18
7.936161943326755 40 49 20
8.556604635839749 36 45 19
9.202093069482757 34 42 13
8.76061229589761 32 38 11
8.987393035351154 36 45 17
9.144446849841557 41 50 19
9.017953139674761 24 30 7
8.168122424610045 37 46 17
8.975171100951323 41 50 20
8.91951890076171 39 46 16
9.089747368929547 20 26 1
8.088151552847272 29 37 10
9.376755069455179 42 51 21
9.089747368929547 20 26 1
8.932560323021152 43 52 24
9.191511592319404 41 50 19
9.422659539361389 40 49 20
9.064368737157439 54 64 38
9.347090044088217 53 63 39
9.037185387899777 51 61 34
9.479459539455874 55 63 40
9.065387907241796 43 53 26
9.459454863276083 46 56 30
10.428634087890094 42 55 25
10.66998250280546 53 63 37
9.065387907241796 43 53 26
10.495291994658885 53 63 36
10.601130626330251 49 59 31
9.75467852338227 41 51 20
9.00535723752253 55 63 39
9.720658624262402 55 63 40
9.720658624262402 55 63 40
11.407583813033453 39 45 18
12.689982375777461 38 47 19
12.358520350534135 42 51 19
13.636889850873528 51 58 24
14.465987460469098 51 60 30
9.504034745169093 55 63 41
10.276199539606942 58 67 41
10.388904286879791 55 63 40
10.573939081928659 56 66 40
9.894589653987381 56 65 40
10.011591268371152 56 64 41
10.581716087686532 57 66 41
10.011591268371152 56 64 41
10.839998167221344 55 64 38
11.10471092609534 58 68 43
9.478032152360758 56 67 43
10.660378044716454 57 67 43
13.392516937413408 55 65 35
10.049415283029095 42 51 21
11.380729036153722 52 63 37
11.28949531835023 55 65 38
12.139109845066725 53 63 34
11.873733593441022 57 67 43
11.542026076533368 55 65 41
11.01422183650902 56 66 42
11.27298834207087 57 67 43
12.208823054972159 58 68 42
11.717003750574891 53 64 36
9.08977311119834 52 57 30
8.553416934051329 52 59 29
8.40647847673615 51 58 24
9.412009392361595 54 63 37
8.816721056591525 51 57 30
9.25489071332579 53 59 32
9.310243687163013 54 61 35
8.464032932195416 54 60 33
8.761483726646075 54 59 32
10.035870262489457 49 55 30
8.58068157798423 50 55 23
18.608718203005573 45 53 20
9.362864794592808 63 72 46
8.469536475004713 56 65 39
9.5195826129487 49 59 31
8.775343220744807 61 71 47
8.78859858824137 55 66 42
9.486426749095614 51 60 32
9.804533143834956 56 64 41
9.070930011339387 58 70 45
9.19841435111231 54 64 38
8.751164301125002 55 67 44
8.632183256510714 59 70 47
9.19841435111231 54 64 38
8.395722715337183 56 66 42
8.617154020293613 58 68 44
8.954722472425468 59 69 45
9.692999435406737 58 68 43
9.116078512312015 54 62 35
8.98742633563722 62 71 46
8.61165644327539 58 68 44
9.161212266596607 57 68 44
8.446960226909653 54 64 40
9.134870211855745 54 64 41
9.788604092603107 53 63 39
9.286578600233431 54 64 41
9.471277535368234 55 63 40
9.534887825012238 54 63 37
9.237137501078914 54 64 40
8.744239935618968 57 65 42
8.730917222623704 57 67 43
8.409576470678838 56 66 42
10.001202377434682 56 66 40
9.884077786534958 57 67 43
9.664274217338205 48 58 30
9.450051821839503 42 52 25
9.711131678483026 39 49 18
17.44662605712785 59 46 30
16.702093036730158 46 29 17
16.555074955561814 51 36 21
18.38241907696383 51 55 34
17.102294645791286 53 57 36
17.639304710543865 54 56 34
8.945830655013607 35 37 13
9.516476766877737 39 39 17
8.179495246846576 36 41 14
8.756216419768265 36 43 11
9.476026044962879 35 38 14
8.780381427159448 35 40 14
8.83603665382408 34 43 13
8.51564859430034 31 40 8
8.390344383919887 44 52 22
8.61771298968783 31 38 16
8.703544480633173 29 37 6
7.8711116860397565 37 46 15
8.246789641254157 38 47 16
7.529445913757907 40 50 16
7.901475267548719 38 48 17
7.954331071372556 39 48 16
7.492041374732784 40 49 17
7.8899827968328875 38 49 13
7.907137916678264 45 53 18
7.729249016613606 42 51 18
9.222422452747692 53 62 35
7.907137916678264 45 53 18
7.870781479074536 41 50 16
8.525437415426259 39 46 14
8.65145136820497 39 46 14
8.606972879273421 30 36 11
8.676120030720103 39 41 17
9.238063950333652 30 34 12
8.840237162212224 29 33 11
8.409022826206131 31 34 12
8.482035518096817 38 45 14
8.961910668185263 36 41 14
8.159982980084937 40 49 22
8.881510541972803 40 50 19
10.495291994658885 53 63 36
9.141991195730467 48 58 30
9.96928129796234 44 54 26
8.369489602157598 33 41 13
8.830546147380373 39 48 19
9.797619433932061 36 44 13
9.16189719792405 31 38 11
9.210464067893131 55 64 41
10.281557606669534 55 65 41
8.253373076520532 29 36 10
10.221481657224313 52 62 34
8.718381226176014 36 45 17
9.21723759670007 54 64 40
14.613946101222126 55 64 34
10.284201701147426 58 66 44
9.478032152360758 56 67 43
11.811964928946479 58 68 41
10.92433213580109 56 64 41
9.722889856822492 58 66 44
10.847584427762143 56 64 41
13.323814677898019 53 64 33
11.717003750574891 53 64 36
11.380729036153722 52 63 37
11.380729036153722 52 63 37
11.380729036153722 52 63 37
11.452077414167071 59 67 44
8.459213048691236 53 59 32
8.497159836368047 54 59 32
9.703443724679525 49 55 28
8.25269704837942 53 60 27
8.339372684131144 53 62 34
8.897904156724023 52 60 32
8.757498852564822 53 59 30
8.67254502923352 55 65 42
9.681504325936446 60 68 45
8.851556932083657 56 68 45
8.99122466573971 57 69 45
9.054352419350154 54 64 40
9.070930011339387 58 70 45
9.80401783489101 56 66 40
9.083837837736484 56 65 39
9.5195826129487 49 59 31
8.98301444700163 53 62 40
8.665557841851385 53 63 39
8.469536475004713 56 65 39
8.298136911807713 55 63 40
9.892397148433714 57 67 43
16.02188089592069 52 41 23
9.055465656001685 37 38 16
7.529445913757907 40 50 16
8.270134606401419 35 46 11
8.536629231586131 39 49 12
8.704764000519855 36 45 15
8.277141589875121 39 48 14
7.931482651703432 40 49 16
8.048731229075338 44 53 20
7.725927564171256 39 49 13
8.69020324419168 30 34 12
8.676797561427444 34 38 16
9.009928966795334 33 38 13
8.794506673984806 33 37 13
9.063736270019508 36 38 14
7.908538634503814 41 48 18
9.470518419241209 43 52 22
9.076931790401163 15 22 0
9.860201013881266 42 52 21
8.920829619804556 37 46 18
9.712908291447139 54 64 40
8.918689147509095 33 42 16
8.496350868451927 41 48 18
11.644346453707149 49 59 30
12.77204648156393 55 65 36
10.388904286879791 55 63 40
12.120130069707669 45 52 20
10.752474603867164 54 63 39
10.284201701147426 58 66 44
10.388904286879791 55 63 40
9.03685560635637 47 56 28
8.25269704837942 53 60 27
18.50618882067703 45 44 14
9.026199734584017 54 63 40
8.98742633563722 62 71 46
8.944053837323478 58 68 44
9.056628893031668 59 69 45
9.460375759437873 64 72 49
8.424976010690871 55 65 42
9.161212266596607 57 68 44
9.466050225855994 41 51 20
8.724073256359189 38 45 15
8.16421280789029 36 42 13
8.04937702952411 32 41 9
7.390368512180359 47 56 23
7.818777590013183 39 48 18
9.076242129356116 38 47 14
8.443495281658487 40 51 14
8.604415566919815 40 49 19
9.090923942518945 39 44 17
8.787407300830692 37 42 14
8.54113812362169 37 47 18
10.41411453250477 46 58 30
9.523303952440637 20 27 3
8.736182220397273 43 53 21
9.96928129796234 44 54 26
11.452077414167071 59 67 44
12.208823054972159 58 68 42
10.92433213580109 56 64 41
9.305230373595684 46 51 22
9.03685560635637 47 56 28
8.40647847673615 51 58 24
9.188111511613101 55 63 39
8.657585859785712 55 65 41
8.949347225211273 57 67 43
9.166513651115524 30 37 8
7.802358048074215 47 56 23
10.52076983872822 46 56 30
7.87353695424092 39 48 16
9.076242129356116 38 47 14
8.270032841553467 58 68 44
8.21786953110732 49 56 23
9.740432815044985 53 63 37
8.24695652103699 50 59 25
8.452835030472132 55 61 36
12.139109845066725 53 63 34
9.079994434066753 59 69 44
9.684508784792838 58 68 44
9.450051821839503 42 52 25
9.15001710682629 48 55 25
9.722889856822492 58 66 44
8.167589055866188 38 48 11
8.037772677259312 41 50 17
8.264572715411251 42 51 19
9.265728503088333 42 51 20
10.660378044716454 57 67 43
7.621843541100941 38 46 13
8.331235357611341 40 47 15
8.996574892178197 59 65 40
8.640320200946588 28 34 9
