11.66563516309744 16 24 7
12.205374870971143 28 35 16
11.66563516309744 16 24 7
11.615792828617217 27 34 13
11.902868058837335 26 33 12
12.952043261215605 13 22 5
11.883810819350249 30 38 14
11.50777136972196 30 41 16
10.967917021342583 25 36 11
11.50777136972196 30 41 16
11.54944492311734 31 41 18
11.060729473711715 25 37 13
11.242075840084594 26 38 14
11.85214472580263 30 40 15
11.87864382643003 35 45 21
13.500080542831242 34 45 24
12.853522894415335 20 31 7
13.500080542831242 34 45 24
13.153090878256169 10 19 1
13.616588569353132 35 47 23
12.853522894415335 20 31 7
13.867108832287622 21 31 13
13.541305386241744 35 47 24
13.086542075767678 21 31 7
13.616588569353132 35 47 23
13.10375126596717 9 18 2
10.965886698460716 24 35 11
12.796594466650685 22 32 11
13.611681973815811 37 50 25
13.18695996180701 38 50 28
13.756211449840528 39 51 28
12.277924136677493 13 22 9
13.074626364672415 36 47 26
12.805661968108426 38 49 27
12.277924136677493 13 22 9
12.731255300418345 15 25 4
13.355611569724797 28 41 17
13.485228226868186 40 50 29
12.831927201276136 12 21 9
12.731255300418345 15 25 4
12.95918383764502 38 50 28
12.816343179069248 7 14 1
12.31555264915007 18 25 8
11.836585306475609 19 27 7
12.447229945675451 25 34 18
12.162064102254405 22 27 10
12.701217078706591 8 15 5
12.24859206462458 2 11 1
12.177979519906145 10 18 3
12.324106124950152 39 48 31
12.500838921406121 34 43 24
13.849434920860265 40 49 30
12.855272092659826 38 44 23
13.527050594866003 23 31 11
17.84512947579967 37 45 25
16.864971160234962 37 47 26
11.490812815402407 31 37 14
18.23253978679253 36 44 24
18.23253978679253 36 44 24
18.296043763672532 32 39 19
18.861679339215662 39 49 28
12.495685357704751 35 39 20
12.72958245488772 4 11 1
11.590082395386727 5 13 0
11.83349878012004 12 18 4
12.236559027208244 28 34 16
12.726992692687046 7 11 2
12.33548541293799 6 13 0
12.82901212883884 9 14 2
13.84557959281617 26 34 17
13.470994179507779 33 38 21
14.556734102496577 39 46 24
14.751277611720143 39 45 26
13.733375405046752 41 50 29
13.70439832464972 9 14 2
13.065430842452717 2 9 0
13.783990380646618 20 28 12
14.503510477355848 37 43 22
14.130326169417026 36 41 23
14.384522677703863 37 43 21
13.727771095474404 2 8 0
12.689118239924968 20 29 7
12.774174386857412 21 29 7
12.722626685496321 17 25 4
12.637223596164455 4 11 0
12.169020380489934 23 32 11
12.177170873834308 30 37 11
12.301281365743877 33 42 16
13.270127624066548 35 41 16
13.931076533653709 38 44 22
13.37340316253679 34 40 15
14.302854379774939 36 42 19
14.034971291080453 35 41 19
13.945740178238026 34 40 18
14.770337425957532 37 46 24
14.690814082967362 37 47 23
13.287628355442681 42 52 28
13.459483660893762 38 49 26
13.224617355386659 38 52 26
13.74050358572191 40 50 26
13.671280721596421 40 51 30
13.762581443589035 41 51 31
13.456069215602737 42 53 32
13.93656860976964 39 53 29
14.085669150918292 40 52 29
13.640499483992572 40 52 31
13.415444859028874 39 52 29
14.287717774636336 38 50 26
13.866235153003686 39 52 29
13.941360863472136 40 52 28
13.29884896767819 38 50 27
14.724266823367548 38 48 25
14.507280387081265 38 48 25
14.724266823367548 38 48 25
14.398319387486398 41 53 31
14.142696249075202 45 56 35
14.37866782458805 40 52 32
14.085568471081105 41 53 32
14.571367466474774 48 67 41
14.752594732126965 45 62 36
13.904321582908914 45 59 35
14.841840086035855 45 61 37
11.362139133092509 30 38 15
11.65744862869446 32 38 12
12.038859633673336 35 44 17
11.443089832451358 28 36 13
11.59371607059952 32 41 13
11.426150837164867 29 35 10
11.079580388354385 31 40 14
10.531994642091998 33 39 16
12.204734124584048 34 43 14
12.43347465606295 36 45 16
10.784342723941897 29 39 17
11.16540599424245 29 39 15
11.221170439287084 32 42 19
11.044561451782075 30 38 16
11.274684400692406 31 44 23
11.525768118157998 32 42 19
11.93929475804082 34 44 17
12.784009202977733 34 45 18
12.828369419955347 36 48 25
12.90525738613331 37 49 25
12.238136925184504 32 42 19
12.22142461692413 35 45 22
12.320516804527564 34 44 16
11.662016991826716 35 45 22
11.74934777003531 30 44 20
12.907811382198926 34 46 23
12.846926065869264 34 44 20
13.35093074094827 34 46 23
13.063541915652236 33 45 22
11.260497236355448 31 43 20
13.1710069472838 37 47 23
11.268758149169791 38 48 24
11.207271617234921 39 49 27
11.278038897347097 40 50 29
11.556747137447491 39 49 28
12.903531900172515 40 52 29
13.272463457943296 40 52 29
12.525444994094759 39 51 28
12.304240732301928 43 55 33
11.910879153400852 39 53 29
12.2123116627961 45 59 34
13.13057767547233 42 57 32
13.13057767547233 42 57 32
12.902635256709695 44 58 33
11.743661052265502 41 53 29
12.546542701913342 44 54 33
12.453755395288884 44 56 33
12.979083280231738 42 56 31
12.442702512879494 43 57 32
11.743661052265502 41 53 29
11.76105227617423 35 49 23
11.551546158868286 30 44 17
11.549618433389302 34 48 19
11.40226788121051 33 48 22
13.924191488943652 34 46 25
12.640070705529888 37 45 27
12.309688106017836 29 36 18
12.224096620383254 37 45 27
12.185174587421844 35 43 25
13.104929453930055 40 50 29
12.914686118290653 40 50 29
13.321561408889508 41 51 30
12.912543016562475 42 52 30
13.30701380516703 41 51 29
14.119635805779218 42 50 33
13.653353318116704 41 51 27
13.653353318116704 41 51 27
12.65143811263097 39 48 31
13.155390346000328 38 46 26
12.454269463088444 38 46 29
12.950998352122093 42 51 32
13.128076218344715 41 51 30
13.526033949271776 43 53 32
13.165902033539552 42 52 31
14.022620442399655 44 53 34
13.439552180647143 41 50 32
12.166994180431331 41 49 31
13.000344025303548 39 49 29
12.780009980492723 41 51 30
13.489218036445248 41 50 32
12.573428242370609 35 43 27
12.690199219261967 35 43 25
13.381829758028921 28 32 12
13.439149717914564 43 54 33
13.188474676916895 39 49 28
13.900675236063964 40 51 30
13.17547020213505 40 50 29
14.078360140639008 42 54 31
13.88833765294437 40 51 30
14.267473623561994 41 53 32
13.585450573255192 40 53 32
14.007974985008175 41 53 32
14.007974985008175 41 53 32
14.646919670362383 43 53 32
14.277863110185768 41 53 32
14.196396185932388 42 54 33
14.995014590717924 37 45 25
14.805901039945866 41 49 29
14.302172772802479 41 51 30
14.234777489479159 36 45 23
13.27612799836331 38 48 27
13.289033971107747 38 46 28
13.971600949334343 40 50 29
14.137474762807463 40 50 29
13.924424097301653 41 51 28
14.440593902281009 39 47 27
14.266230876187596 39 49 28
15.228027947818868 44 54 33
15.173519184285567 46 56 35
14.33975157503426 47 57 36
14.490387313320065 46 56 35
14.6710972075639 44 54 33
14.715821239778977 42 54 33
14.839560151999132 42 53 33
14.839560151999132 42 53 33
14.659408037757174 44 54 33
12.398147052027003 41 53 30
12.250644609673097 42 52 31
14.543538968795525 41 53 32
13.912550393096613 42 54 33
12.871267133429683 42 52 29
12.398147052027003 41 53 30
13.960092320740857 39 51 30
12.470463442352198 27 36 17
11.913069889807916 17 24 7
12.347571296637927 16 23 8
11.87864382643003 35 45 21
14.446604860031373 38 50 26
12.286988427759718 20 31 7
12.530547367432915 26 36 12
12.286988427759718 20 31 7
13.764302269661803 32 44 20
13.35727865640848 28 40 15
13.198774259731545 28 39 16
13.982151110404857 38 49 26
12.844858398572002 34 46 25
13.375399877095575 38 47 27
13.428619724222893 31 44 20
14.374120027839087 38 51 27
12.6542243629552 13 25 1
13.539660958084623 36 49 25
13.428619724222893 31 44 20
13.114716776098248 13 22 10
14.252869467078067 40 50 29
12.538289793356547 36 44 28
12.458773302274036 40 49 29
13.098239631866027 40 47 28
12.008226469306361 29 35 16
12.788423448364172 23 31 9
11.434416095445034 30 36 11
11.440132572609958 30 36 14
17.994309071028717 33 39 19
18.63801399118175 35 44 24
14.290864010014145 35 42 19
14.302854379774939 36 42 19
14.534694421339113 37 43 22
14.014911438994062 38 44 23
14.169001090379526 39 44 24
13.328748686858376 47 55 36
14.267293312834681 35 44 21
12.979693331534751 20 28 6
12.406419606870145 33 39 13
12.533643166185604 26 32 17
12.484625898282056 4 11 0
13.373872849034713 1 5 0
14.049973583898893 22 27 15
12.997168978597749 0 2 0
14.503510477355848 37 43 22
11.609489244281539 33 39 14
14.077763029375006 39 52 29
13.632335187153673 38 52 27
13.75508026590339 37 49 27
13.470455845850204 40 52 31
13.941360863472136 40 52 28
14.115479652672931 43 53 34
12.87704443037018 38 48 23
12.992876939367068 39 51 28
13.491430371507054 39 52 28
13.988316837177953 45 58 36
14.583127205759713 47 65 40
14.853385687976676 44 60 36
14.628120200036296 44 63 37
11.804864497508708 29 35 13
11.24245785196371 31 40 14
11.576997467641135 31 40 13
11.290951582557621 30 38 11
11.071588047101688 31 39 14
11.183647688998342 34 45 21
10.933911605583045 31 41 18
13.274140987123001 36 48 24
13.139053756245378 33 45 21
12.767943076738302 32 44 20
11.700897501824707 31 39 15
12.52722255744154 36 47 24
13.35093074094827 34 46 23
12.608562079287664 32 46 21
11.854265915201134 30 40 16
11.442918225736907 35 49 25
11.147443504411989 38 49 28
11.979348862859464 44 58 33
11.852724120847403 41 51 30
11.989936739919212 43 55 34
11.76105227617423 35 49 23
11.660107530124941 36 48 25
12.603263053531604 43 57 32
12.834787899176998 42 55 32
12.600647329420779 43 57 32
12.603263053531604 43 57 32
11.227477256198897 34 48 19
11.107716448560371 36 47 24
11.343468271056361 35 48 24
11.549618433389302 34 48 19
11.877949693787043 39 47 29
11.952650822552267 36 43 25
12.70418540230557 40 50 28
13.276999418543625 40 49 31
12.585345362692545 41 51 30
13.762974448397248 41 50 31
12.756231649641247 39 47 27
14.098117111361288 40 50 27
12.914686118290653 40 50 29
12.999927965201628 42 52 31
13.86690429819414 45 55 34
12.573428242370609 35 43 27
13.426388043110979 42 54 33
13.947869855496315 41 53 32
14.394263281308497 43 54 33
13.238208556712612 40 52 29
14.452512068369916 42 53 31
14.32543033708613 41 53 31
14.566670964714822 40 50 29
14.137474762807463 40 50 29
14.566670964714822 40 50 29
13.683092737387167 39 51 30
14.839560151999132 42 53 33
14.257826832212823 46 56 35
14.6710972075639 44 54 33
11.585377161770708 36 47 24
13.561832526221497 43 53 32
12.250644609673097 42 52 31
13.864401105782761 39 52 31
12.113663893888177 38 50 27
13.970999275253897 39 51 30
13.221299916626986 36 46 24
12.720486430156416 26 35 12
11.469244909684395 21 31 7
12.561742022804545 23 33 10
13.611681973815811 37 50 25
12.520416665523065 25 34 13
12.528597079036068 9 14 1
11.863182534663306 5 13 0
11.649779815840557 11 19 2
11.590846297438 1 9 0
11.683142534904759 11 19 2
18.296043763672532 32 39 19
12.6105624197018 22 27 12
14.034971291080453 35 41 19
14.047180087041744 34 40 20
13.59227780037229 0 6 0
14.235523619436053 43 50 31
13.411803007677149 26 31 14
12.814370020989431 25 33 12
13.076403478567777 13 21 2
12.183977185205414 23 30 10
12.385983020498252 0 5 0
14.690814082967362 37 47 23
13.486478241501258 39 53 30
13.8490443696065 39 50 26
13.632335187153673 38 52 27
12.8689940886555 45 53 33
13.283771660673299 40 50 26
13.762581443589035 41 51 31
15.019804213996986 44 59 35
12.006638886860582 32 42 15
11.452643408348806 30 42 19
12.466264571664512 33 43 20
12.902635256709695 44 58 33
12.72162202842958 36 46 18
11.753111522895608 37 45 27
12.416068999514424 35 43 25
13.269182626409163 42 52 30
12.780009980492723 41 51 30
13.327271062690599 42 51 32
12.754061922380496 41 50 32
12.608957365506635 39 48 29
12.576608869483477 40 49 31
13.82104431768862 43 53 33
13.053801575558786 39 48 32
14.119635805779218 42 50 33
13.381829758028921 28 32 12
13.376893254473751 36 45 27
14.020207289371452 41 52 31
14.067000885913286 41 53 32
14.816752717397378 30 38 16
14.805901039945866 41 49 29
14.61360855028626 35 43 21
14.816752717397378 30 38 16
14.101871642839143 40 51 30
13.971600949334343 40 50 29
14.208404863520066 40 52 31
13.72056228695973 40 50 27
11.739219370994842 37 49 26
11.739219370994842 37 49 26
12.847534784193371 26 36 12
12.303066608939686 3 12 0
12.73650107506635 15 27 2
13.541305386241744 35 47 24
13.756211449840528 39 51 28
13.433593183081145 24 36 12
11.460590967683219 30 40 16
13.764302269661803 32 44 20
11.795475971900443 29 35 13
12.679403188489177 29 35 13
13.939414746078551 41 47 30
12.843569605462918 33 42 17
13.06328743762342 18 26 5
12.673496313519406 8 13 2
14.91662552097395 35 44 22
13.867840856527517 40 52 28
13.339934711616088 41 49 32
14.897562481262872 43 59 34
12.815110182676271 38 48 20
11.71743932385041 34 43 15
13.501551183222475 34 45 22
11.512237045357281 42 52 29
11.988638900892202 33 43 20
12.442702512879494 43 57 32
12.826633590746512 40 52 29
13.367096405468335 35 45 21
14.07874433056256 38 46 28
13.128076218344715 41 51 30
13.685629092342895 42 52 31
13.404619562415432 41 51 30
13.238208556712612 40 52 29
14.659408037757174 44 54 33
15.347637796195965 44 54 33
11.71108998626923 39 49 26
14.30179458485117 40 52 31
14.657829517199893 41 53 32
23.30595627430758 39 51 28
11.83522455507976 4 13 0
13.305853511096487 2 11 0
13.13445620923455 41 50 31
17.92973643471812 34 42 22
18.33318839568624 38 47 27
11.477701265072556 28 36 16
13.324173920375259 34 40 19
14.283170758288975 35 41 20
11.356383396338522 31 37 12
14.325590241833295 40 52 29
12.984228929972202 35 47 24
13.88833765294437 40 51 30
13.043257183402917 40 49 30
14.078360140639008 42 54 31
14.715821239778977 42 54 33
14.839560151999132 42 53 33
14.208404863520066 40 52 31
17.265120995209603 39 49 28
12.915699293380024 19 27 5
11.606499201733653 29 37 17
13.287628355442681 42 52 28
13.918765898246418 37 43 20
14.257826832212823 46 56 35
12.42491837570692 39 48 30
11.964393501501151 36 46 22
12.728283799851917 23 32 10
12.350957507845754 41 49 32
10.855946565227358 33 39 15
12.282070055325086 35 40 19
12.512789387281423 36 46 20
14.446604860031373 38 50 26
12.22539432797624 44 55 32
