17.048627819783523 53 53 54
11.776724575673311 30 35 24
10.226328787272113 9 18 4
9.874558434843593 15 20 9
11.041619356434614 16 21 10
11.041619356434614 16 21 10
11.638775476243753 31 39 24
11.54106770092413 29 37 21
11.729064148716885 30 36 22
11.76755496058187 31 38 23
11.693596566472344 30 37 22
11.54106770092413 29 37 21
11.345295112747873 33 37 25
12.419137582992194 27 35 19
11.138948251915007 28 34 21
12.762230656973319 24 33 15
11.568742226958582 30 36 21
11.113517621466087 33 40 25
11.092224011931302 28 33 22
11.13401620892199 31 38 25
11.187848486531642 29 36 23
10.841709085056191 27 32 21
11.120844217581368 29 38 24
11.031838742088228 28 34 21
11.365375674091954 27 32 21
10.841709085056191 27 32 21
11.582638259452773 29 36 25
11.260420155830756 28 35 23
11.425069416714313 28 35 22
11.493338817213239 32 41 27
11.459788999106275 31 39 25
11.998437668500213 35 44 30
11.712917365953771 30 41 27
11.442359123562001 30 39 25
11.28861393912854 31 40 26
11.814889538761504 32 41 27
11.222211324904364 31 40 26
12.063082359531446 29 38 24
11.442359123562001 30 39 25
11.497951031810432 34 43 29
11.411887129201569 34 42 27
11.617124730876007 34 42 26
11.693105152762438 31 40 24
11.887770262493959 32 40 24
11.50295761864011 35 43 28
11.86498577537216 29 38 20
12.163824844609366 29 37 20
12.16180313580646 32 40 24
11.39188855421857 34 40 25
12.431774151367627 29 37 20
10.808480759586665 36 44 28
11.467291806559338 35 43 26
12.052796458814504 33 40 24
11.579687175267694 35 43 26
11.5384388803354 32 41 26
11.866341011620147 34 43 29
11.731551542890903 36 45 29
11.638281747773538 35 43 26
11.500819737740711 36 44 28
12.058209763656231 34 43 29
10.962832813367845 35 44 28
11.5384388803354 32 41 26
11.249231000159943 34 42 27
10.898352031116032 37 45 29
11.571760672363522 35 42 29
11.860679505057139 36 45 33
12.052638384269175 36 45 33
12.01506088525395 35 44 30
11.570538238938292 37 46 32
13.243738605419606 37 48 36
13.285037007968118 36 47 33
11.725824956954206 36 47 33
12.148255935206572 36 45 31
12.123932883639926 37 46 32
12.3873238265941 36 47 33
13.011973751223527 37 50 35
13.123104238255875 38 49 35
14.130161469628735 38 49 37
13.145578669210629 37 48 34
10.785806347450883 15 25 4
11.45376982369066 22 32 11
11.255381860246331 26 34 16
10.805262124200633 20 28 6
12.005774277415739 33 41 19
11.050688964212096 34 45 31
11.820259937593775 32 42 19
11.628126359743423 33 45 28
11.16346491631893 32 44 27
12.092301987066358 31 39 18
11.875757789514426 32 41 25
11.519900185506609 33 43 29
11.830423341424016 24 33 13
12.157454352718583 32 43 26
11.592349955589585 34 46 29
11.69990597598897 33 45 28
11.69990597598897 33 45 28
11.414789798621184 33 45 24
11.69990597598897 33 45 28
12.161342218490178 35 43 21
11.61045427624737 35 45 22
11.890879790877841 34 44 21
12.506137169780134 34 42 20
10.15286692201895 36 49 32
10.028732940013008 38 50 33
10.304188604185548 38 46 23
10.304188604185548 38 46 23
9.686397706855574 36 44 21
9.863696400161167 35 44 28
9.89606283887955 35 43 25
10.263609794354839 34 42 26
10.232406020788865 38 46 30
10.232406020788865 38 46 30
9.50796035200242 37 45 29
10.99420009216584 35 43 28
11.11725368935955 37 45 29
9.253508866174702 39 48 34
9.059992789968113 37 49 32
8.959184079639964 38 47 33
8.20228163873464 37 49 32
10.032594561630205 37 46 32
8.20228163873464 37 49 32
9.503481399418764 35 44 28
8.563095434324413 37 46 28
8.02940712680411 37 45 28
10.58766036231344 37 46 32
9.488640051032075 36 48 29
9.567082505337003 37 48 33
19.893052261478623 36 43 20
16.939791423052494 52 52 54
12.336369781144821 32 37 25
10.09241827008726 16 21 10
9.798577786457855 17 22 9
10.716644149646005 34 38 31
10.36106578418777 0 3 0
10.78992958116577 12 19 8
11.375945484146227 27 34 21
11.766514789275623 35 39 28
12.054297776959757 30 35 22
12.220088966930232 30 37 22
11.58018340195497 32 38 24
11.568742226958582 30 36 21
11.1745568541279 32 41 24
10.970005426978565 27 35 20
11.98518271053942 30 37 22
12.488800078317789 29 37 21
10.679320120640384 24 31 18
11.110203198967152 27 32 20
11.342959552227265 29 36 23
10.084536478384326 19 26 13
10.59276585154054 28 35 22
11.685747329153312 28 36 23
11.91734779080326 30 37 24
11.854467542706756 30 39 25
12.14319908964521 33 44 30
11.887770262493959 32 40 24
11.049993773905754 34 42 26
11.098862605306 35 41 25
11.098862605306 35 41 25
10.962832813367845 35 44 28
11.756686408328756 36 45 31
11.5384388803354 32 41 26
11.731551542890903 36 45 29
10.898352031116032 37 45 29
10.92540391447415 36 44 29
11.04331582427503 35 43 28
11.853101651413239 33 41 28
13.415922851185373 35 46 32
11.853101651413239 33 41 28
11.4455773603982 34 43 30
13.415922851185373 35 46 32
12.01506088525395 35 44 30
12.49144368298485 36 47 33
13.123104238255875 38 49 35
11.083268512439657 17 27 4
10.574894619360855 19 28 10
11.24469872317335 32 41 25
11.980769817893053 32 41 25
10.372363717608014 38 46 21
11.69990597598897 33 45 28
11.890879790877841 34 44 21
10.15286692201895 36 49 32
11.887298719850337 36 44 20
10.19294303433142 35 43 27
10.331413503688813 35 44 28
10.58998259129482 37 45 29
10.650203629833948 34 42 25
8.563095434324413 37 46 28
9.654395648014471 37 46 32
9.543218778065658 37 48 36
8.409698115317493 37 48 34
10.172506491897714 37 48 34
10.197308992171697 37 49 32
19.83389840708753 37 43 19
20.019818988252446 31 37 14
11.49137453461366 28 33 22
10.36106578418777 0 3 0
10.29915424252233 13 19 6
11.719866647357433 34 40 27
11.1745568541279 32 41 24
11.790040354829692 32 40 24
11.480910993895108 28 33 20
10.922558511629232 31 37 26
12.14319908964521 33 44 30
11.712917365953771 30 41 27
11.562770237957078 33 42 28
11.441521213392331 35 43 27
11.77622727265975 33 41 24
10.838026082587897 35 42 29
11.5384388803354 32 41 26
13.1111339937782 36 47 33
12.3873238265941 36 47 33
12.323005547439912 34 43 31
12.123932883639926 37 46 32
12.254407205881396 35 44 30
13.145578669210629 37 48 34
10.109554804143887 16 24 7
11.628126359743423 33 45 28
12.24677083566861 33 41 19
11.552215981498337 28 38 16
11.646175065064616 34 42 20
12.506137169780134 34 42 20
11.592349955589585 34 46 29
11.211915645706139 36 48 29
11.035267155767126 32 40 17
11.211915645706139 36 48 29
10.615155446094603 36 44 20
12.273851408663731 35 47 30
10.332796160328698 37 45 23
10.083207844555357 35 48 30
9.47426815214503 37 46 30
8.990071249062659 37 46 30
9.25085115003747 36 49 32
8.95168412593398 36 48 31
19.893052261478623 36 43 20
17.12475857860627 29 29 31
11.526457753372565 37 45 27
12.163824844609366 29 37 20
11.127982128767183 32 39 26
11.272174279833433 28 37 23
12.340346739112052 26 35 17
13.145578669210629 37 48 34
11.581810498073404 32 41 25
11.679998285891912 30 37 25
12.686235423906547 35 46 32
11.73431146374645 20 30 8
11.355548059387578 32 41 23
12.161342218490178 35 43 21
12.061433312308228 32 41 23
10.455772274512418 28 37 21
11.414789798621184 33 45 24
11.411059319824547 37 45 23
12.439010800724212 27 35 13
9.149457780793647 37 48 34
10.965075587066373 36 44 27
21.360886870507155 32 38 13
11.77622727265975 33 41 24
11.638775476243753 31 39 24
11.342959552227265 29 36 23
11.342959552227265 29 36 23
13.243738605419606 37 48 36
11.089660594645789 32 37 23
11.02780595719903 36 46 32
11.556295284952142 33 41 25
14.00595178886123 37 48 34
8.483286889752582 37 45 29
10.574894619360855 19 28 10
12.686235423906547 35 46 32
11.500819737740711 36 44 28
11.973648614773188 29 37 20
