18.868022665847135 26 36 12
18.460020173487557 24 34 10
18.235139116813137 36 48 24
8.879213313377656 33 40 15
8.630859480077872 28 37 10
9.02604245796899 25 35 8
7.9186782704136265 21 34 5
8.53891721191179 28 39 11
8.209924052605288 32 42 16
12.478579302127558 39 45 19
11.549221335293494 40 47 26
12.425468946477197 40 46 21
12.425468946477197 40 46 21
12.286114676375302 27 34 7
12.252515497590808 41 47 20
11.898482647019993 38 45 19
11.970454674127252 37 43 17
7.776505369490256 24 37 8
7.939166899800396 22 32 4
7.435636292338369 20 32 3
7.899452998422763 29 39 11
8.145966600146847 26 37 8
7.677238655423351 19 30 3
7.098573564812825 30 43 16
10.495165094191535 26 34 12
11.455888126620286 39 45 22
11.20651892735887 40 46 23
11.377122913429993 37 43 18
6.663019978881035 26 37 15
7.472175811226876 32 43 18
7.540675888113981 26 37 10
7.554834414800528 25 36 11
9.0629027195285 12 20 2
8.882920194974362 6 13 0
8.801630251002775 8 15 0
8.397714697214122 26 35 12
8.759523602192562 0 7 1
8.487158908500692 32 41 14
8.878727870350852 33 42 15
9.087805105707215 12 21 1
7.862838211268255 22 29 4
8.575271691257322 25 33 7
8.869197496609067 25 34 10
8.854966787555536 8 16 0
8.797399188443638 30 37 12
8.977390647929653 20 26 6
8.973242460281366 31 38 17
8.65296842329369 32 40 16
9.281478922383226 30 38 15
8.608002582711219 30 36 14
9.043841479322976 31 39 16
8.78030075247408 34 44 20
8.800134942346615 33 43 18
8.800134942346615 33 43 18
8.661115091751647 29 37 12
9.269957971920544 28 36 11
8.074048244917016 35 45 21
7.619267033203603 30 40 16
7.756016050888474 39 51 25
7.991105410987735 33 43 19
7.756016050888474 39 51 25
7.955454306356445 31 39 16
8.324382367745589 31 40 16
6.9720560399668825 26 37 11
7.7730424914959295 35 44 21
7.877773715154022 33 42 19
7.743011814790514 40 50 24
7.743011814790514 40 50 24
8.51724336781742 34 47 20
8.054466381027577 38 54 25
7.694110357648166 42 56 28
8.6141701576136 39 47 25
8.634738547740865 38 46 24
7.716543095503897 33 41 18
8.165162895799229 31 41 18
9.044044055902429 34 42 20
7.866322011699967 37 52 25
8.040086995455544 40 55 27
9.610263095784 36 44 22
7.942233925927459 39 50 24
8.542125286312455 38 49 26
8.148955793350142 40 51 28
7.864035645703232 40 53 26
7.488696482660353 36 55 27
9.380958079357704 36 44 22
8.91290921089084 37 45 23
8.108802559338299 36 46 22
9.250513353940704 33 42 16
9.844007653550731 33 41 17
9.872533138371793 32 41 15
9.401282717632435 34 44 18
9.178208318604737 32 41 15
8.775856767875137 30 40 14
9.20504266347893 33 42 17
9.401282717632435 34 44 18
9.799766478709651 35 46 18
8.985821476319456 35 46 19
8.859069640550977 34 43 15
8.77755881673349 31 38 13
9.582045933299534 32 39 15
8.975121304642048 31 44 17
14.626174998537335 37 53 22
14.607144135205319 39 55 27
8.472828661686819 30 43 16
8.344598073120903 35 49 20
8.243986359668892 42 56 28
8.81126583334321 35 50 21
8.613283479783334 34 48 19
8.98483655951207 37 52 23
7.927455576169916 42 57 29
8.81126583334321 35 50 21
8.316817746272477 39 53 28
8.316817746272477 39 53 28
8.316817746272477 39 53 28
8.87776295815514 41 57 30
8.713979247591237 41 58 29
11.79134512055285 40 46 24
9.281806913018201 32 42 18
8.558440895967212 33 44 17
9.044514684102156 33 43 18
9.86518825531922 33 49 17
9.198829454324828 37 50 21
9.802342384125653 31 46 17
8.61047783524942 33 50 18
9.424760205507432 34 51 21
8.492145804463904 39 54 27
8.5781112868828 34 51 19
8.661850723082836 36 53 22
9.101857202486523 30 44 17
8.38700671091753 33 47 20
9.101857202486523 30 44 17
8.757663150207193 31 46 18
10.03553382006703 34 42 20
10.297491919954632 36 44 22
9.490106850219263 37 49 25
9.87450215086326 35 48 21
10.736589912015498 36 44 22
18.383630618690226 35 47 23
18.225408536600963 37 49 26
8.441670501239454 22 31 4
8.703536444983715 34 44 20
8.120061580042027 23 33 5
12.384017807003088 35 42 15
11.915665483750898 39 45 18
11.993416186500077 39 45 18
7.305303124666921 26 38 14
7.877351329900009 24 34 6
7.113612081111137 26 38 16
8.800480872510217 33 43 18
8.811377379392244 5 12 0
9.051972679205434 30 38 15
9.0629027195285 12 20 2
8.608002582711219 30 36 14
8.893120527688161 33 42 18
8.320741157009234 33 41 17
8.488918842178824 27 35 13
9.227999064294414 24 32 6
8.80336976526687 8 17 3
8.796004599594605 29 38 13
8.829306675266897 31 37 15
8.658687007496887 17 25 2
7.537718953768519 29 41 17
7.686456375922704 26 35 11
7.7192792741710985 35 45 21
7.524742028286112 36 45 22
7.669634646442393 34 43 19
7.200388081325945 26 36 12
8.186870502674614 30 42 16
7.83529246926378 38 47 24
8.245428993415345 35 49 21
8.352350452462623 41 56 29
8.557587802647442 33 41 19
8.265295084352111 36 46 22
7.880828714662733 31 41 17
8.6141701576136 39 47 25
8.062120141626187 41 55 27
8.536833529857482 36 45 23
8.542125286312455 38 49 26
7.970209514701235 37 52 26
8.445275998484593 39 49 26
10.001466615118654 32 42 15
9.062804267803596 33 41 16
9.062804267803596 33 41 16
8.763671138557687 35 45 19
9.294633146109783 34 46 18
9.799766478709651 35 46 18
8.763671138557687 35 45 19
9.128772038939125 27 39 11
9.015743080984514 36 50 20
8.934980135377314 34 47 18
8.455073882194629 38 53 26
8.263668471748613 39 57 27
11.869653704722252 39 44 20
9.721143619459873 32 42 18
9.033365533027288 31 43 18
17.91745935703193 21 35 8
10.03820721103688 36 49 22
8.960327518192644 30 47 15
9.240261913630585 33 50 18
8.858404068893854 37 53 24
8.286909898475386 38 55 25
8.831375196953346 34 51 19
8.199342105719506 37 54 22
10.03553382006703 34 42 20
10.633283657329493 34 42 20
8.579655852719812 27 34 9
7.705781255816906 20 30 2
7.290660022096587 29 41 13
8.307753008103655 26 39 13
7.199965273374058 24 36 12
7.973399234004953 27 41 15
9.024205583850662 31 39 16
8.797399188443638 30 37 12
9.281478922383226 30 38 15
9.223770781897256 1 8 1
8.833522454856329 12 19 0
8.34943407719863 34 43 18
8.93292546073408 33 43 18
7.7730424914959295 35 44 21
7.680013897102339 34 42 19
9.044044055902429 34 42 20
7.974544569851989 38 46 23
7.378032074539311 37 54 28
9.380958079357704 36 44 22
8.224445490076333 39 48 25
8.985482681546696 34 44 19
8.699607614055346 29 39 11
9.080376540935736 30 40 12
8.155957724239514 41 55 26
8.037850057050642 40 54 28
14.626174998537335 37 53 22
9.61402360815327 30 40 12
10.03820721103688 36 49 22
9.014044550237836 31 44 17
8.831375196953346 34 51 19
10.778936892082156 36 44 22
11.628898666070286 37 43 17
7.776505369490256 24 37 8
7.605591520264215 21 33 5
8.668946044612456 36 46 22
8.01080011211072 22 31 7
8.755577213927522 29 36 16
8.977390647929653 20 26 6
8.074048244917016 35 45 21
8.062120141626187 41 55 27
9.131106122824075 39 57 29
8.985482681546696 34 44 19
12.193733064667791 40 46 21
8.65437559100315 33 46 19
7.668840749558751 25 38 10
7.662780752880996 37 54 26
11.723175218488608 38 44 19
7.190970647900939 27 38 9
8.985482681546696 34 44 19
9.56415177379351 33 43 16
8.859069640550977 34 43 15
8.757663150207193 31 46 18
9.161810712608474 31 48 16
14.89853106526601 15 23 1
7.716543095503897 33 41 18
8.143592166969563 40 57 27
8.893805141097102 34 45 18
7.779245197901227 38 50 24
7.18510749761766 30 41 16
14.607144135205319 39 55 27
8.953791741568677 33 41 17
9.22611151422558 38 46 24
8.863656889358392 29 40 12
