11.06234329294802 37 42 11
11.096760577078948 35 37 11
10.389329319181185 36 41 10
11.192647223766366 29 34 7
10.267403714899674 37 42 11
10.691651353647275 33 38 11
11.252323000013527 36 41 10
10.285448708487467 35 40 10
10.678205591504874 33 38 7
10.590354903355951 37 42 9
10.846696717844383 35 40 7
11.119476002377775 36 41 10
10.07459214436708 35 41 8
10.67782709791674 35 40 9
10.523991559416219 32 37 8
10.285448708487467 35 40 10
10.023040959862442 36 42 7
10.511710205490006 42 45 14
10.461926759947193 37 40 9
10.713213031621493 38 38 12
10.713213031621493 38 38 12
10.655523983263626 42 47 20
10.655523983263626 42 47 20
10.574359241798442 33 35 11
10.795602261451979 36 36 10
11.136972558818973 38 40 13
11.093975738642591 42 45 14
11.14093522121433 42 47 18
10.82700356779574 39 42 11
10.788758947163283 37 39 12
17.737691589044278 38 43 16
10.184165602902354 36 41 10
10.02675583341713 38 43 13
10.2427378777129 31 37 5
10.3074140444333 32 37 6
9.654363132341677 36 42 10
10.650078908991983 33 38 7
10.685282982770076 30 37 4
10.343056715385481 34 40 7
10.695831375819008 33 39 8
10.052811493490113 34 39 8
10.372298403906836 29 36 2
11.108323881996414 30 36 5
11.536426065436691 26 33 1
11.269823852098172 27 35 1
11.08359902603976 33 38 5
11.272608560936908 34 39 8
11.542620897354315 35 40 9
11.358105510249581 34 39 8
12.06969161702633 35 40 9
10.475923233377607 30 37 2
10.950130638652361 29 36 3
11.80306290273871 37 42 11
10.712562721668615 35 42 6
10.336304792896266 35 42 7
9.708166589498905 35 40 10
10.489787746939658 36 39 8
10.162900930429533 34 39 8
9.930441096626662 37 40 9
9.896603731857613 36 41 10
10.859751575858363 47 52 21
11.234730500884341 45 50 19
10.311165506351317 48 53 22
10.678725062535626 45 50 19
11.028056002238726 44 49 18
10.69059933477386 46 51 20
10.191500989935347 46 51 20
10.862962257069873 45 50 19
10.672296490941163 50 56 24
10.13835591283648 43 50 18
10.115968512398126 43 50 18
10.095595536263131 53 60 28
10.191990689338956 44 49 18
10.321573732491792 47 52 21
10.227640442664717 46 51 20
10.321067402089026 46 51 20
10.197587653017866 46 51 20
9.52518770159629 43 50 18
10.614221068412705 46 51 20
10.05895831695098 44 50 18
11.037192321730503 45 50 19
11.660598430698116 47 52 21
11.01356712486221 45 50 21
10.418616470516884 45 50 19
12.002072840470749 48 53 22
11.399404323066113 47 52 21
11.576986465687199 48 54 23
11.836672350482242 49 55 24
17.705396655891093 44 49 18
19.412582681224226 43 46 17
19.412582681224226 43 46 17
18.18297173406837 42 44 22
18.49187838305713 41 44 20
16.410674127948162 45 50 19
18.334097873046122 73 71 69
17.387496770581635 68 69 57
16.86450192303692 47 52 21
16.937155477204282 49 54 24
18.019910050168416 41 46 21
17.12697761354782 42 45 26
17.172741695626623 51 52 40
11.54529128979551 41 44 11
11.680161416150838 44 49 18
13.981359073567244 39 46 14
14.437252565163414 39 44 13
13.981359073567244 39 46 14
11.259961750821596 36 41 10
15.058156522489838 44 51 19
14.78742307333624 44 51 19
14.460748241357091 42 49 19
14.1786121674142 39 46 14
12.48003702509265 51 61 31
13.315325098403243 53 63 33
13.61536188215846 54 63 33
13.315325098403243 53 63 33
19.82482543479785 51 61 31
19.94741504307107 48 57 27
11.262473994644855 42 47 16
11.204932276770286 45 50 19
12.012896490962092 42 47 16
11.047527044804536 45 50 19
11.348962307621239 47 52 21
12.561473927522446 49 54 23
13.600144874035728 51 57 24
12.317078814632143 49 54 23
12.064412008628002 48 53 22
13.332947550731804 50 54 23
13.600144874035728 51 57 24
13.332947550731804 50 54 23
12.85835081028318 50 55 24
13.29976480576984 49 55 23
12.91213965525705 52 56 25
13.263476191446069 53 57 26
13.831632178418031 53 61 29
13.615658717211387 54 59 29
12.740654049510507 49 56 24
12.172258303099554 48 53 22
12.003485972475238 48 53 22
11.916521253513693 48 53 22
19.264516673882223 26 32 11
19.76185478228445 30 35 11
20.001936475366147 29 34 10
19.836237358067567 32 38 11
20.337748673170946 29 35 11
19.16399904114373 29 34 12
20.121769660827745 32 37 14
19.085228300912622 12 16 5
19.611237827971625 30 36 13
12.520374842827202 36 41 12
11.75112297853897 30 36 6
11.956778606174693 27 33 5
12.52845504289008 36 41 10
12.379303328534307 35 40 10
19.96842271477486 34 41 12
12.458365021183857 39 48 17
12.0854587668001 47 54 24
12.0854587668001 47 54 24
11.850041158077653 46 53 21
12.910353233880752 39 44 16
12.287608498116258 38 43 15
12.726744822483802 43 54 21
12.662353478746644 42 53 20
10.677515481644646 43 52 21
11.090374967049556 45 52 22
10.722182471262906 42 52 20
10.867272734599432 46 53 23
10.677515481644646 43 52 21
11.249132199340684 42 51 19
12.051477899026318 51 56 25
12.258636806063816 52 56 25
11.90274737106329 51 56 25
11.864931300170381 49 54 23
11.622594234385305 48 53 23
11.949254281301563 52 57 26
11.799577807247125 52 56 24
11.864931300170381 49 54 23
11.315500732334517 46 51 22
12.381569469855826 49 57 25
12.008416330160156 50 56 25
12.580429473774068 48 56 24
13.117293377070084 38 43 12
12.985602604613769 48 53 21
13.950008536330396 42 49 17
13.950008536330396 42 49 17
13.231448656705245 44 55 22
13.103366883973665 39 44 13
13.524154576965383 42 49 17
13.241339126081954 40 45 14
12.96844310065309 48 55 25
13.730899285099458 41 52 19
13.233910100237692 47 53 22
12.985602604613769 48 53 21
13.689896221588935 41 48 16
13.068255347157292 49 58 30
13.187559196440251 48 60 28
11.562925014085208 45 54 22
11.62616000680685 46 55 23
13.071632554731343 53 62 32
12.782848509756914 49 58 28
12.775940527749036 50 55 28
11.752593611206487 46 55 25
13.031632197549495 51 60 31
12.403490418969561 50 56 29
12.301872745124964 46 52 25
13.068255347157292 49 58 30
11.62616000680685 46 55 23
12.424983418538313 47 54 24
13.187559196440251 48 60 28
11.562925014085208 45 54 22
13.031632197549495 51 60 31
13.63818160118947 54 57 26
12.263290589087127 51 56 25
12.626655772060012 52 56 24
13.377438374865323 54 57 26
13.132152872188893 51 56 25
12.97865000441487 51 55 24
12.544334274945447 49 56 24
12.505853797075742 51 57 24
11.864637548588815 50 57 25
12.725362643197121 49 54 23
12.626335686360296 49 54 25
12.763497981746816 50 56 25
11.823945236326422 50 57 25
10.537852441516998 37 42 11
10.795602261451979 36 36 10
10.506628217394717 33 38 6
11.029909918505092 39 43 13
11.016041925587077 35 38 9
11.014185675049646 43 48 20
10.245692777682748 38 43 10
10.238481915166387 36 41 8
10.636147954415343 29 34 4
10.904594904515069 31 33 7
10.06339259282198 37 42 10
11.093975738642591 42 45 14
10.871056358209083 37 39 13
10.895093057153783 41 44 14
11.405519377471112 36 41 12
11.16596629762592 36 42 6
16.82257257002038 39 44 17
9.787615937157817 33 40 7
10.774742489540508 32 37 6
11.08732307418498 28 36 1
11.536426065436691 26 33 1
10.376163591889563 30 37 3
10.668887678553324 29 37 2
11.815128396430968 35 40 9
11.542620897354315 35 40 9
10.107833685983193 36 41 10
9.968186998029868 34 39 8
9.930441096626662 37 40 9
10.954160535131042 42 47 16
11.034750914995085 43 48 17
11.271561068114218 44 49 18
10.619490372465398 52 57 26
9.94252344613034 49 54 23
10.616311219504645 43 48 17
10.227663430007459 48 53 22
10.523419397143847 46 51 20
11.202746564291465 45 50 19
10.95771239173714 46 51 20
11.143268171048291 43 48 17
10.419635662474422 45 51 19
10.732908611677377 46 51 20
11.576986465687199 48 54 23
10.092251352909864 46 51 20
10.366154328558887 43 49 18
9.828120073542538 48 55 23
10.15902452322162 45 50 19
11.286224236644063 47 52 21
19.358929971705578 45 49 20
18.901816610728766 44 49 20
18.34544406919013 34 38 19
17.17040653679309 43 44 29
17.506363200689574 54 55 40
18.31274143912454 44 45 31
17.092824533559522 63 65 55
10.472367694639855 34 39 6
14.437252565163414 39 44 13
11.167208331718323 36 41 9
13.689346399227938 40 45 14
14.460748241357091 42 49 19
19.899235251800615 51 58 30
11.514974912726128 44 49 18
10.776272570404569 46 51 20
12.061087861713027 48 53 22
13.168803372602856 50 55 24
13.12635245481575 49 54 23
12.995216841875058 54 58 27
12.955292508279792 52 57 26
13.485091289884968 49 54 23
12.879084747674906 49 55 24
13.651011153438846 52 60 28
13.97834916665825 52 58 25
19.3337140153267 8 13 1
20.15309424068049 35 41 15
19.680931277633277 23 28 6
19.561905863355193 24 29 6
12.56436846238871 27 32 5
19.96842271477486 34 41 12
10.726298372433272 44 50 22
12.369889801058127 49 55 21
11.249132199340684 42 51 19
12.953824039380995 43 50 20
11.712844801547407 43 52 22
11.758363943302756 50 57 25
12.051477899026318 51 56 25
11.096925547279831 47 52 23
12.3425815504346 50 57 26
12.013793581033747 52 56 24
12.560123574566532 48 56 24
16.375806154566902 30 35 6
12.930109131782162 39 44 13
13.997276881382902 41 46 15
13.794525071136201 39 44 13
13.233910100237692 47 53 22
14.33731488982464 41 48 16
13.241339126081954 40 45 14
13.965962076196758 41 49 17
12.65973128791776 49 58 29
12.525602360252911 50 57 27
13.187559196440251 48 60 28
12.621922840676353 51 58 28
11.730854830486576 44 53 23
11.60418437321873 46 53 21
13.071632554731343 53 62 32
12.782848509756914 49 58 28
12.663217446987593 52 59 29
12.445834548499114 51 56 24
13.377438374865323 54 57 26
12.783164676434215 53 56 25
13.96582032322937 52 56 25
12.804020365585089 52 56 23
12.763497981746816 50 56 25
13.132152872188893 51 56 25
12.482538366577817 48 56 24
16.98022534966625 40 45 18
9.959907474105318 36 41 9
11.276727252044253 43 48 19
11.185791391856533 38 43 10
10.729378369074919 34 39 10
10.875115915279489 41 44 13
11.179080982768731 36 41 10
10.618968003723559 31 35 5
10.839409815682892 29 34 7
11.791938580132038 29 34 7
10.875115915279489 41 44 13
11.364501769724631 35 40 9
10.01938740520064 35 41 7
10.695831375819008 33 39 8
10.489787746939658 36 39 8
10.045864496279876 35 40 7
10.336304792896266 35 42 7
11.264085066211761 44 49 18
17.069790191891997 50 55 24
9.96593693502165 44 49 18
11.307794754715534 46 51 20
17.217275102448035 41 45 23
11.54911385317658 41 47 17
11.503820707918376 41 46 15
13.61536188215846 54 63 33
12.172258303099554 48 53 22
11.195203608567816 47 52 21
12.15031826002487 49 54 23
11.26406419396542 47 52 21
19.61645782442492 30 36 12
19.561905863355193 24 29 6
12.666952444273903 36 41 12
12.548812186734613 37 42 11
12.519450841136736 33 38 9
11.88608485467537 46 53 23
11.712844801547407 43 52 22
11.757332744242618 45 51 24
11.780858936946968 42 53 21
11.821532095584779 51 56 26
12.131199691959344 48 56 24
11.409903440238894 49 54 23
12.414908343356055 48 53 21
12.525602360252911 50 57 27
13.56805942747413 42 50 18
13.325979704743975 42 53 20
12.013167046531384 50 57 25
12.405074673600822 52 57 26
12.242458680190495 51 56 25
11.079980625617685 31 37 4
10.282505233249367 33 38 7
11.64117959307317 34 38 7
10.859751575858363 47 52 21
17.592970894380652 47 52 21
10.826747623727055 44 49 20
18.123467319196866 42 47 22
17.859747176436127 44 49 22
14.460748241357091 42 49 19
13.576963551119594 53 62 32
12.799668779060246 51 62 30
14.1786121674142 39 46 14
13.831632178418031 53 61 29
12.91213965525705 52 56 25
12.419503569118302 48 55 23
12.253405694803867 31 36 6
11.753577899151923 43 51 19
11.878655374987902 43 52 22
12.09641075221269 48 54 25
12.276788460059805 52 56 24
12.381569469855826 49 57 25
13.016773617111731 42 53 20
12.89620326993438 37 46 16
12.99317360446198 39 46 14
11.584978913126198 48 55 25
12.65973128791776 49 58 29
13.625229468797745 46 53 21
10.950130638652361 29 36 3
12.39990533980328 35 40 9
10.421179181316795 37 42 10
9.594701965276851 44 51 19
9.868506009236341 50 57 25
12.727261639259265 37 42 11
11.195203608567816 47 52 21
13.187559196440251 48 60 28
10.414767037901495 44 49 18
10.372298403906836 29 36 2
10.604465456084919 48 55 23
13.583907444388919 43 50 20
13.069183110769696 50 55 23
14.14769873914538 45 52 20
13.29976480576984 49 55 23
17.339621311516996 45 50 19
10.754033622377023 49 54 23
19.873185623201973 51 60 30
11.553140532915632 29 35 4
18.54803932602424 39 41 17
12.173208658305214 49 55 23
11.951303469599793 49 54 23
