12.508011178642437 23 26 24
12.508011178642437 23 26 24
12.745015591038154 20 25 16
12.529134726982528 20 23 23
13.14096411483894 18 22 16
12.921466471637073 19 21 23
13.448114185929219 36 41 21
13.60300871028041 33 37 22
15.089281768236367 9 10 5
13.31142375226937 32 33 19
13.45751519473409 34 35 22
13.582033482856781 35 39 18
13.215529036758506 35 39 18
13.671673065222299 33 35 18
13.813955165206764 33 35 18
11.599121981470253 35 41 18
12.604233272477515 36 41 19
12.769368316451807 35 39 21
12.964755414834698 37 42 25
11.921188087810826 36 45 17
11.90523346249937 39 48 18
12.630502434709483 42 49 19
11.90835629561689 39 48 16
12.413694220324754 37 42 22
12.335889512413278 33 41 16
11.835260298965803 38 44 17
11.930541606532113 36 41 17
12.507541994468202 36 40 21
12.146790233738324 42 51 19
12.335889512413278 33 41 16
12.48174781166964 39 47 17
12.66186802158178 38 43 21
12.669371437057535 35 40 17
11.300662883989888 45 52 19
10.93637041707142 46 55 21
11.220961351907386 44 51 19
10.573986473549484 47 54 24
11.117071407081829 43 53 16
10.852619383555767 44 53 21
11.66491328800588 39 46 15
12.010839805395381 32 38 17
12.57896777849411 30 36 16
11.309069476829679 43 50 16
12.076849288785757 37 46 16
11.478218721816258 41 50 20
11.72857340905872 44 53 23
11.48390748841709 38 47 13
11.475628975718417 41 50 18
12.257461058540288 32 38 17
11.3830731984345 42 51 17
11.73350498185046 40 49 19
12.238567392138279 42 51 19
12.078216570756716 37 46 16
12.74702140732027 37 42 20
11.746173956913987 40 49 19
12.238567392138279 42 51 19
12.885342341730372 40 46 22
12.899060858856721 37 43 18
12.732687633000811 40 46 21
12.407968463727084 39 45 18
12.646983228210447 42 49 20
12.875077109775763 40 47 19
12.855102428610788 46 53 23
13.533398491579385 45 51 24
12.79381679147074 41 52 18
12.224717962564574 45 52 22
12.79381679147074 41 52 18
12.47068944088468 45 52 22
12.312894957197308 44 51 21
12.139578386315781 44 53 23
12.302758502681248 47 54 24
13.159323537367783 48 55 25
11.806112172376807 45 54 22
12.948047513606129 37 38 23
13.18447983830103 45 47 35
13.242831136295804 34 37 17
13.474091831971835 34 38 19
13.413418494274627 35 39 22
13.711640412384321 20 22 11
12.792785428577739 31 35 18
12.933936524333665 34 39 17
12.692838131148129 36 40 17
12.002099528826491 41 52 17
12.187151883776842 47 53 26
12.521029769548692 43 49 25
12.660960016978818 41 47 20
12.74320193858351 41 46 20
12.523862333547077 38 43 19
12.842757291392743 35 39 20
12.502729877422924 42 49 19
12.521029769548692 43 49 25
12.281844451979117 38 43 18
12.531585022288374 37 43 21
12.754292538777044 37 43 17
12.433128772305125 39 45 19
12.650512711768584 41 48 19
12.822150423536064 40 46 19
12.530853017036579 38 42 20
12.304101850225118 35 39 20
13.021885291027475 34 35 23
12.66932317880505 43 49 21
13.55634389489769 45 54 20
13.267965046594282 45 51 23
13.175579137357317 43 52 22
12.797305778549672 42 52 18
13.267965046594282 45 51 23
13.536696858091544 46 53 23
13.106844815819269 48 54 26
13.096052783521573 44 51 21
12.576089457065217 47 53 26
11.770369249411166 48 54 27
13.09789245655681 50 57 25
12.486930439850552 48 55 24
12.01216370250609 49 55 27
13.253640825401472 48 57 28
12.258758321566107 48 54 26
13.32440863882106 48 55 25
12.936819214255287 49 56 24
12.650792914443175 51 57 30
13.09789245655681 50 57 25
13.403136718675597 49 56 26
12.720232004771256 48 55 25
13.620754176808667 48 55 25
13.162715641428404 48 55 25
12.445095211172367 41 47 22
11.533835737866298 47 53 26
12.032449932428667 47 53 26
12.114657657035302 47 53 26
11.549805705474887 42 48 24
11.79043873648658 45 51 24
12.211414902625494 44 50 24
11.288394672968224 42 48 24
11.549805705474887 42 48 24
12.505253452520947 47 53 26
12.3448890291094 49 55 28
11.469946577518497 48 55 23
10.488764559576119 45 52 20
11.387660165529512 52 57 26
11.12042637745285 50 57 25
11.734296965512089 53 58 31
11.469946577518497 48 55 23
12.692133223646765 51 58 28
11.974327743393065 52 59 29
12.153544606577324 53 58 33
11.810534841039741 55 61 34
14.789470915983358 62 71 45
15.058000239206937 64 73 47
12.145108252323327 56 62 35
14.066187063913276 55 59 33
13.320387126541688 62 68 41
13.25283762989459 57 63 36
13.843866023390598 56 62 36
14.126688903547299 55 60 35
14.04430996477803 62 71 43
13.624470948339262 57 66 38
14.04430996477803 62 71 43
13.609839130479278 63 72 46
13.976119972393832 61 70 44
14.45813440051485 62 71 45
14.200039783443534 57 64 37
11.682862059565979 12 16 8
11.609631563587238 10 11 3
11.430702607512467 54 61 36
11.233348065916637 57 66 40
12.015268742812102 54 61 36
11.847014886998284 53 60 34
12.328143279773338 54 63 35
11.497957644698104 56 65 38
12.246150231700652 51 60 34
14.471908575166115 57 66 37
14.053843021562118 56 65 37
13.85258351030909 56 65 36
13.979313880828629 58 67 40
14.461221851535687 60 69 43
14.419049592096071 55 64 37
14.628679989503771 56 64 35
11.69338821591655 53 59 34
11.432649977571208 49 58 32
11.965091625716022 46 52 27
11.48091549172253 52 56 38
11.553035011650099 47 52 27
11.740581884495823 54 58 40
11.740581884495823 54 58 40
11.537069514147626 50 56 29
12.129872853115634 51 57 34
12.278646929796993 52 58 35
11.794867282149175 50 56 32
11.495022493494577 59 61 43
11.520434312077713 51 57 32
11.361736299749083 49 55 30
11.568333577370293 51 55 38
12.438439625851865 19 22 20
12.508011178642437 23 26 24
12.919743510200751 21 23 25
12.508011178642437 23 26 24
13.60300871028041 33 37 22
13.31142375226937 32 33 19
13.675358427497125 36 37 24
13.143039786038443 35 40 17
14.026263586941477 34 36 19
13.601615032719723 34 37 17
13.215529036758506 35 39 18
11.758548258966757 36 42 19
12.328183128437615 36 45 17
11.394027860796065 40 49 19
11.835260298965803 38 44 17
11.938504673507811 35 40 19
12.325166667495827 35 44 17
11.82897521388851 38 47 19
11.124946123693896 42 51 19
11.918694592423183 38 45 14
11.3830731984345 42 51 17
11.475628975718417 41 50 18
11.66491328800588 39 46 15
11.72857340905872 44 53 23
12.732687633000811 40 46 21
12.23187961227482 43 49 22
12.824782966447101 37 43 18
13.049769497753868 38 43 20
12.646983228210447 42 49 20
11.998379307384596 41 51 19
12.07774063754859 41 50 18
12.4988846733524 39 45 21
12.07774063754859 41 50 18
12.078216570756716 37 46 16
13.092643408143402 45 52 22
12.705463707988404 45 51 24
12.702084299281642 46 53 23
12.79381679147074 41 52 18
13.533398491579385 45 51 24
12.377165015162793 48 55 23
12.46068134891963 47 54 24
11.809261217090912 47 54 24
12.454711877270631 46 55 21
13.321481284017475 34 38 17
13.028477328935416 40 42 27
12.774874829895992 35 40 16
12.433128772305125 39 45 19
12.902654096870952 41 46 21
12.523862333547077 38 43 19
12.70059289371012 34 39 23
12.732822113208085 41 47 21
12.185786965671905 41 47 22
13.106844815819269 48 54 26
12.87867703941997 42 51 20
12.872454852513027 47 54 22
13.03647227518493 43 50 20
13.03647227518493 43 50 20
13.569384052845944 45 51 25
12.402387813822205 48 55 25
12.724327509948326 48 55 25
13.093913795283175 49 56 24
13.09789245655681 50 57 25
12.884592306536073 49 56 26
11.95388288567292 45 51 24
12.99482487707729 40 46 25
11.528670230066538 47 53 26
12.278029520974673 48 55 25
11.375980531956742 43 49 25
11.964468077709979 47 53 26
12.505253452520947 47 53 26
11.89913933650688 51 56 27
12.222906615671716 54 59 30
12.692133223646765 51 58 28
12.153544606577324 53 58 33
13.116126261283727 54 57 32
14.789470915983358 62 71 45
12.700928456080609 61 67 40
12.457706614462344 55 61 32
14.107541568753657 62 71 45
14.45813440051485 62 71 45
13.08925150173671 60 66 39
13.836460328789876 58 64 37
14.200039783443534 57 64 37
13.540436702889433 59 65 38
13.976119972393832 61 70 44
13.320387126541688 62 68 41
13.540436702889433 59 65 38
11.50974998310596 13 16 9
11.682862059565979 12 16 8
11.776072491736405 53 61 36
11.761668270424925 51 60 34
13.619676297382096 59 68 40
14.543913672184278 55 64 36
14.20318333851117 55 64 35
14.276543840977185 55 64 36
11.947813573929523 52 58 33
11.839766278698786 9 11 6
12.0330699576476 46 54 28
11.377947826878732 42 47 22
12.048997420574802 47 53 28
10.943124594491705 45 51 26
12.214469291387847 49 54 29
13.239459558775932 37 38 23
13.362668918499214 35 39 18
12.650116138952262 36 42 16
11.117071407081829 43 53 16
10.852619383555767 44 53 21
12.249096275163284 37 43 17
12.068977501423683 40 49 19
12.899060858856721 37 43 18
13.092643408143402 45 52 22
12.089158457519689 38 44 17
12.964755414834698 37 42 25
12.454711877270631 46 55 21
12.722299229253101 41 47 20
13.159323537367783 48 55 25
11.741601678360732 38 47 15
13.105138157135665 32 36 21
13.395359541612478 47 54 22
12.87867703941997 42 51 20
13.09789245655681 50 57 25
12.211414902625494 44 50 24
13.329860190592685 44 53 21
12.04713970838317 46 52 25
13.043891474666154 47 54 24
13.613649360985015 47 54 24
12.063048594309798 50 55 38
12.36660787114205 38 43 19
12.771513787744855 37 42 20
14.468823404547596 57 66 37
13.69441205478199 59 66 37
11.478879149748936 49 54 25
12.546488248297607 53 59 32
12.861484827643306 63 69 42
12.381383703659282 60 66 39
12.231289309751606 52 57 28
11.643650446503745 49 56 26
11.844505776741123 54 63 37
11.847014886998284 53 60 34
12.161774165798212 57 66 40
11.497957644698104 56 65 38
11.587812384829817 55 64 38
14.053843021562118 56 65 37
11.289055563772193 44 49 24
11.214584126030166 46 51 26
12.214469291387847 49 54 29
12.919743510200751 21 23 25
13.671673065222299 33 35 18
13.44104550783222 34 38 17
13.068183090661341 37 41 20
11.73174326681346 43 52 22
12.596691056497942 37 42 20
11.835260298965803 38 44 17
12.477709914721055 40 49 19
12.49233625528218 37 43 18
12.944871881666746 49 58 28
12.729007822092305 49 57 29
12.730036044995558 45 53 20
12.62854740010487 33 37 22
10.574692013105913 47 54 22
11.810484291918412 48 54 30
11.949831223556238 1 3 0
13.976119972393832 61 70 44
11.747298433151872 37 46 15
11.48390748841709 38 47 13
12.657433446617604 40 46 20
12.669371437057535 35 40 17
13.413418494274627 35 39 22
13.413418494274627 35 39 22
11.943441739829636 47 53 26
13.241841645069096 48 55 23
12.17263107390286 48 54 26
12.264224654264295 49 55 28
11.537069514147626 50 56 29
13.976119972393832 61 70 44
12.328143279773338 54 63 35
11.520434312077713 51 57 32
13.16723209757748 33 38 17
13.054520335369165 20 25 18
10.66743965127382 45 53 21
11.492829209813166 40 47 16
11.212488699964215 45 52 22
12.375169958269788 40 46 25
13.979313880828629 58 67 40
13.178539993413047 51 57 29
13.775101095519421 54 59 33
12.502729877422924 42 49 19
12.264264710610968 36 42 19
