13.816534775187995 105 105 102
14.002456319379307 34 34 33
13.27643167271764 42 43 39
12.083919690956906 49 50 36
13.41589024568307 1 2 0
12.432067472381451 71 72 64
13.513663689682868 83 83 79
12.957755947397018 79 82 70
11.809574985800468 30 33 21
11.809574985800468 30 33 21
11.777348147412615 14 17 12
13.37201399407616 44 45 26
12.601225775529365 35 36 22
13.079312593633949 23 24 12
13.137581058233325 54 55 42
13.000215892129765 45 45 24
13.000215892129765 45 45 24
13.351987556817893 45 47 25
12.696474637717271 46 44 24
13.056432387970094 48 49 26
13.173488519839085 50 49 29
12.656733378937414 50 51 27
12.50022817813806 46 48 28
12.740428139804607 43 44 31
12.021442288818973 46 41 20
12.465766049882875 47 47 24
12.465766049882875 47 47 24
12.683064955682584 51 51 27
12.029544034900898 45 41 19
11.420700626997181 49 46 25
11.697098476969535 47 45 23
12.335912740744842 50 49 26
12.246627624087225 48 46 23
12.003835689285301 51 50 27
12.706089155310828 52 52 27
12.61942338771835 53 52 27
13.096845937653034 50 50 25
12.668005374030189 44 49 27
12.506620465835264 50 55 25
12.776859399117898 49 52 25
12.215902295488627 47 52 25
12.776859399117898 49 52 25
12.155799251109453 38 40 21
12.16462813362541 49 50 29
12.411324760451606 34 35 20
12.215902295488627 47 52 25
11.88311414070492 42 48 24
12.517710747280248 48 55 25
12.010420962340444 57 63 37
12.399917847323954 55 55 32
11.755450227741921 30 33 24
12.077671369626115 53 57 35
12.575294374300887 51 56 27
13.036225435919283 47 52 25
11.997205941080393 49 55 35
12.332813716930836 68 72 58
13.17822623648505 46 51 26
12.084514450175856 50 55 32
12.560964526352512 56 58 34
12.722440871318582 51 56 30
11.998033905794637 55 56 32
12.010420962340444 57 63 37
11.927836432011839 67 70 62
12.331072812550097 52 58 34
12.563464271939267 41 45 26
12.006978795713573 59 61 37
12.169012610265634 59 61 36
12.102668213135201 57 60 37
11.77930833085539 58 61 37
12.193007539628926 55 59 37
11.673039693289644 55 60 36
11.603859946136232 54 59 33
11.87599577374352 55 59 32
11.603444387812438 60 66 39
11.771034354258957 58 63 37
13.195836280641716 53 53 28
13.339236865776302 52 52 27
12.741771886062047 54 60 30
13.800553970774347 51 57 27
12.78202591176507 52 56 27
12.56064872438772 53 57 28
13.605973935915458 53 58 28
12.87837599503036 54 55 28
12.78202591176507 52 56 27
12.78202591176507 52 56 27
13.025272100234973 52 53 27
13.380577523145233 56 61 30
12.522984175378555 52 59 30
12.511898568189233 54 61 31
12.522984175378555 52 59 30
13.588603492797565 52 57 27
12.988044505365343 58 58 34
12.580543664902953 57 62 33
12.428392248748203 66 71 42
12.513077838047986 63 70 40
12.580543664902953 57 62 33
12.355557003751754 70 75 46
11.958970179916731 49 48 25
12.588954731183552 50 50 24
12.441225377340544 61 58 36
12.296821652295044 49 47 25
12.296821652295044 49 47 25
13.175793437845837 46 44 22
11.994131580944254 45 43 20
13.303250389959803 56 57 31
12.611865160628582 55 57 34
17.410599291494833 55 55 27
16.87421872919073 54 57 28
17.72030519477607 56 59 29
17.287320232264875 57 57 27
11.784774803010658 55 58 51
11.696078200224362 107 110 103
12.245104915074574 50 54 40
12.245104915074574 50 54 40
12.333595670099415 70 73 65
11.585340791591305 47 51 37
11.674027836925768 38 41 30
11.751933379874403 40 45 29
11.356047145479879 83 85 85
11.870841137099616 54 58 41
11.870004300351093 87 89 89
12.595211090971462 87 90 88
12.188801982050304 52 56 29
11.922974317564437 52 57 30
11.847032183695449 51 56 27
11.870004300351093 87 89 89
11.861793587233713 48 49 34
12.098431252580593 53 58 29
11.870841137099616 54 58 41
11.870841137099616 54 58 41
12.121746430038847 53 55 31
11.769756128902046 48 53 26
11.499564707814487 52 57 32
12.320205916330092 54 58 37
11.360186318209195 50 52 33
12.361074933847966 42 44 24
12.300673935629938 49 50 34
12.170823171653154 59 60 41
11.998081050873836 67 69 52
12.607799321295632 54 56 30
11.842775983331222 56 58 32
11.174920376097354 61 63 42
11.990786510109595 56 58 36
12.374635004652628 55 57 33
11.70037232843549 59 60 34
12.735029095704052 65 69 57
12.572924360092776 56 59 53
11.9056116273533 46 49 32
12.340933594085255 49 50 38
12.238669583694206 49 49 24
13.354339234774146 41 42 26
12.246627624087225 48 46 23
13.37201399407616 44 45 26
12.021442288818973 46 41 20
12.795923365140428 41 39 20
11.516390832014533 49 46 25
12.904775526201249 44 46 26
11.697098476969535 47 45 23
12.696474637717271 46 44 24
12.519108848710331 46 48 26
12.312196318879385 49 48 25
12.238669583694206 49 49 24
12.961405974711766 47 49 25
11.77930833085539 58 61 37
11.69805200166931 54 59 32
12.497881860583707 56 61 35
11.847463643536956 58 61 37
12.64054281449876 46 48 30
12.102668213135201 57 60 37
11.681107384196947 68 70 66
11.581355938615705 51 57 35
11.834906028224346 54 58 36
12.094615450398521 58 60 34
11.59546077848268 55 60 34
11.668233481929144 56 58 34
12.331072812550097 52 58 34
11.88311414070492 42 48 24
12.88112209414249 41 45 27
13.00712617855378 50 56 27
12.752657670954989 52 58 31
13.110315363716488 54 59 29
12.809185138810166 56 63 34
13.834740822326117 53 56 27
13.025272100234973 52 53 27
13.362914090592621 57 62 35
13.295199433508827 60 65 38
12.505289360779823 62 69 40
12.428392248748203 66 71 42
12.600475069030622 66 71 44
12.355557003751754 70 75 46
12.580543664902953 57 62 33
12.869492630660222 58 58 30
12.134007194747685 56 58 32
11.958970179916731 49 48 25
12.296821652295044 49 47 25
17.115318071972425 54 57 28
11.749260976120919 51 55 35
11.591617567416082 51 54 48
12.081492523404819 52 56 37
12.095967804922003 67 69 59
12.646055794961542 51 54 47
11.777757569836975 132 135 127
11.85525312027248 53 57 29
12.19353434793357 88 90 90
11.870004300351093 87 89 89
12.005725690910904 48 52 31
11.998081050873836 67 69 52
12.928706768670917 54 56 30
12.374635004652628 55 57 33
13.001117351772491 4 5 0
12.374635004652628 55 57 33
12.671865247458559 75 76 66
12.760635897711794 107 107 104
12.760635897711794 107 107 104
12.964718268342908 107 107 103
12.176977242391436 84 85 77
12.510438617456574 65 68 61
13.37201399407616 44 45 26
12.832197071657255 50 50 26
12.706089155310828 52 52 27
12.331072812550097 52 58 34
12.969992308873389 46 52 23
12.608354739168048 48 53 23
12.560964526352512 56 58 34
11.872108479018113 57 59 36
12.325395447992024 52 52 26
13.134679482725469 55 53 29
13.00712617855378 50 56 27
13.142029887520364 49 55 25
13.447862278767015 53 59 28
13.303776773555864 51 53 26
13.539474942885539 53 58 29
12.296821652295044 49 47 25
12.259156832326363 49 49 25
17.72030519477607 56 59 29
11.599163142293527 98 101 93
12.09037566782787 54 59 29
12.595211090971462 87 90 88
12.04623278400642 59 60 44
13.430624809066316 26 27 20
11.70037232843549 59 60 34
12.300673935629938 49 50 34
11.707847812315057 54 56 35
12.415667677879929 40 39 21
12.197436811812237 54 53 29
12.246333525447557 58 60 36
12.312196318879385 49 48 25
13.000215892129765 45 45 24
12.083692411039186 55 56 42
11.97856120563514 40 44 21
12.389745589359382 48 51 29
12.638058314676663 51 51 26
13.137581058233325 54 55 42
12.563464271939267 41 45 26
12.36382982112187 54 58 36
12.511898568189233 54 61 31
16.989896580870052 55 58 27
12.081492523404819 52 56 37
11.327082287562883 41 45 28
12.359682388388789 54 56 30
11.26545286963941 84 87 77
11.846193665039108 47 52 28
11.937641815782722 55 56 44
11.947463393120104 55 57 32
12.735809094059624 44 48 28
12.967694431028427 3 4 1
12.122324117791866 47 53 24
12.084514450175856 50 55 32
12.72762947403812 57 63 36
12.8080999080109 54 55 28
13.044458433075196 53 58 28
13.303776773555864 51 53 26
12.704592781060194 48 46 25
12.492159435630771 48 46 23
12.09037566782787 54 59 29
12.149237562856145 54 56 30
12.611700585340513 52 51 27
12.32436663381082 57 59 35
12.96382850554967 43 44 28
13.447862278767015 53 59 28
12.358902085738457 58 64 37
13.05509182994714 50 56 28
12.809185138810166 56 63 34
11.419564945818877 61 63 42
13.101365559668958 43 47 30
13.341888108364468 57 61 48
13.339236865776302 52 52 27
13.605973935915458 53 58 28
11.765471973689722 57 59 37
11.77803100344204 50 52 27
