7.584895122405804 48 50 51
7.403828178434967 33 38 25
6.25343825868319 31 34 25
6.551363825861598 30 33 25
6.551363825861598 30 33 25
7.616558341095884 32 36 26
7.463700686909514 34 39 26
6.872081271227199 17 20 13
6.852366992979968 12 15 8
7.205492969818895 37 42 33
7.565206245303761 31 36 24
7.757150370452483 49 54 44
6.841731154181334 36 40 32
7.874298346749702 54 57 59
7.119640036048624 28 33 23
7.452842750469042 32 38 23
6.860825360515251 32 37 23
6.674955599432393 34 37 29
7.452842750469042 32 38 23
7.110997889098127 24 29 13
7.788969839102108 18 21 12
6.965300488199764 26 32 12
7.373111326122062 26 34 14
7.367324658204159 28 35 16
7.5289020324753215 26 30 15
7.09181128341355 28 33 16
7.1447615722415785 33 41 19
7.457974418584311 37 42 27
7.282126554563251 33 41 19
7.14590320283928 32 40 21
6.589381282922892 28 35 16
6.676875731327547 30 35 17
6.736867244057962 32 38 17
6.679463673025267 30 35 19
7.517415691329296 36 41 25
6.974940887702032 37 41 26
6.801413224608421 27 35 16
9.645072889788821 38 46 24
11.074152451284025 43 51 29
7.6206267634633855 30 38 18
8.00144188132191 30 40 18
7.9274269200549154 34 42 20
8.595740024966704 33 41 19
7.542875954213586 35 43 21
7.1412000277500844 35 43 21
8.483642619319259 29 39 16
7.551907260024532 29 37 19
7.989613906919185 38 48 24
8.357761730818913 34 44 21
8.292083698160301 36 44 21
7.798046687801885 35 43 21
7.135214945663672 37 45 23
7.734194413704435 37 45 23
7.737473477131271 36 46 22
8.124206902696562 39 48 26
7.989613906919185 38 48 24
7.427210892231261 39 48 27
11.109691651282748 43 51 29
8.871630958404305 39 49 26
10.978847495916668 43 51 31
10.978847495916668 43 51 31
8.473450593115123 40 49 26
8.290983131679324 39 49 26
10.93823276816734 45 53 33
8.347540813055014 36 46 22
8.24736639527984 40 49 28
10.93823276816734 45 53 33
16.30558862833454 32 44 25
8.365788853279394 38 46 24
7.559556866541018 37 42 25
6.998962716858381 35 41 25
8.000617310462497 38 46 25
7.354952267961209 32 39 22
7.808141958043527 41 51 24
8.000617310462497 38 46 25
8.000617310462497 38 46 25
8.189556826388355 39 49 22
7.890762338340557 39 48 25
8.044428376538523 42 52 26
9.034339976634312 41 51 27
8.351983262481468 42 50 29
9.176291301057038 48 58 37
8.57032621299953 44 52 30
7.981525188140951 42 51 27
8.512260274072725 45 55 34
8.044428376538523 42 52 26
7.8244062885730425 41 51 25
8.205065139555302 39 49 22
8.205065139555302 39 49 22
8.217448922153707 40 50 23
8.044983284987902 41 50 25
6.966172429777657 42 52 30
7.266231892340392 43 53 29
7.197663301176541 42 52 26
6.163879880464437 42 52 26
7.21177716245885 41 51 25
7.804883134878937 41 51 25
7.519566010187228 45 55 33
7.501553531748791 41 51 29
7.057657134403303 35 39 26
7.525986830304013 52 54 56
6.804467600238265 33 36 29
7.403828178434967 33 38 25
7.219117483899092 0 1 0
7.525986830304013 52 54 56
6.912015538113352 31 36 23
7.497195962323816 54 56 59
7.732988943152611 35 41 24
7.083838534262571 35 40 27
6.916189949863577 33 38 26
6.6014718427705485 28 33 24
6.202385568382403 31 36 25
6.965300488199764 26 32 12
7.10025708796742 27 33 13
6.800213760736467 31 36 19
7.226796837572015 28 36 18
7.555147069681529 33 41 23
6.371728203485729 28 35 16
6.767141905311659 18 21 12
7.42393512041901 30 38 20
6.798871702290381 31 39 19
10.287474995440311 39 47 24
10.981164438548301 43 51 29
10.940558312008209 45 53 33
7.2763904340335985 35 43 21
7.356958091212467 30 38 19
7.6206267634633855 30 38 18
9.051039277590613 30 39 18
7.932682993381357 37 47 24
7.807818190836364 35 45 21
7.932682993381357 37 47 24
6.9972975075141965 37 45 23
8.300174338277985 39 47 25
7.406781502986307 36 44 22
8.357761730818913 34 44 21
8.657119049717782 35 43 21
7.497549612528855 40 50 24
7.543211093192214 38 46 27
7.83960582859262 39 47 26
7.823373097072759 34 42 23
7.532013421408121 37 42 26
8.000617310462497 38 46 25
9.287367879528473 45 55 36
8.920113156545197 43 53 29
8.512260274072725 45 55 34
8.044428376538523 42 52 26
8.415140407678443 41 50 25
8.106397009732804 44 52 30
8.091698628864211 40 50 24
6.628916585155688 41 51 25
7.596354179566622 43 53 29
7.804883134878937 41 51 25
6.344104989082059 41 51 25
6.869565893903211 30 33 26
7.674771476161568 33 36 26
6.591296420460833 35 38 31
7.219117483899092 0 1 0
6.341556102974783 31 36 25
7.996100716265192 33 41 19
7.367324658204159 28 35 16
7.457974418584311 37 42 27
10.93823276816734 45 53 33
8.290983131679324 39 49 26
8.301157070311168 39 49 26
8.069236738988176 40 48 26
6.973771270035237 31 36 19
7.823373097072759 34 42 23
8.63188595043973 43 53 33
8.710542563188268 41 51 24
9.287367879528473 45 55 36
8.170906191671788 41 51 24
8.415140407678443 41 50 25
8.032333609348862 41 51 26
8.460339643066774 41 51 24
6.54980046176591 43 53 27
7.331812661904383 43 53 29
7.757150370452483 49 54 44
7.674290240902478 53 55 59
7.448003886069922 28 33 18
11.111981311828407 43 51 29
10.940558312008209 45 53 33
8.290983131679324 39 49 26
10.93823276816734 45 53 33
7.286871620388416 33 39 18
7.9230654873896205 36 46 22
8.018080820861154 45 55 34
9.26089939218804 32 45 18
7.1717521729037035 43 53 32
7.391315824630477 30 35 23
6.959527376999453 34 39 27
7.000932259099964 35 43 23
7.2763904340335985 35 43 21
7.821154242234278 41 51 25
8.609750558338844 41 51 23
7.022828605582385 27 33 13
7.9230654873896205 36 46 22
