14.311813818636221 5 9 4
15.392788513272663 5 9 4
13.368964855675152 8 11 3
13.17236864529587 7 10 2
13.680996135276123 5 9 2
13.781727646742194 3 7 2
14.066461618747747 1 5 2
11.308772816214118 27 32 21
11.83059584270957 16 20 11
11.7836749719205 19 23 16
11.177015268001568 24 29 18
11.137040560706044 20 23 13
11.324737381067802 19 22 11
11.60408136322222 27 32 21
11.09037171416787 25 30 19
10.918440779605742 24 27 17
11.109831382928387 22 25 14
12.574738191126038 3 6 0
12.136833078785823 7 7 2
11.646645768479582 16 17 9
13.289646914252067 9 14 3
12.607789480302367 13 16 6
14.389797740574924 37 42 29
12.858964101795785 12 17 4
12.511260303351486 14 18 5
12.397362551986863 13 18 5
12.001700774944169 29 33 20
12.169461089498235 28 30 16
12.577542553131787 24 27 18
12.466455079955345 8 11 3
11.987459322857447 28 30 19
11.870851132158364 18 19 9
12.368187754047947 12 13 3
12.450538143746833 9 12 3
12.969414275280272 15 19 5
13.11136521950416 7 10 2
11.982873511062769 30 34 21
11.519429661741123 29 34 21
11.970905514016568 26 29 19
11.535467880224425 27 30 22
10.517917344917983 30 33 24
11.463361622570535 28 31 23
12.16268465661522 32 36 23
12.352624672383154 30 34 21
13.556032343710127 31 36 23
11.118662868761055 28 31 23
11.708714715127714 20 21 13
11.866888145735148 23 24 15
12.17672685442169 22 24 19
12.624606094324914 16 18 13
11.202634860352056 24 27 19
11.153072476439114 26 29 20
11.321440781338781 27 30 22
12.339083564832391 33 37 24
12.661565161334291 39 44 33
13.492378082378782 39 44 33
13.484371027916449 39 44 35
13.591183166628323 38 43 34
13.795784054456327 38 42 29
12.829443623713788 39 43 30
13.591183166628323 38 43 34
12.383900248693392 34 37 27
13.492378082378782 39 44 33
12.491476250650841 31 35 22
12.493967665852646 40 45 36
12.170757866506348 29 32 22
11.813962174971179 28 31 23
11.991067782770331 26 29 19
12.835434502914024 31 32 20
12.15299709727771 28 32 19
11.988371165800881 40 45 35
11.942070216647304 38 45 34
13.207606464060964 39 44 33
12.091998960787457 40 45 34
11.9676918221655 39 47 35
11.9676918221655 39 47 35
11.040526063500577 40 49 37
12.378826648547816 28 31 21
12.861696407721094 39 44 35
13.356855934660162 34 36 30
13.838843976609384 36 40 35
13.630281311322841 44 48 49
12.291525292259385 37 40 30
13.454613792031939 38 41 33
13.356855934660162 34 36 30
13.135114641070215 39 44 35
13.883344011202775 39 42 35
12.987878649671874 30 33 23
12.963948472017806 31 32 25
14.347656362035975 25 29 25
13.838843976609384 36 40 35
12.20220097853924 26 29 19
13.320770553975592 1 2 0
12.71700906310125 25 28 22
10.851689004093679 42 48 41
10.453333627382506 39 47 37
12.08201798297414 36 40 37
11.649575866379376 38 45 37
12.60665851150521 39 44 33
13.234192197676803 41 44 37
13.84307817796502 41 45 44
12.487138269670583 42 48 42
12.591650169828467 40 46 38
12.611306421541753 42 46 38
11.340397511412787 39 46 36
11.471504131290512 40 45 35
11.437434122181804 20 23 21
13.36783889753566 19 23 13
12.997059145525478 28 36 19
11.198116810435431 41 48 37
11.896009033809202 37 46 33
11.409758943158206 37 45 32
11.409758943158206 37 45 32
11.903243401791787 37 44 31
11.409758943158206 37 45 32
12.525397149652512 44 47 43
11.826933883043449 40 44 40
12.092412120437011 39 46 38
11.794847550554458 39 48 37
11.862623088894416 39 47 39
11.55914462231092 40 48 38
11.527965956707213 39 46 37
11.587621294533697 37 41 36
11.591883398851117 41 45 41
11.631448804454676 37 46 33
12.115907132029824 37 44 32
12.752043277046402 42 46 40
12.030857002576683 39 43 42
12.711355409603687 41 45 44
13.92649083211492 9 12 4
11.308772816214118 27 32 21
14.766378715311696 6 10 5
14.182874973491154 3 7 2
12.28885830440291 8 11 4
11.961229039827321 11 14 6
11.177015268001568 24 29 18
12.136833078785823 7 7 2
11.33738750800959 20 22 12
10.969063369651444 23 26 16
10.959212878126158 24 28 17
11.3493252295823 30 34 21
13.383789579335406 8 11 3
11.449622785203484 32 36 23
12.800505310405029 21 24 14
11.715747824018706 24 25 11
12.237407516899893 26 27 17
12.891469811626802 14 18 8
11.111418514633451 28 31 23
12.940922068309527 6 9 1
13.454044644534932 9 14 3
11.859270551525718 29 34 21
12.352624672383154 30 34 21
11.563521613838837 23 24 14
12.173824478360107 16 17 10
10.60405523289179 26 29 21
11.12837222097233 27 30 22
13.133494629630652 8 10 7
12.383900248693392 34 37 27
12.661565161334291 39 44 33
13.484371027916449 39 44 35
13.484371027916449 39 44 35
12.872553198325567 39 43 30
11.973040464823749 28 31 23
12.40241253450454 39 44 31
12.096844617502468 39 46 35
12.219838011093124 40 45 33
13.838843976609384 36 40 35
14.075731210133643 43 47 48
13.47736023053953 40 43 36
13.222341761604513 16 19 15
13.135114641070215 39 44 35
13.333903928267743 29 30 23
11.895642698553806 24 27 19
12.934357282431739 37 40 32
14.347656362035975 25 29 25
12.711293784227124 31 34 24
11.202151053467755 39 46 38
11.43971837027639 40 44 41
11.713975508248677 39 46 38
12.326274680873732 41 45 38
14.119484672763111 39 42 38
12.034143925356727 40 47 39
11.753609279312466 32 36 33
12.997059145525478 28 36 19
11.576287254173899 39 48 36
11.336040854276595 40 48 37
11.409758943158206 37 45 32
11.771966757200271 30 39 22
11.441259740145647 39 47 35
11.903243401791787 37 44 31
12.894028781718262 27 35 19
12.226191675343209 36 39 36
12.495104538316701 37 45 33
13.256040505721751 31 34 30
12.752043277046402 42 46 40
11.215435655797284 38 47 35
14.665717440903022 2 6 3
11.48819875930494 20 24 11
11.82146326366555 21 26 17
11.840384919107924 16 17 10
11.33738750800959 20 22 12
11.83059584270957 16 20 11
13.928628481880502 2 6 0
13.76255497677625 34 41 28
10.93245549384287 26 31 20
12.815987608973291 18 21 13
12.137285890738305 18 19 5
11.41974522374224 27 31 20
11.340503955470698 23 24 15
12.17672685442169 22 24 19
12.99271441975822 38 41 31
12.829443623713788 39 43 30
11.340397511412787 39 46 36
12.034143925356727 40 47 39
13.460013452251982 24 25 20
11.85165389816874 29 32 24
13.47736023053953 40 43 36
12.861696407721094 39 44 35
13.265821391947727 33 37 24
13.883344011202775 39 42 35
12.378826648547816 28 31 21
13.484371027916449 39 44 35
12.066706222371632 41 45 40
12.910238556849416 5 8 0
11.346903606240659 29 33 20
11.274838399427528 28 31 22
11.153072476439114 26 29 20
11.112903021586481 39 48 36
12.117303551478662 40 45 36
11.76627127918443 48 51 45
11.597301276907091 40 46 39
11.836418153972984 42 47 41
12.24049952815825 41 47 39
13.956111674165932 0 3 0
13.25705698723975 36 41 28
11.796807819809684 25 28 20
12.042397805065846 30 31 19
12.033425970857671 31 32 20
12.976078737226725 37 42 29
13.451255114976592 38 43 34
13.815675050759939 40 45 36
12.709856227223783 40 45 36
12.27250248976662 24 27 21
11.42558240451618 38 42 38
11.91645925804607 39 45 38
11.677104593639994 34 43 27
11.180394353890518 39 48 36
13.25107975377086 31 37 18
11.274838399427528 28 31 22
11.999410809443079 32 36 23
12.508756433765095 32 35 24
