23.16787527392689 48 42 27
12.888267750824001 42 50 29
12.421721192058147 50 54 32
13.365558223697166 50 54 32
14.30496541991796 68 73 72
12.612679784225124 70 75 76
13.123299129998179 68 73 73
12.583601401111626 19 28 14
13.60031583868149 72 78 73
13.138858460843473 70 74 73
13.249329219393001 35 45 19
12.786254844092085 52 61 51
12.645594423455645 25 35 15
12.538171138808428 30 41 20
12.873534539635836 28 40 18
12.873534539635836 28 40 18
13.164039108255142 37 45 29
12.679501946311719 38 47 28
13.332579264906927 72 76 77
12.528085902717077 28 37 19
13.347308227791139 41 47 31
11.582131449164272 49 54 30
13.251484723477189 70 73 76
14.29462268540052 30 36 25
14.370783016151307 70 75 69
13.938429821618154 70 73 75
13.75276471027424 71 76 75
13.975754146216945 71 74 77
13.711208862100916 45 52 46
14.613736091794893 70 75 69
14.061104900687395 35 42 32
14.77903900274368 65 69 64
14.379031576968627 40 45 34
13.815062784661706 28 34 25
13.815062784661706 28 34 25
14.379031576968627 40 45 34
14.196179213041775 45 50 36
13.858254806250933 45 51 29
12.12454041148407 49 53 31
13.58568909923802 47 51 29
12.463588385234498 49 53 32
12.82842602543992 48 53 31
12.82842602543992 48 53 31
12.103011787681021 54 58 41
12.908956225124982 58 63 42
11.797702451675033 55 58 46
12.868538097191427 59 63 45
12.868538097191427 59 63 45
12.743073322045676 51 55 40
12.982965558590276 59 63 45
12.650599696036693 58 63 41
12.982965558590276 59 63 45
15.288555229037751 71 79 56
13.756373331010495 58 64 40
13.349095968258727 58 64 38
13.517325371387606 60 66 41
14.744439552677292 67 76 47
14.797300355539793 57 65 42
14.419454003522558 65 73 49
13.98496444367735 56 62 36
14.896919807421005 59 65 38
14.136523100641337 57 63 40
13.743958089042392 58 62 43
13.244566432711265 60 65 42
15.08243414831425 58 66 43
12.567307251614016 49 59 36
12.567307251614016 49 59 36
13.085653317697092 57 65 43
13.085653317697092 57 65 43
13.332443316104314 53 62 40
13.555501125600784 57 65 45
13.129634467181228 46 51 38
13.336882965579198 49 54 39
14.613033908557645 53 56 51
13.795496191510981 48 52 37
13.820948012908064 46 49 40
13.839737208548616 44 48 37
13.930471924090106 38 43 31
13.336882965579198 49 54 39
13.173302243200622 49 54 37
12.664237580678837 52 58 34
12.567404090242373 50 58 35
13.251807135387617 48 52 31
13.543530764692584 50 56 33
12.692054062143054 49 53 32
13.251807135387617 48 52 31
13.310505566357847 53 59 38
12.25256080816361 54 62 40
13.479216611443741 51 57 37
12.25256080816361 54 62 40
13.310505566357847 53 59 38
13.882589473855582 49 54 39
13.152151520561041 50 58 38
13.49839132909652 50 55 38
13.472239815893431 49 57 37
14.308429631568476 51 56 43
13.938904060478933 67 72 71
13.880662554965062 42 47 33
12.869672913112938 40 48 28
12.573552604648702 27 35 24
13.444482700367852 46 50 31
14.370783016151307 70 75 69
13.138355343764163 53 59 53
14.45474717422607 41 45 37
13.910095145218769 70 74 74
11.98440849101625 41 51 27
13.71985397350543 44 49 33
13.910095145218769 70 74 74
12.645594423455645 25 35 15
11.896394504886258 49 53 32
12.68153434764006 49 53 31
12.804883292609695 47 53 28
13.102787065564291 53 58 37
12.760167851190603 54 58 39
12.640411604343917 53 57 39
12.17793749221848 56 60 41
13.822427734111765 69 75 46
13.332665272153388 59 66 44
14.331815367688947 68 74 50
14.54855843740544 60 66 45
12.305181409889599 51 59 36
13.237518224349548 55 65 42
13.919381335217224 58 66 46
13.077315090053343 48 53 38
13.343748124754612 48 53 42
13.67148336059191 43 48 34
14.061347473873928 51 54 49
14.014085887945198 49 54 42
13.820948012908064 46 49 40
13.479216611443741 51 57 37
13.251807135387617 48 52 31
13.073066569746608 51 57 35
13.026296957933976 49 56 37
13.251807135387617 48 52 31
12.824171224434679 50 58 36
12.275324006676994 34 45 24
13.250452938510836 47 55 47
13.332579264906927 72 76 77
13.249329219393001 35 45 19
13.71985397350543 44 49 33
14.45474717422607 41 45 37
14.067616635644814 36 42 35
12.330707938031624 48 52 31
13.382476240491984 46 52 30
13.205504439848127 50 53 31
12.982965558590276 59 63 45
14.21615111473909 57 65 40
13.208346529896458 60 66 45
13.536227492511197 58 66 44
13.237518224349548 55 65 42
13.332443316104314 53 62 40
13.648431605333363 61 68 43
14.896919807421005 59 65 38
12.600639312327868 52 55 45
12.411521984551706 51 56 40
13.795496191510981 48 52 37
13.336882965579198 49 54 39
12.65415664391418 57 63 42
12.005116090516427 48 56 34
13.718928620136435 48 55 37
13.152151520561041 50 58 38
14.0260017293089 49 54 39
13.115276168469212 62 69 63
13.275919839331095 36 45 25
13.704527780292869 31 39 26
13.138858460843473 70 74 73
13.03317926117354 52 56 41
13.648214784480507 51 59 37
13.332443316104314 53 62 40
14.21615111473909 57 65 40
13.322998765936807 58 63 40
13.499584467539284 37 41 30
13.166348210926934 46 53 32
13.310505566357847 53 59 38
12.917785423949674 14 24 10
13.89385211248056 51 58 50
13.244566432711265 60 65 42
12.64377891315113 49 54 40
13.460776908892996 41 48 34
13.245577152815093 40 49 26
13.648214784480507 51 59 37
13.45697551633749 42 47 34
12.273652038939108 50 58 38
12.800905884885665 53 55 31
