11.66692132166638 34 40 15
11.28188518341182 31 37 14
11.097113846045373 31 39 15
10.962825098465462 32 38 15
10.76530333807145 31 37 14
11.021510606244458 31 37 14
12.098691352531896 35 42 19
12.24422548895631 34 41 18
11.236875394248253 29 36 12
11.251593731867642 30 36 13
12.081401927206 33 39 16
12.151892624107774 33 39 16
12.538389837950575 34 40 17
11.575298650056425 31 37 14
11.413996540075262 32 38 15
11.338919489779528 30 36 13
11.256960511330078 24 31 6
10.551302413571978 20 28 3
11.334310586757459 21 30 5
10.697073514508197 22 30 7
10.348718259575655 27 36 13
9.795884633949209 26 35 10
10.511191509389858 34 44 19
12.108596490685896 44 52 30
11.12152156024941 32 40 16
11.18760254163801 44 52 30
11.206271036647225 43 51 28
11.827130022408834 44 52 29
11.674719032340677 42 50 28
11.17333460250395 27 35 11
10.663338702539637 37 45 21
11.102710565351115 38 45 21
11.764641760478371 39 45 20
11.986229237967429 35 42 17
10.161660902349098 28 37 13
9.531069844314281 33 41 17
9.752558962843896 33 39 14
10.00613504005907 31 38 14
10.161660902349098 28 37 13
10.566875684963662 40 47 24
10.206403332393903 45 53 30
10.79091732395194 44 52 29
11.484753155246814 45 53 31
11.18965001288931 47 55 33
9.776420448430164 41 49 25
10.664208491729095 42 50 28
11.169733263714013 46 54 32
11.169733263714013 46 54 32
10.864823387668118 44 52 29
10.030752474861286 47 55 32
10.21349603180859 45 54 28
10.793040047811115 47 57 33
10.937382105791446 45 53 31
10.753161239506074 31 40 15
11.594570369948723 42 50 27
10.733704706469366 34 40 16
10.700587770290818 34 40 17
10.592959947571098 34 40 17
12.229909072357211 41 47 24
11.691678296188677 41 47 24
11.431013737646724 37 43 20
11.24172126017258 37 43 20
11.287390286401658 41 47 24
12.143432161042085 43 51 28
12.341303834093528 43 50 27
11.904798358968861 43 50 27
11.808151666914503 42 50 27
11.383726384102548 43 50 27
10.719910877992492 47 55 33
10.719910877992492 47 55 33
9.502359546947673 44 50 25
9.79672355786946 22 29 5
9.35047864089855 42 51 24
9.908004603409626 46 53 28
10.037969287669906 47 57 31
9.829236056256905 46 56 30
10.037969287669906 47 57 31
10.179597907863155 46 56 30
11.702717213197804 49 62 35
11.579732467829668 48 60 36
11.132980645627885 49 62 35
11.437073235819238 48 60 36
11.678552319716665 49 61 37
10.886453326159112 45 58 29
9.534622654190228 48 62 35
9.87383337491075 47 61 32
9.307480828340921 49 63 34
9.910153351628853 50 64 36
9.79384302885995 50 64 37
9.601587119872336 47 57 27
9.822538032471561 47 56 26
9.481492342540092 48 58 28
9.111237383790224 45 53 22
11.054209211892179 33 40 21
10.630356204433989 30 38 17
10.651281578363358 35 41 19
11.733135079569783 37 43 20
11.733135079569783 37 43 20
11.224620499802352 42 48 26
11.367021781276236 29 37 12
11.300985602004786 41 49 25
10.920393809625036 39 47 24
10.50487506396148 38 45 22
10.852685941402894 37 44 18
9.74937381652979 39 46 25
10.99446184653287 32 39 16
11.225152727494242 41 49 27
11.25537173933323 40 47 22
11.222579408642861 40 46 21
11.679193602416111 40 46 23
9.78710346434138 41 47 25
11.463877938894303 40 49 23
11.367021781276236 29 37 12
11.202721203121156 33 39 16
10.836378522221644 44 52 30
10.474677926109159 44 52 30
10.596720512613048 47 55 33
10.902389352300249 48 58 35
10.596720512613048 47 55 33
10.070610043005942 37 43 22
9.569884172698375 38 43 25
10.931498140478503 35 40 21
10.424973967881444 34 40 23
10.647909275346155 35 39 22
10.106813986938691 38 44 23
10.368009261322594 41 47 25
10.813845189689339 39 49 28
10.177882154842521 39 48 28
10.573676462429466 39 49 26
9.965744199456312 46 56 33
10.301217226293652 41 47 26
10.59399454644741 43 50 28
10.296990303350649 41 47 25
10.407996424151396 42 53 31
10.983571002925343 41 49 28
11.563171246017687 43 52 31
11.563171246017687 43 52 31
10.557604056772568 39 49 28
11.563171246017687 43 52 31
10.904941311126416 47 61 37
10.461842011019748 48 62 37
10.086719805882867 48 62 37
10.401884015014412 49 63 36
11.239023007869516 51 65 40
9.778935683145516 50 64 37
9.929086167315202 50 64 39
9.717060032612713 50 64 39
10.698620022212625 51 65 41
11.02053773759941 51 63 39
9.711066294068399 48 57 29
9.622712026588102 46 55 27
9.555895598212784 51 61 33
10.036512557967463 49 61 36
9.818380286233424 50 62 38
9.711113496033605 44 58 33
9.498239022815715 49 63 38
9.658954043616466 49 59 35
9.862357291894256 51 65 40
9.445997917144082 49 61 37
10.50037489802834 50 61 37
9.60402044806452 49 63 38
11.414774973753671 49 61 37
10.737167018598623 51 63 39
9.654445928208574 49 59 35
10.011747849627778 51 62 38
15.196733385036456 40 44 17
14.340824924430978 26 29 3
14.666796441546678 30 31 4
16.05356735076218 38 42 15
15.49657382920188 28 30 4
11.86628661223922 49 59 35
12.498001802572986 45 53 32
12.611299882751897 44 52 30
12.611299882751897 44 52 30
11.424402819620628 49 59 35
12.05137061591979 50 58 35
11.474039987702158 49 57 34
12.004120953565177 49 60 36
11.273650244294013 50 64 39
10.860019590509532 50 64 39
11.592184852549854 51 63 39
11.775845100651512 50 62 38
11.462127460926414 47 61 36
11.462127460926414 47 61 36
11.586360605301866 47 62 37
12.158358941853864 51 63 39
11.715038873228458 51 63 39
11.616813574401629 51 63 39
11.794368920025295 50 64 39
10.965026387797833 50 64 39
11.43745426407497 50 64 39
12.040029319457249 48 60 36
11.775845100651512 50 62 38
11.155984136910774 46 54 32
11.014507170480778 49 59 35
11.778616720603 46 56 33
11.67682537313592 50 60 36
11.308889254709685 50 60 36
11.730268453724161 49 59 35
11.646299795918473 51 65 40
11.713737103942467 49 61 37
11.767012541082968 48 60 36
11.767012541082968 48 60 36
11.480208765435512 51 63 39
12.545004319682363 51 63 39
11.954909399967299 49 61 37
11.677619674603983 51 63 39
12.074073252510692 50 62 38
11.884030772859251 50 64 39
12.039036889694032 50 64 39
11.388546580175205 33 39 15
11.179854878880818 30 36 13
10.804067557867208 32 39 14
11.90195555179302 32 38 12
11.008265888172721 31 37 14
10.31394278046836 34 43 17
10.31394278046836 34 43 17
10.778442294609656 28 36 13
11.674719032340677 42 50 28
10.960148365885058 32 41 15
11.248692256910262 33 39 14
10.154531997392189 30 39 14
10.411338345705735 33 41 17
9.796831438359519 31 39 15
10.420591581126024 45 53 28
10.185902466957366 47 55 32
11.098693666357878 46 54 31
10.993723509780446 39 48 23
11.542392207897846 48 58 34
11.725250322266831 46 54 33
9.935542795384448 39 45 21
11.416868277482493 46 54 33
10.937382105791446 45 53 31
10.185902466957366 47 55 32
10.831705004657437 46 55 31
10.753161239506074 31 40 15
11.808151666914503 42 50 27
11.702984800858287 37 43 20
10.899282398788895 34 40 17
11.946792048183681 41 48 25
11.915902644586286 41 47 22
11.548935585856096 37 44 18
11.745562437545637 37 43 20
12.083708128987544 43 51 28
12.229909072357211 41 47 24
11.789279857583384 42 48 25
9.941789507673256 18 23 9
8.880678179406305 45 52 27
10.15904294944355 47 60 33
11.380913765545888 49 63 36
10.395650041926494 50 60 34
11.579732467829668 48 60 36
10.017123714074367 48 58 32
10.25567585960757 45 54 28
9.14433525488773 47 61 32
10.124372456189693 48 62 33
9.654056522345902 47 61 32
9.639552767052304 47 61 31
9.637861014016298 45 54 25
11.077576217489828 31 38 16
10.76227712540485 42 49 27
11.805705426469824 37 43 20
11.202721203121156 33 39 16
10.794345582294946 39 46 22
10.920393809625036 39 47 24
10.340406572091611 39 47 25
10.539900593303814 39 46 24
10.659047598268494 35 42 18
11.05613254090899 39 45 22
10.471920190845697 43 49 27
11.045302505752488 48 56 34
11.045302505752488 48 56 34
10.452827513945488 44 52 30
10.329084909592916 42 50 28
10.026190633985044 42 50 28
11.081505398197848 33 40 17
10.135052882609703 35 42 23
11.541770899451782 35 41 21
10.555121247967413 37 42 22
9.778644986967894 40 44 25
11.426736866240416 44 54 31
10.747195825975725 39 48 29
11.184932215919956 46 56 33
10.738030827636381 51 65 40
9.778935683145516 50 64 37
10.578630009739465 48 62 37
9.51930937510414 50 64 37
9.466093115049864 49 59 30
9.549223107059593 47 59 35
9.70854053073008 49 63 39
9.654445928208574 49 59 35
11.230832171342533 45 59 34
14.613065852729656 30 35 8
16.2880006375345 21 25 0
11.739128659699178 51 63 38
12.022293053113579 49 63 38
12.494697688932284 51 63 39
11.896802678875778 51 63 39
11.715038873228458 51 63 39
12.379583361011878 49 61 37
11.902610810632067 50 60 37
11.159013480767678 50 64 39
10.965026387797833 50 64 39
12.379583361011878 49 61 37
11.592184852549854 51 63 39
11.682514053575586 50 64 39
11.3478153311923 50 64 39
11.359031209998523 48 58 34
11.472477869511165 50 62 38
11.835329445598296 51 63 39
11.677619674603983 51 63 39
10.962789533423512 49 59 35
11.767012541082968 48 60 36
11.713737103942467 49 61 37
11.554367794004586 51 63 39
12.273063211055932 48 60 36
11.388546580175205 33 39 15
12.0934714083901 33 39 16
11.338919489779528 30 36 13
9.721192501681143 33 42 16
9.718116223324925 42 51 25
11.18965001288931 47 55 33
10.965061945584573 18 27 3
11.22150858047472 30 37 12
11.71084540755611 40 48 24
11.827130022408834 44 52 29
12.143432161042085 43 51 28
10.719504344454913 47 55 31
9.721192501681143 33 42 16
11.003518489378175 23 32 6
10.700587770290818 34 40 17
9.822538032471561 47 56 26
10.25567585960757 45 54 28
9.188096576426961 41 46 21
10.720677494439144 47 57 31
11.605087103447001 42 50 29
11.463877938894303 40 49 23
10.418240654708514 41 50 32
10.427171189363596 40 49 28
11.23562737585919 44 54 31
10.638137500226199 29 37 14
10.418240654708514 41 50 32
11.092505926770455 32 40 16
11.376893317416028 47 57 34
10.456104418104305 38 44 23
10.211582809199117 51 65 40
9.759376369455046 50 64 39
9.51930937510414 50 64 37
9.747992742359347 51 62 35
9.497262451072519 47 61 36
10.332097974687464 48 62 38
9.555895598212784 51 61 33
14.798264632026454 31 32 4
16.59331731362399 31 37 10
15.126613098694643 25 27 0
11.424402819620628 49 59 35
11.474039987702158 49 57 34
12.040029319457249 48 60 36
11.902610810632067 50 60 37
11.273650244294013 50 64 39
11.954909399967299 49 61 37
11.730268453724161 49 59 35
12.273063211055932 48 60 36
11.884030772859251 50 64 39
11.155984136910774 46 54 32
10.658329033288489 31 37 14
12.151892624107774 33 39 16
11.411755076392604 30 37 14
11.251593731867642 30 36 13
11.522319989809947 31 37 14
11.064598782711412 40 47 24
11.674719032340677 42 50 28
10.66022097667253 41 50 26
10.420591581126024 45 53 28
12.090960806147855 45 53 31
10.58618080374536 42 48 26
11.381626984933197 40 49 30
11.374354328206449 41 51 28
10.401293365195937 38 45 23
10.539900593303814 39 46 24
10.300896769907467 35 42 22
10.846577678115752 50 64 39
10.981875707577348 32 38 14
11.65427142284868 32 38 14
11.048604145163376 47 57 33
10.759302053325388 49 63 38
9.962306002276408 50 62 38
11.163600083318086 47 61 37
10.978608515699914 40 46 23
9.185969789581824 51 63 39
10.539997156979693 30 37 16
10.58736872686377 45 59 34
11.089417079785262 41 49 25
9.875046383041818 48 58 32
11.012127376137865 41 49 26
10.260830464585554 49 63 38
14.931490930821194 29 34 7
16.05356735076218 38 42 15
11.794368920025295 50 64 39
12.498001802572986 45 53 32
11.604248335999621 51 63 39
11.1981471319435 27 35 12
11.875864974450662 44 52 30
10.406487108487577 50 64 40
11.111741649977287 50 64 39
12.935867304187608 45 53 30
11.431013737646724 37 43 20
11.126218608930541 33 39 16
12.308655406147098 33 39 16
10.666356432088484 46 55 29
