10.259222441495627 35 38 6
10.800902087882902 23 25 0
10.782075488064507 32 35 6
10.220918906211992 27 29 2
11.915430293367326 22 25 0
10.990299503546671 21 23 0
16.692346555063587 37 46 17
17.192173652029307 37 43 16
10.858027119494421 25 29 7
11.175927444487023 36 43 11
11.573384295221597 40 47 17
11.536357693228561 20 24 2
11.752978908220904 27 32 6
12.457025231091773 27 30 0
11.57981649867025 34 38 7
11.71042355951822 37 42 13
10.761501695221769 18 22 0
11.834876985736312 18 23 0
11.130193766344023 28 34 9
11.03042503305521 8 13 5
11.03042503305521 8 13 5
11.54789466136934 25 32 0
11.849787750963937 25 32 0
12.670622202895956 33 39 3
12.608424185887287 34 40 9
12.066937919809122 37 42 12
12.578017843697895 33 39 6
11.767849708789978 41 46 17
11.83995421066909 46 51 26
11.291684524616782 50 58 32
10.88294724652553 50 55 30
12.799187572179918 32 38 9
12.369831184194762 39 44 16
12.182659045119086 45 50 24
11.878391086047447 50 55 30
12.333669784443487 48 53 28
10.91043599711062 37 41 8
10.722523410466435 37 43 8
10.6198025246861 38 44 8
11.069001656861893 41 47 11
11.697961256984389 39 45 9
10.105589597456872 37 40 7
11.409865600383165 38 41 6
11.800218963636164 44 51 17
11.546801239190566 40 45 14
11.136022412183058 43 49 16
10.569447672736535 41 47 12
10.975305136953223 43 48 16
11.48216233559723 37 44 13
12.26952091926083 39 48 14
11.386312781039756 41 46 11
11.660515367596998 41 47 11
11.495137773435706 39 46 10
11.935564181075181 39 46 10
11.798380866164683 39 46 10
11.002389587349377 39 46 14
11.397581713976919 45 49 27
11.70971364541368 49 51 30
12.293865237993955 50 49 29
12.0342310593651 53 55 34
11.079476773471134 41 48 18
12.245227701938573 45 51 24
11.839133548015827 54 58 37
11.8084553887068 54 56 34
11.687042264866612 49 51 29
11.726108878720051 50 52 30
12.064093914635281 48 52 30
12.057132004335534 44 48 26
12.160721199600466 36 42 19
11.754116872739996 48 51 30
11.640399663087276 42 48 22
12.475889964824 50 52 31
10.906838088526687 53 61 38
10.546954721881725 52 61 35
10.288908246098963 54 62 34
10.720318630034077 52 61 35
10.2795588559029 55 61 34
10.020650129332317 54 61 33
10.699481475514004 51 60 34
14.793267150494586 50 48 25
9.802751099777618 52 61 33
9.598660958612978 53 59 34
11.788866860722631 47 50 30
11.678146883165757 50 54 33
11.678146883165757 50 54 33
11.017427827835135 55 59 37
11.156430827832413 52 56 35
14.872856894394598 45 52 18
13.05033655299942 53 57 35
12.652954306781975 49 51 30
11.831024892815307 55 59 38
11.831024892815307 55 59 38
11.042751425485527 54 62 34
10.960300367937238 55 61 38
11.469862849908873 53 61 35
11.137385239094042 58 64 41
11.825778931610314 60 65 40
10.207254600100606 34 37 6
11.201280730951963 25 27 3
11.380072039988915 34 37 4
10.647950148724048 32 35 5
10.948035643164236 35 42 10
12.256400263066668 32 35 5
11.087068281417187 33 39 10
11.962954948964349 41 46 17
11.645092721969734 27 33 9
11.115970851733772 6 12 0
11.878942615337555 15 19 0
11.598402397578347 16 23 0
11.493945553408395 29 34 9
12.575429516216778 36 41 11
11.253037074289283 48 53 28
12.194874024259107 43 48 19
12.979967706025832 38 43 14
11.637760532612363 43 50 15
11.774973246051829 40 46 10
11.312426864372064 38 44 8
10.76307596814878 39 45 9
11.592123862497267 36 39 6
11.312426864372064 38 44 8
10.754138815891782 40 46 10
11.667811403983839 44 49 19
11.012124973052538 41 48 12
10.875971177643361 39 46 14
11.272736748343585 42 49 13
11.673497830599446 55 58 36
11.812920345974353 50 52 31
11.555230775192939 49 51 29
11.299091915225091 38 45 15
11.502526175495749 38 43 16
11.641332962713987 47 51 28
11.813051328546017 54 58 37
10.617271372177283 54 60 37
10.822085480817789 51 60 34
11.03191804863744 55 61 38
11.958094166784486 53 57 36
11.207871414342565 58 62 40
11.713669261112225 48 51 30
15.424852688148547 22 22 0
15.404783044054762 44 52 16
13.152612807647825 40 46 10
13.130755978991042 49 53 31
12.267864206156519 49 51 29
12.284288000200913 48 53 28
12.606795001663658 57 63 38
11.250821719071123 53 62 34
12.125102655457686 57 64 41
11.63093362459063 56 63 40
15.82536353104319 33 39 14
11.884797123923752 27 34 2
12.544943202041662 32 38 5
12.909293052235784 46 51 25
11.475691494387034 45 50 18
11.31338722019783 37 42 7
12.175523501281228 42 49 19
11.837970038214417 44 48 27
11.8084553887068 54 56 34
11.647044694862254 54 58 37
12.12574344346358 48 50 29
11.179901448222267 48 51 30
22.052793822639945 22 24 3
10.404878157096604 52 61 35
11.282591978359438 51 55 34
11.49549689773839 49 53 32
10.987337157774478 21 23 0
11.134791741163891 40 45 20
11.450804210968249 43 48 22
11.86507723643618 39 44 16
12.970777780876116 17 21 1
12.950433740789869 33 40 5
12.799187572179918 32 38 9
11.095030669341376 36 41 6
11.312261010365376 34 41 9
11.436961263742514 54 58 36
11.810061174920586 42 47 14
11.799301669821386 40 47 10
21.711501883026862 15 15 0
11.918094667045432 48 50 29
11.691818272411293 53 59 36
11.03520479389065 21 26 11
11.391204825969378 47 52 27
12.78596027064195 48 53 28
21.909114771804404 20 17 3
12.37506432631702 55 59 38
12.569478280989085 51 53 32
10.651006888025139 30 33 4
13.034665829200199 44 49 14
10.045832669078594 54 60 37
12.738120366942308 24 30 2
