12.032303543970867 22 23 15
12.147536238679335 12 12 12
11.42113596991894 12 12 7
12.22033033463415 9 9 9
12.387031605303967 12 12 12
11.969880728925736 11 11 13
12.458426417824656 12 12 12
14.106758738163707 12 12 12
12.008088002880378 11 11 10
12.700963243454058 12 12 12
11.914792245660925 11 11 11
12.673998489782813 12 12 12
10.649409760709505 13 14 6
12.271667167591929 10 10 10
11.196682843461835 11 11 9
12.271667167591929 10 10 10
11.565384440251965 15 16 9
11.011976579790428 15 16 9
11.692642975451786 13 13 13
10.505689008801351 10 10 7
11.123025424944368 27 28 15
11.712214400423516 12 12 12
11.901009729077359 11 12 6
10.921796297764459 35 36 19
11.961349742327084 28 29 18
12.151380116990929 36 38 18
12.453750191579914 38 40 19
11.627466290533656 33 34 18
8.921148624127023 33 34 16
8.85895137236721 34 36 15
9.268164237249605 28 32 15
8.667688640211848 32 34 15
8.65546530534692 33 35 16
8.667688640211848 32 34 15
9.324113138957122 34 36 15
9.371937498312514 35 37 16
8.64967345099157 33 35 13
8.819106151382245 30 31 15
8.571152650284503 34 33 14
8.605045545714056 33 35 13
8.426540888429432 31 33 14
8.098687698245152 33 35 13
12.325294500810275 12 12 13
12.254021947514238 12 12 13
11.51777939826153 9 10 8
12.60584831042617 8 10 8
13.229946950184743 10 10 10
11.263620169317992 5 6 4
11.263620169317992 5 6 4
12.512930507862523 10 10 9
12.78058965226455 12 12 10
12.248957882649949 12 12 14
10.897020447784742 4 5 2
11.55416939782411 23 24 15
12.410507768827738 10 10 7
11.17375823919009 32 36 20
11.282239734288835 30 31 21
11.796125745851425 35 37 24
11.913643049366243 10 10 5
10.715916526917324 7 7 3
11.870147987850961 30 31 19
12.504837101770258 13 13 15
11.790865020544953 36 38 23
11.908434239163613 11 11 10
12.596596765437647 35 37 19
11.846529801598294 32 33 17
13.313767354147677 35 39 22
12.521914180757767 34 38 20
13.668223766322784 38 43 23
14.038109213306742 40 46 24
13.668223766322784 38 43 23
13.818264203781142 40 46 24
12.297153268683978 40 42 19
12.297153268683978 40 42 19
13.688172608816046 41 46 21
14.439818744409568 42 49 25
14.226182927692642 43 49 24
12.815183263540563 35 41 20
11.9214555960965 30 36 23
11.234185146334452 31 38 24
11.77033974161321 31 38 21
12.884837019787282 34 40 20
11.313576748777209 31 38 25
11.332114231412028 31 37 20
13.149096364382968 40 48 27
12.612881368486994 34 41 21
13.867172326027847 40 49 25
12.806428407468884 40 48 28
12.422348185852432 34 42 21
14.227528000288062 40 49 26
13.638282842633897 39 47 24
12.90111697217646 34 42 20
13.864077897477765 42 48 25
14.270687125503304 43 49 27
12.391315204028027 39 45 22
13.110250730495348 40 47 24
11.541150026916188 40 46 24
11.541150026916188 40 46 24
12.622217672147473 40 48 26
12.534372019029218 40 47 24
12.219747486057797 39 45 23
12.318436280074613 40 46 24
12.22840853646169 39 43 22
13.990181030363912 37 40 29
12.876129523423437 41 48 27
12.967072120014333 34 39 18
12.61946245770594 34 40 17
13.086213473022122 35 41 19
13.107598100904355 34 38 19
13.47587588705024 35 38 25
12.306938277780505 39 45 23
12.663129803382036 33 39 17
12.707287131561706 38 42 24
12.256353655437785 36 41 19
11.695227652358412 38 44 21
11.81831106735189 39 45 22
12.409933852183494 39 46 23
12.256353655437785 36 41 19
12.343285870352604 36 42 19
12.292775584519816 38 44 22
13.666227827369845 35 39 20
13.067667480068277 38 40 21
12.199179409066895 12 12 13
12.734683793047672 11 11 11
11.905297605470166 13 13 13
12.387031605303967 12 12 12
11.68827708638712 19 20 13
11.712214400423516 12 12 12
11.582648869669503 11 11 9
11.059106912101587 34 36 16
10.506736302280459 37 39 16
8.60365928008896 33 35 16
9.064714218501196 34 36 14
9.783104200255046 34 36 15
7.769210645788045 32 34 13
8.819106151382245 30 31 15
8.845038141209686 31 33 16
8.185868372037078 30 32 13
8.27951535986322 30 31 14
9.234441900780705 34 36 14
12.211359820966855 7 10 7
13.309153797590676 11 11 11
11.375017007687749 12 12 12
12.539313975826584 35 36 26
12.060703054416352 12 13 10
11.986939615650693 12 12 11
11.913643049366243 10 10 5
11.266706952800781 34 36 23
11.461882297179066 19 20 13
11.558585941923646 11 11 10
11.541365649243799 22 25 15
11.541365649243799 22 25 15
11.908434239163613 11 11 10
11.982680954028453 16 17 9
11.074428930478494 32 36 23
11.154957601200001 28 32 24
13.590300079359642 37 41 21
13.837996749817881 42 49 23
14.439818744409568 42 49 25
13.818264203781142 40 46 24
14.080489906709401 42 47 23
11.845921317875689 39 41 19
13.546385884021799 34 39 19
11.110214846579094 32 40 23
13.23286183149657 40 48 26
13.149096364382968 40 48 27
14.343581261540887 42 52 26
13.110250730495348 40 47 24
13.839379550932819 42 51 27
12.219747486057797 39 45 23
12.42683597376535 42 48 26
13.216990510255352 37 43 20
13.216990510255352 37 43 20
11.656938843293528 37 43 21
12.343285870352604 36 42 19
12.023585285965895 40 46 23
12.481538360814172 11 11 11
12.387031605303967 12 12 12
11.901009729077359 11 12 6
8.641224447585628 29 33 16
9.383227546205488 34 36 15
11.037380717687443 11 11 9
10.669853761096594 32 33 19
11.608699845520992 38 40 18
12.009004274332165 33 34 19
8.909273037805624 34 36 15
9.371937498312514 35 37 16
8.526113756542541 33 35 13
8.23276885192898 31 33 14
10.89627406541521 32 36 20
10.906647133335163 4 5 1
12.46428817316048 30 33 18
11.074428930478494 32 36 23
11.266706952800781 34 36 23
11.550455320081287 27 30 19
11.558585941923646 11 11 10
12.337599250551918 40 46 24
13.011328658794831 34 40 20
14.057533166498258 43 52 26
12.940590408213803 36 42 20
14.00486027540857 41 46 21
12.748514874376568 35 43 23
12.892420471241053 42 48 26
12.183107238254635 37 43 20
12.3642581404578 33 40 21
12.605577529798992 40 48 25
12.707287131561706 38 42 24
12.143417123406527 38 47 21
12.988652904707967 39 43 26
12.354750045646641 38 42 21
11.675541193629867 10 10 7
12.22033033463415 9 9 9
12.770603123154482 12 12 11
8.260541712224326 32 34 15
12.03259435642397 10 11 9
12.512930507862523 10 10 9
11.55416939782411 23 24 15
11.77033974161321 31 38 21
14.038109213306742 40 46 24
12.948697894568568 38 44 21
12.606149345879894 36 41 20
13.990181030363912 37 40 29
12.256353655437785 36 41 19
13.666227827369845 35 39 20
12.692923631107673 28 29 20
9.0935562971568 34 33 15
11.649020921431562 10 10 10
11.704410450676077 12 15 11
12.539313975826584 35 36 26
13.39330003545044 35 39 20
13.46545689173331 42 48 26
12.273467278257673 40 46 24
12.251727935230273 35 42 21
12.306938277780505 39 45 23
8.517542188581581 29 30 16
12.469264787581363 30 34 19
12.948284056732668 38 40 21
12.565692117862245 12 12 12
11.565384440251965 15 16 9
11.990834976215409 36 38 17
11.582648869669503 11 11 9
