20.225695077503683 39 46 23
20.161899023003322 36 44 22
20.54300787864483 35 42 20
17.36210871265303 48 57 27
16.837862238059575 46 55 25
9.738796874057162 30 37 8
10.0996073962209 35 40 15
11.119743336109897 34 39 13
11.066668157970899 34 40 10
11.20251249503056 38 42 19
9.671334591706577 32 37 10
10.637708092223061 37 41 18
9.592750043786467 33 38 11
9.338008414264719 32 38 9
9.985198270508343 34 39 14
10.12554377596825 34 39 13
9.63654234665686 32 37 12
10.838904554322891 34 39 13
10.795620436260934 36 41 17
10.795620436260934 36 41 17
8.96290212502379 30 34 10
8.796499265280696 29 33 10
9.448282692461248 31 36 11
9.935404396754752 31 36 10
9.146685198306905 32 37 12
10.647475370029976 33 38 14
9.776107634139004 32 36 14
9.80002531329508 31 36 12
9.835194170519411 31 35 12
10.218293232077597 34 38 15
9.555501741206134 31 36 10
9.399595648086216 31 36 11
10.035751217868212 28 34 12
9.249731812836263 31 36 13
9.492909138878574 30 36 13
8.742035469237795 30 35 12
8.988670901802456 33 38 13
10.083839400133657 33 39 16
8.93036504066784 33 38 13
9.85339144368282 32 37 12
9.794414686181801 31 37 10
9.606497573810493 31 37 11
9.885697260487891 32 38 12
9.427925234300805 33 38 13
9.489180055258409 32 37 14
8.783532385757074 35 39 15
8.723855589721525 34 39 15
9.404358988797537 31 36 11
11.48770072035874 39 45 22
10.297478023206512 37 43 20
10.757461054827397 35 40 15
9.74866463139558 36 40 18
10.00406152103989 34 40 15
20.233600602842667 31 37 15
20.294501940730363 30 36 14
20.641258417702865 32 38 17
20.629913557730582 34 40 19
19.93749642650201 34 41 19
20.21151541324347 34 40 18
20.173585971927043 32 38 16
10.60443113754661 30 34 14
9.918829263228485 33 37 16
10.052170395696242 30 35 10
9.630026507949545 37 43 20
9.62635054140044 39 45 22
11.992987073589449 34 39 15
11.49721599075258 34 38 17
11.159758605308179 47 51 30
10.144615939711493 31 36 11
10.021288991568387 43 45 26
10.249194870097556 33 37 14
9.121704447738175 30 34 16
9.01877236395686 30 34 15
9.743306236027575 34 39 14
10.454904918004388 34 40 14
10.945251063311613 32 37 12
11.037938599596153 35 41 12
10.67267611391123 35 40 14
10.562696752557251 36 41 11
9.391393661224582 34 40 17
10.05969891452945 34 39 11
10.661414442649642 34 39 14
10.756548033986977 35 41 12
9.305145329288633 33 37 16
9.463600193510901 34 38 15
9.69360444656567 32 36 16
9.649779613096506 34 39 12
9.108169411834663 32 39 14
9.457576304022048 33 39 12
10.285912022622618 32 39 14
9.259482113705781 34 39 14
10.522869945135696 36 42 17
10.566116305558177 35 41 16
8.366716873845972 42 52 31
10.566116305558177 35 41 16
10.899355581470461 43 56 29
11.842219672921214 43 56 29
11.19891577448619 44 58 33
11.36605252351406 37 43 20
11.499214529201906 38 44 21
11.092988192831307 40 47 24
12.002296434241199 43 55 32
11.929821689252954 43 53 30
11.924256061339198 42 52 30
11.128095296120767 40 46 23
10.656874733127625 43 51 29
10.404783866480297 42 50 27
10.84904336789929 42 48 25
12.226945378126281 42 50 28
12.226945378126281 42 50 28
10.976383784193967 45 53 31
11.480002297356982 45 55 34
12.139416392837756 43 54 31
9.867795100203463 42 54 31
9.420913846697417 40 52 29
9.856523097723567 42 54 30
9.946973930900667 35 40 11
9.114551733519486 34 39 10
10.201364426938483 39 46 16
10.631230001739125 33 40 14
10.047938804888435 35 40 11
10.468983737892255 39 48 20
10.914733383702009 37 50 23
8.562722212666912 40 50 22
8.363012263772168 39 51 28
10.625724604305335 44 54 31
10.437915287008385 42 48 25
10.731800837161996 45 51 29
10.468838120686291 41 49 27
10.462495336971427 42 52 29
10.731800837161996 45 51 29
16.275559662118177 49 58 28
20.3358539785058 40 47 24
10.589373564039825 35 39 14
9.882642197905987 32 39 10
9.679121894913683 33 38 11
10.0754687258748 37 40 17
10.592033988478395 34 39 14
10.22198948686207 34 38 14
10.724441070320081 35 40 12
10.343831612415332 34 39 13
10.10239679937865 35 40 15
10.359168896253161 32 39 9
10.408572486064621 35 40 14
10.059784293849068 31 36 10
10.04398985680871 32 37 13
8.796499265280696 29 33 10
8.801589002375623 29 35 11
9.474019492716991 31 35 10
9.955102450869981 33 37 13
9.624917258156565 34 40 17
9.56487076815494 33 37 14
9.156472541445098 33 38 13
9.822848077543643 31 37 10
9.98690450057555 31 37 11
8.972889935136136 29 35 12
9.56487076815494 33 37 14
10.082019056322544 31 36 11
9.933433909208508 32 37 14
11.0691035386855 40 46 23
9.74866463139558 36 40 18
9.536608016101292 36 40 18
20.29976189296699 36 42 22
20.534247259700834 38 44 23
20.49691504079296 36 44 22
10.681334864399664 29 34 11
9.473890586531928 34 39 16
10.12896040805917 39 45 22
9.664386491383977 31 37 14
9.640537650458882 32 38 15
10.493380268032594 35 41 15
11.23851877230305 33 39 11
9.655683593487991 33 38 13
10.021288991568387 43 45 26
9.257023903156195 33 39 17
9.130442956315907 32 38 16
10.035537257041836 35 41 16
10.412480423503174 32 41 15
10.202560737617318 34 40 13
9.291877506832313 32 38 13
9.397459974711756 34 38 17
9.595077486873343 34 39 14
10.962278106051793 34 41 11
10.360034033340362 34 39 12
10.461252303883027 35 41 13
11.22753589164614 36 41 12
9.082342801216967 44 54 31
9.017283571924764 39 51 28
18.433566826238543 46 56 32
10.899355581470461 43 56 29
10.695433148271942 41 47 24
11.073109947024902 44 52 30
12.99770779676457 43 51 30
11.252239999440473 43 55 34
11.485783197862789 44 54 31
11.229388757524722 40 46 24
11.561041900552734 46 56 35
9.377161908019321 42 54 32
10.381272080465983 44 56 33
9.69788906548433 33 40 10
10.201364426938483 39 46 16
10.461743341264953 37 42 13
10.914733383702009 37 50 23
9.747864450055392 40 46 23
9.428048494554329 41 47 24
10.631970009717172 44 52 30
10.468838120686291 41 49 27
10.462495336971427 42 52 29
9.91394275421416 44 54 31
9.293866196970566 32 37 10
10.448946176242227 32 37 10
10.439160338898786 33 38 12
10.025403323965461 30 35 9
10.295772358191183 32 37 10
10.29850862921373 33 37 14
9.099551097153604 31 34 10
9.885697260487891 32 38 12
8.983687157189662 33 38 13
9.627160822625223 34 39 15
9.462973689105683 34 39 15
20.59170599508597 33 39 17
20.32281388600165 31 38 16
9.174945516688467 36 42 17
9.492567589241144 37 43 19
10.77212970370469 35 40 12
10.329170290710715 36 40 17
9.404521088141335 35 38 17
10.127141549989084 40 44 23
10.52689863302532 44 56 33
10.970334455108043 45 55 32
10.778505910311827 39 50 24
9.861152823397541 43 49 27
10.13988720932229 44 50 27
8.988670901802456 33 38 13
9.14071319622336 33 38 12
9.811362224730347 31 36 12
8.723855589721525 34 39 15
9.591229184734106 36 40 18
20.23466793979296 31 37 15
10.67267611391123 35 40 14
9.852145925127145 34 39 14
10.598939678277622 34 39 14
10.247158996771384 34 40 13
10.009786830761483 41 53 30
11.578254557112343 45 53 31
11.16896001989414 42 53 32
11.578254557112343 45 53 31
11.716514823527346 40 46 23
11.034091139282992 41 54 27
9.752413654342996 43 49 26
8.995008819180248 32 37 12
9.531137442364159 31 37 12
11.451810192670434 40 47 24
9.811362224730347 31 36 12
10.580420639547818 34 39 15
11.044604371050806 35 40 15
10.615643789868741 30 34 12
11.01670880351756 35 40 13
12.018877171281673 41 49 27
9.696920566946767 34 39 12
9.291449715791117 35 40 16
9.212925109150731 31 37 15
10.144615939711493 31 36 11
