10.653363376824917 34 35 9
10.34380150014476 34 41 11
9.394367626842893 31 36 7
9.326002571891177 32 37 8
10.367294813017617 32 39 9
10.137091342065283 32 39 7
9.971176622245013 34 41 9
10.577855642527664 36 41 12
10.068163920198604 39 46 16
10.032334915728335 38 43 15
9.898686857695383 37 40 14
9.598158083256205 36 43 13
9.260003528032406 31 34 5
9.710338619884178 34 36 10
9.616884823209853 28 31 2
9.657178318408935 33 36 7
10.072617248467946 29 32 3
9.730584610694375 39 41 15
11.36606689372236 42 46 19
10.425972586140176 34 36 10
10.545491080838655 40 43 14
11.25364233743591 45 48 17
10.161880763129636 36 38 12
10.641612431421661 35 40 10
9.882204806065676 29 38 8
10.350597401061552 35 42 12
10.126960194484829 28 38 8
9.780919017448147 25 35 8
10.621520204101406 22 31 5
10.613176779698378 23 32 5
9.61763402675854 25 34 2
9.64771620907485 26 36 6
10.648372186745966 30 39 9
11.227269150692683 33 39 11
10.299908037775678 38 43 12
10.706158638136149 40 46 16
11.293175427560406 43 49 22
11.095422707160024 39 45 15
10.627847405050227 37 39 13
11.842131843415068 42 48 21
10.784950541325369 41 46 18
11.446197339641026 44 49 21
10.784950541325369 41 46 18
11.190582497419484 42 49 21
10.717190347869908 43 46 19
11.997058472422408 43 49 22
11.10057490039889 46 52 25
12.027249055698844 44 50 23
12.216147658979514 44 50 23
11.620911884631097 45 51 24
12.125203525402975 44 50 23
11.505731209954877 44 50 23
11.435590227805525 45 51 24
10.840569044973785 46 53 23
10.568590601771335 45 52 22
11.164372769716348 46 52 25
10.454316506528441 47 54 24
10.71042435389425 48 54 27
11.081917204327262 49 55 28
11.333779102556809 47 53 26
11.092073409590084 46 52 24
10.694407424869544 45 51 24
15.977360673002993 43 53 30
16.684936563272313 33 44 21
16.371706323484126 40 51 29
17.323805556180265 37 49 25
10.334659691519093 34 39 12
10.481951487357517 39 44 16
9.663577738999747 21 30 4
10.386762680190934 42 51 23
10.146475004572478 40 50 23
10.307797032307297 42 52 24
11.240871103392776 46 54 25
10.24577900973516 51 57 30
11.06607469885341 46 52 25
10.453965261705676 51 57 30
10.905024026030986 48 54 27
16.294575023905377 28 37 11
15.463579858077155 30 42 18
15.559329001851685 25 33 7
10.897620283432651 50 56 30
10.867249562689205 50 56 31
10.56631789208919 49 55 28
10.865568556372388 46 55 30
10.725250440617309 48 55 32
11.57895777056344 44 52 22
11.664148385073611 46 52 25
11.339989784944997 45 51 23
11.442232125016186 44 52 24
11.428703943410776 44 50 23
11.57895777056344 44 52 22
13.40313315187574 47 52 28
11.673305471997265 47 53 27
11.284156002394164 47 53 28
11.063376190393925 47 53 28
10.939749168400896 46 54 28
11.381822340025966 46 54 28
11.719590615180742 47 53 29
11.538418483218857 45 53 27
10.7047328482931 40 42 16
13.73447097353304 47 53 26
13.73447097353304 47 53 26
12.41434112851214 39 45 18
12.184835076154261 40 49 23
13.034211217212082 43 53 23
10.896418789574419 39 44 15
12.759942829583487 42 49 17
12.609254978120024 43 52 20
12.543829211259842 43 53 23
11.306032415570229 42 50 20
11.313864904219528 38 47 17
11.079343299188205 39 45 15
10.771799621169134 36 43 11
12.192103014742155 41 50 24
12.184835076154261 40 49 23
11.329142697136893 40 45 15
11.990409937692217 40 48 20
10.771799621169134 36 43 11
11.613465439835588 38 46 16
12.108983046425022 47 53 26
12.116296484801541 47 54 24
10.40139085238839 40 45 18
11.758470552498427 48 54 27
11.75093441582273 49 56 26
17.69764006202226 48 54 27
12.235837073824426 43 49 22
13.23846277707436 46 52 25
13.515818618263616 50 56 29
13.549398672268778 48 54 25
12.235837073824426 43 49 22
12.60644525730582 43 49 21
13.162513806471162 43 49 22
12.129969708082307 44 50 23
13.74929793140135 48 55 27
12.43354954730759 44 50 23
13.421222565538525 45 51 24
14.260873089910483 44 53 27
13.892683707689347 50 57 27
13.66165509436031 51 58 28
14.209697817342018 46 52 25
13.892683707689347 50 57 27
12.622141743873712 46 52 25
13.428012222111112 50 56 29
13.072530589573978 47 53 26
13.464524859961593 45 51 24
12.198641622693026 43 49 22
12.771247359161647 46 52 25
13.247910506871253 44 50 23
11.500102006444653 46 52 25
12.37775679147147 53 62 31
13.297292581810275 56 64 34
10.898273070492598 48 56 29
10.25191024146816 50 56 31
12.364447238300729 48 56 27
11.645804775509726 49 56 30
12.364447238300729 48 56 27
11.893657943917189 47 56 28
12.054333730895891 48 53 27
11.647373174833266 49 55 29
12.67684445829154 49 57 29
10.888464208761407 47 56 28
10.530335251338096 49 56 30
12.75405239189398 50 58 29
11.72380479111963 50 56 29
11.885723734433425 47 55 26
11.064787221073793 47 53 26
11.526902620065895 45 55 27
11.423819121810622 45 54 26
11.729013571978376 47 56 28
12.28106453085767 42 52 22
12.088187235972123 42 49 17
11.135171240906242 43 52 25
12.630313589545642 45 54 24
10.461788938353896 43 53 25
11.651541956637473 41 51 23
12.025638025152086 48 54 27
10.725291398952795 48 54 27
11.735715741154538 49 55 28
11.81977658222465 48 54 27
11.25348845513689 48 54 27
11.713407646240993 49 55 28
12.27978582879153 48 54 27
11.34287917212272 48 54 27
12.37574162164132 49 54 27
11.050696681193177 48 54 27
12.010417529267988 48 54 27
12.701033236361312 48 54 27
12.793829995579536 48 54 27
10.43549919768273 45 51 24
10.48645600518325 46 52 25
10.769664110459527 49 55 28
10.607015146698219 48 54 27
10.556640293127282 46 52 25
10.811776750858183 47 56 26
9.44786781168434 53 59 31
10.016402659181987 52 59 31
10.767815658023112 49 55 28
9.15451893660735 52 59 29
9.590744864175468 52 58 29
10.699946954018476 48 54 27
9.878841727002039 50 56 29
10.17880844540366 49 58 30
11.810208985240116 47 53 28
10.988367845650918 46 54 27
11.584524899092473 45 53 27
11.449461257740246 47 54 28
11.449461257740246 47 54 28
10.987985389255108 48 55 29
10.997705488329359 48 55 29
11.280545451370521 49 55 28
11.931544733421351 47 53 26
10.460532910660065 47 53 26
11.336397016544755 46 53 24
11.233191427044641 47 53 27
11.280545451370521 49 55 28
11.377512086256724 47 52 23
11.22456199798279 46 52 25
10.409449204025897 45 51 24
10.460532910660065 47 53 26
10.52994482423155 46 52 25
10.476845557716162 35 36 10
10.113063265487362 34 41 11
10.21325519196942 34 39 10
10.328003164446551 37 43 11
10.611842952890013 36 43 11
9.17393980772257 35 42 12
8.885629885801272 33 35 9
9.989204089601586 28 31 2
9.459255982243537 32 35 6
11.06739360795488 39 43 14
9.857555455760954 32 41 11
9.936422538805694 27 37 7
10.044961819829883 31 38 8
10.698707925171304 26 35 4
9.915730642956076 25 35 5
10.138460482036066 37 44 14
10.414632408270963 38 40 14
10.938528960705996 36 41 14
11.33866809977789 41 48 19
11.483477082843383 43 49 23
12.384926371080319 43 49 22
10.8264150397415 46 53 24
11.089907980347272 49 55 28
11.66259019219546 44 50 23
11.110483325449763 43 49 21
10.386157970917589 45 52 22
11.278166275401313 45 53 22
16.940090079412307 38 50 27
16.588560968093322 39 49 26
10.10035004651923 43 53 25
10.216795571354895 43 53 25
9.444975628803173 22 31 5
10.377024447676995 41 50 23
10.421924982644956 40 48 20
11.63693139158508 25 37 8
10.032026357710322 37 46 20
10.586176649671593 46 52 25
10.324006699619003 45 54 24
11.014101061405992 45 52 21
10.457861191413908 48 54 28
10.898046220181993 45 51 24
10.376717345842112 49 55 28
16.30294588047694 32 44 21
11.235557402382575 45 54 27
12.783985106114782 50 56 32
11.592310607860322 45 51 22
13.40313315187574 47 52 28
10.867249562689205 50 56 31
11.442232125016186 44 52 24
11.812250093815738 46 53 23
11.679679800030454 47 53 29
10.644786809324664 38 43 14
10.863321848087875 39 43 16
12.25940601106243 40 49 17
11.457528233062835 39 44 15
11.110901102090574 37 44 14
12.41434112851214 39 45 18
11.997795654323914 39 48 20
12.066182510840067 39 46 16
11.496621423839468 39 46 16
11.386360212680751 38 45 16
11.306032415570229 42 50 20
12.33989992830564 44 51 19
11.75093441582273 49 56 26
12.708458437858825 47 53 26
13.071133195358655 51 57 29
11.902906195238032 43 49 21
12.129969708082307 44 50 23
13.549398672268778 48 54 25
13.347874293619224 44 50 22
13.163901500318374 41 47 19
14.606025067827064 39 45 18
14.087712725217512 50 57 29
12.299671914238155 48 54 27
12.144777984444378 47 53 26
12.565747330764742 45 51 24
12.863537608042716 46 52 25
13.072530589573978 47 53 26
13.058530366419928 49 55 28
12.299671914238155 48 54 27
12.636625454886099 45 51 24
10.071294419249956 50 59 31
12.37775679147147 53 62 31
17.682292074028574 50 58 28
13.297292581810275 56 64 34
11.404546267300683 47 53 26
11.810340036799108 48 54 27
11.568857850402997 49 54 29
11.733405404248607 47 54 27
11.568857850402997 49 54 29
12.128200963138287 47 55 27
11.935606617447407 45 54 24
10.843195394628482 48 54 27
12.025638025152086 48 54 27
11.535083641140728 41 50 22
10.48645600518325 46 52 25
11.453558974552006 48 54 27
12.449968518036336 44 54 24
10.699946954018476 48 54 27
10.284390305514574 51 57 30
9.44786781168434 53 59 31
10.016402659181987 52 59 31
10.213309685395998 49 55 28
11.810208985240116 47 53 28
9.78886328752051 47 55 28
11.186004474209513 48 54 30
11.159324568171188 45 53 26
11.449461257740246 47 54 28
10.987985389255108 48 55 29
11.614851290450357 46 52 25
10.479199490302388 45 51 24
10.460532910660065 47 53 26
11.892345259428087 47 53 26
10.62044612431622 29 31 5
10.964886806123499 34 43 15
9.630198096295775 33 38 9
9.833828469592012 31 38 8
9.671295789377279 33 35 9
10.742494111058075 41 42 14
10.766041867614048 38 43 12
9.31950773649954 25 34 4
9.78997175250697 13 25 2
10.032334915728335 38 43 15
10.958048275641778 40 47 18
10.938528960705996 36 41 14
11.027857285162758 46 52 25
11.163857703973076 48 54 27
11.438176862455585 45 51 24
10.5411367285349 47 54 24
11.229490419662346 46 51 21
12.393550916126769 43 49 22
11.518946386623638 43 49 22
10.71042435389425 48 54 27
16.298171500301308 37 47 23
16.773715303448867 31 42 19
10.686170555967491 44 53 25
15.390001963143702 27 37 13
10.768699130821458 46 54 29
10.762167248546627 49 55 28
10.87310446209276 45 51 24
12.536765180549972 44 53 21
11.613465439835588 38 46 16
14.228792037056978 48 54 27
12.448369575697196 47 53 26
13.027413095695236 43 52 22
12.705670654829241 48 54 27
13.549398672268778 48 54 25
13.108639917175438 45 51 24
11.470887493052917 41 51 23
12.535512561604698 47 53 26
10.819047143622536 50 56 29
11.139927811088263 47 53 26
12.520911887618777 48 54 27
12.2058105260003 48 53 26
12.27978582879153 48 54 27
10.769664110459527 49 55 28
11.850687736286792 48 54 27
11.270614384229965 48 54 27
11.751292041380742 48 54 27
11.801158128823646 46 53 27
9.740191630789894 51 59 29
11.021089273478466 46 52 27
10.326075651372388 40 44 14
10.464633859263976 40 45 15
9.874920594220013 28 31 2
10.06538805252275 34 41 11
10.714862875897344 31 39 9
10.706158638136149 40 46 16
11.662863434992248 43 49 22
11.209662921722634 42 49 21
10.944046208107531 42 48 18
16.10755177437677 41 51 28
11.2960377697626 49 55 30
9.71177731797247 17 26 3
10.813760817917299 38 46 16
11.073030110305 46 54 28
11.852415945118837 48 54 28
11.188012964705884 46 54 27
17.47522915025439 49 55 28
12.108983046425022 47 53 26
12.75405239189398 50 58 29
12.821054997612594 45 51 24
12.689826362082837 51 60 29
10.888464208761407 47 56 28
12.953760360359647 47 53 26
10.607015146698219 48 54 27
10.819047143622536 50 56 29
10.52994482423155 46 52 25
10.827848386617948 45 54 27
9.515357340868178 46 56 29
10.067175334745729 41 43 17
10.676117130612296 45 51 24
11.521618434940713 42 48 21
10.379743488916409 27 36 8
11.664861124337468 46 54 28
10.673328579630779 49 55 30
11.771807967308197 48 54 28
12.536765180549972 44 53 21
12.192103014742155 41 50 24
13.549398672268778 48 54 25
13.366833055266383 45 51 24
11.735715741154538 49 55 28
11.91367281976003 45 55 25
11.117319455226987 51 57 30
9.805669387750253 51 61 33
9.561084864080595 51 57 30
11.816308087069421 44 50 23
14.655816507733407 42 50 24
10.460532910660065 47 53 26
12.352977957096323 47 53 26
11.72380479111963 50 56 29
13.05713147387936 50 58 28
11.34287917212272 48 54 27
12.986106842515717 40 47 15
10.54347397960363 38 43 16
13.248260881089639 45 52 22
12.191631368092619 46 55 25
12.25940601106243 40 49 17
13.217744093902803 44 50 23
