9.45267855069074 25 35 11
9.051467687504855 19 27 6
8.673508039362051 33 40 11
10.002622524705968 29 39 13
8.642571236310689 21 34 7
8.956799061394074 34 46 20
10.032229841569666 35 45 19
16.193729500996685 48 49 33
19.392673780694302 43 36 30
8.606159689722407 39 46 14
8.606159689722407 39 46 14
8.650651353950087 40 47 15
8.697082373037839 36 43 13
8.225356193532017 34 41 11
9.703179167963565 40 47 17
8.846648516022832 42 48 19
8.455495593012476 40 47 17
8.853619601036609 43 50 19
8.44921643448153 46 52 26
9.329039297196926 45 50 22
9.22151456336489 44 50 27
9.587883247034092 44 50 27
8.625386559874988 45 51 29
9.132358491875207 45 51 29
9.07049630579614 45 51 29
16.64764606089928 11 5 4
9.657980200348028 44 50 28
9.936387940726384 43 50 28
9.978087152210021 42 48 21
9.512961835328817 44 52 26
10.086062593392283 37 46 20
8.92217846515168 39 48 22
10.167970161090603 45 54 26
10.112445243667086 42 51 23
10.20145578232956 35 45 20
9.06301046740841 41 47 20
9.703370622594216 46 52 25
10.08819627013396 33 43 17
10.3391378932389 30 40 14
9.511907600871517 36 46 20
9.95120691589344 46 55 25
10.256498840710167 35 44 18
10.225298574340524 44 52 23
10.942847040185525 44 53 25
11.198431135828756 49 56 28
10.416990236507504 49 55 28
9.95120691589344 46 55 25
11.757250197239243 49 58 30
11.916292969133677 50 59 31
12.161080986470077 50 59 29
11.435288468981456 50 59 29
11.93418539020666 53 60 30
11.700195258043225 52 58 31
9.667268272389986 47 53 26
9.597797285117716 51 57 30
10.13690042672274 47 52 25
8.793900487073264 45 51 24
8.923902649868728 44 53 23
8.793900487073264 45 51 24
9.667268272389986 47 53 26
9.780249547501544 48 58 30
10.229887726390306 50 56 28
8.929848031801814 43 50 18
8.923902649868728 44 53 23
9.083499882406027 43 50 19
9.383543852541411 48 52 30
8.911032547566123 50 56 33
9.187155313095 48 54 29
9.39011636277093 49 55 31
15.364177063773258 55 65 39
10.370493423394256 50 58 34
9.022851971382941 49 55 33
9.409459394043465 49 55 33
8.47830442046074 49 55 33
8.697514114489643 48 54 32
9.126251564781585 47 53 31
8.588262674848355 47 53 31
9.408827770492401 47 53 31
9.110856943047008 49 55 33
9.022851971382941 49 55 33
9.084743774837383 51 57 34
9.159341238286077 53 59 36
8.951448262355397 51 58 34
9.75984089953772 53 62 36
9.428478680901868 51 58 35
9.626074805545795 49 57 34
9.139761909989762 51 57 34
8.784294264380032 25 36 13
8.656149932213651 21 33 10
9.115307873573617 33 41 19
8.90463769227793 37 45 22
9.194027671366205 39 46 21
10.06623506272315 39 45 23
9.145727261358031 37 43 20
9.367808235633047 41 47 25
9.76909595125043 33 43 21
9.515014527343283 39 46 23
9.516006795001127 48 54 32
10.477342936381735 47 54 32
9.84573370097036 41 50 24
9.478477330256878 40 49 21
9.478477330256878 40 49 21
9.704158277142223 40 49 23
9.084250953281174 42 48 26
9.51889262166504 41 50 23
9.416887776559637 49 54 32
10.449821983713049 47 53 31
10.475288523932434 46 52 30
9.900580546319977 43 53 27
9.906810042994682 43 53 24
9.952096771230071 47 53 31
9.87404555313439 47 53 31
10.092466185193611 45 51 30
10.268227088031571 46 52 30
9.740248358717215 47 53 31
9.740248358717215 47 53 31
10.511051859597883 47 53 31
9.718593104024999 47 53 31
9.390620147101206 39 48 22
9.635352976891495 41 50 24
9.617639291858143 46 52 27
9.265133852575737 44 50 25
10.431405674665527 49 55 28
9.806015710128932 45 51 26
9.647812067886457 39 45 20
9.64085962744155 35 45 20
11.201361729343127 49 58 30
10.632455898036994 46 52 27
10.921722048191816 41 47 22
10.781386220435127 52 58 31
10.490557503800968 44 50 25
9.835610619390001 36 44 21
10.547083348065547 51 57 30
11.032259754898659 47 53 27
9.460815001830072 43 49 24
9.257368374770058 46 55 25
9.180130976268723 47 53 28
9.257368374770058 46 55 25
10.24174771561894 46 57 24
8.933665161994806 45 54 26
10.105721747000073 48 57 27
9.911463869088012 45 55 25
9.831505591521996 50 60 34
10.322160539135274 52 61 33
10.322160539135274 52 61 33
10.11494459309708 52 61 33
10.250848177786043 50 60 32
10.284902233521027 49 58 32
11.264986715928403 50 59 33
10.79252239016219 47 56 30
11.12059845298979 52 60 37
10.499697398872724 48 57 31
10.499697398872724 48 57 31
10.319499347129197 51 57 35
9.34697803489107 51 57 35
10.097483676989127 48 56 33
9.756607625833187 48 56 33
9.88555929286777 49 57 34
9.116974182102018 49 55 33
9.465146928898136 48 54 32
9.893786053867869 49 55 33
9.9118760397706 49 55 33
10.215517149328535 48 54 32
9.123738724389549 49 55 32
9.906249675196547 48 54 32
10.227588707796514 50 54 34
10.227588707796514 50 54 34
9.386891176232226 47 56 30
10.180829752020095 49 55 33
9.631718756098264 47 56 30
10.003533406127493 49 55 33
10.200921259089538 48 54 32
9.520227415844678 50 54 34
10.206967454046064 50 54 35
10.480824042345859 50 59 33
9.15041138418086 44 51 25
9.706968113415913 49 55 33
19.732170874921277 3 0 0
9.4871537293464 5 13 0
9.05242011867625 32 41 15
9.08180599734175 36 45 19
9.755948224668835 32 44 20
8.93195804873076 39 44 15
8.98218285459999 12 22 1
9.317738009535939 27 36 11
8.673508039362051 33 40 11
9.328027140917346 38 44 17
8.744091919716267 29 39 13
10.032229841569666 35 45 19
9.286869615698226 38 45 15
8.953046554067969 46 52 27
9.442726171496645 46 52 30
8.026472995847621 35 42 12
9.227912238554028 44 49 19
9.06434770035961 46 52 30
9.265437563213913 39 46 14
9.535451056027915 45 50 28
9.286869615698226 38 45 15
9.48888872098329 44 50 28
10.080822368488542 44 51 29
9.934198085792454 46 52 25
10.87560534008269 45 54 26
10.155425468667774 34 44 18
10.866781620419877 37 46 18
10.846186148972203 51 57 30
9.675872636154654 47 53 26
11.190871749659868 49 58 30
11.68464497939765 52 58 31
11.700195258043225 52 58 31
8.955814724852429 40 47 17
9.619106653985096 47 56 29
9.780249547501544 48 58 30
8.767454263452905 45 52 22
9.712363639181467 44 50 23
8.955814724852429 40 47 17
9.383543852541411 48 52 30
8.573951739456167 47 53 27
9.248237190816068 50 56 31
15.364177063773258 55 65 39
8.847925706448107 49 55 33
8.852305918114387 52 61 35
8.697514114489643 48 54 32
9.710974823049192 49 55 33
9.20721565742925 49 55 33
8.854895785983928 50 56 33
9.881908135853763 49 55 33
9.104082829305609 49 55 33
9.921009126480328 51 57 34
9.334404336136215 52 58 36
8.9359535159334 26 36 13
9.212201518811238 39 44 22
9.17510620871452 42 48 24
9.704158277142223 40 49 23
9.721694295522255 47 53 31
10.525217683698356 46 52 31
11.691993856866214 50 56 29
9.806015710128932 45 51 26
11.300681336355362 45 54 26
9.784506014071649 42 48 23
9.229939420045097 34 40 17
10.156538080982237 48 54 28
9.413029954007065 43 52 24
9.963002216058317 43 52 23
10.07980429364485 37 47 21
10.069534075537264 35 41 21
9.650022472043114 49 58 32
9.689722284644317 50 59 31
9.509132879598997 50 60 32
9.002365743738926 45 54 22
10.24174771561894 46 57 24
10.344632893945064 49 57 34
9.906249675196547 48 54 32
9.386891176232226 47 56 30
10.00609297148332 48 54 32
10.527984842794195 50 54 35
10.522687909923844 50 56 36
10.522687909923844 50 56 36
9.976862755354045 48 55 33
9.5552549084215 47 55 32
9.123738724389549 49 55 32
9.798489299556387 49 55 33
9.771867194070271 51 59 35
9.325354913200414 44 50 27
8.939903647528118 43 52 24
9.596970349076972 49 55 33
8.53748793661695 36 41 12
9.328027140917346 38 44 17
9.454305988437572 40 47 16
9.306778039709068 40 47 15
9.33169593349568 36 43 13
9.06434770035961 46 52 30
9.838772116890055 44 49 27
9.075755468983814 39 46 16
9.72818297603596 47 53 31
10.442536844839509 48 54 27
11.352179074325813 50 56 29
10.239859717227128 41 50 23
12.155786443170475 50 56 29
9.134485926601892 38 45 15
9.334404336136215 52 58 36
9.31455495925847 48 54 32
9.443355527736498 49 54 32
9.342256384635668 44 51 19
8.88675427974011 43 50 16
10.192292119634104 50 55 28
9.619106653985096 47 56 29
8.804735186133419 46 52 30
9.870346689496415 52 58 35
9.267587349772414 49 58 32
9.248395706213083 39 45 21
9.532637948797051 37 45 21
8.656149932213651 21 33 10
8.979771277075386 34 42 19
10.45366558763889 47 53 31
9.663182756493054 42 51 24
10.059900270734683 45 51 30
11.201361729343127 49 58 30
9.788968304161955 48 54 32
9.002365743738926 45 54 22
10.097483676989127 48 56 33
9.19057416426136 47 56 29
10.373657914754922 54 63 37
9.537111632470742 52 60 36
10.884538709033377 50 56 29
9.601794624681135 43 49 25
9.795268783126783 48 54 32
18.60642863201423 38 33 23
9.461050450376643 46 52 30
11.681944456071504 48 57 29
11.775384282565033 52 59 29
10.582097874200306 48 55 27
10.03950322519336 44 52 22
9.110856943047008 49 55 33
9.120659245032467 41 47 22
9.351868567953556 43 53 23
10.018416876013356 48 54 32
10.11494459309708 52 61 33
9.831505591521996 50 60 34
10.745969533983386 50 56 29
9.784506014071649 42 48 23
9.093385588969715 44 53 25
9.798295671135989 30 40 14
9.20051249054093 49 55 33
9.468824522880883 53 59 36
9.52134231756517 51 58 33
9.85430526032916 47 53 31
9.787480353975354 47 53 31
11.077367782226224 47 53 28
9.858045872803087 37 46 22
9.877699616445348 46 55 29
11.264986715928403 50 59 33
8.965841217749475 42 51 21
10.018416876013356 48 54 32
9.498624115784013 48 54 27
9.645171488820749 45 51 24
9.63771222691405 51 58 31
9.558785199477956 41 50 22
8.79108133223508 47 53 29
8.746859178074791 26 36 13
9.763387306887436 34 44 21
9.960802394262727 37 44 20
10.79252239016219 47 56 30
8.896858602028638 42 51 25
9.985014290729719 48 54 32
8.80917437051816 40 47 16
10.503420245812922 42 51 23
9.332056337744948 49 54 32
10.071061832732624 47 55 32
9.70377765311024 44 50 25
9.657980200348028 44 50 28
9.548382427905015 47 53 30
9.770840894500408 46 55 25
