9.98580650971053 45 51 28
10.013528311699979 43 50 20
9.669488593221681 40 48 15
10.013528311699979 43 50 20
9.571189615293948 43 48 17
10.10841349614286 32 40 9
11.683271607397947 2 2 1
11.122607157768424 5 5 7
10.923586613005597 2 2 2
10.31456128270924 39 42 37
11.122607157768424 5 5 7
11.283984043123901 48 48 47
19.185053459287914 24 23 5
19.604999998483958 30 31 16
10.256789265037003 34 41 12
10.878731337552036 38 44 17
10.653237758174697 34 41 11
11.561065990549169 35 41 14
18.557608529469825 28 30 4
15.491878242680615 22 27 1
9.652823949013582 39 45 23
10.147416525111309 33 34 30
9.597662820778844 46 48 29
9.498074472251842 36 42 13
9.725571889247835 41 46 19
9.055742411525078 36 41 13
9.374024725107663 35 43 9
9.77072920334849 32 38 7
9.24346683261585 39 44 15
8.690504588551693 37 42 11
9.077734882440517 34 39 10
9.60843794161718 37 41 18
9.580665354189188 36 43 11
8.63066981837714 36 41 16
9.112786572376528 36 43 11
9.112786572376528 36 43 11
9.206125142489054 40 45 14
9.055742411525078 36 41 13
9.891434630914395 42 47 20
9.750319967205167 41 46 19
9.569899744083274 43 47 21
10.069296843706306 38 43 14
9.428384402165676 42 47 20
10.069296843706306 38 43 14
9.33277021854481 35 42 8
9.845517666238758 36 43 11
9.41511919262835 39 44 16
9.568548519112566 35 42 8
9.585026333642796 40 45 18
9.853983469737152 39 44 17
9.913199775481637 43 45 21
9.049762422081786 40 45 18
10.94982146730346 45 50 25
10.835894022916042 43 50 18
10.438394439060696 43 48 22
10.379393915840467 43 48 21
10.55661258905362 45 50 23
10.197145732203126 45 50 25
10.913504637867819 20 21 15
11.05222856163567 52 53 44
11.294771732943419 78 78 77
10.219136004348659 38 41 27
11.76549187293244 44 44 44
10.593573175224071 3 3 3
10.426206573283451 2 3 1
9.769956654154315 0 1 0
10.339861293331122 47 48 34
11.031068450521916 48 48 37
10.449295402022623 2 2 0
11.82631038000096 44 44 44
11.05222856163567 52 53 44
9.992539867122748 1 4 0
10.661602379036802 73 73 70
11.61454413329315 20 20 20
11.142358208580953 49 54 29
10.90903648179219 50 53 32
11.774907767791818 46 47 32
10.540634409297121 48 50 27
10.376423061844543 50 55 30
11.664843130564016 46 47 38
10.922308623450158 54 55 40
10.992249116871324 45 46 31
11.603178317538145 55 56 48
11.134388628686212 47 54 24
11.321062761510161 47 48 35
10.795359741228527 46 48 26
10.376423061844543 50 55 30
11.206559000889191 49 54 28
11.630452008544644 68 68 68
11.617988862890142 50 53 47
11.012816160931632 10 10 9
10.582975377303613 78 86 71
11.0109742336392 10 10 10
11.756085035153943 80 80 80
11.330133149690164 48 48 48
11.78362881627133 44 44 44
11.196008433411833 85 86 86
11.89777973522291 23 23 22
11.135482816964807 84 85 84
10.67384105137708 52 60 36
10.999653225881994 53 57 45
11.737295714278865 30 31 31
10.636937403401083 62 72 50
11.205246668305746 53 56 44
10.977069945936547 56 65 42
10.457805744138765 50 55 31
11.281955063913923 53 59 36
10.934910094234601 51 55 34
11.627507423197294 35 37 30
11.281955063913923 53 59 36
11.700819636747138 56 59 47
9.634008635995798 70 77 66
9.310787052100288 35 40 29
10.330579831253031 33 38 12
9.896925788097994 37 42 15
11.223203398891785 51 56 28
10.874283573537932 40 45 18
11.159098365944129 49 56 28
10.874283573537932 40 45 18
9.498661650896885 43 46 16
9.54868579755069 42 47 20
9.041160449204908 45 50 21
10.851439385908401 56 62 32
11.184393508310487 51 59 30
10.674529903535769 49 55 26
11.184393508310487 51 59 30
11.298488392553164 52 61 35
11.184393508310487 51 59 30
10.876097958878974 53 66 39
10.047516380102982 54 63 37
10.474937947463486 53 63 37
11.003451834643572 52 60 36
10.99473057250089 56 66 41
10.877450002365672 57 67 40
10.272899935645015 53 62 38
10.76527273731809 56 67 41
10.359822165506671 57 67 42
10.272899935645015 53 62 38
10.756023074490296 47 52 25
10.41459418190361 46 51 24
10.81414642325933 48 53 24
10.81414642325933 48 53 24
10.464747711799525 49 55 28
12.17654994917138 53 65 38
11.936286124734005 54 62 35
10.308113997569512 48 53 24
9.938762033475749 45 50 21
10.137981487961747 60 70 46
11.122016237778512 58 68 44
11.899802102025024 59 70 45
9.768676541688984 60 70 44
11.791983398373631 57 69 45
12.634506723527315 58 69 45
12.532580673545896 59 69 44
12.6607203090568 59 70 45
12.865539209430379 57 70 43
12.638380313008565 56 66 40
13.513835998705124 56 64 35
13.460644308792181 59 69 42
12.6607203090568 59 70 45
13.685278294474134 52 58 33
8.871631849365212 55 68 41
8.547753238251788 49 57 35
8.614473571223163 50 63 33
8.871631849365212 55 68 41
8.376692602596078 55 65 35
8.427568419842668 47 56 27
8.164905126194467 53 65 36
8.539926499377838 52 66 37
8.029559377968473 52 66 38
8.117507999687088 53 66 37
8.387517924597134 50 64 36
8.162444472634542 54 64 34
8.740173504362069 52 66 39
8.237339386845084 54 64 35
9.099833940566857 51 64 35
9.067915420125782 53 63 36
9.139942088971399 53 63 37
10.641517841844404 37 42 12
9.986185100840304 39 44 17
10.320924997896823 45 50 25
10.447219508491402 45 50 25
10.071451939190501 42 47 22
10.39420520878145 44 49 22
9.762723866551838 42 47 21
9.52015667389533 53 58 33
10.785753562589681 45 50 23
9.77682005550071 48 53 24
9.696804903507056 49 56 28
10.372914965207126 54 63 37
9.801438735593514 50 57 25
9.801438735593514 50 57 25
9.388897283790133 49 56 24
9.860970583788857 54 58 35
10.410890901250829 52 60 29
10.148497776350085 53 61 33
10.47957382481876 51 58 28
9.854713287836733 53 60 35
10.17364337293539 49 54 25
10.247976804702482 46 51 24
10.310913394329308 47 52 25
10.746416825719894 49 54 25
10.507582044462241 54 60 35
11.705325206073542 54 62 36
10.37885984799396 55 63 36
10.978736142652695 53 58 32
10.746416825719894 49 54 25
10.797701983684286 51 57 30
10.309505980027463 56 66 39
11.22352286414866 50 56 29
11.643874784102648 56 65 39
9.525675445832729 59 69 43
10.097858837623338 59 69 43
10.167403858269287 57 67 43
10.003231972415378 58 68 44
10.301571274928126 55 65 39
10.001223622289361 58 68 44
9.732061581178103 58 68 43
10.400122435978279 56 66 40
10.167403858269287 57 67 43
10.437999385211139 52 62 34
10.03358593270264 56 66 40
10.582263368113848 55 66 39
10.460223571609914 57 67 43
9.802556807968571 60 70 46
10.336880349512752 57 67 41
11.668119034179513 57 68 42
11.40270296582784 58 68 43
11.668119034179513 57 68 42
10.67620995372349 58 68 44
10.268483200919277 59 69 45
11.40270296582784 58 68 43
10.064972653080652 55 68 40
10.030709138962075 53 66 39
10.546944034972839 53 66 39
10.419930416252443 51 64 35
9.593499786372005 51 64 35
9.171609949681052 51 64 35
20.532861195334217 44 45 15
20.49180318861364 43 46 17
9.288784283064066 47 51 36
10.056661671252522 51 54 42
10.093696720494165 45 52 31
9.740049901607652 35 41 7
10.96331979265375 12 12 12
11.455583751869186 4 4 5
9.676201577079134 5 8 4
9.789557433669854 67 70 65
9.709279326170876 53 63 35
19.10291094960338 38 38 19
19.405230557689954 22 23 7
11.070381804684459 37 42 13
18.557608529469825 28 30 4
10.338610700482601 17 18 12
9.901108054323604 33 37 21
9.233645060788232 43 45 23
8.896715130381125 37 42 13
9.867040496911956 40 45 16
9.390843870544561 37 44 12
8.960837550051382 37 42 11
10.209744794065122 31 36 8
9.374024725107663 35 43 9
9.724242295610177 38 45 12
9.52071841520915 38 46 12
10.035048094048664 37 43 12
10.388958112106183 38 43 12
9.907697942582153 37 42 13
9.81898373280295 39 44 17
9.940384374712695 43 48 21
9.349663577165305 38 43 14
9.117371348220427 40 45 18
9.749013764652403 43 45 20
10.522739690739456 43 50 20
9.71066423413491 44 49 22
10.379393915840467 43 48 21
10.708423308806601 44 50 25
9.71066423413491 44 49 22
10.453978725256555 7 10 4
11.294771732943419 78 78 77
10.985279776407404 10 10 10
11.635275085453133 31 31 31
11.05222856163567 52 53 44
11.76549187293244 44 44 44
11.358111052960208 66 66 65
11.508323287232422 71 71 71
11.311919111870628 39 39 40
10.913504637867819 20 21 15
10.395085427863764 41 46 23
10.856427012319225 51 52 38
11.129991614787107 46 48 28
10.395085427863764 41 46 23
10.243900100417072 72 75 69
11.78362881627133 44 44 44
11.8344353219429 12 12 12
10.71700976715782 83 88 79
10.334433664900121 49 54 29
11.737295714278865 30 31 31
10.334433664900121 49 54 29
11.256225938778744 57 62 45
10.67384105137708 52 60 36
11.93018409297819 50 53 46
11.49446539450608 47 52 40
10.83286643094638 59 65 49
11.737295714278865 30 31 31
11.05158090849063 54 58 41
10.083107304357283 111 115 108
9.295464531994806 42 47 18
10.917351095303443 53 59 30
11.159098365944129 49 56 28
10.794015493290724 49 58 32
10.985333066185738 58 68 43
10.877450002365672 57 67 40
10.58761799913919 56 66 42
10.5973681960451 53 61 37
11.298488392553164 52 61 35
9.938762033475749 45 50 21
12.235325367833285 54 62 36
10.81414642325933 48 53 24
10.41459418190361 46 51 24
12.199735672242507 59 70 45
11.177097369113149 59 69 45
13.506191380735226 57 67 40
12.6607203090568 59 70 45
12.532580673545896 59 69 44
12.638380313008565 56 66 40
12.6607203090568 59 70 45
12.5858054864053 57 69 45
8.774897700903855 54 64 36
8.431015394322117 55 65 37
9.595593473153926 56 69 42
8.953133810013282 54 67 38
8.209582167419669 53 63 33
8.922941963925345 52 66 37
8.714018136078119 54 67 40
9.136607207571313 54 64 38
9.046315549261854 30 37 22
10.345788717707356 39 44 17
10.79147102029187 44 49 24
9.793678320905594 44 49 22
10.428115624916135 40 45 20
10.147948198468772 47 52 23
9.997241340425354 52 57 31
9.884815489756203 47 52 25
11.478715420081453 53 58 33
11.705325206073542 54 62 36
12.54976609622238 55 65 39
11.328110588405137 52 58 33
10.437999385211139 52 62 34
10.003231972415378 58 68 44
10.176305268834238 55 65 38
10.420636053090021 57 67 41
10.162588470845588 58 68 42
9.94036817272018 56 66 41
11.2896613376566 57 67 41
10.359458498332728 59 69 45
11.668119034179513 57 68 42
10.194438540383342 53 66 39
9.456737301642908 51 64 35
15.55362017563989 21 26 1
9.764562943333186 52 65 36
20.736373570102486 43 45 18
20.49180318861364 43 46 17
11.187578560597343 25 25 23
9.417824035858505 39 44 17
9.049740859628386 37 43 10
10.591899681862571 44 49 23
9.84810429855487 37 41 12
9.398343490072287 35 42 8
9.76810210514179 38 45 12
11.331923199983247 57 59 57
10.177220158895723 45 46 28
11.43250769145332 21 21 21
11.595542291094837 47 49 25
10.977069945936547 56 65 42
11.737295714278865 30 31 31
10.882425707613875 50 53 40
10.376423061844543 50 55 30
10.177220158895723 45 46 28
12.088107562220056 76 76 75
9.54868579755069 42 47 20
11.876030829340179 54 66 39
11.843949209311331 58 69 46
10.463188024829911 30 35 8
10.648023612556395 49 54 28
10.674529903535769 49 55 26
10.804591851469475 49 55 28
10.000362551592126 45 50 21
13.559204394252847 54 63 35
13.640329233269178 53 59 32
8.332911574865626 55 65 37
8.332911574865626 55 65 37
8.192813712651535 53 66 39
8.194344167778938 45 53 34
8.669623548985593 54 67 40
9.905689922475274 42 47 20
10.325804017980236 42 47 23
10.5208152032219 55 65 39
10.66977500293162 53 57 34
9.973106012108648 49 55 24
10.5208152032219 55 65 39
11.328110588405137 52 58 33
9.526633716292292 52 58 30
11.851137345082954 53 58 33
10.526011871326746 49 54 25
9.823951151478235 52 60 33
10.526011871326746 49 54 25
10.602625657396604 43 48 23
10.326172170842112 59 69 45
9.909165865827267 49 54 25
11.264602581141395 56 66 39
9.593499786372005 51 64 35
10.857550423679308 50 63 34
11.070206854437954 52 65 38
19.885472260696353 41 41 13
10.12238120032299 43 50 20
9.740049901607652 35 41 7
11.283984043123901 48 48 47
11.987396886506454 2 2 2
19.10291094960338 38 38 19
10.869233539113266 40 45 20
15.577591921839119 28 35 3
9.416450988626254 39 44 13
9.092301110879271 39 44 15
9.426632544903594 43 48 24
10.105950116761578 38 43 14
10.522739690739456 43 50 20
10.307052797298562 49 54 29
10.648695810064218 44 46 27
10.395085427863764 41 46 23
10.4770063509606 31 33 24
11.093279773638098 82 84 79
10.974602277675128 53 56 34
10.98712601122587 77 77 73
11.78362881627133 44 44 44
11.223203398891785 51 56 28
9.882276627897962 45 49 18
11.320590355801382 58 68 44
9.041160449204908 45 50 21
9.882276627897962 45 49 18
10.463188024829911 30 35 8
9.768676541688984 60 70 44
8.209582167419669 53 63 33
9.595593473153926 56 69 42
10.278166273721988 39 44 17
10.921488763225629 51 57 30
10.460223571609914 57 67 43
10.37885984799396 55 63 36
10.801389153844454 59 69 45
10.587956641622016 58 68 43
9.631552408359623 53 63 35
20.736373570102486 43 45 18
9.417824035858505 39 44 17
9.41511919262835 39 44 16
8.82018418548628 30 36 10
8.192813712651535 53 66 39
11.358775586853088 40 42 18
8.69360209238181 51 65 36
10.922308623450158 54 55 40
8.953133810013282 54 67 38
10.58761799913919 56 66 42
10.160487762332739 45 50 22
10.636937403401083 62 72 50
11.206541588318604 47 48 40
10.287513991990847 45 50 25
10.148497776350085 53 61 33
11.789486028659606 7 7 7
10.308113997569512 48 53 24
9.613325897105451 8 9 3
10.440473346652611 47 52 25
10.545617169659423 45 50 25
12.199735672242507 59 70 45
10.457805744138765 50 55 31
10.465073684229775 53 65 38
10.493253891834863 50 57 25
13.460644308792181 59 69 42
11.126847504202939 15 15 15
10.372914965207126 54 63 37
9.884632401409386 36 43 11
10.715186654726912 48 53 26
10.39910487687524 46 49 20
10.683178175260652 59 69 45
11.184393508310487 51 59 30
10.456382035208673 57 67 41
11.05158090849063 54 58 41
10.223751076347705 53 56 34
10.560161597891812 51 62 33
