18.255969751841146 31 41 11
19.25569786360614 30 40 12
15.46357443643738 51 64 37
16.396492830457596 55 67 41
16.206959424268092 58 68 42
16.206959424268092 58 68 42
9.618620902577206 42 51 23
8.703364940585782 18 28 2
8.579315385185945 37 47 18
8.362169130469642 27 37 7
8.902248588045884 9 19 0
9.14367456552898 35 45 15
9.230159413169577 39 48 20
9.712906711686953 42 51 25
9.395883524369387 38 48 18
9.632297678600308 37 49 17
9.412961664195134 36 47 13
8.04814452168421 36 46 18
7.730810359179335 36 46 18
9.000792595729257 40 49 19
8.607825248974782 38 47 17
8.40184829669801 37 46 18
8.135509159136175 37 47 19
8.584418563674678 39 49 21
8.85257503326444 38 47 19
9.293557811806533 40 49 21
8.686230768690374 40 49 19
9.922698145216236 40 49 21
9.293557811806533 40 49 21
8.482157994919858 40 49 21
15.703342699691687 44 56 26
18.335219477124724 38 51 24
10.911872513182855 37 44 10
9.3793418254278 38 47 14
9.976250636466343 35 43 6
9.980746386983421 33 43 6
9.37019830836287 26 33 0
9.272543324105927 11 20 1
9.649702952714648 30 39 3
9.289733457085795 27 36 2
9.353156062622315 10 19 1
9.141293310700297 38 48 11
8.73195812259029 25 35 8
9.745620679501485 32 42 5
10.602760461070666 40 51 14
9.966638202807589 37 48 14
9.446912479004776 37 47 10
10.602760461070666 40 51 14
10.475330450664243 42 53 18
9.446912479004776 37 47 10
10.469045325286963 37 48 13
10.122775530647319 41 50 14
10.13595665939438 41 52 16
9.936786957395347 40 48 16
10.680069868378569 37 44 12
9.51422657976398 37 46 12
9.609425791987386 35 43 7
10.027975452567048 39 46 15
9.35496862958822 40 47 13
10.041892023785419 38 45 11
9.296270597954024 40 49 17
10.269640455895443 41 50 16
9.766053113396264 41 50 17
10.529928495950834 40 50 14
11.585813714032621 45 56 23
9.224775860344735 44 53 21
9.665173442824333 43 52 20
9.082846356029767 42 55 20
9.702646200408761 43 52 24
8.934330153068485 44 53 23
9.340028603837451 42 51 21
9.344173864893596 44 53 23
9.419525691553346 43 52 22
9.82271994634961 49 58 28
10.03381987513321 45 55 25
9.755713227153498 47 57 28
10.78638876072579 54 62 40
10.146765249413043 48 57 26
9.532424840879084 46 55 25
9.14781999369937 45 56 23
10.933009430499654 54 63 40
9.917583036221094 46 56 28
9.57446290160953 50 60 30
9.495616838212074 52 62 34
9.906011937580018 45 54 23
10.721220070383552 42 52 28
10.7869568847784 40 50 24
9.97712140569367 40 51 20
10.96041567522804 44 53 25
10.46995270406237 41 50 20
13.082796037242495 55 69 42
15.799313252529075 54 67 33
15.722896983875954 51 64 31
12.469107432305078 54 68 41
8.346334780325131 42 48 23
7.659536911431786 38 47 19
7.815061311450983 37 46 19
7.433489002004799 41 50 23
7.946997312218625 42 51 23
8.139383103811078 41 48 22
9.950848496341099 42 51 21
8.8279443465702 41 50 21
8.534507036492826 41 50 22
9.156022116915066 44 53 27
9.895685664315469 42 52 23
10.041404470329013 47 56 28
7.800646200076908 40 49 21
8.017930499511193 45 51 26
8.472347461603361 46 55 27
8.542434713781645 44 50 25
9.030694174057714 44 53 25
9.313321103411106 44 53 26
15.710665276136249 17 17 2
10.23661956918576 52 60 45
10.118384386851732 52 59 45
10.92423823729557 55 62 41
10.127142433956706 56 64 42
10.503792055779487 57 65 46
9.651918861336103 53 61 38
9.973897217842856 51 59 37
9.882101850803558 53 61 39
10.88684957988643 55 63 42
10.809374717408549 55 62 40
10.44964459944266 56 66 42
10.766752989964257 56 64 46
11.000904192788555 55 63 44
8.79340983307939 48 56 33
9.515801886882327 50 60 34
8.6185383259454 45 54 26
9.045583887077171 48 58 34
8.770133796387146 46 55 29
8.765017120738813 46 55 29
9.291030691242833 52 62 38
9.286086233937064 47 57 31
8.166403409308675 47 56 30
8.141334961638849 46 55 29
9.573154706096666 47 56 28
10.24527654491564 57 65 43
9.943318035579022 53 61 39
9.899920578619058 54 64 40
9.269234368774889 56 64 42
10.412359826135976 57 65 43
9.93650809255419 56 64 42
17.289658023468654 45 54 45
16.54375129194049 47 54 48
10.060397246373737 47 55 31
10.402133979262295 49 57 39
10.95568710966873 45 53 33
11.159008886491714 46 54 34
16.0721718673019 34 43 13
16.36509019732057 42 51 21
10.465080848363604 44 55 22
10.493631826452766 41 50 20
10.508240867651992 46 55 27
12.250005266940883 53 67 40
11.19510907424352 49 58 30
11.888338793373233 48 61 30
11.213352615082384 50 60 32
11.788371640225416 53 67 40
11.285937423724395 52 65 38
11.029582370711084 51 64 33
11.51333558279726 52 66 37
11.320251170187888 51 65 36
12.588543947814008 54 68 41
11.45413481396454 56 65 43
11.869208749120418 54 68 41
19.369785177400345 28 38 11
18.388742650973825 32 43 14
18.61356882196484 31 41 13
15.715676558912023 56 66 40
8.991056008922772 38 48 18
8.393056864731845 40 49 21
7.827453578639419 36 46 18
8.461701265990285 38 47 19
10.146845315009516 41 51 22
9.427022232234474 39 50 19
8.568975504745394 33 43 13
9.369316722038127 38 47 19
9.412961664195134 36 47 13
18.335219477124724 38 51 24
9.714981356862431 38 48 10
9.40630592013008 21 30 1
9.761977793203835 32 41 9
10.086757990138803 39 50 13
10.488551840405716 39 50 17
9.946108152423156 36 47 11
10.086757990138803 39 50 13
10.447316741014726 41 52 17
9.854053919948887 36 47 12
9.886597209716292 36 45 11
9.83361331202638 37 47 9
9.828534498579097 42 51 19
9.571058444094215 41 48 14
10.041387190839211 40 49 17
9.6063001401935 43 52 21
10.869285060967849 43 53 20
10.869285060967849 43 53 20
9.335224295152969 41 49 17
9.63416763054915 44 53 21
9.486922506450853 45 54 22
10.855864001251682 53 63 38
9.82271994634961 49 58 28
10.34140098071182 52 62 36
10.7869568847784 40 50 24
10.805790875184478 40 50 26
10.96041567522804 44 53 25
15.688043171007031 54 67 34
15.972535802673956 53 66 31
8.200891821083422 39 46 21
9.895685664315469 42 52 23
7.929404929774499 45 54 28
8.437559982885846 44 53 25
7.809318896168248 37 46 20
7.966914221006432 44 51 25
8.003747575368356 44 51 26
11.203405390449472 56 64 45
8.939607021646102 51 61 35
9.847007636839997 56 64 42
10.42767112807113 57 65 44
8.762412129274441 48 56 32
9.14316606516509 48 59 33
9.719531480372861 56 64 44
11.128134630252731 55 63 41
9.882101850803558 53 61 39
9.847955444063198 50 58 35
8.898801942352755 48 58 33
9.515801886882327 50 60 34
10.182796249394727 52 63 37
10.07976933559559 57 67 44
10.23661956918576 52 60 45
10.183712095237363 48 56 38
16.55973993915373 41 50 20
16.519710333284223 34 43 15
11.282056281296803 54 66 41
12.171697442754382 52 66 37
10.664761825205549 48 57 31
10.335953551489906 48 57 29
10.508240867651992 46 55 27
10.125468808658082 45 54 26
14.687009747214258 56 66 40
8.40184829669801 37 46 18
8.383219133476675 38 48 20
8.997455511593481 39 48 19
8.383091968842766 36 46 18
9.005775315375248 40 50 22
8.897207890325898 16 26 0
18.335219477124724 38 51 24
10.071536877850749 32 42 5
9.40630592013008 21 30 1
9.010901733694684 39 48 14
8.985856888484445 33 42 13
9.683611532729586 46 56 25
9.57446290160953 50 60 30
15.316468307220774 31 41 15
15.896952232479535 50 62 28
14.920568642047412 52 63 28
9.205437635281442 46 55 27
9.456535486174937 44 53 24
9.382134892850432 41 50 21
8.622022905924847 41 50 21
8.721696043168263 42 51 24
9.0081496247125 46 55 27
9.415006070730602 54 62 40
9.698588278394288 55 63 43
10.848570022749572 55 65 41
10.781561016531052 56 64 42
9.521719299684072 53 61 38
10.936355971740609 56 66 43
10.196814453344384 51 59 37
16.161661657321723 46 53 47
10.060397246373737 47 55 31
10.859896793490906 44 52 31
10.74434544685876 43 53 30
11.869208749120418 54 68 41
12.250005266940883 53 67 40
13.101753754208916 55 69 42
10.998344141108584 52 65 37
10.739103086496389 48 57 29
15.01004922412364 56 67 41
8.687887905006328 9 18 0
9.005893687626756 38 47 19
8.31188631326047 37 46 18
10.864027544664726 55 63 41
10.200570378997998 43 54 22
10.35681718725136 51 61 34
8.741188491707277 44 53 23
9.41849018631248 28 37 3
10.948152334993729 40 50 24
7.762849225215829 38 47 19
9.744815407085548 55 63 41
10.809374717408549 55 62 40
11.265951246931806 48 57 29
18.01540079958559 29 41 12
9.170895044975403 38 48 18
9.373989835482938 40 48 20
9.431666754339725 40 49 21
9.41603827934151 33 45 14
10.302984831474532 41 50 15
9.904111283860416 44 55 22
10.34140098071182 52 62 36
10.035695963459874 46 55 26
10.88684957988643 55 63 42
10.248000677153922 42 53 20
12.48899673481442 54 68 39
8.391924924129874 30 40 8
9.509286829938697 34 45 11
9.224110737126383 44 57 24
10.081303151063276 43 52 20
10.583504124097011 56 65 43
11.509531121823834 53 67 40
11.98922053146026 52 66 37
9.48154555865696 47 56 26
11.320251170187888 51 65 36
8.482157994919858 40 49 21
9.696273837308858 35 46 12
10.46995270406237 41 50 20
8.85613531693106 41 50 22
