11.596194513032424 71 74 75
11.329536543248192 66 72 75
7.444477760409423 39 45 33
10.968951538969922 69 70 70
11.198282611599113 52 55 50
11.154560571674047 10 14 10
10.630732818390399 71 75 72
8.1000059754826 86 91 82
11.144929104317454 23 27 19
11.368031176864552 32 36 29
9.147965779516046 33 41 21
8.441944077368541 31 39 21
8.536824152586101 28 36 16
11.092592126161447 23 33 13
11.794797288653857 21 28 17
10.2643459028956 29 39 17
10.57772869053204 19 26 16
10.661780688216282 26 34 21
10.929720519607931 24 34 14
10.686709242825295 24 33 15
10.025104366754784 25 34 16
10.856035711455547 26 35 17
9.966008447283807 20 29 12
10.215653858686693 23 31 15
10.479856714833193 19 26 18
10.503966724682977 35 45 21
11.403348360442601 37 45 22
12.276038909876533 37 45 22
11.434911588140684 32 37 23
10.702221752815271 22 26 18
10.785303595149715 28 34 22
11.726881005783634 29 38 20
11.253452085015173 31 40 19
11.253452085015173 31 40 19
10.675926486377596 32 42 19
12.593164908692154 37 45 23
12.058457995304451 34 41 25
11.913798563916874 35 43 21
12.147638219819246 37 44 24
12.89241329292313 40 48 28
8.248829523872168 33 45 21
8.247885621335882 32 45 18
8.70884510129145 38 49 26
9.047626997702437 34 45 24
8.592346111919733 39 51 27
11.707221785185038 38 48 25
11.1808912012287 43 50 25
11.808154971437562 37 47 23
11.648051577019524 43 52 30
12.266018584992759 40 49 26
10.582515766858617 40 48 25
10.646877713731355 35 45 22
11.917844442331656 43 53 28
11.55062563406068 40 49 26
10.971722433102816 37 47 23
11.204552284544071 44 62 42
11.093559486815376 46 60 36
11.398046929147826 43 61 41
11.059137714681764 45 61 41
13.280550651634611 38 46 23
13.176133367396433 44 52 30
13.879235519772688 49 55 33
12.820197124824821 44 52 29
12.960863104646702 44 52 29
13.513608227340836 48 58 37
14.396223193140473 50 60 39
14.451526484846138 52 64 45
14.451526484846138 52 64 45
14.283339151680554 49 59 38
14.269713526510971 51 61 40
13.481603180602937 46 54 32
12.771234009418022 44 52 29
13.081283936012605 41 49 27
12.771234009418022 44 52 29
14.26916790977751 50 62 43
14.212607291790787 51 61 39
10.384504806543845 28 38 15
10.451512334442745 30 40 16
10.210621830961669 33 43 20
10.343209232840733 36 45 26
10.988056949383745 33 42 22
9.9692829089573 35 43 23
10.089163800996316 31 41 19
10.61851999170159 32 42 20
10.29365285680548 33 43 22
10.720085726528088 38 48 25
10.64541509141929 40 48 25
10.67586383692417 43 51 25
10.551797655370551 40 48 25
10.95255665921338 40 50 26
10.340977191512279 41 49 26
10.827553591820127 38 51 30
10.020133550180761 38 50 31
10.211014559528905 38 50 30
10.698348751678207 38 48 28
10.208029724086868 40 49 30
10.680150411829144 39 49 29
10.386325873073256 38 50 30
10.417531921602095 42 55 34
10.47019436194846 38 51 30
10.776637608473166 40 56 34
11.306175179198592 45 57 34
10.731923291448107 43 56 35
10.41238953802554 45 59 35
10.89914390186487 42 56 32
10.54058215699979 39 50 29
10.559021043719097 40 50 28
11.252008868162479 43 55 31
11.191545751676243 44 60 38
10.846185942768221 44 60 38
10.608071681077144 40 50 27
11.234707400549722 44 56 32
10.584365956369014 46 60 36
10.78544230998347 39 51 30
10.559021043719097 40 50 28
10.516724305406834 43 59 37
11.207889153844299 33 45 22
10.684780651618102 36 48 25
9.807145806219998 34 46 23
10.372649138749514 38 50 26
10.372649138749514 38 50 26
11.311487999653696 40 52 28
11.477178491311916 43 59 37
11.889554325434244 42 54 30
11.00808193252126 45 55 31
11.310386007429187 46 56 32
11.980641821029854 44 54 30
10.443965718322957 43 59 38
12.114614542386438 46 59 38
11.179385596600735 46 60 37
11.59730654310049 46 54 31
11.246695568772532 44 61 39
11.625529609606668 45 61 41
11.625529609606668 45 61 41
11.285040727416911 42 58 36
10.79715332370957 32 42 18
11.378016508402215 44 54 30
11.188544828149908 44 53 29
11.089830019252009 44 56 33
11.71997490431944 44 56 33
11.213690960210998 42 56 33
11.145483155103154 44 54 30
11.731732014149944 44 55 31
10.660633533852323 44 57 34
11.280959806233522 47 56 33
11.305900394460146 42 58 34
16.41766990543383 71 78 71
16.405817015026933 61 71 60
15.98703416270798 12 23 13
16.191773220634282 16 27 15
11.70726210063398 67 69 71
11.388994340540716 67 71 73
10.805199084390594 36 39 33
8.948426179861853 30 40 19
7.644798049859308 13 21 4
9.003733352882056 33 42 28
10.630732818390399 71 75 72
11.056986496202315 73 77 74
11.19790013236364 21 28 23
10.893673309559292 23 32 14
10.265104388439292 29 39 16
11.368553726391749 24 33 15
11.184154359394554 26 34 18
10.215653858686693 23 31 15
9.670853409199626 30 40 17
10.338094576192477 30 40 17
10.925730014164515 36 45 19
11.506947281168165 36 45 21
12.172466648947397 32 38 19
11.17908671741467 27 32 21
12.457593363793782 37 44 26
12.780858246327996 36 44 21
12.562852674544132 43 51 29
8.70884510129145 38 49 26
12.101224757689689 41 49 27
11.647383150289214 43 52 29
11.153217672058478 37 47 23
11.55062563406068 40 49 26
11.5443701021927 43 54 31
11.343632967187851 44 60 38
10.873556072749734 44 55 31
10.929598129883452 46 58 35
14.269713526510971 51 61 40
13.143306566941478 39 48 25
13.176133367396433 44 52 30
13.176133367396433 44 52 30
13.143306566941478 39 48 25
14.326048685365054 51 63 44
14.366726506590531 47 57 35
13.176133367396433 44 52 30
12.960863104646702 44 52 29
14.283339151680554 49 59 38
10.99159915477407 26 35 16
10.82498919107075 41 53 30
10.842944442356927 40 52 28
10.386325873073256 38 50 30
10.246489316306109 44 57 35
10.731923291448107 43 56 35
9.940518814490348 34 44 21
10.665508820698152 40 52 31
10.589718201993406 40 51 28
9.842502821351227 38 46 24
9.509198762671659 37 45 23
10.616723553678035 40 52 31
10.02044359381012 35 45 23
10.193014759442324 39 47 24
10.31104968768851 36 46 22
10.198726546496758 38 51 32
10.589718201993406 40 51 28
10.208029724086868 40 49 30
10.743257130369896 29 42 19
10.45075921900541 30 44 20
8.485991157865607 34 46 22
10.995976599517729 40 52 28
10.985780205896383 42 59 36
11.124322687278202 44 54 30
11.115365479149819 46 56 32
11.310386007429187 46 56 32
11.522996867215877 45 61 39
11.000163246367919 40 52 28
12.072074550773227 43 53 29
12.114614542386438 46 59 38
11.135091431453768 29 40 17
11.687398199028843 43 55 31
11.17072622260012 42 57 33
11.305900394460146 42 58 34
11.528565005132547 42 54 33
15.936571604734578 80 88 82
8.857955988244544 35 44 26
11.289238665430341 2 4 2
11.034555781670417 28 38 15
10.294955165445154 23 31 15
12.209611509740066 38 46 23
10.157140101993253 25 34 14
10.837615736934943 28 34 26
11.4581582300848 31 40 19
11.615330736732622 30 39 18
10.273313825319168 26 36 15
10.855651453228969 46 58 34
10.982862780735859 43 51 25
11.919150923373167 42 50 28
9.024375796351888 36 48 24
12.168883680330474 40 49 27
12.367751789209304 38 46 23
12.573674932838022 39 48 25
11.093559486815376 46 60 36
9.02523849020333 37 49 25
11.83429708275407 43 51 27
14.39514152914739 49 62 43
13.675037861567123 47 55 35
14.409729193151275 49 59 38
13.54179243738689 47 55 34
14.326048685365054 51 63 44
13.409263900492125 51 64 45
10.371269484820397 42 57 35
9.666827256442435 36 45 22
10.417531921602095 42 55 34
11.004438139005105 38 54 32
10.31104968768851 36 46 22
10.268007494866394 36 46 25
10.20985929793575 33 43 19
10.872554296148374 44 59 37
10.89914390186487 42 56 32
11.003898298489444 42 52 28
10.684780651618102 36 48 25
9.675092839185936 36 48 24
10.667289049764147 31 43 20
10.959684270756766 45 61 41
11.612994580151245 43 60 37
11.432786430348017 40 53 32
11.378016508402215 44 54 30
10.99286494253996 36 42 32
11.089053343734907 73 75 72
10.023484289597134 36 46 23
10.971012800000993 42 50 26
11.357673915131013 42 52 28
10.207883162801622 28 35 23
11.313472850251566 31 36 24
14.26916790977751 50 62 43
10.564181200668807 32 42 19
10.833467829423306 42 54 33
9.889723300602704 28 41 18
11.59730654310049 46 54 31
10.691767151892634 43 59 37
7.603242881722962 81 86 75
11.425089700792444 70 71 71
11.098952952524849 20 24 16
11.794797288653857 21 28 17
10.40540097575182 32 42 18
12.047666007232873 28 35 19
10.827553591820127 38 51 30
9.637968306628363 37 45 23
11.136542966516634 44 56 33
16.30289749815072 16 28 10
8.48874312281689 35 45 24
12.756603631897523 44 52 29
11.5443701021927 43 54 31
10.81097657059195 44 61 40
10.83743059158764 43 59 35
11.477178491311916 43 59 37
10.65301421891619 38 51 30
9.990335204316237 30 40 17
10.903511922673438 47 57 31
10.227068203599769 39 48 30
