12.125261954468527 12 12 12
12.33750418008808 13 13 13
13.028623542829532 14 14 12
11.079724906420823 12 12 13
12.202107346081375 12 12 9
12.149814542991445 13 13 11
12.992106465080923 15 13 11
13.25252493084646 14 12 10
12.33750418008808 13 13 13
13.136067132969918 15 12 13
12.241424852342387 12 12 10
11.69463063519355 12 12 14
12.56303886546854 13 13 15
13.97492720296338 13 13 13
12.791611913713668 14 11 12
13.62501729222761 13 13 13
13.110132920758693 13 13 13
13.719953067634957 13 13 13
13.411487155450434 13 13 13
11.393101467959129 12 12 15
12.093208274248617 10 10 7
12.083654793372704 13 13 15
11.923437831808535 13 13 15
11.454551282988263 12 12 16
12.079353375000194 13 13 17
13.142250417220016 11 13 15
12.929973248786526 11 13 14
12.07905589365071 10 12 12
13.087709632384337 11 13 14
12.6597472309572 8 11 8
12.589824817613149 11 13 14
13.297468978575967 10 13 15
12.026251574363206 49 50 42
13.297468978575967 10 13 15
11.904742976791116 25 28 23
12.1723155046383 9 11 8
12.477972694273793 11 13 13
11.49497996870347 27 28 21
12.73153682006816 11 13 15
11.24379190999782 21 21 18
11.598568520408152 19 19 17
12.525810000949914 11 13 17
12.900792766124153 11 13 17
11.340195177610903 54 55 45
11.05249597445342 51 52 36
12.01522108326976 51 52 37
12.698541280928216 11 11 9
12.757776840269003 31 32 21
12.302718637386965 19 20 14
12.698541280928216 11 11 9
13.472151396993656 13 13 9
13.723463480704408 12 12 12
13.723463480704408 12 12 12
13.291511449824231 17 18 11
13.263434162548016 37 41 25
12.627478909062974 33 38 23
12.123850931672441 32 36 21
12.962353991135883 39 43 25
12.562736487570062 27 28 23
12.24443887090767 37 40 24
12.310855323904217 38 42 24
12.962353991135883 39 43 25
12.748125420972695 34 38 21
13.72249362668131 29 30 23
13.969302701889548 21 22 15
13.389248364124384 15 12 13
13.524157914595408 24 25 18
13.402032593662167 13 13 10
12.557074305193101 37 43 22
12.295389816316778 49 51 38
12.524568060950232 36 40 23
12.345012876783853 6 9 3
12.784435849313402 11 11 12
12.291162497010435 46 50 34
12.108146569252463 9 9 5
12.19897879976194 51 55 42
12.858377221793546 11 13 13
12.368053214659339 43 46 28
12.291162497010435 46 50 34
11.75093325321876 49 50 35
11.757469493271344 44 47 27
12.777830350388442 46 50 33
11.850989802533265 45 48 28
12.069013796220938 40 44 25
11.541041193408669 39 43 24
11.837827236361232 40 44 25
11.384699058694435 47 50 31
12.591358029532362 50 53 35
11.761888627787497 46 50 30
12.777830350388442 46 50 33
11.757469493271344 44 47 27
12.391692936058242 49 53 36
11.34121375562266 50 51 35
11.4609677115924 50 50 34
11.4609677115924 50 50 34
12.09052397746781 47 51 32
11.778245398105575 50 51 35
12.792888220758682 54 55 39
13.495312194026555 55 58 41
13.257523307016918 53 55 39
13.298650407078183 52 56 38
11.82451872473375 51 50 34
12.2813272843478 50 51 35
12.459782293050134 27 28 19
13.12293089260566 9 10 8
13.301953489903012 10 12 14
12.669472102450314 40 43 35
12.072379104351599 9 10 4
12.102602557905636 8 10 11
11.945876354356768 54 55 45
12.152404565025694 40 41 29
14.266985215712712 51 55 36
13.2406908409799 43 47 30
13.720306786556929 50 54 33
13.660744590780329 47 51 34
12.183545158268048 49 50 38
13.70221353899656 51 55 34
12.08194150118851 50 51 43
12.729750405324053 44 48 33
13.89647815899818 48 52 35
12.150509711300643 50 51 37
13.410263203226231 53 57 40
12.859614962913467 51 52 38
13.365591852175832 52 56 39
12.49401250318835 51 52 38
12.983289668463936 52 54 38
14.268061094939599 50 54 35
13.602620071172241 54 58 42
13.779182103570855 52 56 41
13.251079929575333 12 12 10
13.604681524088164 13 13 12
13.121854044796914 14 11 12
14.082676263247448 15 13 11
14.053013345639563 15 13 11
13.008221687048895 14 11 12
13.844976537953047 15 13 11
13.473014558506106 13 13 11
13.30235783239315 13 13 13
13.632639741321308 13 13 13
14.101375418510099 15 13 11
13.313634002482141 11 12 5
13.31868934328311 15 16 9
13.13989476317996 17 18 10
10.725757546810502 34 38 19
9.748732905425037 29 33 16
10.806866561299511 38 44 24
11.569349291284862 34 40 18
11.582816956404221 43 47 25
10.894238370187379 38 44 22
11.06552569868951 35 39 20
11.71210508146387 46 50 28
11.366798392811218 47 51 34
12.015386762818176 46 48 28
12.141333374772179 48 52 32
11.717851377709406 49 52 33
14.043574859796216 12 12 10
13.316378263250517 23 24 14
13.918539965485914 12 12 10
13.152760293390498 22 23 15
13.196988925231402 16 17 10
13.316378263250517 23 24 14
13.250075498957575 23 24 14
13.250075498957575 23 24 14
13.237585656512096 29 33 20
13.250075498957575 23 24 14
13.237585656512096 29 33 20
12.025263314594254 35 41 20
11.570492917325842 34 42 20
12.053227384617077 37 42 20
12.45698017892027 36 42 20
12.053227384617077 37 42 20
12.039495989064571 37 43 21
12.204006903468528 32 40 20
12.39399520331778 35 41 21
12.39399520331778 35 41 21
12.786992683684213 32 40 20
12.071248995324993 38 44 24
13.771592383038062 22 23 15
13.771592383038062 22 23 15
12.679768549037268 34 40 18
13.273863563170828 31 32 20
13.576821769637716 33 34 22
14.150129121574759 30 31 21
13.822472311419093 31 32 22
16.26050877954104 50 54 37
17.220301427105326 49 51 34
12.50278538798409 57 61 46
12.431674624333564 52 56 39
12.628739280517237 54 58 41
13.846430099248831 56 60 45
13.83447865945092 56 60 43
13.389879184351603 56 60 43
12.222156953991734 54 58 41
13.007110723149157 57 61 44
12.974989122213259 58 62 44
11.84596911949223 44 48 29
10.996499458671744 39 45 24
11.443500365191232 41 47 27
11.096435047307269 47 51 32
11.612483171176669 38 44 24
11.256781508496417 38 44 24
11.413906562769391 49 52 34
13.300678965505634 51 55 38
11.849552670648146 53 54 38
11.279840688874094 46 50 33
11.848257181159628 48 52 33
12.636504542753336 50 54 37
11.547239547772884 48 49 33
12.348487091063879 49 52 31
12.752245641807786 51 55 38
15.11001177305292 53 55 31
14.445815319292011 51 55 33
14.137810787386647 52 56 35
14.921490541347666 50 55 31
12.218388593317728 51 54 33
12.218388593317728 51 54 33
14.765240578154515 52 58 38
13.02145501697048 54 58 41
14.093666949371272 56 59 42
14.052260840253057 56 60 43
14.08192534297846 55 59 42
13.967981520046644 54 58 40
13.272753515920671 55 59 42
13.467074645788484 57 61 44
14.205522216275284 57 59 40
13.979818827829838 54 58 39
14.008540996052773 53 57 36
13.996727979192498 53 57 38
13.625792672951407 56 58 37
13.388812217124157 14 14 14
12.587632755214551 12 12 12
12.887621872807914 15 12 13
13.958263793993517 13 13 13
13.581752599919366 13 13 13
13.082964299320373 15 13 11
11.874146659552576 11 11 10
12.26482619118092 12 12 11
11.710077398196498 12 12 14
11.904742976791116 25 28 23
12.84835682128515 13 13 12
11.264471523367083 49 50 37
11.8181683138919 10 12 12
11.61861669511558 50 51 38
11.912181810836946 51 52 42
12.20529193110937 10 12 12
12.301796368386686 10 12 12
12.646513019227942 11 13 13
12.311472445016419 13 13 15
11.645555810530766 20 23 17
12.240377467657114 50 51 43
12.353891571327669 37 41 24
13.472151396993656 13 13 9
13.787913489680625 14 13 13
13.774521187381545 13 11 11
13.524157914595408 24 25 18
13.198882286246343 12 12 10
12.156646343190681 38 42 23
13.515766933163766 12 13 6
11.7695496612232 32 34 25
11.75385786755588 34 38 21
13.291511449824231 17 18 11
13.72249362668131 29 30 23
12.581550290830164 13 14 7
12.291162497010435 46 50 34
12.524568060950232 36 40 23
12.19897879976194 51 55 42
13.257523307016918 53 55 39
12.19440654852141 44 48 28
12.368053214659339 43 46 28
12.507532203460382 46 50 33
12.112437762472538 20 21 14
11.370996747657012 40 44 26
12.295389816316778 49 51 38
13.298650407078183 52 56 38
11.906512051001414 40 44 27
11.574994475779755 47 51 32
12.198667397625547 45 49 32
12.291162497010435 46 50 34
12.356244469802286 9 9 6
12.060118064330792 44 47 33
12.360307310794775 50 51 43
13.40825701319245 49 53 35
12.501241313097966 43 46 37
12.150509711300643 50 51 37
11.965342621880731 49 50 36
11.965342621880731 49 50 36
13.895373509191812 49 53 36
12.795750230937337 53 57 42
13.545243895982768 50 54 39
9.981673668574892 30 34 19
11.024243997222502 33 37 21
14.206266603415013 15 13 11
14.09441724407271 15 13 11
10.73830274739129 36 42 22
13.29498148390154 12 12 10
13.865524610672198 13 13 13
11.087738261056305 32 37 18
13.502506768885086 14 11 12
13.153617001253403 14 11 12
10.185373146077538 30 34 15
13.146029378873187 12 12 13
11.09505162203156 45 50 31
10.908539557991922 44 48 29
12.097540988454504 50 52 31
11.360874536407012 45 49 29
11.071607582424173 36 42 22
13.196988925231402 16 17 10
13.897112606805207 12 12 10
13.152760293390498 22 23 15
13.196988925231402 16 17 10
13.368990765400595 30 31 21
13.560801135724134 30 31 21
11.520021397228259 35 43 21
12.183829600851022 37 43 23
12.053227384617077 37 42 20
12.00478558858893 37 43 21
12.073622950159448 34 40 19
12.073622950159448 34 40 19
11.855363298939603 39 45 25
12.443694325377468 37 44 22
14.100431558000007 21 22 14
14.100431558000007 21 22 14
13.576821769637716 33 34 22
13.45087749290406 29 30 22
12.679768549037268 34 40 18
13.846430099248831 56 60 45
13.294901443028456 53 57 40
12.431674624333564 52 56 39
11.584142130910216 43 47 28
10.996499458671744 39 45 24
10.476525520766769 41 47 27
11.08237633079194 41 47 27
12.348487091063879 49 52 31
12.103890057784758 49 50 34
12.26848946291821 52 56 39
11.547239547772884 48 49 33
14.445815319292011 51 55 33
12.218388593317728 51 54 33
12.218388593317728 51 54 33
14.167296160617793 53 57 38
14.007716375400959 52 56 34
13.3041562128943 55 59 42
13.02145501697048 54 58 41
14.346691663957046 57 61 44
14.092577756260074 55 57 38
13.966882525488666 53 57 36
13.938074511985329 54 58 39
14.093666949371272 56 59 42
12.601090765406878 12 12 11
11.500504444265895 50 51 37
12.43516248427323 11 12 14
12.591961403457638 5 7 8
11.264471523367083 49 50 37
12.326146224288578 11 14 12
11.919876493257048 14 14 14
12.483948358914438 12 12 12
12.582786606599141 11 13 15
12.489176130042821 13 13 13
13.344221995163457 28 30 19
12.991531510906388 20 21 11
12.748125420972695 34 38 21
11.82451872473375 51 50 34
12.507532203460382 46 50 33
13.298650407078183 52 56 38
13.115621068289952 54 58 40
12.792888220758682 54 55 39
12.870496120964054 4 7 5
12.774507205712746 39 45 25
12.353891571327669 37 41 24
12.774507205712746 39 45 25
13.723463480704408 12 12 12
11.756181328331095 45 46 38
13.095062572460856 6 8 3
11.702070366394127 9 10 6
12.207034275521071 39 40 30
12.435677590463483 38 41 34
13.589324700753636 52 56 40
13.122662978111467 50 51 39
14.097623231105999 52 56 37
13.621627651115555 15 13 11
13.473014558506106 13 13 11
13.846090814588017 13 13 12
11.334750074524003 35 41 21
13.564051820436529 14 14 13
11.141931051339158 48 52 33
11.586481897455597 48 52 32
13.50893568743524 23 24 14
11.706481952626845 33 41 21
13.50893568743524 23 24 14
11.443500365191232 41 47 27
12.932832802907816 57 61 44
12.123712338706152 39 45 23
11.824507918488838 40 46 24
12.716601248863219 51 55 38
17.220301427105326 49 51 34
12.831619896668135 52 56 39
15.170850916364197 46 51 26
15.00490061361645 53 55 31
14.736951607712879 52 58 38
14.346691663957046 57 61 44
13.979818827829838 54 58 39
12.202084157272102 12 12 14
12.125261954468527 12 12 12
12.302901217408536 9 11 12
11.8181683138919 10 12 12
12.700254408895958 51 52 36
12.123850931672441 32 36 21
12.784435849313402 11 11 12
12.03006949952457 39 43 25
11.793714284341691 36 40 23
11.191507748238973 46 49 30
11.8266210063531 43 47 28
12.108146569252463 9 9 5
12.859894388002512 47 51 32
13.723463480704408 12 12 12
12.729750405324053 44 48 33
13.243881502714821 51 52 36
13.166186499144073 14 11 12
10.894238370187379 38 44 22
13.220872507451187 24 25 17
14.053013345639563 15 13 11
13.402227101721321 58 62 44
13.358678000791206 58 62 44
10.749405405543897 38 44 24
13.072006757949605 48 52 35
14.008540996052773 53 57 36
12.1723155046383 9 11 8
12.844311495747606 13 13 14
11.978624280354465 13 13 11
12.917910148027953 13 13 16
13.809510286882784 13 13 13
13.25252493084646 14 12 10
12.186192109729342 7 9 3
12.183829600851022 37 43 23
12.221806184920425 32 40 20
13.930419286059188 13 13 13
14.335157305940994 56 60 43
14.093666949371272 56 59 42
11.392810903686765 50 51 39
12.19440654852141 44 48 28
11.56353353712906 45 49 32
13.33461871953557 47 51 34
12.518285731723953 9 11 13
12.983289668463936 52 54 38
12.983289668463936 52 54 38
11.569349291284862 34 40 18
14.205522216275284 57 59 40
12.519371475323513 44 45 37
12.347208460980008 5 7 6
12.950614381134727 20 21 16
14.093666949371272 56 59 42
13.206024661902813 29 33 18
13.073918218858008 54 58 41
11.904742976791116 25 28 23
