11.064931338552082 45 50 23
10.119375805281118 48 53 26
19.093986123034313 44 41 28
10.745153568517095 40 45 17
11.030169849792625 41 44 18
18.613867353001314 52 50 41
18.93264690941985 52 53 45
10.655911911004246 57 59 38
10.870364380891456 55 59 40
10.820245889833975 56 60 41
9.572739096507751 48 52 25
9.572739096507751 48 52 25
8.859298726427 38 40 17
9.774760239366323 27 32 3
9.870714873075277 46 48 27
9.372494625982274 51 56 29
8.933584562149354 28 30 5
10.248031627764552 51 56 29
10.061236203763489 54 60 31
10.29536230944464 60 65 38
10.253821795888598 56 61 34
9.936207426041534 55 61 34
10.435632195851497 42 47 18
10.348023276917093 58 61 35
10.011202651634544 39 42 12
10.19909997864842 55 60 31
10.046618322479535 57 62 33
10.540813110540897 53 58 29
10.046618322479535 57 62 33
10.253821795888598 56 61 34
10.55211747120447 56 61 33
9.925819679455413 58 61 30
10.196193637443539 55 60 32
9.982039739273645 54 63 33
10.091949220081164 56 63 31
9.982039739273645 54 63 33
10.117917191424517 43 48 20
9.62177582345288 47 53 24
9.66763324170082 48 53 24
9.986297005798257 46 51 24
10.779519793513737 46 52 25
11.204995607952993 49 55 28
10.303868697479382 46 53 25
10.215071952526571 55 64 32
10.225165851933825 57 64 34
10.00274673862542 60 69 41
9.58067559886049 61 67 42
11.257583360210097 61 70 44
10.034991914375917 58 65 37
9.967364981690231 61 67 40
10.070136064644151 60 66 39
12.062298140618068 63 73 47
11.913858178001542 65 75 49
10.134211576324827 61 69 43
11.279780097443277 64 73 47
11.551612906903348 62 72 44
13.01353105083788 58 68 40
10.335182066762894 60 63 39
10.335182066762894 60 63 39
10.184737978772581 62 65 41
10.514294601477392 60 63 41
10.545031670094277 61 63 42
10.410445293310627 60 65 43
9.737410841967353 60 64 42
10.216466593342693 61 65 43
10.510059847507884 58 62 41
9.92731446660086 60 64 42
10.072957453593162 60 64 42
10.22945683012387 61 66 39
10.22945683012387 61 66 39
9.355412740447113 62 66 43
10.588284743929616 61 65 44
10.353688930782948 60 64 43
10.458158336398752 60 62 40
10.09929040254113 61 67 43
10.686533036449095 61 66 43
17.26405777479001 52 53 45
18.69942748523702 52 50 41
17.735250690756544 60 61 53
17.947954636948676 53 52 45
18.431468585979648 54 52 43
18.901800284194582 55 52 42
19.385867294269914 54 51 40
9.810366402436918 37 44 14
10.695275336788738 24 28 9
10.143558175454203 33 37 16
10.840116954032155 24 26 14
10.990804083032705 22 26 5
10.00822192728994 47 54 24
10.013760998773252 36 41 18
10.030228631405333 40 47 16
9.747590872224597 43 49 22
10.483200289846057 43 49 25
9.350100944597507 38 45 16
9.584642295179266 34 40 13
10.419967807629074 46 50 29
11.092684445289404 48 53 30
10.063981676914016 41 48 17
10.831189502156455 47 53 24
11.092684445289404 48 53 30
10.416998196951942 41 45 24
10.909477960214337 47 52 27
11.088499974643826 39 43 25
10.089896489449158 46 51 33
10.694005762013996 38 41 25
11.189798896863676 29 30 16
10.88120682064252 65 66 54
10.76845771785455 59 60 48
10.63234603829775 59 60 47
11.370251640942232 61 65 53
11.843915187239517 50 51 41
12.17568840452809 39 40 32
11.311863735867895 61 64 53
10.963134484829446 56 60 44
11.222880966571593 56 61 45
10.29497926285926 55 59 40
10.35760688498291 56 59 44
11.069774248471438 61 65 46
10.842912460458988 44 49 33
12.246428397396505 39 43 30
11.009785778973256 45 49 34
11.261937406501463 45 49 33
10.740690337260368 44 49 32
12.11494772855974 47 54 37
11.316590609063525 34 35 22
10.753047303318203 42 47 29
12.320217801422567 51 57 32
11.301587897183442 51 57 32
12.77158210348749 52 61 35
10.793382422650632 60 70 44
10.223768432698515 59 70 44
9.900766891046594 60 69 43
10.772934784412628 62 72 47
10.023281163532255 57 67 41
11.34736539942485 63 74 46
10.058336886760811 59 69 43
10.16450623245466 53 62 37
10.16450623245466 53 62 37
10.265303825597746 56 65 39
10.438698253030344 59 69 43
10.15587534798031 54 64 38
9.40400055534119 57 65 40
9.752479953599035 53 63 37
10.552162138063116 53 63 38
10.20887353027191 43 49 27
11.276743188463808 48 54 29
11.028738481017395 42 46 27
10.20887353027191 43 49 27
10.378739847784225 42 46 28
10.953713444054705 45 49 31
10.9766432092679 46 50 30
10.021348235708857 49 55 32
11.303871748662322 42 46 29
11.296111439088708 40 43 24
11.150885709935098 46 50 28
11.54373221508773 53 59 34
11.018266537036874 54 60 35
11.91239083518875 55 63 38
10.795766476739544 48 54 32
11.279486451753517 53 58 33
10.052183124780441 50 57 35
10.939165904532958 51 57 38
9.864815505375937 54 61 36
11.035574387014957 52 60 37
10.116185345314694 47 53 33
9.931452168016698 51 57 33
9.964117929688626 51 59 35
10.7217615648519 49 56 36
10.557415828820886 48 56 35
10.174522429056022 52 61 37
10.052183124780441 50 57 35
10.372086691769702 54 64 38
11.029027972754818 56 65 39
9.753932647358708 58 67 41
10.372086691769702 54 64 38
13.809629611492594 58 69 41
13.4589839239255 55 64 38
13.913584387617925 58 68 44
13.09797280776694 57 67 43
14.20642421791926 54 63 37
14.049252962599354 55 64 38
13.962110462058758 55 65 39
10.950188750263633 58 63 41
11.189283088185027 59 63 42
10.500228445309508 57 61 42
10.501701587935646 59 63 42
11.061085566922277 57 63 41
11.061085566922277 57 63 41
10.657352326126471 60 64 49
10.629784281955436 55 59 39
10.22503465170318 58 63 41
10.731687527559695 58 60 41
11.33406895637862 55 59 46
10.547886578238671 55 61 40
10.870705177350771 60 66 43
10.870705177350771 60 66 43
10.315371520260355 61 67 44
10.19636745849336 62 68 45
10.382221654478721 61 68 44
10.40343725578729 61 68 44
9.93184515329936 59 65 41
10.654741135000332 54 60 38
10.654741135000332 54 60 38
11.592176359818696 58 64 41
10.17472009915979 62 68 45
11.031722055951356 53 58 37
10.244938899185275 54 59 40
10.521082437732295 58 63 45
10.650384600509918 54 59 41
11.04235256038681 51 58 36
10.902920974640148 45 50 23
9.116049335661613 26 28 2
11.1018882371531 57 59 40
11.170497005035145 56 58 38
10.983422021936827 56 58 36
10.75462523030214 57 58 43
9.815493438878395 45 51 25
9.574219062339603 46 51 23
10.015766301427256 55 59 30
10.203394185296737 51 56 29
9.394280993027275 39 44 17
9.640059967186474 44 49 21
10.540813110540897 53 58 29
9.888789783308912 58 64 36
10.632472212478563 56 58 32
9.936207426041534 55 61 34
10.046618322479535 57 62 33
10.713723347307793 55 57 32
10.738485122940267 55 60 33
10.090357707742953 52 58 30
10.590971928794007 55 57 31
10.934052534644106 59 62 35
10.018783950118598 50 55 28
11.362699781384254 47 53 26
10.357854393436853 45 50 23
9.873776852851075 45 51 24
10.302493547245563 54 61 31
10.332489458199904 57 64 34
10.225165851933825 57 64 34
10.404867323581787 60 68 42
11.120900111908817 64 74 50
12.876061923721 59 69 41
10.353688930782948 60 64 43
10.251046231671678 61 67 44
10.309508966594969 60 63 42
10.457033337919068 61 68 44
10.625844247775078 61 67 43
10.423193780770557 61 67 44
9.751039292903297 61 67 40
10.672539014218781 55 57 34
10.829954175520621 60 62 36
10.397624356861842 60 64 42
9.986494342279412 61 65 43
10.92200854001354 60 65 43
10.269532136848882 62 65 43
18.004444298237328 54 52 44
17.62299792607216 54 55 47
17.219744769944377 54 55 48
17.665747357234867 51 52 44
18.155926014314847 52 51 42
19.331309503342002 51 49 40
10.163691864706974 30 34 13
10.307495840512823 35 39 17
11.854676653424747 17 18 6
10.5191886742313 30 35 12
10.15118055452859 41 48 19
9.971237096082374 42 46 25
10.042048941370728 44 49 21
10.392833757267441 34 38 23
10.069490075864127 38 42 21
11.155804487287046 37 39 22
10.908059888267905 44 48 26
10.836129595161749 43 47 32
10.003579786970217 47 53 33
11.462763454568563 51 52 43
11.675095089912885 62 65 56
12.167154391127088 54 57 49
11.249111249633257 65 68 59
10.003579786970217 47 53 33
11.17025337493465 61 66 50
10.894520350481466 50 57 39
13.073139933537902 53 59 34
12.578900863225913 51 57 32
10.16450623245466 53 62 37
9.833657703588125 57 67 41
9.878471783553787 62 71 46
10.023281163532255 57 67 41
9.74044181221948 55 63 38
10.16450623245466 53 62 37
10.793382422650632 60 70 44
10.058336886760811 59 69 43
9.752479953599035 53 63 37
9.428920592575404 55 64 38
9.845581871045287 58 68 42
12.024446708359136 65 75 49
11.149498341973583 43 47 26
10.654197253839707 42 45 29
10.709482613451765 47 52 29
10.794333466311397 46 50 28
11.031543416920414 48 54 29
11.189096289554756 53 59 33
10.980870305155985 50 56 34
11.135089750675524 51 59 36
10.259274208167907 48 55 34
10.10598259628925 46 52 31
10.259274208167907 48 55 34
11.026222396953637 54 60 33
10.93656798019585 53 62 34
11.038377585862282 57 66 40
10.945996569052252 55 63 38
11.04631896126317 53 62 36
10.273842781439043 53 62 38
13.946309486826776 56 66 39
13.696175689471172 55 62 37
10.974133255613422 62 63 49
10.844818921566022 61 63 44
10.30806566946801 57 61 42
11.335433734370671 58 62 46
10.950188750263633 58 63 41
11.592176359818696 58 64 41
10.930034465363049 60 65 44
10.222008410865476 55 59 41
10.850403255202304 60 66 44
10.139868392391067 57 63 40
11.133934116306072 53 59 37
10.250976948637241 56 62 38
10.295117236217287 59 61 40
10.29824066357722 57 64 34
10.046618322479535 57 62 33
10.403266894525236 55 60 32
10.080128816932305 49 54 26
9.515788624855187 49 54 26
9.043262480168 32 36 8
10.755149359582482 59 66 36
10.19909997864842 55 60 31
9.28874868966819 38 40 13
10.484991730410565 51 56 29
10.404867323581787 60 68 42
9.971699737365727 54 62 30
13.02254387434495 57 67 39
10.55340027390759 59 63 42
11.001121450181705 61 65 44
18.004444298237328 54 52 44
19.165307010897102 55 52 41
9.914955783003544 35 41 16
10.063981676914016 41 48 17
10.030228631405333 40 47 16
10.443586294495708 46 53 35
10.989866352906347 68 69 55
11.94651862321819 43 44 35
11.33018936092411 48 54 31
10.793382422650632 60 70 44
10.270830921644116 52 60 37
10.378739847784225 42 46 28
11.10726152761442 51 57 32
10.570110139616455 51 60 36
10.939104685532405 46 51 27
11.135210228218503 50 58 30
10.662846220651383 51 58 38
11.279486451753517 53 58 33
9.967222471354225 55 64 38
11.327917781114419 65 75 47
13.48300968705132 54 63 37
13.962110462058758 55 65 39
10.687556248522103 56 60 43
11.260044146056995 57 63 41
10.125235542453698 56 60 41
10.515810594856388 58 64 42
9.705697702728015 62 68 44
10.731687527559695 58 60 41
10.40343725578729 61 68 44
10.98240462308947 59 65 43
10.547886578238671 55 61 40
18.985664334901927 51 53 27
19.81442012537813 37 35 19
10.887004243951624 61 71 43
9.962771240562544 45 54 26
10.652085056113142 57 66 36
9.009185019693447 45 48 19
10.373714959680807 59 68 40
11.396523198033343 64 74 46
11.007913669921987 61 70 44
10.652085056113142 57 66 36
10.435870084753288 60 66 39
10.909734646516196 58 60 38
10.184737978772581 62 65 41
10.67409906983429 61 65 43
19.976523273959277 6 6 4
10.133324686520174 32 37 11
11.659721944775159 25 26 11
11.811840131558872 50 55 30
10.673726020251392 42 48 22
11.449859200671789 35 36 21
10.544952991391725 55 60 39
10.528431500151129 59 65 42
10.506973000012033 44 50 31
11.511863306375373 57 63 44
9.925819679455413 58 61 30
10.672539014218781 55 57 34
10.783652288739104 59 63 42
10.335182066762894 60 63 39
10.534071392774528 58 65 35
9.943604177327224 57 62 35
9.751039292903297 61 67 40
19.294656510075093 49 46 35
10.322053588005788 44 48 27
10.462391264770304 53 59 36
10.522545161993309 53 58 33
10.988333076865779 42 45 30
10.522916072539076 58 68 42
10.37059513736907 52 61 35
10.720440019405755 54 59 42
9.957069073080302 61 70 44
10.560222756403384 50 58 35
14.819540119373759 56 68 44
10.974416997697944 61 67 45
10.242418929901111 55 65 39
11.326092637768268 43 47 28
12.258748162848638 61 64 58
19.349785015818703 55 56 48
9.941834029486818 50 56 34
12.196049426838012 61 65 50
12.516881767187298 53 62 36
12.8244301031074 54 60 34
10.9713136421868 60 61 51
13.825586796190214 57 69 45
