18.07385863532086 52 57 40
15.400143133770538 52 54 33
9.265942603475658 33 38 13
9.439310628212983 35 36 10
8.561311358726268 31 36 9
7.863074688952409 13 19 0
8.72084625343585 31 37 12
8.6168934220611 26 32 7
8.199822606416292 37 42 14
7.6946307260215185 20 28 4
9.032843435628847 47 52 25
8.453506400266994 47 53 26
9.032843435628847 47 52 25
8.019715033534082 38 45 15
9.260680570930825 47 53 29
9.16997205999765 48 52 31
7.937861748527792 31 37 12
8.765909473930554 44 51 23
8.573070324789667 48 54 27
8.775044600754734 45 50 21
8.802926742068019 36 41 16
8.603336273890026 29 34 8
8.72252096664517 43 48 23
9.260680570930825 47 53 29
8.758366807535932 47 53 26
9.562009291592107 49 53 31
13.956754100565586 41 47 20
13.638271128160351 41 47 19
8.529766138985892 39 45 17
9.019299483504172 42 48 20
7.745701237994951 26 35 9
8.109911951202335 29 37 8
8.970294391628 44 50 22
9.528058416978554 49 56 27
8.811240318882092 46 52 24
8.533574125635928 45 52 22
8.791032366670207 46 52 23
9.261216751965787 49 56 26
10.045615325632571 46 55 25
7.56602908009471 43 52 23
9.615301584269929 45 54 24
9.362984508051998 46 55 25
10.116869942040571 48 54 29
8.99833846121974 23 27 6
8.127284234451652 32 41 15
8.265211986030526 28 33 8
8.245334816106668 33 38 14
8.965322997493464 12 17 0
8.823773097659284 34 43 17
9.126637718880524 44 50 23
8.031761713296996 34 40 15
8.199526131206007 37 46 20
8.856843857598939 40 48 21
8.36961905952914 38 47 21
9.580481591896834 42 48 23
9.086940271320486 28 34 7
9.672460710602497 43 48 23
9.721469559343927 45 50 24
9.931639364499636 44 49 24
7.8897538664224 34 43 17
8.843899127837387 44 51 19
8.843899127837387 44 51 19
8.480691786256308 43 52 22
8.474849943431357 39 48 20
8.426333570527872 43 52 22
9.31694180354859 44 51 21
9.31694180354859 44 51 21
9.193094471440155 42 51 23
8.277366817911162 35 44 18
8.249511423359358 34 43 17
8.654938552902113 35 44 18
8.705718985539171 35 44 18
8.7359663785504 35 44 18
8.507666885963832 36 45 19
8.312745557461866 36 45 19
8.54232103294379 36 45 19
8.00735449443192 34 43 17
8.584438915296115 37 46 18
8.344417547983072 36 45 19
8.69287161642948 35 44 18
8.310291798867485 51 58 27
7.887027407459446 48 54 27
9.16241378669581 51 58 28
9.018178039263457 46 52 25
9.236420448926179 52 58 31
8.891033829813347 53 60 33
9.574297289858503 50 57 28
10.231369901682573 49 55 29
8.841222266499658 53 60 33
9.071808046849178 51 58 30
8.753621204004626 49 56 28
8.776272535761242 52 60 33
8.922562564237655 49 57 29
8.896822449345901 52 60 33
8.190858466596932 54 59 32
8.198820189091283 54 60 33
8.104278222679726 51 58 31
8.262813916605666 54 60 33
8.270706372111174 54 60 33
10.405169009848738 54 61 33
12.661855630411097 50 58 31
12.661855630411097 50 58 31
8.875015211142111 52 58 30
9.414637801040236 54 61 31
9.816848234327368 52 59 29
9.667030232917767 52 61 31
8.937707961259857 50 56 29
8.714695110910672 49 55 28
10.822170533553848 52 58 31
16.488058828825697 42 48 23
14.832076373136307 42 48 23
15.618043627185916 43 49 24
15.583398938368768 42 51 23
15.583398938368768 42 51 23
17.417141816694503 47 55 33
8.890702603066615 34 43 17
8.332931818539622 34 43 17
8.550994143266864 30 40 12
8.607892208760749 35 44 18
8.839428043407633 36 46 18
8.710244924207872 34 43 14
9.700184660701625 35 45 17
8.95678918613915 34 44 17
8.937590478182472 50 59 32
8.654148428711062 47 56 30
8.491509840288714 46 54 30
9.50666348432784 54 61 31
12.37652360162905 53 59 32
9.219274718356592 53 61 31
11.754342814092873 53 61 33
9.980651384594378 51 59 32
10.555364000815507 53 61 34
12.263351532237785 50 56 29
17.845634566987766 54 59 42
17.07299971112506 48 54 34
8.434104792116106 27 30 6
9.045547412759001 33 37 9
8.179650481924083 47 53 31
8.741313114051371 37 39 15
8.906716044062296 40 46 19
9.16997205999765 48 52 31
9.050991298023938 47 52 25
13.935570753876783 41 46 19
14.653456323536393 42 48 21
9.609058315083454 41 48 17
9.333385245540748 47 55 25
9.451840876448346 47 55 28
9.747261821115607 48 56 28
7.940220599564288 45 54 24
9.989877810454942 49 57 28
9.603154031407382 49 54 30
9.528058416978554 49 56 27
8.610342532568078 47 53 26
8.864237661552117 32 35 10
8.24149615994197 32 41 15
8.385662430189752 35 44 18
9.061667091490174 40 48 23
7.92700316409079 20 25 3
9.286780957372912 40 46 20
9.35018749143143 44 50 23
8.377410893280908 34 40 17
7.8897538664224 34 43 17
9.009163444985585 42 48 21
9.35018749143143 44 50 23
8.646974983521103 31 36 9
8.474849943431357 39 48 20
8.607209867903464 43 50 16
8.277130294718917 36 45 19
8.480567972040866 37 46 20
8.27330639106223 36 45 19
8.068807484728154 35 44 18
8.187701229755485 36 45 19
8.16901259871732 53 59 33
9.327344327488495 49 55 28
9.562528576823695 50 56 29
9.922485286108213 51 57 30
8.76883513066182 52 58 31
9.071808046849178 51 58 30
8.014637481727728 52 61 33
8.190858466596932 54 59 32
10.686455882361138 53 60 32
9.30420346547248 51 57 29
9.256615511604341 50 56 29
11.179842797825604 51 59 29
15.493668926820101 43 52 26
15.493668926820101 43 52 26
14.832076373136307 42 48 23
14.727848630068767 44 53 25
9.1597129448735 34 43 17
8.178285513240906 35 44 16
8.550994143266864 30 40 12
8.442601130714435 37 46 18
9.14879350162941 34 44 17
8.509064199145561 52 59 31
9.043550067141997 52 61 31
9.059702888439098 52 60 33
9.055870350385609 53 61 34
10.311873977186792 53 61 32
12.263351532237785 50 56 29
15.400143133770538 52 54 33
7.6561406219116765 1 7 0
8.985597572122918 31 35 6
9.562009291592107 49 53 31
9.233854968985666 47 52 23
8.553908571493345 45 51 24
8.457380419530061 30 33 7
8.502122114638869 49 55 33
8.933539381860855 44 51 20
8.109911951202335 29 37 8
9.350949849400308 45 52 24
8.619513416794902 47 54 24
8.657601696054241 48 54 26
8.23741805157858 34 39 16
8.856843857598939 40 48 21
8.782572943906194 45 52 22
8.249511423359358 34 43 17
8.897378056590288 40 45 16
8.782572943906194 45 52 22
9.12696727392323 45 52 26
9.31694180354859 44 51 21
8.936041088230276 39 47 21
8.913923110565957 50 56 30
8.889926358916773 54 59 32
8.12450050494938 50 56 28
9.010048425847307 54 61 32
8.76883513066182 52 58 31
8.922562564237655 49 57 29
7.845306586575996 53 59 34
8.262813916605666 54 60 33
8.933947660631453 50 56 29
10.682022916416956 51 57 30
10.400616154090228 51 57 29
10.449238147118036 51 60 30
15.493668926820101 43 52 26
8.514176062299363 35 44 18
8.356489251395267 35 44 18
9.365701745897393 53 61 31
9.111671047258968 51 60 32
7.980928997609424 57 66 40
7.90466781865785 51 59 36
8.73961132951719 45 51 24
9.70184732987187 46 55 25
8.812563690997187 34 43 17
8.484660379308288 32 41 15
8.52302247552736 9 14 0
8.199526131206007 37 46 20
9.367810777647724 42 49 15
9.183955675883407 46 51 22
9.210600053067795 41 46 17
8.195904893510582 35 44 18
9.922485286108213 51 57 30
9.126003493776087 51 59 32
9.236420448926179 52 58 31
9.439173346476313 56 63 33
8.527974022118597 32 42 13
10.552180172449972 54 62 34
18.213877408116375 50 55 38
8.86979282739529 48 53 24
8.68269156003172 49 54 23
7.92366287311106 26 35 8
7.885742120901792 34 43 17
8.94721315531844 43 52 22
15.618043627185916 43 49 24
11.276116952247017 54 62 34
8.293352585487735 35 44 18
8.278489250481538 45 51 24
9.21286780756023 47 52 26
8.62331285780603 43 50 22
9.611268403286969 47 50 21
