8.204748520237981 18 34 47
8.344521516677188 17 30 43
7.108323235754895 7 19 30
6.325284305346884 30 37 46
7.409865386308924 4 9 16
7.409865386308924 4 9 16
7.920489621389391 12 38 57
8.204748520237981 18 34 47
8.834742213631365 10 20 30
8.297146824037004 24 52 71
7.5745034172335 36 80 109
7.880854885014357 20 61 88
7.438474219458095 25 62 88
6.822090828714861 21 57 83
7.34842732437114 14 47 70
8.297146824037004 24 52 71
7.352936176420641 27 62 88
6.032197256775234 27 34 43
6.458037957875636 42 50 60
6.468934204696226 42 51 60
6.935894216677577 4 17 29
6.82511668966871 6 18 31
6.224494326961282 47 56 66
7.476021305779841 12 37 56
7.552988367951533 12 38 58
9.023043018949938 16 48 71
7.715188350315524 46 88 118
8.870312932384486 56 103 136
8.4853382759446 37 82 113
9.046482955183833 73 119 151
7.863667868290571 26 66 93
8.525287890789878 18 56 83
7.823745280804019 35 79 109
8.039107399524706 61 105 135
7.867177135422857 80 126 158
8.52852492276262 69 113 145
8.30956547721506 38 82 114
9.116144039968814 62 109 142
8.870312932384486 56 103 136
7.214886546502239 33 77 108
8.325091718813903 17 52 78
8.2553263657306 16 51 75
7.680755891494185 17 58 86
7.960047478752776 65 112 143
7.8870537681736 53 98 130
7.960047478752776 65 112 143
7.229055219304245 35 81 112
7.258158857642992 39 82 113
7.718786912469592 41 89 122
7.786371694378952 65 114 148
7.73904467373416 51 100 133
7.711734269351396 83 129 162
8.732744178057434 60 108 143
8.732744178057434 60 108 143
8.635621688178402 57 104 137
8.181731187527916 63 113 146
8.854957291083473 17 59 88
8.466138253415169 34 81 112
8.466138253415169 34 81 112
7.966880306809033 27 76 109
8.353701148889803 53 103 135
8.148137719232833 85 91 97
8.542592740462062 103 109 118
7.644214492921508 43 81 109
7.120764660731743 73 103 128
8.086188152201888 83 107 128
7.981180583899761 36 71 100
7.65481071043367 16 52 78
7.845288435206765 85 105 126
8.203685190747244 251 253 255
5.814392549532701 73 119 152
6.614645757587692 70 118 150
6.71042840160124 67 67 71
6.796071516321294 69 72 81
5.900243230480929 52 90 117
6.570346998342605 51 100 135
6.690235269192518 133 169 195
7.031386594152794 95 131 158
6.475111521410341 92 101 114
7.927477511739732 47 96 131
7.330901689480194 59 109 144
8.681878824036934 59 97 131
9.122718380619808 64 94 123
9.044150073627284 49 93 126
9.052495778372657 63 109 146
7.927477511739732 47 96 131
16.76147440532557 60 73 80
17.952984698397238 29 37 45
18.264614537388002 1 12 21
18.300682903107223 0 14 22
17.761373772960873 4 19 30
18.494606703646486 2 17 28
18.251296085566874 1 15 26
18.43927950557486 0 12 20
6.0100167871647905 71 113 143
6.76007922608686 72 115 145
6.686133456770494 79 118 149
6.74160408897884 15 37 55
7.445656906881146 10 33 49
6.09638911696134 43 52 62
6.040265787705083 45 55 66
8.354229536053422 15 27 39
7.831202697047918 8 10 16
6.913994860057642 6 12 19
7.108323235754895 7 19 30
7.01878674037604 4 17 30
8.315995820199078 14 39 58
7.7939231698903395 16 28 39
7.200580176513694 10 45 68
7.636263824901913 14 39 57
7.447769056935281 12 39 59
7.447769056935281 12 39 59
8.252098373442426 33 79 111
8.045893991474713 80 129 163
7.820360654156583 70 119 153
8.175852452020296 36 83 116
7.402028934267783 37 85 116
8.65999957161481 64 111 143
7.680755891494185 17 58 86
7.646974468241049 38 81 112
7.786371694378952 65 114 148
7.646974468241049 38 81 112
8.139957185502702 22 62 88
8.2297498604572 18 53 79
6.066419970731233 60 111 141
6.918238798672904 75 110 138
8.433657783585048 43 66 92
6.678938440649463 64 66 72
6.0405554545377305 44 95 129
9.044150073627284 49 93 126
8.748223948623234 69 116 148
8.026410720870674 59 108 143
17.506942271542357 70 84 93
17.010839334948045 57 70 77
18.32459981233732 1 15 26
5.926720108186082 68 108 141
5.931242151730595 84 129 157
6.815785732497087 6 26 43
6.960137659110024 10 35 51
7.757098586195718 15 33 47
6.032197256775234 27 34 43
6.9054324952105635 4 17 30
7.200580176513694 10 45 68
6.977848595573836 12 19 27
7.401983489570325 48 91 121
8.2297498604572 18 53 79
7.708154234559276 11 51 79
7.860279034679998 38 86 117
7.960047478752776 65 112 143
7.860279034679998 38 86 117
7.423105862225925 53 96 125
8.120699595470569 17 59 88
7.960047478752776 65 112 143
7.684348690816758 72 120 153
7.782825992253145 20 60 89
8.012861756201357 50 100 135
7.87213552046415 81 83 88
7.855613434377218 80 95 115
6.948644379625035 68 100 127
9.338785152067805 66 110 146
7.927477511739732 47 96 131
9.293509049680118 69 114 150
16.610507183086657 57 67 76
18.22402759764895 0 8 17
8.297146824037004 24 52 71
8.798705769566348 69 116 148
6.653475812214265 19 26 34
8.143347390302814 69 115 146
6.863933506192298 19 58 83
9.116144039968814 62 109 142
7.8870537681736 53 98 130
8.039107399524706 61 105 135
6.837238407397989 35 85 120
6.2048149945743605 145 179 205
5.957685763626693 55 101 130
7.328778807707374 72 72 76
18.28739071939309 1 15 26
8.599724585115862 6 11 15
9.046482955183833 73 119 151
7.636389402137933 67 115 148
8.400716876776546 22 57 80
8.15590327333537 46 90 121
8.493073240553109 72 83 102
17.72145989304021 2 10 19
8.533099022665583 92 98 105
8.335466998262675 8 17 25
6.329548178747756 42 52 63
8.537301768570229 16 51 77
7.718786912469592 41 89 122
7.927477511739732 47 96 131
7.101738377162101 80 131 167
9.044150073627284 49 93 126
17.541186244348072 71 87 95
7.807996426342594 78 105 128
