11.111405839535731 39 42 38
10.390277457660998 43 43 41
10.353631819630086 50 50 48
11.008306788907351 45 46 43
11.154489883808314 44 44 43
21.210772581222592 2 2 2
18.958221098319463 36 40 28
19.413347847916885 4 3 4
20.081903799343085 1 1 1
19.060756621490107 3 2 2
19.006844452658974 3 4 4
19.07481364344682 23 27 12
9.138494045410944 21 29 25
9.878221188648789 37 45 43
9.70862367748282 17 25 20
9.600183339011702 0 3 1
9.980070831034704 8 12 8
9.136445697297091 37 47 43
9.391755255269079 9 19 12
8.327081067933786 40 48 26
8.323939702799127 39 46 24
7.909332802494773 36 45 30
8.5678153309814 19 30 20
8.801123023904712 25 35 30
9.060930024156626 24 33 18
8.031515326793203 34 42 22
8.403851843915291 50 60 55
9.17267062207162 44 53 39
9.707857653119307 37 45 37
7.7765989641364595 40 46 20
10.044597898266197 3 7 3
10.241048454142806 1 4 0
9.567373378237681 22 28 19
10.650713869466525 48 54 30
10.905566485800104 9 11 8
10.842379503559673 28 31 21
10.620594122199059 39 42 35
11.173599529453115 2 5 2
10.842379503559673 28 31 21
11.265722652295924 1 3 2
11.049396031180763 12 13 11
11.463979781537198 50 56 32
11.384616824264073 3 3 0
10.89201475881705 0 0 0
11.484880706827141 53 59 36
10.695653826034192 52 58 35
10.665660989624715 48 52 41
10.443339072764964 44 47 41
10.861384132968915 50 54 37
11.43077681703094 52 57 32
11.01494343440544 43 43 41
10.861384132968915 50 54 37
11.299962119925175 50 55 39
11.615892997140692 49 54 40
11.2639541540667 49 57 37
11.23547848398808 54 57 48
10.993179251264529 1 4 1
10.908535674181056 49 53 43
11.32940705130341 0 2 1
10.512682727844693 48 52 41
11.024653437060778 27 30 25
10.948781289055269 0 0 0
9.600797872019204 37 44 34
10.589880678452548 50 55 31
10.918498279849246 52 58 31
11.04417396086247 51 57 30
8.442339644795315 39 45 23
9.277429919280292 40 46 25
11.13904808994036 49 58 32
10.918498279849246 52 58 31
11.014454982398462 54 60 35
11.089877828498002 55 64 38
10.979892748499896 54 60 34
10.886034072721568 55 61 36
11.218296569174154 53 62 36
10.883631328575461 54 60 35
11.590074647408498 52 60 38
11.323657380029204 58 64 39
11.323657380029204 58 64 39
11.590074647408498 52 60 38
10.886034072721568 55 61 36
11.898304775966178 49 57 37
11.63669780193086 58 66 43
8.02733193599564 36 42 16
6.99624595227455 37 43 18
7.363221484479617 38 47 22
7.46076475451283 44 51 19
7.326519243128611 39 46 14
14.986310243110742 59 69 41
15.623538932855654 59 68 42
16.35849757374273 57 66 40
13.618053191354992 58 64 39
14.62162396841375 58 68 40
16.39361243609738 56 65 39
11.74291810492092 54 61 57
11.864270448780767 26 30 26
12.173709661875643 62 69 64
10.83256737651525 2 2 0
12.139040967204663 49 58 43
11.40045301247924 8 11 6
11.281725733808807 0 2 0
11.846745014394976 25 34 25
11.666897162236186 49 57 41
10.89635272375434 46 50 42
12.243494127735284 33 37 31
11.334233754694514 0 3 0
12.533581600207539 38 47 32
12.553294135220863 46 54 48
12.05936452874087 49 58 40
12.057195606812881 49 58 40
12.289766506852573 46 55 43
12.029333683909783 55 65 41
11.627527458370333 54 64 41
11.627527458370333 54 64 41
12.267498846160127 50 59 41
12.027159346360254 58 68 44
11.404568490657114 51 59 39
12.036670635380792 53 61 41
12.183563559338229 54 60 43
12.123780510090473 52 60 41
12.183563559338229 54 60 43
12.873669024400867 52 61 47
12.117307169851419 55 63 43
12.18141675127851 54 64 41
13.068003402147673 45 53 49
14.102151597567268 58 66 46
12.719582315461768 57 69 45
14.512237312225738 53 63 39
14.328743792146362 56 64 42
14.43523999677385 56 70 43
14.459737916680076 59 69 45
14.43523999677385 56 70 43
14.43523999677385 56 70 43
14.040524475787262 61 71 47
14.529265560332583 52 62 38
14.363215186496095 53 63 39
14.067465717135327 54 63 35
13.953178811004044 57 66 39
14.54394168027634 59 69 45
14.704900763143401 59 68 42
14.177793105706122 54 63 38
13.812347349611166 57 67 43
14.24500182428032 55 63 40
14.220133969802593 55 64 39
13.611593044997349 57 67 43
13.94231392628524 54 62 39
14.160342207443241 55 63 41
14.132150728138448 55 63 41
14.35029704017065 56 64 41
14.409300601638014 54 62 40
14.185314881472125 56 66 42
13.600455283182814 56 64 41
13.611593044997349 57 67 43
11.18686946943554 1 1 1
11.142575855410179 26 27 26
11.386942995258222 48 50 50
19.254120438386742 1 4 0
19.699758055243844 3 3 2
19.05663984482474 0 3 0
18.31932698424169 39 44 25
9.636980180391257 23 30 26
7.28111515212997 35 43 21
9.568927858131074 23 29 25
10.08051026933769 20 25 21
8.911920839165532 45 56 51
9.060109238023019 39 47 27
9.425584332111619 8 12 7
10.36845631533958 46 51 38
11.022250807587 46 51 33
11.052435617895805 1 4 1
10.489844885305384 48 51 43
10.623756395096219 0 3 0
11.23611083320532 48 53 35
10.926854959090933 0 0 0
10.691265462891552 36 39 34
11.848296808765676 49 57 35
11.01494343440544 43 43 41
11.024653437060778 27 30 25
11.23547848398808 54 57 48
10.948781289055269 0 0 0
10.453548293620011 51 53 46
11.484880706827141 53 59 36
11.071079670584519 49 52 44
10.396791132255997 49 56 27
11.36177821131987 52 61 35
11.726779165895206 53 63 40
11.638945084051569 56 64 41
11.162900685066866 54 60 33
11.18202562987213 55 64 36
10.979892748499896 54 60 34
11.41391796870801 54 63 37
11.41391796870801 54 63 37
11.036207273236531 52 61 33
11.936953729268703 57 62 37
8.026405454056167 40 47 17
15.454939099756364 58 64 41
14.133451596667346 59 65 40
13.647306692224966 59 68 42
14.387295793324647 58 67 41
15.89977470409793 57 63 39
15.89977470409793 57 63 39
15.230488993254458 54 59 34
16.063706354710007 59 67 41
15.452035535900105 55 61 36
11.060450614661304 4 7 6
12.220246285108635 57 65 61
11.958749418667145 5 7 4
12.61490990170591 51 59 55
10.163277474842298 0 0 0
11.199263191716307 56 61 49
11.62527796910897 57 67 43
12.7298589528846 49 58 40
13.31417435798603 12 20 16
11.225501125650624 52 62 40
12.181858412089591 2 8 1
12.0388432550949 52 60 42
12.267498846160127 50 59 41
12.283818636259145 53 60 54
12.972208254658634 51 59 51
12.81506457518369 48 57 41
14.276113777120246 54 64 40
14.056263605076031 57 69 45
14.519585832408008 58 66 46
14.918201127155085 53 63 39
14.43523999677385 56 70 43
13.681689752778595 61 71 43
14.040524475787262 61 71 47
14.182801721055405 51 61 40
13.600455283182814 56 64 41
14.378060800059407 56 66 42
14.22763336108434 55 63 40
14.152258243474822 58 68 42
14.24500182428032 55 63 40
14.65055944309795 54 63 35
11.323582185933496 22 23 23
21.066377467902086 6 9 4
20.23332582840205 3 3 3
19.30335332595909 5 3 5
9.173481336917227 8 18 8
8.44410123539436 36 45 26
9.461868045780612 12 20 16
9.461868045780612 12 20 16
9.100498890783308 38 46 42
10.453548293620011 51 53 46
10.883631328575461 54 60 35
11.265722652295924 1 3 2
10.371695463952065 13 18 10
11.615892997140692 49 54 40
8.442339644795315 39 45 23
9.875209357824176 47 52 42
9.567373378237681 22 28 19
11.065681980902285 50 55 38
10.410107474559343 2 2 2
10.9208933527975 53 59 32
10.871884828306833 46 50 30
11.046541785278245 51 57 30
11.04417396086247 51 57 30
7.312436689403434 36 44 15
12.26110138332699 55 63 43
12.183563559338229 54 60 43
13.07975181053493 55 65 41
11.71544714175527 52 61 43
12.0388432550949 52 60 42
12.912025634362623 43 50 41
12.672653305947867 60 69 58
14.22763336108434 55 63 40
14.283583777035403 57 65 45
13.981731157511456 57 66 40
14.934766512622847 53 63 39
14.63251536442205 54 62 40
14.992200165704755 55 68 41
11.008306788907351 45 46 43
20.02240987338833 1 3 0
9.060930024156626 24 33 18
6.708186368969165 35 43 20
8.447197914675272 35 45 33
9.980070831034704 8 12 8
8.685901967219793 42 50 42
9.600797872019204 37 44 34
9.387385836496911 40 46 30
11.162900685066866 54 60 33
11.319483172217257 51 57 30
11.43077681703094 52 57 32
11.2639541540667 49 57 37
14.133451596667346 59 65 40
14.986310243110742 59 69 41
13.754480173680204 56 64 41
12.027159346360254 58 68 44
14.807450547777199 56 64 42
12.036670635380792 53 61 41
11.560811999130042 36 42 35
12.466299472561166 63 69 59
12.431566066938057 52 61 45
10.114089536351395 18 26 18
16.39361243609738 56 65 39
8.5678153309814 19 30 20
8.440122347438452 37 45 21
7.462758050324744 36 43 13
12.289766506852573 46 55 43
19.00546840021228 2 2 2
14.519585832408008 58 66 46
11.196898030052251 53 59 32
14.132150728138448 55 63 41
10.896322272887792 47 52 35
