15.545779091760522 3 6 0
11.3407283900262 32 36 14
11.530851877674646 27 30 8
13.379130302094335 31 38 20
11.467028021384763 23 25 3
12.135733059621343 30 33 9
11.57691315772792 27 30 8
12.060670748520174 32 37 13
11.518822508294903 37 42 17
11.648972334521869 30 35 7
11.406096317720479 36 43 16
12.085657494891029 43 49 25
12.374589031834729 41 47 20
11.211404598183409 37 44 12
11.742330197208714 35 38 9
11.81232112945907 41 45 15
10.999074708174039 30 36 8
11.097900992792178 34 39 9
12.10777713242418 39 45 17
11.014902135040533 28 34 7
11.50142579069832 33 41 13
11.704646250404782 36 43 13
11.155602082256403 38 43 18
11.349668798572536 30 39 9
11.933630700350266 41 46 16
11.129252250841967 33 38 10
12.208636123549956 35 41 14
11.78418575835535 34 40 13
12.955761247976536 32 41 13
13.068451051734549 9 14 1
12.622067956952709 32 39 9
12.46800997577038 30 39 9
12.926712063053593 40 45 20
12.065777331593656 40 45 20
11.549858034009576 37 43 14
12.043580556087178 41 47 22
12.86981240653669 42 47 22
12.817914465457072 43 48 23
12.96781623858837 43 48 23
13.111005090576116 44 49 24
13.10586819860231 45 48 24
13.217278260524997 47 49 26
13.070237865552567 45 50 25
19.03834345291784 56 63 31
17.62940884142692 53 59 29
13.058489657725012 34 39 9
12.482315631033243 30 33 3
14.471484470464983 44 51 19
13.293152904812873 39 46 14
16.542145486921807 40 50 15
16.204173557682562 41 52 18
16.47009906919917 43 52 19
15.852260176453099 45 55 25
16.749485106556957 42 53 21
16.19757664976306 40 49 16
18.50768384734213 57 67 39
18.70335396068595 59 70 42
12.916126678114713 55 62 32
12.957378785390791 55 62 32
12.992164523757431 55 62 30
12.228869137396503 55 62 30
12.992164523757431 55 62 30
12.992164523757431 55 62 30
14.115053371457165 54 62 32
13.598393155931442 53 60 30
11.755401220439234 52 59 27
12.545141600670188 55 65 35
12.385901950749943 53 62 31
11.668738942181317 54 61 29
14.624575066921588 0 1 0
13.168091775682305 8 12 4
15.16887967639211 0 1 0
14.45970847366151 5 9 2
14.7788140895223 0 2 0
15.08964536576286 3 3 1
13.948047144265045 1 4 0
13.562219251193005 6 11 2
13.503010937928 12 15 7
15.067335883545743 0 3 0
14.61358262870319 0 2 0
14.568048623144726 34 38 23
13.892693453978675 35 39 27
14.448537202937167 36 40 23
14.396714484790346 29 33 18
14.653777715600222 16 17 7
15.213550320444064 2 3 0
15.204067463991601 36 37 27
14.939568046501401 34 38 25
14.644855117125047 33 39 18
12.795081589513424 38 43 18
13.116117876037352 43 48 23
12.994748593495515 40 44 23
12.64637606712462 42 46 25
12.881183985122131 45 50 25
12.882232990634993 47 54 24
13.051911874651369 44 50 23
12.406766873156544 41 47 24
13.216309577165125 45 51 24
12.679845666214012 44 49 25
12.881183985122131 45 50 25
13.920855850578636 44 49 24
12.34747143601495 41 47 24
12.857319811584247 47 49 27
13.32281494780545 43 48 23
13.132291783116813 45 51 24
13.615790496843312 44 50 23
14.66718552192442 28 32 18
14.487901679742542 42 48 21
13.746513438136795 43 49 22
14.275768791029176 37 41 22
14.33063531262785 40 45 18
13.444436780405724 44 49 22
14.767735793885207 40 45 20
14.574102227368915 42 47 22
14.479589695599106 42 46 26
14.555832821087533 41 45 24
13.362864773176996 46 53 23
13.635588892109217 43 48 20
13.577914071977277 42 46 23
13.90941380349252 42 47 22
13.986094850915714 41 47 19
14.285971575790219 19 20 7
14.817349083410564 37 40 20
13.19606935861595 44 49 39
13.042478950133573 42 50 29
13.633949510204712 42 49 18
13.607559194519393 38 46 22
12.411857436119027 49 56 36
13.041329219521755 41 49 25
13.043438325394643 36 42 20
13.509505317491762 36 44 28
11.811009931364213 47 56 25
11.160971831420987 49 56 24
11.586580900592356 51 59 27
11.462906921536955 56 63 39
13.935430571850077 6 9 4
12.912314051270197 50 59 29
13.19718447956055 47 54 24
13.017171972939892 48 57 27
13.19718447956055 47 54 24
12.934064718011339 52 62 34
12.884445744546708 51 60 30
13.731027957240428 52 62 33
13.434437593116991 48 54 26
13.176056518758067 53 63 35
12.801648153792822 48 58 33
12.96921858514646 51 63 34
12.801648153792822 48 58 33
12.460656777726328 52 65 35
11.591604432002123 52 65 38
12.514036417877694 50 60 32
12.204488193959461 50 62 34
11.87347975233972 48 58 34
12.339392586945246 48 56 33
11.803725938776621 49 60 31
11.69246415074846 54 65 35
12.488587452124056 55 65 37
13.060287826661543 52 62 34
12.486480080720613 46 56 32
13.067715579767125 41 49 24
12.909421351017377 49 58 28
12.84412686304151 52 61 31
12.859707291869645 49 58 28
13.106202668630841 47 56 26
13.944944282892017 45 52 22
13.046187738286326 44 51 19
13.109051946336647 48 55 25
13.571036259250322 43 50 20
13.018606011710718 42 51 23
12.561948007532575 46 55 26
13.640417673015072 46 55 25
13.078747507952134 48 57 27
12.859707291869645 49 58 28
13.774707221516568 45 54 24
13.812309955570933 47 54 24
13.743796315587227 42 49 17
14.232831830263008 41 48 17
12.501306820175559 50 59 33
12.947810691409014 47 56 29
12.9951851674368 48 57 31
12.329810041595033 47 55 33
13.225992956527065 47 55 32
12.93233640692604 48 57 31
12.793583979999156 47 54 36
12.288270188542812 51 60 32
12.742241314424538 46 55 27
12.742241314424538 46 55 27
12.166544096611878 49 58 25
11.904048050936293 49 58 24
12.341822722767098 47 56 27
12.247236663920392 53 62 33
11.9027883559389 50 59 27
11.719980178757705 49 58 28
12.327699035573653 47 56 29
11.319753800785001 46 55 23
11.217888983448605 52 60 28
11.205025093318703 51 58 26
11.963365798575062 52 59 27
12.556023584554241 46 55 28
16.492109714212422 5 9 3
15.823721420205825 4 7 0
11.186791632755869 24 30 5
12.135733059621343 30 33 9
11.786754951463939 28 33 7
11.155602082256403 38 43 18
11.189971340264986 33 39 12
11.600698439794272 39 44 14
11.418951014923458 36 41 14
11.081330354527386 29 35 10
12.81277570958315 37 42 16
12.718755624094015 41 46 21
12.755367811334741 42 47 22
12.398172949079594 44 49 24
12.08781077093573 40 46 21
11.41629904928856 38 43 18
11.486139787767081 40 46 18
18.53081716515143 55 61 30
13.293152904812873 39 46 14
15.677988179414907 40 50 14
16.19757664976306 40 49 16
15.908500914272581 41 51 14
22.213197551812527 56 65 37
18.424630926294835 57 67 39
13.033175961191112 56 63 31
13.63758164214872 54 62 32
12.916126678114713 55 62 32
13.22445866833715 53 61 32
14.143596264394617 40 44 25
13.901941151034071 9 12 5
15.624591622691291 4 4 0
14.217964192044766 37 42 24
14.440202560063774 4 5 0
13.255831783354568 2 7 0
12.815976860424788 44 48 28
12.625200102434185 39 44 19
13.116117876037352 43 48 23
12.857319811584247 47 49 27
13.37376402646533 44 49 24
13.920855850578636 44 49 24
13.456274209383793 44 49 22
13.920855850578636 44 49 24
13.060043443896236 42 47 22
13.201150028721202 48 55 24
13.402578408394334 47 49 27
14.926751015500598 8 11 4
13.95163776941884 41 46 20
13.685213442276911 44 50 23
14.294396146506962 40 44 22
14.674470433276241 35 37 21
14.131013541828397 42 47 20
14.466942106852086 40 46 20
15.25794653590254 40 44 24
14.817349083410564 37 40 20
13.42563665866217 45 52 22
14.312055123048745 39 43 23
13.635588892109217 43 48 20
13.90941380349252 42 47 22
13.042478950133573 42 50 29
13.654550714611126 37 45 23
12.837257488514199 42 49 25
11.669053751830605 46 55 23
11.190806587824696 49 57 24
10.903473184154395 48 56 24
12.295589467080577 49 57 28
12.443194755948175 63 69 51
12.935814353958593 49 56 34
14.15326977621064 34 40 16
12.934064718011339 52 62 34
13.19718447956055 47 54 24
13.97915508249216 46 55 25
13.809339767197573 48 57 27
12.053960207542687 50 63 35
12.685406683420537 52 64 33
12.578975318444417 48 60 34
12.514036417877694 50 60 32
12.801648153792822 48 58 33
14.066079407357467 42 49 19
13.209521581256764 44 51 23
13.812309955570933 47 54 24
12.822223633318387 50 59 29
12.561948007532575 46 55 26
13.018606011710718 42 51 23
13.078747507952134 48 57 27
12.84412686304151 52 61 31
13.109051946336647 48 55 25
12.789204830547753 48 57 31
12.43716804464862 49 58 30
13.211979498930816 47 55 32
13.225992956527065 47 55 32
12.647696903245537 47 56 30
12.505786783235713 46 55 28
12.259306618544327 47 56 30
11.396096814159794 51 58 26
11.217888983448605 52 60 28
12.166544096611878 49 58 25
12.354716644909809 47 56 25
10.932639113643894 50 58 25
17.594295004751782 19 24 12
13.269079254545417 39 48 21
13.269079254545417 39 48 21
12.919716952687441 35 44 16
11.499033858656064 40 45 14
13.10586819860231 45 48 24
11.163835354727656 31 37 10
12.16484522607091 36 42 15
12.854244225966182 43 48 23
12.052697239459967 31 40 11
12.50535629771983 30 39 7
11.595843817613124 43 47 18
12.002753037120419 38 42 11
11.155602082256403 38 43 18
16.749485106556957 42 53 21
13.190489078736727 40 47 15
16.204173557682562 41 52 18
18.62117377491865 57 70 41
12.75021065766195 53 60 31
12.266943537677996 55 62 30
13.638653494168771 4 7 1
14.229362065386889 38 41 31
14.822140670900355 36 39 28
15.192460606005726 0 0 0
15.677259817361593 3 3 0
14.13503158013638 0 3 0
14.789731732675525 0 1 0
12.65884273939193 43 48 23
13.156630319911232 43 48 23
12.782515958926725 43 48 23
14.43269674131745 16 17 6
12.449587843842686 45 49 28
14.986465377673245 2 4 0
12.815976860424788 44 48 28
13.658761707057096 46 51 26
13.456274209383793 44 49 22
12.717632462941179 46 53 24
13.051911874651369 44 50 23
13.312612288270104 36 44 22
12.746947521894388 64 70 55
13.702475417097112 34 42 22
14.432084257149834 31 37 15
12.801648153792822 48 58 33
13.286324282036876 46 54 31
13.127632092738663 47 56 26
12.93233640692604 48 57 31
13.943341273352013 42 48 22
12.301220243635637 51 61 33
13.29998320942718 53 63 35
12.460656777726328 52 65 35
12.207872589945355 55 65 37
12.339392586945246 48 56 33
13.386947838105227 44 50 23
12.930323769796741 44 54 28
14.107313708204886 48 57 29
12.789204830547753 48 57 31
11.521445537312728 52 61 31
11.87726776188016 47 56 26
12.58345065991847 52 61 29
11.960858770383696 54 63 33
12.259306618544327 47 56 30
11.570624662220787 39 46 15
12.600874140244308 42 47 21
11.226932692088912 38 43 13
11.69456838396171 34 41 10
15.92193154314231 51 60 30
13.028008381536775 54 64 32
14.334597396357232 0 3 0
14.868004686796356 1 3 1
13.200126367363612 46 51 24
13.519449794008576 46 52 25
12.839802475967685 40 46 21
12.794755972898292 48 54 38
14.413634842992298 33 39 15
12.06840425630287 52 63 30
11.3338105404223 48 57 23
12.793583979999156 47 54 36
12.934064718011339 52 62 34
12.794159092662813 51 60 30
12.2302910525184 43 48 22
11.78418575835535 34 40 13
11.764969404066894 37 42 11
12.26816584128636 54 61 29
14.78250362293073 2 4 1
13.449334191773803 46 53 23
12.713516097807222 45 52 22
13.860591972593516 40 45 22
14.42881507162838 38 43 18
13.652085172240287 48 57 27
12.553634913857875 47 55 32
12.612835752894334 45 54 26
13.540387080133266 48 57 27
13.944944282892017 45 52 22
13.41751037830114 44 49 24
13.684299060491929 51 60 30
12.5905301619278 47 54 24
13.068451051734549 9 14 1
14.555832821087533 41 45 24
13.749775953056892 38 43 12
13.815442605810407 0 4 0
13.015850772573868 34 41 21
16.749485106556957 42 53 21
13.635588892109217 43 48 20
