12.592103776591946 24 24 27
11.958832230145868 25 25 29
10.939347844474735 25 25 25
11.412549129991591 26 26 26
11.13928780591012 34 32 25
11.13928780591012 34 32 25
12.229067313048997 28 25 26
12.139370630171738 24 24 28
11.550904451055803 35 36 27
10.329514433543638 26 26 24
11.612340300532143 40 40 18
11.516082313929754 33 34 23
11.59283642889213 28 28 26
12.139370630171738 24 24 28
10.800849091114843 32 31 24
11.663756062227463 39 38 18
10.800849091114843 32 31 24
11.541104723693634 31 31 26
11.21670949829188 28 28 29
10.911088742036986 26 26 28
10.385176469552844 32 31 14
10.468288664621683 33 32 16
11.187950239377587 32 31 15
11.174206033411581 36 35 19
10.645104265714807 37 38 31
10.129886708952824 35 34 14
10.215076211086819 36 35 15
10.445596987763643 38 38 13
9.535445893106921 36 34 10
9.856521890328601 38 38 16
10.445596987763643 38 38 13
9.883695807380693 40 40 18
10.388153743904251 41 40 13
11.246931054805263 37 39 17
10.439530771117743 40 43 14
10.522213644628538 39 42 11
10.96281599350242 41 41 15
11.310018203764537 40 40 15
12.01885730041725 40 40 16
11.950045263332418 34 36 16
12.460183489178963 40 43 14
12.941501766725734 42 44 17
10.81479119535523 32 32 7
10.707584158785576 33 33 10
11.108398892412275 33 32 14
10.460166009674072 36 36 12
10.378941325183318 35 35 9
10.143048233845994 36 35 14
10.920066478576407 39 41 15
10.685400665506458 40 40 14
10.110307350726577 38 38 14
10.334045071786766 38 38 14
10.426610495300649 41 41 14
9.781854080405278 38 38 14
9.897044608783403 38 38 14
10.97472597016951 40 40 14
10.317334136433036 41 41 13
10.375169488089886 39 39 13
16.15982455116867 39 41 20
14.508672257854332 27 26 6
11.513618831152513 35 35 11
14.297570283035224 32 31 13
14.879212977438009 27 26 8
10.7427737437328 38 38 14
11.372164834433892 40 40 14
11.016653773505132 40 40 14
11.141336311132067 41 41 15
11.12753452998878 41 41 13
11.213200183274173 40 43 12
11.191066377053716 39 42 13
11.700089283001859 39 42 13
11.163568716692152 39 42 13
10.560182204722071 40 43 14
11.047673676966712 38 43 14
12.14034517321368 42 45 14
11.376665076749104 42 45 14
11.512562708901742 45 48 17
11.785765936672492 26 26 27
11.564949106416105 21 21 23
11.63419663691588 46 46 48
11.63419663691588 46 46 48
10.784495907793577 44 44 42
11.637055277066505 35 36 25
10.184348570665998 56 56 58
11.020623079976891 57 57 59
11.279862032449428 26 26 26
10.582669333639151 54 54 53
11.389735180733538 57 57 59
11.44038016707811 60 60 62
11.44038016707811 60 60 62
10.622460136197807 55 56 55
10.5386410290544 39 41 18
11.285741743678466 55 56 51
10.576440083367897 46 47 29
11.459595441499841 56 56 51
10.897269978265147 42 44 24
11.623081875676808 60 61 57
11.746502830732293 61 61 63
11.498113938666595 58 58 56
10.946024201275478 53 54 44
10.419439760792882 59 59 62
10.236748522990533 43 44 28
11.952812928115685 59 59 61
11.670978357660154 58 59 54
10.690541559437436 59 59 55
10.894941132407439 53 54 42
11.087201525758461 52 53 37
10.462298177197743 52 54 34
11.955906942760057 42 44 17
11.232927413437414 40 40 15
12.18403023190084 36 38 17
11.82317554398577 43 46 15
12.05381109076456 36 38 12
11.826818942970922 38 40 14
10.776503108772857 45 47 21
11.456383495225534 44 47 16
12.05381109076456 36 38 12
11.961106404412655 35 34 14
10.99894487545765 44 46 22
11.652249502613582 50 51 40
11.177260368766284 49 51 35
10.451966853720085 46 48 26
13.575187282479028 44 47 17
13.287307194924319 46 49 17
13.08661088845254 58 57 41
12.889871709520321 55 55 37
13.033877778695988 54 54 38
12.35986514544961 54 54 40
12.0000505776149 50 51 36
12.989250455339501 52 54 36
10.952296621287232 55 57 37
12.0000505776149 50 51 36
11.539386671108247 48 50 30
12.712593580134039 53 54 37
12.56490582024284 55 55 38
10.325250716094864 56 58 37
10.476732389053364 60 62 39
11.127009217956807 56 57 41
10.504474266345282 55 57 37
10.582186438586803 56 57 41
11.042741619600653 58 59 42
10.553102371231692 57 58 42
10.739170379031394 57 56 40
11.143318605775855 57 57 41
11.157100861401567 56 56 39
11.619695291607064 57 58 42
11.632913167021089 55 57 38
11.619695291607064 57 58 42
11.571586543491366 56 57 41
12.52782851651158 57 57 36
12.193427106487064 58 57 40
11.618391226106596 58 57 41
10.96447098671737 56 58 39
12.099694975762029 58 58 42
12.321868595587132 59 58 42
11.333276042267341 57 57 41
12.134933497274359 58 57 41
12.390457365294413 58 57 41
12.832865547636148 58 57 40
12.240651835802254 58 57 42
12.413717416762648 58 57 42
12.110927005097537 58 57 42
11.258475451604513 57 59 40
12.506418502008755 58 57 42
12.134722877134797 59 58 43
12.76495786217884 58 57 42
11.94665350886527 52 55 26
11.972566220431192 46 49 20
12.052129995182511 57 57 36
11.728648153237236 56 56 34
12.449471988754789 50 53 24
11.94665350886527 52 55 26
11.606783291785463 54 56 30
12.171297054973738 51 54 25
11.155513612835147 57 56 40
12.075830080140374 58 58 42
11.703926819852303 57 56 41
11.407810214256417 58 57 41
12.251432836233606 58 57 43
10.363940879990547 57 59 38
10.294923184924874 58 60 39
10.624017123819915 59 61 40
10.11613040502169 58 60 38
10.21238431832454 57 59 38
10.638472161399681 59 61 40
10.25399667573732 56 58 37
10.625793788158862 56 58 37
14.940053908120692 32 31 11
14.986081054542977 27 26 6
13.38584660610558 27 24 25
12.41814907836754 21 23 25
11.553508697015241 25 25 25
10.994861281485681 36 38 19
11.269930354392447 27 27 25
11.154911281354016 26 26 24
11.031328858089944 36 37 24
11.81484721402835 24 24 26
11.839238196475787 27 27 29
11.663756062227463 39 38 18
12.139370630171738 24 24 28
11.047210840896835 32 33 26
11.66191836789636 32 33 20
10.792245968223162 27 27 27
11.174206033411581 36 35 19
10.006072486453144 38 37 25
10.215076211086819 36 35 15
10.388153743904251 41 40 13
11.185404328555594 39 39 15
9.831475252598787 38 36 17
9.768205900391031 38 38 14
10.044112755072975 38 38 14
11.756982411045607 36 37 21
12.941501766725734 42 44 17
10.698138027025998 41 41 13
11.732420425111691 37 39 19
12.125587704925927 38 40 15
11.756982411045607 36 37 21
10.398014860619371 33 32 13
9.858436871826262 35 35 12
9.991236073609008 38 43 14
10.805182099435916 40 40 14
9.950957567107345 39 41 15
9.950957567107345 39 41 15
10.110307350726577 38 38 14
10.415619879011672 39 39 15
10.685400665506458 40 40 14
16.281873423559208 37 39 18
14.508672257854332 27 26 6
11.236372568912644 36 35 11
10.819395097861413 39 39 15
11.087498210776177 39 42 13
11.213200183274173 40 43 12
10.760309983213121 38 43 14
11.413361671368625 35 36 25
10.732793690865766 51 53 34
10.884550835218983 60 61 54
11.402668814630712 60 61 58
11.385951919858373 43 44 33
10.976272525902358 50 51 42
10.690780631575587 60 60 62
10.565736578341989 46 47 35
10.978351314520847 48 49 40
12.163050662093443 60 60 59
11.238233944480973 58 58 61
11.646774270829612 36 38 17
11.606783164588752 39 41 14
11.41949883618852 44 44 13
11.470012404079863 41 44 12
12.63217504255837 59 60 40
12.314855847951604 51 53 33
13.152663677288238 57 56 39
12.589656217537986 51 52 34
12.495746516694375 56 56 40
11.539386671108247 48 50 30
12.889871709520321 55 55 37
10.325250716094864 56 58 37
10.773910936814126 55 57 39
10.819455604421078 57 59 41
11.670859660503492 55 57 38
11.079282284150365 57 58 42
12.193427106487064 58 57 40
12.920884679526168 58 57 40
11.873696836577535 59 58 43
12.596718877759164 58 57 42
13.096801414225988 58 57 41
12.663617288955932 58 57 42
11.067359520521334 57 59 40
12.052129995182511 57 57 36
12.347183231833984 46 49 20
11.307793748922602 58 57 41
11.777519628009038 57 58 42
10.324868866446272 58 60 39
10.839023941782454 58 60 39
11.011601657065274 56 58 38
10.902612819169791 58 60 39
12.197842961549323 24 24 28
10.325569151321025 38 38 16
10.763600666729573 25 25 25
10.522213644628538 39 42 11
11.209966489283254 32 31 13
10.656228318602478 40 41 14
10.50645210237826 33 32 12
11.665712470912348 41 41 14
10.769830350080047 35 35 10
11.903584796456485 42 45 14
11.757199923652644 45 48 17
10.452302399903164 40 43 14
10.419439760792882 59 59 62
10.978351314520847 48 49 40
11.775228361824537 60 60 62
11.222850033810328 36 35 17
11.775228361824537 60 60 62
10.247795651607525 45 47 25
10.637157566999816 53 53 52
11.330669378143423 56 56 58
10.890838532957611 57 57 59
11.048939161343009 37 37 37
11.469464812143642 56 57 50
11.469464812143642 56 57 50
12.309372738120977 41 44 13
11.652249502613582 50 51 40
11.961106404412655 35 34 14
12.16963194611789 41 43 16
12.661999727457363 42 44 17
13.152663677288238 57 56 39
10.240977740827521 56 58 37
11.026515258336994 58 59 46
11.028816454887767 57 58 42
10.909740159518377 58 57 41
10.962496208087082 59 58 42
11.753118555029284 60 59 43
12.449471988754789 50 53 24
11.258475451604513 57 59 40
12.218702995017408 48 51 22
10.703252599236748 57 59 40
10.567785638526479 57 59 38
10.567785638526479 57 59 38
10.324868866446272 58 60 39
11.215693919334216 57 59 38
12.087226188742171 25 25 25
11.65405123058032 28 25 28
10.304395224606788 41 41 13
10.468288664621683 33 32 16
10.362302792752397 39 39 13
12.727298658332936 21 23 22
12.156330973663092 31 29 23
10.69385074490945 39 42 13
10.707584158785576 33 33 10
10.460166009674072 36 36 12
11.376665076749104 42 45 14
11.513092095966648 14 14 16
10.986576079791018 47 48 35
11.455471953471061 57 57 59
11.020961068130646 34 34 32
11.67339010755757 51 53 33
12.057517992501936 51 53 33
10.774385376030892 47 49 29
12.0000505776149 50 51 36
11.278434455522332 45 47 22
11.03113677472782 51 53 32
12.56490582024284 55 55 38
12.321868595587132 59 58 42
12.402948114007216 52 55 26
12.134933497274359 58 57 41
11.9336851753055 58 58 40
11.825006714705738 58 57 43
12.147494513232314 57 57 40
12.413717416762648 58 57 42
12.218702995017408 48 51 22
11.155513612835147 57 56 40
11.75525886667644 48 51 22
9.856521890328601 38 38 16
11.437900250590099 25 25 27
11.340979399738206 33 34 22
11.270260996972413 40 40 14
10.637157566999816 53 53 52
10.672709302666957 41 43 22
11.482715758778578 22 22 22
10.331518263177658 57 58 49
11.705084026906293 24 24 24
10.742834544418743 60 60 62
11.03113677472782 51 53 32
12.922362405127194 55 57 39
12.499100338003249 52 54 33
11.407810214256417 58 57 41
10.489458722438782 58 60 38
11.237740208254587 25 25 25
10.169592915890362 40 40 16
12.639196600894875 43 46 15
11.18644535285614 60 60 62
11.64297425001515 58 58 42
11.193496538817886 56 56 34
11.726029681570912 59 59 61
11.260378856919582 38 40 22
11.016653773505132 40 40 14
12.26761313366949 52 54 33
11.002629050074596 56 58 40
12.822465263193328 58 57 40
10.48384302841752 40 40 14
