15.396231363182594 49 51 27
10.943156137455803 43 45 21
10.91020850683045 40 42 17
11.238197573028623 49 51 26
11.084090017587563 45 47 21
10.104321661809108 35 36 21
9.520595290578976 36 38 14
9.120644337363695 40 42 16
10.040290319942136 35 37 16
9.972581058934255 34 36 19
9.486663871915358 38 40 19
9.983866632262574 42 42 18
9.925510483180393 45 47 22
10.303518158397804 36 38 16
10.4037281663048 37 39 15
9.661876016096128 38 40 18
9.96249583808259 40 42 18
9.69388157086902 43 45 19
10.662698594477574 36 38 14
10.035282999603105 37 39 16
10.14680128634561 41 42 18
9.48136417358301 39 42 17
10.747908781346386 37 39 16
9.510030758824772 42 44 18
9.194629403102331 42 44 20
8.682255324443059 35 37 16
8.491847692218872 35 37 18
9.761489535684863 34 36 15
9.308686148420552 34 36 15
8.400060482282141 37 39 17
8.432991027535248 37 39 15
8.395254464577091 37 39 15
8.945199699520868 35 37 18
9.26450734777489 37 39 15
9.250246417590894 33 35 9
8.713034710543509 52 54 33
10.429114526851533 50 52 28
8.258978196263993 56 58 39
9.362499627870333 54 56 35
9.167375194945317 53 55 33
9.421294207863365 53 55 32
10.394537663021122 48 50 26
9.421294207863365 53 55 32
8.602438625638005 52 54 32
8.602438625638005 52 54 32
8.142216976174039 56 58 37
10.351448901521904 52 57 31
9.472894513269894 52 54 32
8.77585972274613 54 56 34
9.195141467606396 57 59 36
9.184321379046002 59 61 40
9.005592168983139 52 54 32
8.607623633055614 60 62 40
10.844903704587525 50 52 26
11.110190737212614 53 55 30
8.871468620395609 56 60 39
8.570656011230943 61 63 43
17.055684989053397 48 53 25
16.17219670640888 51 53 31
10.887758515076555 50 52 28
8.95963113147322 42 47 20
9.638984913233992 42 46 19
9.209745297984844 44 48 22
9.931959036827664 44 49 22
10.013245572203951 45 47 20
9.746030139266095 45 48 21
9.931959036827664 44 49 22
9.600753365515825 47 51 23
10.174945794311286 46 51 24
9.795080396229821 40 44 22
8.961288935218546 39 41 19
10.028890273310111 40 45 21
9.497363670731657 41 43 18
9.738832576978824 39 41 18
9.141924287120693 40 42 20
9.859915725771634 43 45 21
10.024371222690009 44 46 22
10.571570304418943 44 46 22
9.525982108728913 44 46 22
9.39864431416184 54 56 32
10.147391541160472 52 54 31
8.833749073968129 56 58 39
10.34698877903198 49 51 25
9.847025430379936 62 64 43
10.862012642925075 54 55 32
9.929007322315183 53 55 31
9.542249814920368 55 57 33
9.509213250733485 51 53 29
10.241041616252545 58 60 38
10.34698877903198 49 51 25
10.071688051829959 51 53 29
8.905585935386048 56 58 37
9.300474319222976 57 59 38
9.749520199836402 56 58 40
8.900813693804242 58 60 41
9.646185062877544 60 62 43
12.443297194012537 60 62 40
11.766532045402913 62 64 46
14.909882386028078 58 62 41
9.13205548019056 56 58 37
9.48413195067268 57 59 38
9.859961417203781 57 59 38
9.803797931388607 57 59 38
9.450593564019243 57 59 38
8.924965651392858 58 60 39
8.73984734349322 62 64 45
9.391982402189342 60 62 43
9.425729339871939 59 61 40
8.57183977232161 35 37 16
9.066772126362157 33 34 18
9.323734157550007 34 34 11
9.377640265175879 32 33 17
9.86433458463162 33 35 14
8.976367700163376 35 37 18
11.140915265242588 14 12 4
10.424493112476553 31 31 15
10.251099245102075 44 43 30
9.532904342037478 42 40 31
9.5784355933795 60 60 56
9.547200183051636 48 49 34
8.948067687337614 57 59 39
9.433097917096589 56 57 49
8.853330930333943 59 60 52
9.404723334295607 58 59 53
9.378031673529398 41 40 31
9.315349717956721 50 51 43
8.782194296239343 49 51 42
8.506565835659154 54 55 40
8.241692155535073 59 61 44
8.443367186207167 59 60 46
8.729030146280534 59 60 51
10.058272097177793 57 58 51
9.221421749898088 37 39 18
9.221421749898088 37 39 18
10.27978195754745 38 40 18
9.43101253236867 40 42 20
9.697343942139028 41 43 21
9.697343942139028 41 43 21
10.804962081943174 48 48 23
10.000864256813339 52 54 30
10.350232674462935 44 46 20
10.163526420341785 47 49 24
9.90115317875017 41 43 19
10.266342782295268 41 43 20
11.194068626723153 41 43 19
9.52642907155119 43 45 19
10.95569208247515 43 45 19
9.942503491671317 41 43 21
9.896075456587521 48 50 26
10.42004091694291 45 47 21
10.95569208247515 43 45 19
10.163526420341785 47 49 24
9.928892081890625 43 45 21
10.359190010944557 43 45 23
10.695407960589025 49 51 27
10.695407960589025 49 51 27
10.8515764429848 50 52 28
10.6993797896964 53 55 31
10.889418485312817 26 25 11
11.230659545752838 39 41 18
11.7912353757426 28 29 19
11.530318956795215 37 39 22
11.498377723546135 39 41 19
10.540792427711226 40 42 21
11.478381779344371 40 42 25
10.859504888203517 17 18 8
10.719581968920295 46 44 33
10.384041678956967 44 43 22
9.881438170781726 51 53 29
10.267351235767615 60 61 52
10.335486389626777 57 59 37
10.999196728344467 58 59 45
10.779018450892082 58 60 39
11.416973702489429 57 59 45
11.623089935287613 62 64 45
11.623089935287613 62 64 45
11.992753618448408 61 63 42
11.551699903900758 62 63 49
11.82439157969683 62 64 46
11.923161797778382 62 63 48
11.317102580398801 62 63 48
11.965834533559155 62 63 48
10.673179519553015 59 61 39
11.167446035721758 62 63 47
11.505485781033459 60 62 40
10.88860433319608 55 57 33
11.623089935287613 62 64 45
11.76695285527633 62 64 43
11.37394818661709 61 63 44
10.639395869615194 56 58 34
11.57958176870267 60 61 46
10.333129154826638 61 62 52
9.687351083016031 60 61 51
9.97038606453214 61 62 50
9.546447378066505 59 59 55
10.04410205442632 54 55 44
10.487534092863712 55 56 41
10.396580984899764 41 41 25
9.848071430809775 48 47 33
9.70767957914972 57 58 50
9.81144710631977 44 44 29
10.475103663626188 55 57 37
11.141680076710298 42 44 18
11.116522302600098 47 49 25
10.162518134423328 35 37 18
10.104321661809108 35 36 21
9.788830025808643 39 41 19
8.929197700262563 42 44 19
9.48136417358301 39 42 17
10.333536577573705 41 43 17
10.214601538237531 34 36 15
10.035282999603105 37 39 16
10.455926388500616 44 46 20
10.585932250578246 39 41 16
9.510030758824772 42 44 18
8.587804015927379 37 39 15
8.432991027535248 37 39 15
9.100946981184316 34 36 17
8.529156896981753 35 37 16
8.945199699520868 35 37 18
9.220653887168483 38 40 16
8.96523925161313 41 43 17
8.786128627073843 36 38 17
10.033733508041118 52 54 30
8.609630909953768 53 55 33
9.897261819521905 51 53 29
8.991427083163854 54 56 35
9.307899357715312 51 53 31
10.351448901521904 52 57 31
9.788805182465914 52 54 31
10.667124003512262 49 54 27
10.981719937984538 47 52 25
11.235967982655728 50 51 24
8.197290398514939 59 61 40
9.472894513269894 52 54 32
8.318131522033601 51 53 29
16.17219670640888 51 53 31
9.662495893683152 47 52 27
9.596842807274319 42 47 20
10.408657944576362 46 49 22
8.996651572999742 39 41 19
9.663812829526131 42 44 20
10.028890273310111 40 45 21
9.859915725771634 43 45 21
9.892066430468772 44 46 22
8.883689170629204 43 45 21
10.252953650328475 44 46 22
10.107369430252138 54 55 32
9.479426383347334 60 62 43
10.111851388514074 50 52 26
9.688403884044442 53 55 32
9.187700807154826 61 63 44
9.187700807154826 61 63 44
10.107090161689937 66 68 47
9.883733316541196 58 60 41
8.724683326205339 55 57 36
11.564223267875478 62 64 43
9.450593564019243 57 59 38
9.564487112961736 59 61 40
8.843363363749004 56 58 37
9.535464968711237 54 56 34
9.382470817798822 33 35 16
9.049437396470804 60 62 41
9.143766911739295 52 54 36
9.014831122653266 56 57 47
8.75530749292288 60 61 51
8.712756362842269 58 59 52
8.649919324326712 57 59 42
9.319378395889231 55 55 51
8.443367186207167 59 60 46
9.648510986827697 57 57 55
9.271202670366698 54 55 48
10.712737930991207 39 41 15
9.90115317875017 41 43 19
11.434569857661364 6 7 1
11.59693119943694 19 20 10
10.257410740228789 38 37 19
10.159345099771581 45 47 22
10.901730615770619 41 43 18
11.498377723546135 39 41 19
10.519611644518873 48 50 26
11.246033294393447 44 45 29
10.6993797896964 53 55 31
10.362540505962723 50 52 28
10.5017981122888 46 46 21
10.639395869615194 56 58 34
10.300595241244034 53 55 31
10.322225446895477 43 45 25
10.322225446895477 43 45 25
11.25374074544234 60 62 40
9.666641242297597 53 54 36
11.045439669716123 62 64 45
10.904460342029449 58 59 42
11.82439157969683 62 64 46
11.257075734113176 61 62 48
12.105215934308085 61 62 46
11.866201183373404 60 61 46
10.395356880209032 54 57 46
9.437138561251619 52 54 45
11.696017587259789 63 64 49
13.228362489202864 34 36 14
9.885376494983495 42 45 19
10.747908781346386 37 39 16
8.713034710543509 52 54 33
16.80994077000234 46 48 23
9.871901974758579 46 49 23
9.761595851986149 42 47 20
10.135032492654046 49 52 26
9.659635594737377 41 44 22
9.794574868048315 44 46 22
9.141924287120693 40 42 20
10.8288181289023 52 54 30
9.318804415201905 55 57 35
9.300474319222976 57 59 38
8.924965651392858 58 60 39
9.162431241821142 53 55 34
11.564223267875478 62 64 43
8.816270309542189 52 53 40
8.476158173342045 36 38 16
9.323734157550007 34 34 11
9.796971494481582 42 40 29
10.901730615770619 41 43 18
11.478381779344371 40 42 25
9.985215445475013 47 47 35
10.604141330156622 55 56 40
11.118780146091302 56 57 42
11.12062371594562 40 42 25
10.607680550802161 57 58 47
10.27978195754745 38 40 18
9.813712714370974 39 41 19
10.475103663626188 55 57 37
9.52253530142018 61 63 44
11.505485781033459 60 62 40
9.464369672489862 60 61 45
10.8515764429848 50 52 28
9.464369672489862 60 61 45
9.037126713451677 39 41 19
10.45795771598634 44 43 26
9.194629403102331 42 44 20
10.75258424746086 34 36 16
9.860820196005246 50 52 28
10.394537663021122 48 50 26
9.443816323647084 55 57 33
9.860820196005246 50 52 28
14.685692105573436 59 63 42
9.180961388875938 55 57 35
9.118086859154197 57 59 39
10.107369430252138 54 55 32
8.20975532865288 58 60 41
9.626708662758467 42 44 22
9.622047547339328 58 60 39
9.392008295190948 39 41 19
10.381724008065076 52 54 30
8.67238244279072 35 37 17
8.98138699858956 60 61 53
8.57183977232161 35 37 16
11.696017587259789 63 64 49
11.111678739774604 37 37 26
10.779018450892082 58 60 39
9.905443488799845 43 45 19
10.440679105187252 46 48 27
9.992363734459493 47 49 25
10.333129154826638 61 62 52
10.519611644518873 48 50 26
9.507869316729437 36 38 17
9.512608174097277 61 62 54
9.62641544992543 43 45 21
10.096923186215784 42 44 21
11.623089935287613 62 64 45
10.540956694230946 53 55 31
11.76695285527633 62 64 43
9.142157159619568 41 43 21
9.228255610894962 44 47 20
8.3130220483959 55 57 36
9.0507229801716 59 61 39
11.065833171470796 52 54 32
9.253650455024417 43 48 22
8.765922480655767 36 38 18
10.577237039963505 60 61 49
9.942503491671317 41 43 21
10.163526420341785 47 49 24
9.803797931388607 57 59 38
10.066947306939088 56 57 43
11.123517752608764 51 53 29
9.604368445677629 62 64 42
10.656816926505376 42 44 21
10.92161713809441 59 61 39
10.871495803346473 47 47 35
9.887595197949635 35 37 16
