15.805315356163948 60 60 58
15.481636077300141 60 60 60
13.828595714840077 76 76 78
14.948881864310254 61 61 63
15.741935567402804 61 62 54
13.152626802139263 1 1 3
11.6699566704459 12 12 16
15.542898139161617 60 60 64
12.913805196527198 0 0 2
12.506566260709732 37 37 36
12.913805196527198 0 0 2
12.264908562220695 0 0 2
12.90944425924692 76 76 78
12.341611259004427 0 0 3
12.982339446777441 76 76 80
13.131204207539536 1 1 3
13.880492620551486 63 63 60
13.353498057395088 80 80 80
13.353498057395088 80 80 80
14.09545521773936 43 44 32
13.353498057395088 80 80 80
14.302770508682787 56 57 49
13.646137885999696 75 75 75
14.708168977661204 65 65 62
14.560413265677884 67 65 60
14.113750627303483 40 42 17
13.244241896256908 37 39 15
14.7324320401935 58 60 64
14.446647683951877 60 60 62
14.584903555058004 59 59 57
15.138884239049178 40 41 27
15.652080110087152 40 42 18
14.513741325306095 41 42 31
15.40771893046433 51 52 40
15.124857051527712 63 63 57
14.868512384620475 53 54 46
15.142148036803421 61 61 59
15.148691408805432 61 61 61
14.668255154947337 60 60 62
14.51714567065565 61 61 60
15.325614385755198 36 38 19
14.72570370434548 60 60 58
15.005715301069475 61 61 63
15.142148036803421 61 61 59
14.037275224180421 60 60 62
15.735621667955993 61 62 55
15.28386563574164 59 60 53
15.735638886855392 49 50 42
15.735638886855392 49 50 42
15.13890213667428 43 45 19
15.675112833490347 61 61 56
14.942730308378694 43 45 26
14.665374268394311 40 42 20
15.194571339835033 45 48 17
15.304852053851906 41 43 17
14.621926709926736 42 44 18
15.246326870008794 41 43 18
13.84106107448053 36 38 13
14.286761652399198 50 51 36
15.574454677415556 44 47 16
15.631751400979162 44 47 18
14.896774690589504 44 46 19
14.437337033575156 38 39 24
14.42999355454407 40 42 23
15.089812836672305 49 52 19
14.415314169692536 46 49 18
15.297942726193845 46 49 18
15.089812836672305 49 52 19
15.114596419607825 46 49 18
16.30102716546521 40 41 25
15.984727085952311 44 47 16
16.297978818970993 42 43 27
16.477622459349135 44 48 18
16.477622459349135 44 48 18
15.858696652207442 45 47 21
16.426285633546083 38 40 23
16.662072364627896 46 47 21
15.725759548445355 45 48 17
15.849294631304971 45 48 18
14.53492875336872 43 45 18
12.86083432267987 46 49 16
13.092002046094825 44 47 18
12.620931186077414 45 48 17
13.854692798017402 50 55 22
13.414617796529491 48 51 20
12.955262064321454 46 49 16
13.958042129401537 47 50 19
14.800429356242237 47 50 19
13.620380202021133 48 53 21
13.77052542275925 46 51 20
14.385393760943698 46 49 18
14.017909900465613 45 48 18
13.3655790591911 45 48 15
12.921428086538832 44 47 14
12.603598304624951 45 48 16
13.588202437701506 44 50 14
13.791355618942292 44 49 14
13.738699321959368 43 48 15
13.231646128404194 45 50 17
13.633102416269903 43 46 16
13.126280401253444 43 46 15
13.489797513833311 44 47 17
13.18138338419965 42 45 16
13.681725576075294 46 51 18
17.230596389652288 39 40 33
17.578583771590292 35 36 29
16.398811443373614 39 40 26
11.476104292110284 42 43 30
16.11513875056108 38 39 29
16.56086925579367 41 42 32
14.311123428042148 43 45 22
14.577291791367196 51 55 29
14.24502956627 43 45 21
14.64865272406161 48 49 34
14.497338920041654 53 55 32
14.446301955912704 44 46 24
14.777849045088118 50 52 27
11.640137360038372 50 51 38
14.056864643288185 52 51 39
15.042347184803381 54 54 33
14.426781707806132 59 60 51
14.079937642473395 54 55 44
14.48909335375902 51 51 34
14.89366350642763 50 51 39
14.056864643288185 52 51 39
13.388176820590457 66 67 60
13.83673607525463 65 66 60
14.322864497517859 65 69 56
15.08537108220981 68 68 66
14.54244924448684 60 61 48
14.61537635525808 48 49 35
15.097933918919347 53 53 34
14.766862300140302 54 55 34
14.748682495271936 57 56 37
15.284731218178107 51 52 38
14.890789837453152 53 55 37
13.656811029800686 56 57 43
13.810158367685105 48 49 37
14.8756386685658 54 55 41
14.733385190134438 55 57 36
11.774754826030648 64 66 44
11.612787686425223 66 68 48
14.205172893478549 57 59 38
14.711787085541342 65 66 45
14.36444590594059 61 60 42
15.048710980082463 62 61 41
13.633507530826904 67 67 49
14.855156976582634 61 60 41
14.650893006474325 66 66 46
14.855156976582634 61 60 41
14.564522633709494 59 58 38
15.125311959246307 62 62 41
15.048710980082463 62 61 41
15.357799906254774 59 59 38
16.051068214236082 55 57 38
15.605685430395305 60 62 40
15.598891983586366 64 64 42
15.598891983586366 64 64 42
15.278679415670865 62 64 40
15.285615176488706 61 63 40
15.605685430395305 60 62 40
14.335804782016208 54 59 28
14.401482047929273 57 62 33
13.962510125022689 60 64 40
14.823219194405969 60 65 37
14.535820293522464 60 65 39
13.712136000954471 58 60 36
13.275340309970549 58 60 38
13.65141224646337 57 59 37
14.147405051317108 58 60 38
14.229808582698897 57 59 37
14.82277257397426 62 64 40
14.330952660780971 62 62 40
14.330952660780971 62 62 40
13.981731571475501 62 63 40
13.885201186972989 57 59 37
14.454245327241308 57 59 37
15.20365012169926 57 59 37
14.476703709641932 58 60 39
14.978795982870146 62 64 41
15.155901367920075 61 60 40
14.73986399510849 61 60 40
14.73986399510849 61 60 40
13.50607338738606 49 54 23
13.710443561957867 49 53 22
13.510241741608755 46 51 17
13.510241741608755 46 51 17
13.510241741608755 46 51 17
14.231204229339731 54 59 29
14.16871204307845 49 54 22
14.382361277820603 59 64 36
14.585599142801911 61 63 39
14.367134726379073 58 63 34
15.569260150718627 60 59 39
16.009036450377188 58 57 37
15.995358463931947 57 56 36
14.853521090409986 59 61 39
16.145471071845375 42 44 13
17.185372558705367 50 50 25
12.995344482740828 0 0 2
15.485307649580292 62 62 59
12.58179582024257 34 33 32
13.956878998062043 40 41 26
14.09545521773936 43 44 32
14.146315705461197 66 66 60
14.708168977661204 65 65 62
14.090970932406846 65 65 61
13.353498057395088 80 80 80
14.341103578634042 66 66 62
13.8890995006082 39 41 25
12.506566260709732 37 37 36
12.914338816213718 78 78 80
13.402824793659564 39 41 16
15.001944414809417 59 59 60
14.729545310697588 61 61 63
15.078782972358756 60 60 62
15.001944414809417 59 59 60
14.868512384620475 53 54 46
15.652080110087152 40 42 18
15.462420345396252 42 43 31
14.371344118981314 64 65 56
15.194571339835033 45 48 17
15.332546586858737 42 45 16
14.942730308378694 43 45 26
15.280614375927314 58 59 52
15.407736515811086 43 45 19
14.048593702952722 36 38 14
14.491815874738617 32 34 13
15.253277341739034 36 38 16
15.581258778921828 43 46 15
13.84106107448053 36 38 13
15.849294631304971 45 48 18
16.413795077532782 47 50 19
16.027750328959073 46 49 18
15.858696652207442 45 47 21
12.86083432267987 46 49 16
15.34569857676551 49 52 20
13.339843654499711 45 48 17
13.854692798017402 50 55 22
13.13489810069985 44 47 16
13.3655790591911 45 48 15
13.939659370995432 42 47 14
12.756841021669757 43 46 15
12.761275340806476 44 47 16
13.588202437701506 44 50 14
13.3655790591911 45 48 15
15.92493705735323 50 53 20
17.629368133258783 38 39 30
16.71320458867552 33 33 27
17.644986028033728 37 38 30
15.525257818360732 37 38 24
16.799846002129573 68 68 65
14.500290563366333 49 51 33
13.656811029800686 56 57 43
14.555007233060644 54 55 33
14.48909335375902 51 51 34
14.577291791367196 51 55 29
14.446301955912704 44 46 24
11.544730881389302 59 60 44
14.36444590594059 61 60 42
15.066089356610648 63 64 42
14.733385190134438 55 57 36
11.774754826030648 64 66 44
15.073122939133546 58 60 40
15.146320403817263 53 54 38
14.61537635525808 48 49 35
14.123351147031796 64 65 58
15.676396409548643 60 59 39
15.676396409548643 60 59 39
14.191174886921349 60 65 40
14.823219194405969 60 65 37
13.696164354623 58 60 36
14.73986399510849 61 60 40
14.829475139430217 59 58 38
14.303385101641458 56 58 36
14.829475139430217 59 58 38
14.419659268395382 63 64 41
13.528148381784307 57 59 37
13.676661217452482 61 63 39
14.450807413929146 61 60 40
15.305283908676676 62 61 41
15.443485186523237 59 58 38
14.033475994411333 62 62 40
13.71819198010287 55 60 30
13.7145498007365 45 50 16
14.570584980524215 60 62 38
14.180181348214582 53 58 27
14.184151600977138 50 55 23
14.246576062233448 56 61 31
14.164737462742707 51 56 25
14.570584980524215 60 62 38
13.452300457413727 48 53 19
15.995358463931947 57 56 36
16.954339962167595 47 47 22
16.435119965353092 46 49 19
11.844851297561078 12 12 16
15.994032553072127 52 53 43
15.41739024079665 60 61 54
15.610728299348265 61 61 61
13.131204207539536 1 1 3
14.368119161765224 64 64 62
14.740110744575777 61 61 61
15.407736515811086 43 45 19
14.621926709926736 42 44 18
15.786057088755351 37 39 17
14.513741325306095 41 42 31
14.614694522092522 46 49 18
15.349137007367373 62 62 57
16.662072364627896 46 47 21
16.471590566233477 45 48 17
16.477622459349135 44 48 18
15.984727085952311 44 47 16
13.53059500420374 47 53 16
13.276898317551547 44 47 18
14.465984092552233 47 50 19
14.100581483955857 42 45 16
12.809116602223648 40 42 16
13.71366414195037 47 50 19
14.00232573891512 46 51 20
13.738699321959368 43 48 15
13.248177797234595 49 49 19
17.023427093727133 49 50 43
11.028561169527393 58 60 40
16.466265571377864 71 71 70
13.99996155603561 60 62 41
13.968917818075457 67 68 62
13.567774844460352 68 68 52
11.535546128677504 66 67 50
13.99996155603561 60 62 41
14.727106825027413 62 62 41
13.997144130422903 51 51 38
14.727106825027413 62 62 41
13.622836018744922 59 59 48
13.83673607525463 65 66 60
12.01802249025499 60 62 40
14.225717556358987 49 51 29
14.06391296298691 66 64 56
14.777849045088118 50 52 27
15.09882881324935 58 59 36
15.357799906254774 59 59 38
14.758521600938598 62 62 40
14.242158383479364 61 62 39
14.535820293522464 60 65 39
14.923579374373292 59 58 38
14.334419319635966 60 59 39
13.712136000954471 58 60 36
13.710443561957867 49 53 22
14.952205257376308 60 60 60
15.485307649580292 62 62 59
12.012536957770573 13 13 14
12.914338816213718 78 78 80
14.090970932406846 65 65 61
14.575892104869482 61 62 55
13.919350775836678 31 36 11
14.389540580765633 61 61 61
15.17362970059453 46 49 18
14.46572094146181 60 60 62
15.407736515811086 43 45 19
15.089794880823622 43 45 19
14.896774690589504 44 46 19
14.300609255324975 60 60 56
16.23915780278007 40 42 21
16.050260841431367 43 45 23
14.878753621766304 45 48 17
13.054209767122995 44 47 16
14.033262656182282 59 60 48
14.855156976582634 61 60 41
14.890789837453152 53 55 37
13.968917818075457 67 68 62
14.36444590594059 61 60 42
13.757073125687278 66 67 59
15.237671021802054 54 56 33
14.454245327241308 57 59 37
14.691509141563882 59 64 34
14.810906915510042 57 59 37
14.339731947262067 51 56 24
15.741935567402804 61 62 54
13.739748504264329 63 63 60
16.119004864270405 52 53 43
14.048593702952722 36 38 14
14.658126547917206 60 60 56
15.40771893046433 51 52 40
15.802205676522606 44 45 34
15.005715301069475 61 61 63
13.575765347640932 51 56 26
14.25730842030215 54 55 42
13.779101897234897 52 56 25
15.676396409548643 60 59 39
14.658125818944779 57 59 38
15.042347184803381 54 54 33
14.89366350642763 50 51 39
14.398919772317347 69 68 73
12.909978059187969 64 64 61
13.402824793659564 39 41 16
17.584612422560664 42 42 38
14.017262698706547 47 49 24
14.585599142801911 61 63 39
14.446647683951877 60 60 62
13.108709824188537 43 46 17
13.542604744891568 49 54 21
14.294178715453418 63 64 53
16.12207024483863 61 61 57
15.325614385755198 36 38 19
15.13890213667428 43 45 19
15.142148036803421 61 61 59
