19.848703058140345 13 13 0
17.104076569513268 21 27 2
16.71868900057659 17 17 0
11.076478582897089 32 39 3
11.213906274469117 35 42 6
11.172226718680545 35 42 5
10.624118577210698 38 45 8
11.358843724809294 42 52 13
11.260964724979774 44 55 18
10.9794243998191 42 48 11
11.347073668933536 42 52 14
11.545153991223945 41 51 13
11.041139838821241 42 49 12
10.595079390136826 39 46 9
10.915942144129275 44 51 19
11.626604568243877 43 48 15
11.14433964295648 39 44 13
11.124537460874475 29 36 0
10.391053844777948 36 43 7
10.966753970931288 37 44 8
10.330383368239813 28 35 0
10.668984339774006 38 48 12
11.263328647707693 46 56 20
10.986649887348761 48 55 21
10.863343815198386 52 59 26
11.561284552518911 45 54 19
10.651647671698862 52 59 25
11.201892745139721 54 60 24
10.82167546081064 52 59 25
9.99487613779756 54 61 25
10.514688826265107 53 59 23
9.827087310976472 55 62 30
9.374295073101939 56 63 33
10.012549595986332 53 60 28
10.140082296034123 53 60 26
10.368968409167625 54 60 24
9.636097434493225 54 61 25
11.018977530717223 35 40 11
10.478887629419985 34 44 7
10.541229108093328 33 42 7
9.980049276817553 45 55 18
10.207307631770977 49 56 21
10.745531603983615 40 47 17
11.038825552556343 37 44 10
10.60934532970053 47 54 17
10.992979538487505 38 45 11
10.837479901672403 52 57 26
10.370020303976725 46 56 16
10.3739582383655 47 55 19
10.248476179874155 48 57 18
10.11050116889921 49 56 20
10.750871716999269 47 57 17
10.616532786365765 47 57 16
9.673980811157792 42 52 12
9.372146303431233 65 70 43
10.095073695337025 58 65 33
10.14398553173848 59 66 36
9.825037569032052 62 64 38
9.046047248175467 60 66 33
8.705040213990337 58 65 28
9.86761661014043 62 69 39
10.368051400100175 68 73 44
9.97235710378241 66 71 42
10.021635280727356 65 72 41
9.216698575979194 57 66 34
10.59201240251779 65 70 43
9.519823372047833 60 67 35
9.410349192505395 51 58 19
9.998346183393705 54 61 22
10.204297376171969 49 57 14
10.314792041422107 48 57 15
9.617766177021196 47 56 13
9.410349192505395 51 58 19
10.288850034134787 50 59 18
21.327271567444466 39 39 16
21.766699253132643 42 42 17
21.07124858837717 48 51 22
21.327271567444466 39 39 16
20.997165409858372 48 48 22
21.91550980336136 43 45 17
21.496159867059692 36 38 10
9.715653008754495 57 66 27
10.001008553741842 56 64 25
22.023076292027163 54 59 28
21.336117116097988 52 55 26
20.887632937387842 51 54 25
20.31027360609527 47 47 19
11.436106137389274 43 53 16
11.877719319780848 43 54 16
12.78185858525112 46 56 16
12.282760765076167 49 59 24
11.853998214492774 45 55 18
13.308217723531692 47 57 19
13.529797237500976 47 57 19
11.057938076514684 42 49 12
11.609207811459896 45 52 15
11.606046675259224 44 54 17
11.31507337492472 41 51 14
12.85286080738152 46 56 18
12.669909115126222 44 54 16
12.18933315134969 44 54 16
11.376422946853507 46 56 18
11.574000989224276 45 55 18
11.45284192663533 40 47 10
10.786629737105056 42 50 14
11.214438709248698 45 54 16
12.724728310314656 47 57 17
13.21318071168667 48 58 18
12.502503459633909 47 57 17
12.766441426902142 47 57 17
13.17768798594384 50 60 20
13.761693599933617 52 62 22
13.761693599933617 52 62 22
13.589022448324032 49 59 19
12.9159307898485 53 63 26
12.57584328066278 49 60 22
13.397414008551124 56 64 26
13.397414008551124 56 64 26
13.731497305527967 57 65 31
12.498203067194309 51 61 26
13.397414008551124 56 64 26
13.556477895282697 49 60 20
13.543908462016711 52 63 23
12.498203067194309 51 61 26
12.831266118693145 49 59 19
13.723006033783339 50 60 20
14.108280343140807 51 61 21
14.145914264403459 54 64 22
13.753183835705876 59 66 31
14.858543815738425 57 65 27
13.936046130589597 59 66 33
13.68222610936376 60 67 32
11.418827432251241 54 61 28
11.62927140050473 49 58 26
11.7172180570147 51 59 26
10.634089374624656 52 59 25
11.298979612785134 53 60 27
11.945095754383722 54 61 30
11.44810263213511 55 62 31
11.522658680492638 60 67 35
11.650256985331447 59 66 34
11.44810263213511 55 62 31
11.229524883928391 59 64 31
12.922113032908303 58 65 32
12.2210779610377 59 66 35
12.582192626362595 54 61 29
13.724174945281469 62 71 38
12.00016831489438 60 69 37
11.635628531646395 61 68 38
12.650066421885965 59 66 36
13.68417176875493 59 67 33
13.326559702135805 58 65 32
12.50033301947829 53 61 29
12.989484948341653 64 71 41
9.443684197261772 56 63 29
10.39841488258538 53 60 26
9.941306293211207 58 65 31
10.384586715975106 57 64 31
10.289448287362587 58 65 30
11.260762312731522 61 68 36
10.4625952787587 58 65 33
10.920985489316767 43 50 15
10.874642688920932 47 52 18
11.603443314434744 46 56 16
11.386393950565132 46 56 16
10.894638242747408 48 58 20
11.984025300405703 45 55 18
10.212294473251529 46 56 19
11.374652402646486 47 57 19
11.889054314129837 46 56 18
11.931457703503588 46 56 18
12.026093831620052 45 55 18
10.999704412095415 46 56 18
10.94392171389693 48 58 18
11.922185274316666 48 58 18
11.47676682654443 47 57 20
10.968314469998305 45 55 17
10.864468343933792 46 56 16
12.140662304232087 47 57 17
10.499024443258707 49 58 16
10.984163108057263 55 62 27
10.446678578775249 49 59 17
10.895186316600567 57 65 29
13.903331460404091 64 73 39
13.613330473847828 64 73 39
13.576922959064024 63 74 38
13.756793958216722 69 76 42
13.57422006801842 70 78 44
13.426823576234469 63 76 39
13.46438493929417 64 75 38
12.873097870249742 64 70 43
14.121942429009616 63 70 40
13.941518634390661 64 71 39
13.83387191928666 64 71 41
10.637592221269133 59 68 34
9.702206913212184 68 73 44
10.10970848086868 62 69 39
10.700555977238317 67 72 43
10.560876363281048 59 68 36
9.734628530239284 60 67 30
10.217105819518846 58 66 28
10.449177840672972 60 67 33
10.217105819518846 58 66 28
9.896100248836238 61 66 37
12.343032974111535 61 68 37
12.883195322027136 61 68 38
13.441216334327747 63 70 39
10.60323118868229 65 72 42
10.896277637513732 62 69 39
12.743771368360258 60 69 37
21.87235015047806 55 59 28
16.325582144112552 31 33 12
10.917244873657706 38 43 10
11.260964724979774 44 55 18
10.328207816018606 38 45 9
12.031698316478174 36 43 6
11.255754865098991 33 40 3
11.170953724556 34 41 4
10.392422371252165 37 44 8
10.617670106224265 52 59 25
11.012027799556423 50 58 24
11.194552333489602 52 60 26
10.60005552768973 54 61 28
10.82167546081064 52 59 25
11.126675005547826 50 57 23
10.28484777366571 52 59 25
10.59017634517855 53 59 24
9.90883140530111 54 61 25
10.913387754325266 26 31 7
10.777570426255993 39 46 10
10.526972803051079 36 46 9
9.945441605429567 47 54 18
9.841911658679415 50 57 21
10.715159423335248 53 60 24
10.308249159885927 48 54 17
10.839794827135501 66 71 44
9.63467985387962 65 70 43
9.861089136901672 56 63 31
10.075777527651418 64 66 40
9.572970779252826 62 68 39
9.741609159204513 60 67 35
10.431055315471298 67 72 43
9.902731666802392 66 73 41
10.302055474546064 47 56 14
9.306337497314448 52 59 20
10.134862133411268 47 56 15
10.011934796965699 49 56 17
21.441454024559324 35 37 12
21.595187865508894 48 50 23
21.427080119044682 37 37 13
20.95586326461851 45 45 18
20.956541887983704 47 50 21
21.13323698188515 51 51 23
20.86729253686856 44 47 18
21.140231739183488 54 57 26
21.56299245641511 54 57 26
9.12991786397482 56 63 26
21.13323698188515 51 51 23
12.125467848724895 42 52 14
12.388801405762619 48 58 20
12.361754176615083 46 56 18
11.38484589585492 42 51 13
10.918829327612464 42 49 12
11.282201245776426 40 47 11
11.31507337492472 41 51 14
11.594527567428564 46 56 18
11.214438709248698 45 54 16
11.388162669286464 46 56 19
13.150238819789136 45 56 16
13.589022448324032 49 59 19
13.17768798594384 50 60 20
13.589022448324032 49 59 19
13.430344012432741 52 62 22
13.944444301357217 51 62 22
13.802201728807175 55 64 28
13.802201728807175 55 64 28
14.25564632698522 58 65 32
14.005717977486455 58 65 31
12.312144071992249 51 60 28
11.832830541887715 55 62 28
11.8562438975517 46 56 21
11.110031285752601 55 61 27
10.741487303039909 53 60 26
11.387503771030337 57 64 33
12.2210779610377 59 66 35
13.180925220535935 63 70 40
13.733435984514431 58 65 33
12.016568635539413 61 66 35
12.922113032908303 58 65 32
10.334237563494392 56 63 29
10.024416906615576 58 66 32
11.008111062227586 59 66 34
10.607029518671663 59 66 32
10.352304444578573 56 63 29
10.059985691338905 56 63 27
11.591921619596365 47 57 19
11.930613648851569 46 56 17
10.920063331571644 47 53 15
11.984025300405703 45 55 18
11.572260674297869 45 55 18
11.889054314129837 46 56 18
10.912371311461483 47 57 17
11.679287291250603 47 57 19
11.210846176545662 47 57 19
10.36341368684452 45 55 17
10.863494374865901 56 63 24
10.895186316600567 57 65 29
10.717548386259187 48 58 16
10.778509570952274 49 57 15
10.603938819492711 48 57 15
11.425644305960962 50 60 19
11.162374008040233 52 61 23
13.46438493929417 64 75 38
13.613330473847828 64 73 39
13.83387191928666 64 71 41
13.722707318311064 64 73 39
13.614070202644237 62 73 36
14.119343872393511 63 70 38
10.060630000865451 60 67 37
10.041035495778283 67 72 43
10.512946262315928 60 69 38
10.253393187475893 60 70 32
10.077651454605574 61 68 36
13.441216334327747 63 70 39
17.638948913084413 40 47 21
10.622779900064089 37 44 7
10.813839586719535 38 45 9
10.719640099829595 39 46 12
11.182655029198894 41 51 12
10.668984339774006 38 48 12
12.01488815612879 44 51 15
10.026658374632007 55 62 26
10.07877549426123 53 60 28
11.370556679855635 47 56 22
9.63781503058391 54 61 26
10.160123771960148 53 60 24
17.49037181263193 10 13 8
10.146177286235032 46 56 18
10.323557249731476 47 57 19
11.038825552556343 37 44 10
10.667096374256653 41 46 17
10.650727989897348 35 43 7
9.77326100784436 65 70 43
9.44122523384817 62 67 34
8.744824871154394 60 65 32
9.734920449201812 49 57 14
10.288850034134787 50 59 18
10.095230592410925 53 60 20
21.07124858837717 48 51 22
20.61783110504967 44 46 18
21.321005196638605 46 46 19
21.362267094484224 53 57 26
12.145638169293232 45 52 15
13.731497305527967 57 65 31
13.29341102915608 50 61 21
11.291429743263732 45 55 17
14.858543815738425 57 65 27
11.443087898497271 48 57 23
11.260762312731522 61 68 36
10.920985489316767 43 50 15
10.312961165533798 46 56 19
10.499024443258707 49 58 16
11.442346243671654 45 55 18
10.782894672399983 46 56 16
10.952728625493698 54 62 21
19.421297850587774 60 70 33
11.277919713435976 65 72 42
14.40170535304518 63 70 40
14.121942429009616 63 70 40
9.746595111638554 58 67 35
13.463636986385213 69 76 42
11.035949550853418 65 72 42
9.8920475719629 58 65 32
9.694985860013114 48 55 17
8.763130584022425 60 65 32
11.292779645827062 41 46 15
11.198499693061697 31 38 2
10.721258616042128 53 60 28
9.284649272359498 61 66 33
10.09891522722019 45 55 18
10.286887277227338 50 56 23
10.60934532970053 47 54 17
9.109426925357255 54 61 22
11.607380320149701 42 52 14
12.379389186181923 46 56 18
11.585806158040793 42 51 13
12.309981558087724 49 59 21
11.493662256273938 38 45 8
12.39528776631638 44 54 14
13.774064296214622 50 60 20
11.196492822824696 38 46 10
12.28877984309105 61 68 36
10.634089374624656 52 59 25
13.937956358195247 59 66 33
12.249787152225503 62 69 39
10.987549646624428 46 57 19
19.522642354768767 57 66 28
13.463636986385213 69 76 42
10.897629584569035 60 69 31
17.104076569513268 21 27 2
17.151550775404242 38 42 18
11.354110177169623 47 56 23
9.620126925667282 58 65 35
20.701701853796568 51 51 23
11.638252741474382 49 59 19
13.543908462016711 52 63 23
11.124818768005456 60 67 35
12.520372224260205 45 55 17
12.963230416903155 48 58 18
10.776610502169465 59 66 34
11.788450676180073 43 53 16
12.754351160845475 62 71 39
12.282760765076167 49 59 24
10.998199505226712 46 56 16
10.01053782907904 61 64 37
9.258806667676968 47 56 15
11.660301580319295 53 61 28
14.005717977486455 58 65 31
13.798046337267962 64 70 43
11.708883191364164 63 70 39
10.387576150423328 43 53 13
10.10868896987431 48 57 16
12.309981558087724 49 59 21
12.2210779610377 59 66 35
11.104909878900505 41 51 13
11.317771946372254 48 53 20
