17.76547549505079 41 48 18
17.76547549505079 41 48 18
17.597586391643144 39 47 17
17.38722369018418 23 28 1
17.613989338205247 13 17 0
9.945276463614974 17 19 0
10.429893069708168 8 9 1
14.115831859229456 17 16 3
11.022779493541115 10 9 0
10.984689155551477 10 11 0
10.5897199492899 13 12 1
9.628642316534123 20 23 0
9.876690983264178 36 39 8
10.782459932958005 40 46 14
11.030335370257252 46 54 21
16.507700020969992 23 25 5
12.024612669431182 48 53 22
12.371692228292961 22 24 3
10.540689048030297 28 30 9
11.676462232796386 37 39 17
11.376712256578577 46 51 23
10.698860909746788 22 25 4
11.903750225570192 30 33 12
11.820789153774438 39 46 11
11.761130899853466 44 49 18
10.515935449001391 20 22 4
12.10101170585514 41 48 12
11.384435477187898 44 50 16
11.080031552983687 39 44 11
11.1759537869035 44 49 16
11.705880066476835 41 47 13
11.539604497669247 39 43 11
11.378511647063767 38 45 11
12.77536022890508 39 47 12
12.135598717178459 37 46 12
10.933135622887862 44 52 19
12.838608065236564 47 53 18
12.037141865860479 43 50 14
12.230953044881778 43 50 14
10.995833507710248 44 48 19
12.674685645222423 47 52 21
14.07820186294685 53 60 26
14.07820186294685 53 60 26
12.463991507236319 50 55 22
15.171690659364494 55 62 26
13.772238033601454 54 59 28
15.013489027884265 57 64 30
14.21228367561655 57 66 34
14.239534822080504 58 65 31
14.920774380619614 58 67 35
14.920774380619614 58 67 35
12.626123701006934 37 46 15
13.664719639779092 20 30 0
13.325945123416462 21 30 1
13.165451167655895 24 33 3
13.648592312436772 32 43 9
13.166816692228094 35 45 10
12.711090520660289 41 52 16
13.02679958040949 42 49 15
13.249666944363815 42 49 14
13.283970138535478 38 46 9
13.211199007936303 36 44 9
12.280287736493571 39 48 15
12.444974225641017 42 50 16
12.084664312993096 39 47 13
12.486163050586851 38 46 12
12.708261314539648 42 52 18
13.69797722519873 44 51 18
13.768175749759598 44 51 17
13.16374399178442 34 43 10
13.129469018814369 40 48 13
12.866416937005656 42 49 14
13.352979097958267 39 48 14
13.468179620333819 38 47 13
13.16374399178442 34 43 10
15.139454433608035 43 50 16
12.371984311609031 40 49 14
13.388599931902169 47 54 17
13.742933628913356 45 52 17
14.135565183330758 46 53 16
13.926881783937942 47 54 18
13.929463478884509 46 53 16
13.197151080497106 45 52 16
13.740316886554064 46 53 19
13.951791102626682 45 52 15
12.785201154233523 45 53 16
13.46575377475489 47 56 17
14.71589587933945 59 68 34
14.367280415393385 39 46 13
16.45069413562173 47 54 17
16.107874144744226 45 52 15
15.3468738415683 45 52 15
15.642514656853386 45 53 16
15.177773506946059 43 50 14
14.439828316145014 44 51 15
14.162646588315978 44 51 15
14.34371940838212 45 52 15
14.816037577972455 55 62 26
12.097369596926914 17 19 1
12.55022227872922 31 36 3
12.940059968926633 38 43 11
12.413124217560037 44 49 19
12.92720144074295 47 52 22
12.163503155287415 46 51 20
13.127726094663158 47 53 16
12.801870244717886 46 51 22
13.488485526980613 49 58 20
13.739960082562353 44 54 16
13.739960082562353 44 54 16
13.122589248490993 50 57 18
13.395036540135486 48 58 21
14.50477688437407 50 57 17
15.433352614986807 45 55 17
13.562177587719246 54 63 29
13.368171363125205 52 61 31
13.070686647065232 53 60 30
14.121629616330885 52 61 29
13.538543499197994 53 62 28
13.538543499197994 53 62 28
13.557448062953325 53 64 27
13.825965291717885 55 64 30
13.875042897469891 53 63 29
14.26853379542769 59 68 38
15.043386390644061 60 70 42
14.367961509208728 58 67 35
14.25530296427088 57 66 34
13.992777318636412 57 66 34
13.628129016968938 58 68 38
13.382279314899714 57 67 34
14.125675570247946 58 69 34
13.722611084955597 57 68 35
14.519494206005096 64 74 46
14.32926899385367 61 72 43
14.218832974511573 59 69 39
13.597008466729338 61 71 41
13.939750208654296 52 62 23
13.939750208654296 52 62 23
13.939750208654296 52 62 23
14.052379678219488 55 66 28
14.304618602465242 57 68 31
14.03670379065649 51 61 23
13.901892468407047 58 69 35
13.608478886979166 60 70 39
13.813844247310263 57 68 33
13.950467105845 62 72 43
13.26792971326722 58 69 35
13.707775714692392 60 71 39
14.03670379065649 51 61 23
14.35433551983164 56 67 32
12.960171383527468 59 70 37
16.853816204576983 44 49 15
15.22377923889079 59 64 37
16.27155610519825 44 51 15
16.448883457749712 54 61 31
15.268737710170912 59 66 34
16.610727763279158 49 54 21
15.268737710170912 59 66 34
15.247454249189802 60 65 38
14.913515497539182 58 64 37
15.219349870562594 59 66 36
13.003969040301907 64 75 44
12.641465060995985 65 75 45
13.563165611304504 64 75 47
13.006733924660924 63 74 45
14.84020072345452 61 71 41
13.712453390457446 62 75 46
13.240806643045396 62 73 44
15.015199393926594 64 74 46
12.3702184651539 62 72 41
12.579886370445452 56 67 32
11.818180342486054 56 66 33
11.872530024412276 57 66 32
12.254494488465172 55 64 28
11.791051088277323 56 67 32
12.451420605941593 57 68 35
13.399631077237444 59 68 36
12.866278547675176 56 65 31
12.667387653339285 60 72 42
12.477114087288971 59 70 37
13.332639718852409 61 71 42
12.74890687650386 61 73 43
12.479995694431137 59 71 38
12.562730957829773 61 71 41
13.484479910568139 61 71 42
12.664548684188382 61 72 40
12.095862410290625 60 70 37
12.709624021804702 57 67 32
11.615654104299782 53 63 28
12.282527957413434 54 64 30
12.392091070997434 54 63 31
12.690968148710912 56 65 31
13.025467581503266 60 71 38
12.476129863747467 58 69 36
12.972483489237836 57 66 32
13.527665922305337 57 66 32
12.60755282716831 58 68 34
12.55280488383355 54 63 29
12.97560148139747 60 70 37
12.666418214706125 62 73 40
12.972483489237836 57 66 32
12.905016284836416 58 67 35
13.333157539703326 59 68 38
12.548053109950532 55 64 27
11.699404397450111 54 65 28
11.725979081374431 54 64 25
12.228064173692173 55 64 29
12.280599985708404 55 65 28
11.526798077322855 53 64 26
11.58494725252487 54 63 27
12.171609408689132 54 63 28
12.280599985708404 55 65 28
12.338475224390042 56 65 31
13.30039934833569 60 67 33
13.741822862310324 58 67 33
15.86793106230974 59 68 38
15.700148543420411 60 69 39
15.569930882944574 61 68 38
23.064013268882334 56 63 29
15.71445114979753 59 69 40
16.51475747692619 65 74 48
16.51475747692619 65 74 48
13.800864629061772 25 35 0
14.646426267731012 22 31 0
13.4698482119238 30 39 5
14.47783180974091 25 34 4
13.551325301360585 49 55 19
13.346148598104845 41 48 12
13.79262656476939 39 46 15
13.555157259677362 36 43 9
13.599924791036022 38 45 11
12.737109942909418 48 53 20
14.545723358933447 40 47 12
13.992720473195217 31 40 8
12.845595134940558 46 52 16
13.923331263999657 34 41 7
14.097510280736874 43 49 13
13.030144244936627 46 52 15
13.807370767087338 29 38 8
14.586307025848056 27 36 6
13.287588333362141 45 51 15
13.237351418511293 45 52 15
14.584760357207188 42 49 14
13.239388599310603 46 52 16
14.977911757286138 36 45 11
15.421803208163775 46 53 16
14.62484024178463 47 54 17
15.602744335004575 43 50 14
15.50109359699043 41 48 13
15.121847972733715 44 51 15
15.421803208163775 46 53 16
12.9937874121416 50 57 20
13.43090468501741 49 53 18
12.304661194779918 52 58 24
13.461979598845877 57 63 29
13.17626107759618 49 56 19
13.767749588762948 50 57 21
14.011647776472575 50 56 20
12.73252153131011 51 57 23
12.886549834571042 52 59 23
13.416751795143647 59 66 30
13.768402500591147 52 59 23
13.519784517718353 57 64 28
13.519784517718353 57 64 28
13.69525166174698 54 61 25
12.375038599748963 52 59 28
12.855288619776811 52 56 32
12.426953082647572 53 59 32
13.000166462950324 55 62 32
12.151658635140246 53 60 30
11.73325992534512 53 62 27
13.745035467263907 50 55 24
13.497645841910732 54 61 31
13.816615385129705 54 61 31
12.874242578087626 57 64 32
11.816000127720336 54 63 32
12.523319248727125 53 62 32
13.5073887205002 55 62 29
12.481989419392926 53 60 26
12.659674134792967 56 64 34
13.095152354455383 54 63 33
12.481989419392926 53 60 26
12.352141698461994 53 60 25
13.50805421687736 61 68 34
13.07592316534855 56 63 33
13.433485749662935 56 63 29
20.612106297352707 48 55 24
17.597586391643144 39 47 17
18.067938218966503 40 46 17
17.418792968723974 7 10 0
14.30189818349594 16 15 1
11.701456925022896 11 12 2
10.87510246793682 39 44 18
10.389629325746235 14 13 0
11.871138309349943 43 47 18
12.113057156710418 48 53 22
11.06896432018237 35 38 7
11.01810377136515 39 48 14
11.163881734559244 37 44 9
10.957356940789252 38 43 11
11.570043217286615 37 43 8
12.135598717178459 37 46 12
10.919038382967708 34 39 6
12.820747133422037 43 50 14
12.448481870679894 45 50 17
12.811183745677276 47 52 19
10.776502672770834 44 49 21
10.665206348140845 36 37 12
14.336655698672889 53 60 26
15.013489027884265 57 64 30
12.674685645222423 47 52 21
12.14437845772058 46 51 18
14.562311762285258 57 64 32
14.21228367561655 57 66 34
13.429333541066061 28 39 4
12.469599684790362 39 49 17
12.625767714219517 36 45 13
13.289044673774594 20 30 1
13.539575883617287 22 30 3
12.93592261060776 29 38 6
13.093394456462818 36 45 11
13.315147209886248 34 43 10
12.675591625608083 36 47 10
13.029559620108106 39 47 14
12.675591625608083 36 47 10
13.029559620108106 39 47 14
13.096140461155954 39 48 12
12.79233125001908 42 53 20
13.700602054211267 43 50 17
13.91009514311363 43 50 16
12.866416937005656 42 49 14
13.170906127183171 43 50 15
14.121573223429412 43 50 16
13.231590423921121 41 49 15
13.076814159442897 43 51 16
13.388599931902169 47 54 17
12.624953543218261 46 54 17
13.81030019793661 46 53 17
13.929463478884509 46 53 16
14.135565183330758 46 53 16
14.970246520269896 55 65 28
14.617467970910798 45 52 14
14.953208795934342 45 52 14
15.331851123004848 49 56 22
15.31924526372536 45 52 16
15.629871785857963 42 49 15
14.870695190332558 50 57 23
14.225091965644095 53 59 23
14.816037577972455 55 62 26
13.284277784222544 42 48 13
14.142530127150527 43 53 15
12.542340617585257 43 48 18
12.796602593294228 49 54 25
13.395036540135486 48 58 21
13.970107270114962 49 57 18
14.548641629274432 58 67 37
13.76454843901916 59 70 37
13.136960936713006 51 60 26
13.932095842738908 59 72 41
13.557448062953325 53 64 27
15.21604841689091 61 71 43
14.26853379542769 59 68 38
14.26853379542769 59 68 38
13.538543499197994 53 62 28
13.425524916884353 56 66 29
13.939750208654296 52 62 23
14.544459123894256 53 63 24
13.948125206499967 58 69 34
14.259541745404984 56 67 31
14.236834235779323 59 70 37
14.244093845336097 56 66 30
13.707775714692392 60 71 39
13.950467105845 62 72 43
12.960171383527468 59 70 37
13.999108244102743 59 70 36
15.97031736965579 60 65 36
15.638311215311294 58 63 36
16.610727763279158 49 54 21
15.794807865611006 43 53 15
15.308494937427636 59 66 34
11.556492691263358 53 63 25
14.308871213775763 64 76 48
12.3702184651539 62 72 41
13.086139383818292 62 74 44
12.430207841208205 65 76 43
12.869073014485592 58 67 35
13.20085339790653 58 68 37
11.983216180213427 56 65 31
12.656287943450259 56 65 31
12.907615702815228 62 72 43
12.479995694431137 59 71 38
12.479995694431137 59 71 38
12.667387653339285 60 72 42
12.554141124004861 58 69 36
13.38352647965262 59 69 40
12.723762246466626 61 71 41
11.731446984834738 54 63 30
11.615267148500514 53 63 28
12.52475478260328 55 64 32
12.918145056626544 55 66 31
12.972483489237836 57 66 32
12.867863062346311 55 66 31
13.029355342412247 56 65 35
12.50428904273822 58 69 34
12.738773038987983 55 64 32
12.335196185606085 54 64 30
11.177611126764463 54 65 27
11.949692771346843 53 63 26
12.338475224390042 56 65 31
12.655672810131117 55 65 29
14.751936182850457 60 67 37
22.91666126193198 60 67 34
15.569930882944574 61 68 38
15.545012159101859 61 70 42
16.512579990295116 71 80 52
12.550759031660562 51 57 20
13.503734107655125 47 53 18
13.46841771092811 42 49 15
13.138604604865595 44 50 14
13.780476196283693 45 51 14
13.025659057850728 48 54 17
13.69525166174698 54 61 25
13.768402500591147 52 59 23
13.69525166174698 54 61 25
12.84104548774445 49 55 19
13.638284981998636 42 49 12
13.239388599310603 46 52 16
13.593879606103549 58 65 31
13.28319007484329 48 52 17
13.66898274083883 40 47 13
13.38782596463831 59 66 32
12.856431151989122 54 59 26
13.940418313365996 50 57 21
13.730499712222114 32 40 9
15.538231606068184 40 47 13
14.366967571302066 36 44 11
12.650446243939767 51 56 28
13.213968189643266 54 59 35
12.162110220612348 52 59 25
12.748743309526315 59 66 34
13.075579424499619 56 63 33
12.210145062155656 54 60 31
11.356424121942078 53 62 28
13.433485749662935 56 63 29
13.321937766207185 53 61 31
12.87459169446338 57 64 33
14.105712047497876 51 58 26
11.498040113081522 45 47 22
10.555717421696377 32 37 4
14.920774380619614 58 67 35
11.681568553724992 42 45 15
13.671108067056302 56 63 31
14.562311762285258 57 64 32
13.431006889124413 38 46 11
12.975899482359797 40 48 13
13.10059505222423 42 49 14
13.427325178560668 35 46 12
14.809893186806121 58 65 31
13.995932253265147 46 53 17
15.794132458708154 45 52 15
15.642514656853386 45 53 16
13.742933628913356 45 52 17
12.940059968926633 38 43 11
12.542340617585257 43 48 18
12.421087871783126 32 37 11
12.075428157079909 48 53 23
13.73505221098625 50 57 21
12.921984880723937 50 55 22
13.767907134082586 51 58 26
13.77205700495711 57 66 31
13.269043098608234 53 60 26
14.32926899385367 61 72 43
13.932095842738908 59 72 41
13.070686647065232 53 60 30
13.804823858419642 56 65 33
13.825965291717885 55 64 30
15.715569359769773 59 65 35
16.448883457749712 54 61 31
15.663368465297582 49 58 22
15.482264920494949 59 66 36
10.87786137052086 53 63 26
13.006733924660924 63 74 45
12.55280488383355 54 63 29
13.352689512538266 60 69 35
12.53434448592593 59 69 39
11.736324092036597 57 68 34
13.228331563950155 55 64 32
12.228064173692173 55 64 29
12.79588692911075 65 75 44
13.079360148390132 60 69 35
12.451420605941593 57 68 35
12.210414467225485 64 74 42
15.675436823655648 60 69 39
15.584352997592749 62 71 45
12.84104548774445 49 55 19
13.47499499729784 48 53 21
15.29127283294721 44 51 14
12.737109942909418 48 53 20
14.322630579625251 35 43 8
15.055274715885117 42 49 13
14.024153053549725 44 49 15
14.61347003953211 39 46 12
12.60505703723438 54 63 33
12.599452670563217 51 56 23
12.561037884564513 55 61 34
13.433485749662935 56 63 29
13.01890949834507 54 63 33
13.348986201706525 55 62 32
12.502491662298262 52 59 30
11.839508241038457 42 50 17
11.830467774219178 12 16 1
11.557007640426383 45 48 23
13.129469018814369 40 48 13
15.139454433608035 43 50 16
13.54189325559296 35 44 9
14.77960504255606 44 51 15
15.228687406235196 49 56 20
12.535466181698025 37 46 12
14.572653525378737 52 59 23
15.177773506946059 43 50 14
14.896440204865232 49 56 19
16.081553040800447 45 54 17
13.608478886979166 60 70 39
14.077705496556918 55 65 28
13.269043098608234 53 60 26
13.538543499197994 53 62 28
13.64220933214243 56 67 31
14.15563391638612 56 66 31
14.604300023929424 56 65 33
13.890664340847927 59 69 38
12.17982984793474 55 64 30
13.254711060107118 59 71 40
12.036820701280554 55 64 30
12.740442566425346 61 72 39
15.015199393926594 64 74 46
13.606108169616135 46 52 16
13.462647339923334 60 67 33
13.491412753014096 60 67 31
14.437960581797443 34 43 10
12.9937874121416 50 57 20
14.143830288339561 29 38 6
12.375038599748963 52 59 28
13.135677678399786 52 56 34
12.354324847812453 52 58 23
13.626232251567176 55 62 30
10.550066193406 14 15 0
13.020494811642493 45 52 15
11.478771566629252 18 20 2
14.920774380619614 58 67 35
12.468878763526481 36 45 13
13.700602054211267 43 50 17
15.642514656853386 45 53 16
12.581718502388874 43 51 14
13.951791102626682 45 52 15
13.992777318636412 57 66 34
12.306284878485387 53 64 26
13.40006894547388 47 54 17
13.765563873618088 26 35 2
13.416751795143647 59 66 30
12.79588692911075 65 75 44
14.720530898978796 55 65 27
12.033459463898158 55 63 27
13.333157539703326 59 68 38
