10.87729591801149 49 53 37
11.078558153718975 55 60 33
10.295000992102434 10 12 0
9.916473942560035 26 32 6
9.294585085551487 34 37 13
9.294585085551487 34 37 13
9.505939389824352 30 35 6
9.296006677175859 36 38 15
9.94023119398638 34 36 14
9.43016519785681 28 34 6
10.118001888274812 0 5 0
10.259853177551037 35 38 13
9.633988553758986 31 36 10
9.635647510549582 33 38 14
10.04378765412539 28 32 14
10.210220540130537 34 37 12
10.265960547261676 5 9 0
10.405795066774319 34 36 15
9.939180410095046 35 40 13
9.921308277353136 15 19 2
10.091345721201856 23 26 6
9.889554639680078 39 44 18
10.967949702343107 37 42 16
9.247815261219442 38 42 16
10.046418610641584 36 40 15
10.259583225494342 34 37 13
9.515149544407793 38 42 15
10.261141040568837 36 38 13
9.790332382827588 36 38 14
9.63838987625238 38 40 14
9.793597048758182 37 40 14
10.261141040568837 36 38 13
9.894897871599571 37 41 13
10.093415497034911 37 40 14
10.785540698858332 38 43 14
10.38919785733854 39 44 18
10.578443393303502 40 43 20
10.076853480681654 40 45 19
10.076853480681654 40 45 19
9.856496336088407 42 47 22
9.73437537675235 43 48 23
9.672048145826468 41 44 21
9.063421804409307 40 44 19
9.672048145826468 41 44 21
9.063421804409307 40 44 19
9.600627220873855 43 45 20
8.930152265934835 43 46 22
9.786421599457233 45 48 25
8.943080629401603 49 51 28
9.921415122771197 46 52 16
10.417905000129121 53 58 33
9.824337529504092 50 56 31
10.683645845118303 52 57 32
10.17357479683626 49 54 27
10.502997880222933 50 53 27
10.134368284198537 48 53 28
9.689895778315869 49 54 26
9.39528602780845 45 53 25
9.191084972188419 45 52 20
9.574168509110454 45 52 18
9.603636530851109 44 51 15
10.022179177822883 49 53 24
9.01595160208468 45 51 24
12.166593949787382 58 60 36
12.206966232123454 58 60 36
10.390018090348395 51 57 33
10.805730713048167 55 57 32
10.805730713048167 55 57 32
11.950824739994125 53 59 36
12.514694105107026 57 62 37
10.688133187077959 57 59 35
11.252693357968116 57 59 35
11.46522040473334 58 62 44
11.038284965379155 57 61 40
11.99325625978434 55 60 38
11.715230919937456 57 62 36
11.585795258015654 58 61 36
9.892893715313907 50 55 23
9.751900874444257 49 56 24
9.74091011196069 51 57 27
10.115819060633493 49 56 26
9.742550862217719 59 64 38
10.118978715990975 54 60 38
10.12750740225512 53 59 34
9.755178401863756 56 62 37
10.667550364784855 51 57 34
10.937273648271201 56 61 42
10.619823305423724 50 56 31
10.155842436382194 51 57 32
10.402934890050235 59 63 44
11.576306476631919 50 56 32
10.488537337825413 23 24 15
9.97482531025913 1 2 0
9.040990164403038 53 52 50
9.731155999113064 28 29 17
10.125076883014819 29 30 15
9.66153988801035 22 23 15
10.29174826827319 35 37 16
10.125076883014819 29 30 15
9.526187775713755 34 37 18
10.378409359139521 22 23 14
10.05687374813664 35 36 21
9.524800539046273 26 27 18
9.872931171167885 22 26 10
9.4328853056398 27 28 19
9.849149883055759 33 34 25
9.765847696803233 24 25 17
9.401182144810216 42 44 25
10.197809026264213 46 48 44
9.726936689991124 36 37 29
9.735228901659177 35 39 16
9.859533297299237 27 27 25
9.736301696906423 44 46 18
9.580455430220503 41 43 20
9.348404687573158 44 46 22
9.612653883573524 44 46 20
9.908460137591678 39 44 14
10.970318780862229 54 54 51
10.126275675058189 66 69 62
9.86010590064841 47 48 41
9.818877127597435 52 53 46
9.539492033240224 50 51 44
10.011599914835937 51 52 45
10.101139970178965 41 42 35
10.528265242778252 36 37 30
11.351639472944695 54 58 41
10.929630286206985 55 56 42
10.613457394648902 59 60 48
11.413750381990038 46 47 39
11.360649723733728 53 56 42
11.011456523617476 53 55 33
11.413507721919608 51 53 36
10.030150195305787 62 66 54
9.938641198294995 63 67 50
10.413032075833572 58 61 52
10.536998456951377 59 60 53
9.94023119398638 34 36 14
9.662987538321445 35 37 15
9.296006677175859 36 38 15
9.505939389824352 30 35 6
9.510108746572783 36 39 13
10.259853177551037 35 38 13
9.582782435219938 31 35 12
10.091345721201856 23 26 6
9.022488329688034 31 36 12
10.381563598113521 0 6 0
10.507422600463629 11 13 0
9.790898155652574 32 36 16
9.240068583609906 31 36 8
10.258295166902876 34 38 13
9.661906602750452 30 35 10
9.894897871599571 37 41 13
10.211514662754272 36 38 14
9.944496977855898 37 40 13
10.645326812646353 34 37 14
9.51485846391761 40 45 20
9.172789954020686 41 44 20
10.271855167277463 42 44 18
9.46131850439377 39 44 19
8.964995660444009 46 48 25
9.926247051084147 66 70 50
9.670284213628682 65 71 45
9.438365317653169 48 53 25
10.627158235905133 51 56 29
10.165084762006073 53 55 29
9.11269306746603 44 51 19
9.680199769037674 47 53 27
9.680199769037674 47 53 27
9.563475268917005 46 52 25
11.584415577276948 59 61 37
11.383108387784855 56 58 34
11.251272830878227 56 58 34
11.24434503127297 57 61 42
10.999254354848802 58 60 36
11.585795258015654 58 61 36
11.584415577276948 59 61 37
11.541865880950851 54 59 35
11.207458412220817 57 59 35
10.422506755695533 57 59 35
11.107985593342804 54 60 37
11.715230919937456 57 62 36
10.970873650884029 54 56 32
9.310246311867527 47 54 20
10.12592902844628 50 57 28
10.179713005443208 1 3 0
9.97482531025913 1 2 0
10.968707237651389 34 36 17
9.428681800799584 9 10 4
9.670968222970359 37 39 16
9.903124223197208 13 14 3
10.268804296561331 11 15 1
9.11784899644103 39 42 16
9.997122209769765 79 79 76
9.599539263355368 39 42 17
10.451642218813959 30 30 25
9.998443914260553 58 59 56
9.442541953914882 41 44 15
9.219556071462335 44 46 24
9.442541953914882 41 44 15
9.798785531974799 42 43 29
10.18879553627334 42 45 17
9.920113605672084 41 42 26
9.558356752241647 77 76 75
9.324944560544527 54 54 50
10.195582319900986 49 49 43
10.101139970178965 41 42 35
9.496568625546715 62 61 59
11.88630061310579 49 50 39
10.451917400050784 57 58 50
11.351639472944695 54 58 41
10.67960287944406 55 56 46
11.656810959030603 49 50 42
10.956659089274002 58 62 46
10.83196889927173 56 59 50
9.107933019539164 31 36 11
9.686288243527574 33 36 13
10.644085433634276 33 36 15
9.635647510549582 33 38 14
10.832537648839725 39 44 17
9.58553992531687 37 39 15
10.831062017176748 37 42 14
9.946104143642692 39 42 15
9.369076101002825 45 47 20
10.436448072602436 40 44 19
9.906287714200692 43 45 19
9.335740960812025 43 45 22
11.134074394212556 56 59 35
11.927389456803162 56 60 39
10.077222952576351 52 58 31
9.746323908229975 61 65 46
10.667550364784855 51 57 34
9.401182144810216 42 44 25
9.78934115734275 18 19 8
8.715695121019014 37 39 21
9.837790815650932 68 71 63
10.069667793264037 27 28 18
11.648029803916234 48 49 36
10.480178316368571 56 60 47
11.011456523617476 53 55 33
10.442788299266649 5 6 1
9.72295838637685 64 67 55
9.908460137591678 39 44 14
9.075009503595927 34 36 20
9.526187775713755 34 37 18
10.407064869656898 36 38 14
9.940788435431989 32 37 11
9.636731391558193 36 38 14
9.73437537675235 43 48 23
9.919555202796237 53 55 31
9.856496336088407 42 47 22
9.240515729037018 45 47 23
9.741402734890471 47 54 24
11.950824739994125 53 59 36
10.154520242552966 33 34 21
9.980122889441498 31 31 28
10.197809026264213 46 48 44
9.580455430220503 41 43 20
9.842439345568115 23 24 15
10.125561333789122 42 44 18
9.097450370273073 45 47 22
9.690269013608374 54 59 32
9.666977903417056 48 53 19
12.206966232123454 58 60 36
8.772839186784262 47 51 26
11.351639472944695 54 58 41
9.097754805645232 42 45 16
10.1263818867601 37 38 19
9.46131850439377 39 44 19
9.63838987625238 38 40 14
11.005648767660768 50 55 30
11.620105653035637 54 60 38
10.040824358392161 61 65 48
9.579175597181939 60 66 44
10.666051907412614 50 56 29
11.576306476631919 50 56 32
