10.082631562691216 43 46 15
9.431619516281026 41 44 13
9.387699575033219 38 42 11
9.557960625514806 36 41 11
8.54797002072904 41 45 14
9.541999969021465 43 46 15
9.504502343383404 50 53 22
8.828159501072825 45 49 18
9.722554598976398 39 43 11
8.684164018352824 41 44 13
8.907079877996647 44 47 19
8.161741931564121 41 45 17
7.582919498783354 46 49 18
8.25813772420738 39 44 17
8.019300683187176 44 47 16
8.335154352285045 43 46 15
8.510083913966744 47 50 19
8.485536844377057 46 49 18
8.457366580268534 44 47 16
8.457366580268534 44 47 16
9.096854262922738 47 50 19
17.576815471751786 45 50 21
17.24295709851423 41 46 19
17.936519565406225 46 51 23
17.722693404033983 37 42 15
17.360289827072723 47 52 25
17.7606237575916 49 54 27
17.918779449282102 50 55 28
17.45466883863855 49 55 28
18.214796938175372 48 53 26
17.67224844098303 50 55 27
17.438804132160737 43 45 21
17.210171730842948 43 45 21
17.678492080642553 45 47 23
17.440527025827773 45 48 24
16.9528077599683 46 51 26
16.891938833884016 42 44 20
17.972879468133524 43 45 23
17.930919600064197 49 54 28
18.19782345219488 48 53 28
16.955111689153824 44 49 24
17.30484857851128 47 52 27
17.003491202837377 48 53 28
8.33151807285155 49 49 19
8.655451597315404 46 51 17
8.248042530557964 48 51 18
7.264315125869095 46 49 19
7.101493012578042 44 49 18
7.590960919762217 44 49 18
7.975776633056999 47 50 18
7.864439849741605 46 49 18
9.231587163806523 48 53 20
9.739871778224026 48 51 20
9.492980581075146 48 51 20
9.554176832240433 47 50 19
9.470981344464512 47 52 19
9.040207833662194 47 53 17
18.373785651008493 47 52 27
18.373785651008493 47 52 27
10.498923607922872 29 31 5
10.366828492807697 33 36 6
13.488912601308243 46 51 18
13.916319316619727 46 54 19
13.681904079477446 45 53 17
13.505635089893305 45 51 17
9.398922369101124 42 45 16
9.790417230731842 35 40 14
9.358604477948555 38 43 10
9.424819035343225 37 42 9
10.068903886208727 19 23 2
9.544422749758112 40 42 15
8.629606859078546 38 44 9
8.184230198170319 45 52 16
9.053431080380532 39 43 12
8.857318244016003 40 45 12
9.232138844671825 47 50 19
8.986820548180356 44 49 18
9.394223446927862 38 41 12
9.232138844671825 47 50 19
8.906216658990433 41 48 12
9.312404536579741 40 45 15
8.8158867844294 44 49 18
8.825776728656615 41 44 11
8.906216658990433 41 48 12
8.16790456373691 50 55 26
8.188634574979519 46 53 19
8.449426456439854 41 51 14
9.595360854249165 35 42 6
8.380057279692796 45 53 18
8.098350058092958 54 57 28
9.029018788586706 50 54 24
8.666717762712073 47 57 20
7.682296536166544 43 53 15
9.094659540604626 45 55 17
7.867929641091945 47 56 22
8.530704867610485 50 61 24
7.846352375272058 52 58 28
8.139004120739157 44 53 16
7.271651602773947 53 63 33
7.242908555728833 53 63 33
7.3513625717396724 54 63 33
7.34727420765092 52 59 29
8.076272305754784 55 58 29
7.487359997198725 54 59 30
6.9042912084289405 54 60 33
7.26462375770946 56 56 28
6.869639803261282 56 57 31
6.514869843901462 53 58 31
7.346047251136879 52 61 30
8.175370604605193 52 54 28
7.157922124586221 52 57 30
7.323057543028284 54 57 30
7.7658856118347375 44 53 19
8.235381423317518 39 46 11
7.5230179568914215 42 47 15
7.036937691939658 46 56 19
7.9413628088516734 43 50 16
7.797207928783246 47 57 20
7.717040586286369 46 55 21
6.324551766685713 54 61 31
7.013660936140972 53 60 30
7.128556119857694 49 60 27
6.452519954299959 52 56 29
7.045768641019577 51 62 29
6.695259400374391 54 56 30
7.720662692581826 49 60 27
6.357304061641133 53 64 30
6.450333294475669 52 63 28
6.988026017240766 52 63 30
7.045638575741119 52 64 31
6.90355350572791 52 65 34
7.348875031514658 48 59 26
7.07717668115359 53 59 32
7.048196866782657 55 64 32
7.7995000115069235 42 47 18
7.30079752572267 42 49 17
7.054862762215861 42 49 17
7.122359498395197 46 55 21
7.346546188425521 45 56 21
14.673011416331859 46 47 21
14.59425969735085 46 48 22
9.618637587198792 48 54 18
9.536538565102616 47 52 21
9.167810259367917 48 53 20
9.496804929974012 46 52 20
9.679970647135256 47 52 21
9.750689239513044 50 57 21
9.061954778902573 47 53 18
9.866343417025766 48 54 24
9.115589323353275 49 56 22
10.53829058609001 49 56 20
9.908023602580718 47 54 18
9.575575473310161 48 54 18
10.907678352043302 48 54 18
10.53829058609001 49 56 20
10.593450009601375 49 56 20
14.216151358026911 58 69 34
9.391208748500325 47 53 17
10.050040650676323 48 54 18
14.219031173732207 51 57 30
10.143232583195044 36 41 10
9.620617551950339 34 38 9
9.023574168919703 36 41 11
9.417678275567345 47 50 19
9.219409526221236 43 48 18
9.461459057191307 45 49 18
8.894372197494778 48 51 20
8.784642859350093 46 49 18
8.117388173660991 44 47 16
17.48532991357833 45 50 23
17.870692063081606 47 52 25
17.540714603684613 30 34 11
17.566654286496913 47 52 24
17.916599440373034 47 52 25
17.45466883863855 49 55 28
17.508486808168723 44 46 24
17.438804132160737 43 45 21
17.747741576430787 40 42 18
17.567219577684472 44 46 22
17.315163401825476 46 51 26
17.409787046902423 49 54 28
18.19782345219488 48 53 28
17.907185626707037 49 51 27
16.93173034078373 48 53 28
8.020913507573733 48 51 18
8.650937573941366 49 52 19
7.8930874925993795 48 51 20
8.333571666962612 47 49 18
9.470981344464512 47 52 19
9.619452842971102 47 52 19
9.739871778224026 48 51 20
9.739871778224026 48 51 20
8.924090667873806 47 50 19
18.385575517191562 50 55 30
13.815629673071694 45 55 18
9.398922369101124 42 45 16
8.89990732544387 41 44 15
8.94857302046474 42 47 18
8.446225384356936 42 49 13
8.852331836651766 41 44 15
8.852331836651766 41 44 15
8.857318244016003 40 45 12
7.558561876957099 52 56 27
8.848585891363616 49 54 24
8.687295096013573 45 55 18
8.520591962071737 42 49 13
7.812535320628844 45 55 18
7.995145083339638 50 55 24
7.8452034728527416 50 59 27
8.14011155598532 46 56 19
9.025024543941402 47 54 20
8.815545962477012 39 46 10
7.591135552451949 54 62 32
6.514869843901462 53 58 31
6.874012249430035 54 58 31
7.3809045795977255 55 60 32
6.603721959018769 56 58 32
7.157922124586221 52 57 30
13.92627671612648 39 44 15
7.212765925447486 49 60 27
7.357061580387174 43 48 17
7.797207928783246 47 57 20
6.604909361701953 51 62 29
6.421982429201525 53 66 34
6.85673571519198 44 53 19
8.015133528432653 44 53 19
6.6631289095801 53 64 30
7.542198553091838 55 66 33
7.212349347886867 55 57 31
7.090469378394619 44 52 18
6.85673571519198 44 53 19
14.41021732419458 44 44 18
14.58861953516176 39 46 16
14.996602928823808 43 45 19
14.193090999826088 45 47 21
13.991021408011283 45 47 21
9.562062536517315 47 54 18
9.368133491158346 48 54 18
9.725660311617764 48 53 21
10.107476921920766 49 55 19
9.929054556944058 47 54 18
8.472286939575527 38 41 11
8.045270420118971 45 48 17
7.822775735948401 47 50 19
14.064704271001226 54 60 33
17.714312167437935 48 53 26
16.513676768045727 46 51 26
17.7929529765046 44 49 24
17.44276653469478 46 48 25
18.024599345118713 37 39 15
17.25383136797133 31 35 11
8.075994691897433 48 51 19
8.241816280131642 44 49 19
9.317341405122926 45 48 17
9.633535637422138 46 51 18
10.851633648575612 16 18 1
13.624532549382009 47 53 19
10.330288915300422 32 37 5
10.851633648575612 16 18 1
8.208214140500294 41 49 12
7.271651602773947 53 63 33
8.970848550810992 43 48 17
7.240004076957706 56 60 31
7.615803723106919 54 57 28
7.950355104661989 54 61 31
8.07403977100362 52 63 28
8.579482211677327 41 46 16
8.689370070274082 48 55 23
8.602713504440674 43 46 19
8.602713504440674 43 46 19
8.966930592933355 45 51 15
7.214178017208782 52 57 30
7.019822964571588 54 61 31
7.036937691939658 46 56 19
6.577224824152652 55 64 32
7.601794778693599 41 48 14
6.667186142977588 53 63 31
7.923514941224669 47 57 26
7.217487912526006 42 47 17
7.243576404759539 54 61 31
6.85936446042509 43 53 19
7.267357122858149 51 62 29
7.124761620891628 48 57 23
14.216151358026911 58 69 34
9.750689239513044 50 57 21
9.929054556944058 47 54 18
9.320691408934527 49 52 17
9.562062536517315 47 54 18
9.155547793605423 39 42 11
8.236012225775823 42 45 14
8.236012225775823 42 45 14
7.987835503759109 44 47 16
7.380069534756754 46 51 19
7.26462375770946 56 56 28
8.772889824348997 43 48 17
8.636113669796428 41 48 12
14.640982749105387 32 41 11
13.757879050105371 40 45 16
10.165360118478175 48 54 18
17.7606237575916 49 54 27
17.139276246480012 45 48 24
9.684110185696332 32 35 3
9.492980581075146 48 51 20
7.409112301659468 55 60 33
8.363036109579268 53 56 27
7.034505579647444 45 55 18
8.433861799020999 47 57 20
8.843490936528147 44 51 17
8.11344736808821 46 51 19
7.400274383922113 48 57 25
10.165360118478175 48 54 18
9.929054556944058 47 54 18
10.652359417628956 48 55 18
8.457968760724064 41 46 15
7.282240035295631 43 50 17
7.123624982469042 46 57 24
7.583557404672822 46 49 20
6.358721805413067 52 64 33
10.518477826729415 49 56 20
9.68670246117151 48 55 22
6.84092715116042 49 60 25
6.787370750871607 53 63 34
9.10810554895111 38 45 9
9.932987759984949 47 54 17
