18.687232705198113 52 58 31
19.209168283887117 49 56 26
18.643635320400104 51 57 30
18.205306539516364 55 64 36
8.600487090569416 30 26 1
8.757349003030889 22 22 0
8.261807700001293 36 31 5
8.529500856915796 17 19 0
14.177230379260145 38 18 2
14.101656807346442 55 32 16
14.5922115499802 46 26 10
13.530604004689204 53 30 14
13.966212247200666 45 24 8
15.717748383148217 25 18 1
16.023686403546748 28 17 1
15.805826476686848 24 19 1
16.038889427190277 23 17 1
15.65814183740899 24 18 1
13.53142287158173 50 22 7
14.11216347477972 46 26 10
13.091542812301178 51 27 11
13.893020601167708 54 32 16
13.757132755114897 47 22 6
13.462412170335657 48 27 10
14.11216347477972 46 26 10
13.539021740924262 46 26 9
15.418058219001809 34 29 10
15.343644644209528 35 29 10
15.343644644209528 35 29 10
14.54576855068486 45 35 21
14.604461457148746 47 33 17
8.360163852457287 28 22 0
8.491929089403934 28 23 1
8.898229279547184 45 46 20
9.461182835539375 46 50 23
9.00147390981487 45 46 20
9.856039207798467 41 46 16
9.235445881384052 45 49 19
9.588162518893482 42 49 16
11.346754426577021 33 40 10
10.616485902013796 31 40 10
10.505211150836857 35 42 12
10.48852466935538 35 42 12
10.810526653805196 37 42 13
10.09049725573402 34 41 10
10.217091879370455 34 41 11
10.17246107551448 33 40 10
9.7855460532734 29 34 5
9.475175270709551 46 45 15
9.471168523654857 31 33 5
10.081392014312918 31 35 7
8.66745241129417 46 42 16
8.77816399054101 43 40 15
9.265393389807258 45 45 17
8.78987302618676 46 47 20
9.585742142857232 47 49 21
10.9894851200281 35 41 10
10.911364327162232 40 43 12
10.511281552529482 34 37 8
11.460349680827411 35 42 8
10.443611086637638 35 42 10
10.316472879245138 31 41 4
11.276512802458587 35 40 9
11.13018154670139 32 40 8
11.024093145403912 32 40 8
12.09383140259337 33 42 5
12.190613995133475 32 42 4
12.991164932007992 38 44 8
12.459954632304417 36 41 8
14.600548413374128 51 58 28
13.394393086339312 40 45 18
13.30636894751471 40 45 16
15.536940947007972 53 61 33
14.803717697745155 51 58 26
14.803717697745155 51 58 26
11.308759238601924 51 60 26
11.308759238601924 51 60 26
11.668545907505365 52 58 24
10.91628380681033 48 55 22
11.67505526144837 51 60 26
11.445852459552961 54 64 30
11.295314603499909 50 55 21
11.091136118023096 47 53 19
11.439212681104479 53 62 28
12.92987434146292 56 65 36
13.466016569436347 57 66 38
13.07024632139848 55 64 33
12.675937327855385 54 63 31
11.851534378306729 54 63 31
15.409902733243687 54 63 37
10.839171632292969 52 63 29
10.68268208761581 53 63 33
11.461145235527086 54 65 32
10.404301425349377 52 61 30
11.066616834835221 53 63 32
11.41666398754903 53 63 33
11.121420839802001 50 60 28
10.675567658103933 49 60 27
10.924087600893339 51 60 27
10.492737316220877 50 59 27
10.85429836794814 50 59 27
12.970450463958187 56 66 40
11.682986277784972 56 66 38
12.879529248151988 57 67 39
11.60921667011536 55 65 38
17.629350079565626 57 66 39
17.75037260326253 56 65 36
15.755730083126705 19 18 0
15.051720131830347 20 18 0
14.255379299953429 21 21 0
13.870973659118135 36 39 8
14.270063728895874 30 33 4
14.522861926914747 47 49 28
11.721256751475845 51 54 23
11.214291400523813 50 55 24
11.099076538718904 47 54 20
11.163273194221242 44 51 17
10.723392196066634 47 52 19
12.544548602327804 50 53 24
12.754021972232255 47 50 19
12.6414690473547 51 53 27
17.7055482212613 49 54 25
17.427190187604552 50 55 29
13.449785780323287 53 55 29
13.135692823471315 53 55 30
11.156207007036201 53 55 29
12.460706613929675 53 55 29
12.651732008074854 53 55 28
11.261050855396856 54 56 30
11.726546360110278 54 57 28
11.817008128129345 51 56 27
12.567280184657552 52 55 26
12.917340067800295 53 55 29
12.558503542228076 51 54 25
11.215776070454867 51 58 24
11.209988461105954 51 58 28
10.7220901940875 52 57 28
10.61192284867152 52 57 28
10.672969754392419 51 56 25
10.842599863233204 49 54 23
11.38130263782091 51 59 26
11.188553890010922 49 60 26
11.08302425178651 50 60 27
11.141490178504247 50 60 23
11.100074783991055 47 53 17
18.394410275550282 54 63 37
18.818443330034995 49 58 30
18.692539313852027 46 52 24
19.393598149077054 47 53 26
18.566819899140352 57 66 40
18.881960738901995 57 64 39
10.797050854015358 33 41 10
10.379080657804653 42 48 18
11.042504574753577 30 41 5
10.210198615015125 31 41 4
11.044006663446782 45 52 26
10.617079245061822 46 53 27
11.338565825695612 46 52 24
10.89283266366946 46 52 23
10.988810877770652 49 55 30
10.914842245274638 49 54 27
10.805960380978968 52 58 33
10.70272207131232 48 56 31
11.963233926967883 49 54 25
10.412412920326108 49 56 24
11.690933493622007 48 53 23
11.494104545320093 49 54 23
12.039919820292214 48 53 23
10.8662494076549 51 58 26
11.06738049768744 49 54 23
10.398874914941599 50 55 24
11.604765443657868 48 53 25
12.26890272966494 47 52 21
10.85533066995843 40 45 16
10.85533066995843 40 45 16
10.791452340488126 45 52 22
14.479506798221127 49 57 31
13.17934672998322 47 53 27
14.950796820078601 50 59 32
14.966844313472444 48 56 30
10.82668761645623 50 58 35
12.962664716995246 51 60 35
12.962664716995246 51 60 35
12.567708345602975 50 58 35
10.727535981290867 49 57 31
13.034321618358087 47 56 30
10.817183550845016 46 56 30
14.275617451941205 52 60 37
13.713235823943489 50 59 34
14.343105848349236 50 58 34
14.818734555031702 52 61 37
12.223173344285332 55 65 41
12.296650226088804 57 67 43
11.707077133958622 56 66 42
10.820007298148681 51 56 27
10.321396779326891 55 64 35
9.820412568788933 52 61 31
10.896310903144107 52 61 29
10.416768754198488 50 59 27
10.532937214639198 51 60 30
11.265154382348419 55 65 37
11.927855465717133 50 56 22
12.254917688665486 49 54 21
12.477208991183188 51 56 25
11.654728481263543 49 56 24
11.211730660674835 50 57 25
8.871217870780944 43 38 12
9.310414416711483 15 17 0
9.053233303360415 25 25 1
16.038889427190277 23 17 1
15.535015368924096 28 22 3
15.399296824564109 37 27 12
12.552184984302993 48 34 15
14.452130281109334 49 29 13
16.027735882640076 26 16 0
15.170214206982644 27 22 3
9.052408113274343 27 24 1
8.495965390506422 32 28 4
9.580925888814825 23 22 1
10.187291530451102 42 48 12
9.834766343154866 39 39 15
9.320653452777051 43 43 17
10.68746690125697 45 51 17
9.641864961597495 13 17 0
10.809235147415245 33 40 10
10.505211150836857 35 42 12
10.648391234256252 34 41 11
9.011146977891705 31 31 4
8.671407011510148 46 47 19
9.593664794626825 46 50 21
11.388148505829717 36 43 7
10.418649777384196 34 39 8
10.800469095725969 30 40 3
11.9741496985608 35 40 9
11.024093145403912 32 40 8
11.693624807680617 31 41 3
12.09383140259337 33 42 5
12.991164932007992 38 44 8
14.803717697745155 51 58 26
11.213210234110093 49 58 24
11.5176919103553 54 63 30
11.042393018545797 52 57 24
11.851534378306729 54 63 31
12.86592251142575 57 67 39
12.42016534908085 52 61 27
15.136538265536165 55 64 37
10.675567658103933 49 60 27
9.994957556965234 52 62 32
11.252642353304017 55 65 37
12.518493854551481 57 67 40
12.879529248151988 57 67 39
17.684044106783446 56 65 36
15.187001263647108 22 20 0
13.560763324963252 24 26 2
12.823593741562927 44 47 16
11.140495644263455 51 56 27
11.375852496928381 49 54 23
11.074331971124586 44 51 17
12.822504996611872 52 54 29
11.452579532656603 54 57 28
13.160850504856803 53 55 29
11.726546360110278 54 57 28
12.747837575181459 52 54 28
11.3040918172897 50 56 20
11.3040918172897 50 56 20
11.656944767719365 52 59 25
10.61192284867152 52 57 28
10.92307327239628 51 58 28
18.692539313852027 46 52 24
18.487387532632834 58 67 41
10.163977344524426 37 41 14
10.143350315295084 35 42 11
11.230406713230378 43 50 20
10.633212730967704 50 55 31
11.089386120382942 48 56 32
12.522288828994173 47 52 23
10.706953947921198 50 59 27
12.175558749527982 49 54 23
11.716267227819122 49 54 23
11.144737222286574 50 55 24
11.144737222286574 50 55 24
10.449823160867364 35 42 10
11.486032056772782 39 44 17
14.046558494369402 51 58 28
14.950796820078601 50 59 32
13.925361763654495 47 55 29
14.818734555031702 52 61 37
14.834924905807265 48 58 33
13.9256254868005 50 59 36
12.404786366678001 51 59 36
11.729229355686348 50 55 28
10.431345781013682 54 63 34
11.637133217248198 49 54 25
10.890353517380314 53 62 30
10.498920323141494 51 58 26
11.981275084280602 51 56 26
18.687232705198113 52 58 31
22.380367379493936 54 55 29
8.691069157817452 43 35 11
8.530361936523057 45 40 14
16.097086149150616 27 20 3
15.068834541324422 37 25 7
15.85985694558389 23 18 1
15.774021341004016 30 16 0
14.798689339823097 41 23 7
14.954863790329586 46 33 20
13.959902754318666 59 34 18
8.849777648682448 32 29 6
8.474890641342531 37 31 8
13.091542812301178 51 27 11
8.616843747794269 33 29 6
8.72341930733518 31 27 4
10.556434916019446 36 43 13
10.48427414616385 32 39 9
10.478082496690906 33 40 8
10.040232229654421 31 38 8
9.561064005994366 23 25 2
9.238249364548478 48 46 19
9.018338875519362 45 46 21
14.802278396046452 49 56 26
10.291560050498889 22 24 1
10.208099556223685 31 36 7
13.570023249129893 51 57 25
14.803717697745155 51 58 26
14.873420115486262 52 59 28
14.873420115486262 52 59 28
10.958393830226308 51 60 26
11.511093570097973 52 61 27
11.642066995713163 49 56 20
11.851534378306729 54 63 31
11.038023068389343 51 62 28
10.767803147573838 50 59 27
11.403346573702516 51 60 28
10.815977918246734 52 61 27
17.69588358381325 57 66 40
14.292449709111793 41 44 13
11.875923048337228 45 50 17
10.842599863233204 49 54 23
11.209988461105954 51 58 28
18.962145916594373 50 59 31
18.551441172145957 60 69 43
10.163977344524426 37 41 14
10.970678517059122 37 40 13
11.169989006591042 49 54 23
11.261551081650735 49 54 27
11.506354010959356 49 54 23
11.888319522157433 48 53 24
10.69378882885448 50 57 25
10.904398941240347 51 58 34
14.479506798221127 49 57 31
14.046558494369402 51 58 28
13.644875533604052 49 58 32
10.489831446492254 43 48 19
13.783478099009294 47 57 31
18.643635320400104 51 57 30
18.995794123868098 45 52 22
9.121042972554717 20 22 0
14.5922115499802 46 26 10
15.402552681541426 32 25 5
15.47985112297458 29 24 6
13.890552658812828 67 43 27
13.890552658812828 67 43 27
14.3255619853507 49 31 15
8.550433676379964 44 45 19
9.16977711021521 45 50 17
10.71197331538968 46 53 21
10.533745681143987 33 40 9
11.454514321765554 53 62 28
13.081310250683028 37 42 9
10.730206432791215 53 64 31
9.13727848617499 42 41 13
11.875923048337228 45 50 17
12.61887110924369 49 52 23
12.567280184657552 52 55 26
11.156207007036201 53 55 29
10.837126984519346 51 58 26
19.020024647299863 46 52 25
10.67350341372936 43 50 20
10.903281297861216 53 62 32
10.525721571712712 50 59 29
9.828146050173485 52 61 31
11.012980205264373 49 57 34
9.806057296103019 51 60 28
11.66807372476617 50 57 23
12.245917178244959 49 54 21
13.53313758848737 41 19 4
10.923241456323414 49 56 22
12.262233760716379 58 68 42
13.076217572052643 53 55 29
10.93494914679793 50 57 25
11.08302425178651 50 60 27
10.782354634262703 47 55 29
10.809132620728889 50 59 33
10.416768754198488 50 59 27
9.823548697131832 32 33 10
9.879150512490664 31 38 8
19.810652708880532 46 54 26
10.595404426550504 52 57 27
19.653590026511644 49 58 30
12.245917178244959 49 54 21
10.01692987961524 32 42 5
12.558503542228076 51 54 25
11.067208996928596 50 59 25
10.014417170205896 50 58 26
