12.917050150919769 53 53 53
12.917050150919769 53 53 53
12.458294333608457 52 54 54
12.253875010656175 54 54 52
11.955677801545958 55 55 50
11.41251505452616 54 55 48
12.974013601547988 54 54 54
11.273445129669813 58 58 56
11.049115064661988 3 4 0
11.86738984959647 54 54 52
11.568375878349121 3 4 0
11.437643948088008 21 20 5
10.645700802764262 40 40 16
11.827366011430527 54 55 48
11.815909645892704 46 46 35
10.683022384074727 42 41 24
9.83047373005915 38 38 11
11.17689531736375 53 54 45
11.041529221795871 36 37 19
11.08904921450928 42 43 33
10.26737515994122 38 40 7
10.637827288765658 36 38 12
12.3064269633201 35 37 19
12.413480578068235 54 56 58
12.413480578068235 54 56 58
11.723727725599307 55 55 57
11.090180650472051 40 42 29
10.7947310062573 55 55 62
11.80615059572024 57 57 62
11.620080842549298 53 54 46
10.918743028482963 54 55 61
11.23786115843613 54 55 47
11.605708081122529 57 57 61
11.719264837963351 56 55 60
10.7947310062573 55 55 62
12.210920600879817 62 59 62
11.510518909683274 59 59 63
11.4987468691912 57 56 54
11.130027368311426 60 57 62
11.82367598277218 58 57 65
11.277622860991974 59 58 65
10.778550738166668 55 55 54
11.058904784629991 43 44 31
10.624024088819914 51 50 43
11.948343465879194 59 59 61
11.0711445227652 56 56 60
11.277622860991974 59 58 65
10.923640674392995 35 37 20
11.314533017665626 39 41 25
11.449512616785048 59 57 50
11.765270674990482 38 39 28
11.520470513467012 36 39 5
11.196872292285656 32 34 13
11.878513506382541 38 42 8
11.94739176640108 39 41 9
12.23652518651977 41 41 9
11.679312963386154 40 43 9
10.985318261441572 31 34 5
11.447928178269256 38 41 10
11.563460531870524 41 44 10
11.577885739429101 38 42 11
11.490365922244179 39 41 8
11.041118150205234 40 42 17
11.130635527575249 44 47 17
11.547111205945743 41 42 12
10.995393063790665 44 46 19
11.942688249251677 46 49 18
11.683560399062232 47 49 23
11.598311358021318 47 47 24
11.361166155058594 51 50 30
11.366543688524132 45 48 19
11.278898801842265 44 44 19
11.950751991129186 46 45 24
11.578794195567747 49 49 25
11.960804891134115 53 53 29
12.113874858559287 54 54 31
11.632561063375016 53 52 32
11.97906349507338 49 50 26
11.670076865367777 49 52 23
12.36144127496495 51 51 27
11.632561063375016 53 52 32
12.524702915004159 54 56 30
12.734812573592166 54 54 30
11.86041623830164 62 59 64
12.223184066226892 61 58 61
12.396656594634893 62 59 62
10.956077614074532 56 56 34
11.254076176510363 58 56 52
11.367706162239234 63 59 60
11.367706162239234 63 59 60
11.209219830441484 49 51 30
11.341912882209378 50 52 31
11.646088031956975 49 51 31
10.83813285955249 48 50 28
11.1560522812407 50 52 30
11.806395976664168 49 48 31
10.923294832699566 30 29 7
10.104346358379038 34 34 4
10.190298920086546 37 37 11
10.115565124699081 31 31 9
10.028972082990313 30 30 6
10.081199947320135 38 38 9
10.15339980204367 31 31 5
9.805194484383719 39 39 10
10.634387333107263 37 37 7
9.791440468987972 35 35 9
10.104346358379038 34 34 4
9.94232434897658 34 34 10
9.94232434897658 34 34 10
9.818220924686896 39 39 7
14.499571481512493 28 28 4
14.620933068201852 33 33 11
15.438861958647761 43 45 24
10.52929336032519 29 29 5
10.314240299531361 35 35 9
10.387609004711033 35 35 10
10.72941323314423 38 38 10
11.19099949949026 40 40 8
11.36637348722494 39 39 9
11.175634185817742 38 38 10
10.448173614276884 40 40 10
10.144392964820566 40 40 9
10.448839219911203 40 40 8
10.519838142519738 40 40 9
9.794398356903777 40 40 9
10.840110802775255 40 41 7
10.354146774146718 40 40 8
10.354146774146718 40 40 8
11.303257294506547 41 43 8
11.874408925845762 57 56 36
11.715682250196794 57 56 36
11.651972240196832 58 57 37
12.034122403081762 58 57 37
11.382974134316532 56 55 35
12.13801254370318 58 57 37
11.251426271366755 58 57 37
11.139270471680836 58 57 37
11.382974134316532 56 55 35
12.296257328228128 58 58 35
12.296257328228128 58 58 35
12.507240884139549 58 58 33
11.391816232938458 50 53 19
12.423075492024546 45 48 14
11.50939654845695 48 51 16
11.185477959735298 45 48 13
11.928486120796709 42 45 10
11.567525621856936 42 45 10
11.50939654845695 48 51 16
10.882195796948865 45 48 13
12.15072314127634 46 49 16
11.709220283124893 58 57 37
11.69958677759138 58 57 37
10.760328168501792 56 54 31
12.226351946038237 57 57 33
11.883941209002268 57 57 33
10.879755708086908 59 58 38
12.095859537960806 57 56 36
11.86883084206604 52 55 24
12.187506998333568 58 57 37
11.92810561594166 58 57 37
12.007348322297705 54 56 30
11.562667581975298 55 56 31
11.81363099906928 52 55 22
10.139157086944516 55 57 33
10.38673508552097 58 60 39
10.374422513442452 59 61 41
10.322154968046473 57 59 33
11.334504124514734 56 58 39
11.121549857886638 58 60 40
10.781138904489078 56 56 35
11.186253510743775 58 60 38
10.635711468310175 56 58 37
11.060571681877994 58 60 39
10.829801521908177 56 58 37
11.387552522076774 57 59 37
10.95405139653818 57 59 38
10.652698977219748 57 59 37
10.722348110396213 54 56 34
10.895555320916257 52 54 32
11.597520790959656 56 58 37
11.109488250756035 57 59 38
10.81246885290057 56 58 37
10.881095358290157 55 57 38
10.881095358290157 55 57 38
11.356483234213913 57 56 38
11.465201418671402 59 59 37
10.667468540108363 57 59 37
10.784532050717038 57 59 37
11.485559042682464 56 56 35
11.07297603842515 56 54 33
11.149992679839686 55 57 37
11.32060485105361 54 56 35
17.96737355269708 52 55 22
10.021308001179964 38 40 11
11.647306311177767 44 45 33
11.755912398588425 52 55 52
10.645700802764262 40 40 16
10.362189398407887 38 38 9
11.815909645892704 46 46 35
13.054819753073026 53 53 54
11.08904921450928 42 43 33
11.86738984959647 54 54 52
10.227130106285042 16 17 1
12.247035421701677 52 55 50
11.938021857838427 52 55 52
11.489113466218368 57 57 60
10.448422590788415 42 43 27
10.974881412738592 58 58 62
11.4063294569858 57 57 59
12.005770429613356 55 55 58
11.812216038370694 60 57 57
11.210924970077055 39 40 28
10.974881412738592 58 58 62
11.131562385695814 56 55 62
11.60001678553653 52 54 57
11.883972439435812 59 58 64
11.553779266131368 55 56 58
11.724147875355829 57 57 58
10.829676912851642 49 50 38
10.699383291157726 50 49 33
10.823158219681888 58 58 61
10.448422590788415 42 43 27
10.778550738166668 55 55 54
10.862066354086092 31 33 4
12.334939320780999 36 39 5
11.821497003315773 39 41 12
11.679312963386154 40 43 9
11.636750950168842 35 38 5
11.864038636945658 32 34 11
12.360590340528622 40 43 11
11.636750950168842 35 38 5
11.578794195567747 49 49 25
12.36144127496495 51 51 27
11.041118150205234 40 42 17
11.169655627990771 47 49 25
11.234141569459739 45 46 19
10.837616835471646 46 49 20
12.13190309325197 50 51 25
11.960804891134115 53 53 29
11.554791429449116 47 47 22
12.429414340163584 52 52 28
11.590002408237117 42 45 13
10.995393063790665 44 46 19
11.992835133237419 49 48 31
12.734812573592166 54 54 30
12.396656594634893 62 59 62
12.396656594634893 62 59 62
10.91069466464719 58 57 39
10.596757048031053 54 56 30
11.254076176510363 58 56 52
11.474399852115738 62 59 62
11.234639380570979 54 56 32
11.026059733715021 30 30 6
10.923294832699566 30 29 7
9.97937384914177 31 30 12
10.041708235692258 30 30 4
10.116987623767187 36 36 6
9.752201633970827 35 35 7
15.03420456938807 29 29 6
10.328755963442482 39 39 9
10.629338951610329 40 40 9
11.175634185817742 38 38 10
10.448173614276884 40 40 10
11.107471880537949 38 38 10
10.006394440911576 35 35 9
10.360847011200926 31 31 7
10.870052625637303 35 35 10
10.813825548885063 39 39 9
10.433824086987467 38 38 10
10.745416635475035 40 40 9
14.965517269344504 27 29 6
11.217295725436228 57 56 36
11.874408925845762 57 56 36
11.748365006914295 58 57 37
11.217295725436228 57 56 36
11.382974134316532 56 55 35
12.589885323441646 58 57 37
12.387637689703983 57 57 33
11.842913881590258 51 54 21
11.993818097620869 45 48 13
11.418757088048377 51 54 22
11.506485069067269 57 56 36
11.438977943390427 58 57 37
10.966576239445754 57 57 33
11.86883084206604 52 55 24
10.72187139636401 55 55 31
11.094680277919709 56 56 34
11.252764438884356 59 59 37
11.664227137393487 58 57 37
12.558231992631182 57 57 33
10.38673508552097 58 60 39
10.052767264942917 56 58 36
10.962207960223221 59 61 40
10.758049021482908 57 59 37
10.640694162031346 56 58 36
11.109488250756035 57 59 38
10.803429464739935 56 58 36
10.916277110091869 57 59 38
10.679443258127849 57 59 37
10.80064162193961 56 58 37
11.261322215960453 57 59 38
11.235963031595055 57 59 38
11.693074761117959 58 60 38
17.940963109827614 57 60 27
18.015851052137055 52 55 22
12.917050150919769 53 53 53
12.917050150919769 53 53 53
11.568375878349121 3 4 0
10.72936838211393 39 38 17
12.365039755208134 55 55 51
11.649196017446982 36 37 14
10.496236983087933 35 36 15
11.463490736102568 57 57 59
11.535274525319712 58 57 64
11.458926494879337 58 57 59
11.481447384961335 51 53 53
11.931882774729951 62 59 60
11.035582041130072 57 56 42
11.555684266930639 56 56 59
12.524702915004159 54 56 30
12.52371589712661 35 38 5
12.086830094850217 39 43 11
11.533468153488558 41 44 11
12.075299241589942 50 50 25
10.596757048031053 54 56 30
10.699193673396467 52 54 30
11.474399852115738 62 59 62
11.937471707986964 64 59 67
11.30871299916406 51 53 33
12.455334708807355 53 51 41
9.805194484383719 39 39 10
10.360847011200926 31 31 7
9.93242595619672 40 40 8
10.116987623767187 36 36 6
9.675571466759196 34 34 6
9.893746288803762 38 38 9
10.165248603529768 21 20 7
9.983717540292728 40 41 7
11.303257294506547 41 43 8
11.586403997252061 40 43 7
10.755904775624222 40 40 8
10.556223959964342 40 40 8
11.382974134316532 56 55 35
11.251426271366755 58 57 37
11.640997974269512 59 57 37
10.664401227379763 47 50 15
11.711487554287256 46 49 16
12.440655660203879 42 45 10
10.588364416579122 59 58 38
12.056594166186157 58 57 37
11.361370747425136 51 54 21
11.29482459319239 56 56 34
12.59593370317217 55 57 31
10.564066005041225 57 59 38
10.994391495542477 58 60 38
11.051814916421325 52 54 33
10.980061693921112 57 59 38
11.423159778592726 56 55 35
10.943117652486649 56 55 35
11.2192399033656 28 27 13
11.003423209738184 35 34 15
10.023504257544602 39 39 10
11.486105097675333 54 55 47
11.273445129669813 58 58 56
11.219075612551004 55 55 62
12.084448691062276 54 54 53
11.239819703304347 51 52 47
11.605708081122529 57 57 61
12.719141959536183 41 43 11
11.379613763193092 64 59 67
10.903880551299054 49 51 30
10.83813285955249 48 50 28
10.37239455628961 36 36 11
10.914286138688082 30 30 6
15.062700549237295 32 34 13
10.43659991540271 40 40 8
11.562667581975298 55 56 31
12.992841752375188 45 48 14
10.672416359209745 55 57 36
11.157279817147382 57 59 37
10.458155632713204 58 60 39
10.023504257544602 39 39 10
12.199824421382026 63 60 59
11.418299808171522 44 45 40
10.890317802129744 36 37 12
11.802421141266862 52 54 51
12.144944090020003 59 59 61
12.116081723289943 34 37 9
11.789934257097023 57 57 33
10.598988959401325 9 10 0
10.919609814011245 53 54 45
10.830131746935333 32 34 5
10.227857147459048 38 38 8
10.899700403323093 55 57 36
11.008870074686776 57 59 37
10.722348110396213 54 56 34
12.925238268761081 52 52 52
11.436655258680071 55 56 59
10.984131075551876 58 60 39
