14.959731779347734 20 24 2
9.430888758294842 34 36 15
9.663501028447236 43 45 23
9.855299072068723 36 39 14
10.163968560489991 39 44 19
9.969456238325149 36 40 11
10.32914567494941 30 32 6
10.163968560489991 39 44 19
9.394753671015822 28 33 8
9.582574138167297 33 38 12
8.865750371807152 15 18 0
10.060736145106507 37 41 11
10.030169035881341 36 39 9
9.537047441084212 37 41 11
9.211982588739245 33 36 7
9.890484456564678 37 39 10
9.1694064754721 36 36 8
9.361796372387104 33 36 7
9.70426018770548 38 42 14
9.408124090743009 17 19 3
9.23555125640177 30 33 5
9.23555125640177 30 33 5
9.903822812667457 39 42 11
10.26581214474326 36 39 9
9.735733851038987 39 42 11
10.50474796574754 41 44 13
9.491395679030324 39 42 11
9.877696744863055 44 46 16
10.946719009484129 48 53 27
10.117330232516514 47 51 23
9.695615497359542 49 52 29
10.693858039612563 18 22 1
10.117374000450702 46 50 21
9.39038139122559 0 4 0
9.664240280594939 8 12 0
10.27061291539092 21 23 1
10.29184360134716 16 19 0
10.29184360134716 16 19 0
10.078183299319447 45 45 18
11.847116019516866 47 49 23
10.578873693566079 40 43 14
11.729127653337697 52 54 28
11.194203109267432 51 54 27
10.608217398331455 54 57 36
9.97443813007522 55 58 37
9.418429163501369 56 61 38
10.843159245863397 53 55 34
11.135480320477456 57 59 35
10.862962591595984 54 57 33
10.966595119870712 53 57 32
11.162760736955207 55 57 31
11.747722782100656 55 59 37
11.201985808398884 55 58 36
11.691780415372794 56 58 36
11.096775793245548 56 58 37
11.174501310003373 46 48 22
11.363919012388575 29 34 3
10.661056492438743 16 21 0
10.758593981138304 49 52 23
10.3423757593785 47 51 21
10.40504893805996 42 45 14
10.851104036907126 44 48 17
10.867096896621598 46 51 25
12.680670638227157 42 47 18
12.072884803377882 41 45 16
11.260222123657991 29 34 7
12.793421446883729 39 44 16
12.26932231002327 39 44 14
10.550453662708568 42 47 20
13.863546014404388 43 48 17
14.576043564063239 48 53 26
13.049169446809854 45 50 18
12.942144365596981 44 49 18
13.293475568005093 44 49 20
14.395959644437557 48 54 25
11.050109698012673 42 47 21
12.364937569934952 34 39 10
12.96565414371293 40 45 16
10.325908897184666 40 45 17
11.318227221809256 40 45 16
10.959198816834673 47 51 22
13.430239210912884 41 46 17
13.762887460598842 45 50 22
13.30988533887291 42 47 18
13.951177326000366 48 53 26
13.645467882220492 47 52 25
13.082581295950247 41 46 17
13.005953213676822 42 47 19
14.326358215383209 48 54 25
13.762919635175962 48 53 26
13.572018249174079 47 52 25
17.50366347833978 55 63 35
12.290729999477067 56 61 38
11.15554354411023 50 53 24
11.814499556311834 54 57 35
11.124257984845181 48 48 23
11.527552996353633 52 55 33
11.8475365472192 54 57 35
11.120490768133417 51 52 27
10.851185653291006 47 50 22
11.964357262690578 54 56 32
11.814499556311834 54 57 35
10.534064154474589 49 50 25
10.112749393564162 47 47 22
11.565033564352287 49 50 25
12.183957019710348 53 55 32
10.907217483931896 50 50 26
12.258887447417216 55 61 37
12.15183468397044 53 55 33
11.621190974346995 48 50 24
12.155282266397528 52 54 30
12.12308395187446 54 57 33
10.947393905149733 57 61 39
10.426497120632897 55 60 36
10.907524671680761 55 61 37
11.865946118809505 53 57 35
11.470794947597394 53 57 34
11.825455128094829 54 57 35
10.596045148118877 53 59 36
10.835578613480546 57 62 37
10.198721514200454 55 59 37
11.18296833956794 53 57 35
11.580274418688854 53 57 34
11.15967853648715 54 59 37
11.65869588658335 55 58 37
21.00880546003773 54 56 32
20.98378246571078 46 48 22
20.79029127766668 33 36 7
20.6686078643594 36 39 9
21.513683942623935 53 55 29
20.15975070552544 47 47 19
20.340028052964417 37 39 12
20.836345558954793 45 47 20
21.292345735682456 50 52 27
21.05227200593178 48 48 20
20.832183732948906 44 44 16
20.92994969514712 45 47 21
21.037779930071256 49 51 27
20.687817647427607 44 44 18
21.24560723508715 52 54 30
20.905398672865676 49 44 21
21.157459182150056 57 59 37
20.924086984694366 51 50 27
20.994605054982472 43 39 16
10.31320232983912 45 50 23
9.664469377937404 47 53 23
10.271000941418693 51 56 29
10.546620694889207 50 55 28
10.405578717276086 52 57 29
10.078598452120122 52 58 31
9.891430584897035 56 61 36
10.160076956103238 56 59 37
9.596750334041303 54 59 32
9.943853633110617 54 59 33
9.651035039491132 55 60 36
12.183409909567045 55 57 36
10.612505839063678 48 53 25
10.939425312827343 48 54 25
10.883640672023905 50 55 29
10.55087336674044 54 59 34
21.934204374077822 44 46 20
21.25153891151074 42 45 14
10.26628728264851 37 41 26
14.749113768357105 32 36 9
9.797271208397559 9 10 2
9.430888758294842 34 36 15
10.533722904150087 9 15 0
9.56883426680132 16 20 0
10.648708261897715 34 40 15
9.486741202915976 6 10 0
9.499982158870477 8 9 0
8.938655583750977 30 33 4
9.140664053366498 17 19 0
9.91243999124014 35 38 9
9.514225669969239 37 41 10
9.659352887326715 37 40 9
10.121057438758422 37 41 10
9.850841318524127 38 39 11
9.903822812667457 39 42 11
9.278381496700916 43 44 15
10.232485875201228 15 17 0
10.447024564103808 22 25 2
9.664240280594939 8 12 0
9.217428336812715 21 24 5
10.492680663902235 11 14 0
11.174501310003373 46 48 22
11.119856204055395 44 46 20
11.352252119942408 43 45 17
11.017969457374882 55 57 36
11.2406971469162 44 45 18
10.762729890130629 55 58 36
10.782447506225063 56 58 34
11.248487044039768 52 56 30
10.798674730631465 44 47 19
11.19027407147884 55 58 36
10.798674730631465 44 47 19
10.59584938140892 53 56 35
10.914839685538128 38 43 14
10.537956971701451 43 46 15
10.321354078673908 34 36 11
11.557435907056504 25 30 3
12.26932231002327 39 44 14
12.793421446883729 39 44 16
11.957124445452196 42 44 17
12.942144365596981 44 49 18
13.26404049321119 42 47 17
13.397694396751646 44 49 20
14.395959644437557 48 54 25
12.732206132700787 40 45 15
13.645467882220492 47 52 25
13.907414771333515 43 48 18
13.907414771333515 43 48 18
13.762887460598842 45 50 22
13.645467882220492 47 52 25
10.726734135406927 54 59 33
14.28380718920146 51 57 29
12.660381171496056 54 59 33
14.28380718920146 51 57 29
11.561409972634987 52 55 33
11.444137314493952 51 53 29
11.333447727666222 50 52 26
11.8475365472192 54 57 35
11.120490768133417 51 52 27
12.155282266397528 52 54 30
12.258517154282778 54 59 35
11.865946118809505 53 57 35
10.121738484559247 56 61 37
11.542804976264776 56 62 37
11.18296833956794 53 57 35
9.90467825184619 56 60 38
11.602720002576397 54 57 35
21.44516954939809 57 59 35
20.615963084023633 43 45 19
20.938233654705865 40 43 12
21.107756965074927 43 45 18
20.565383991644243 41 44 15
20.73809813293556 46 46 21
20.561311278340675 43 43 17
20.91167008940731 47 42 19
21.073078420134575 51 48 25
10.292144778082603 50 55 28
9.718421391761973 48 54 24
10.232832073078221 50 55 28
9.882565772361517 48 54 22
10.151291163513777 52 56 35
9.785020897718297 55 58 36
10.270558977583713 55 59 37
10.363777703471163 48 53 25
20.756977226121563 46 48 22
15.159109776259935 37 39 13
9.802492795275818 37 42 17
10.073423374262171 35 38 13
9.486933409456455 37 41 10
10.240523151065949 39 42 11
10.26581214474326 36 39 9
9.735733851038987 39 42 11
10.750709880328243 35 40 11
10.946719009484129 48 53 27
11.883907947030076 55 58 36
9.98757569520536 56 59 37
11.29880248163836 55 58 37
9.422694440120408 46 46 20
11.108586105455489 56 58 37
10.640604123327668 35 40 13
11.12409875848731 41 46 15
10.72602682759222 41 44 13
14.576043564063239 48 53 26
10.59623598778825 52 57 32
10.198721514200454 55 59 37
10.112749393564162 47 47 22
11.463194752327492 54 57 34
11.814499556311834 54 57 35
11.814499556311834 54 57 35
11.681092544233433 51 54 32
12.290729999477067 56 61 38
11.964357262690578 54 56 32
20.43609126123025 47 49 23
20.906956953126233 55 57 31
21.27610787872206 42 45 16
10.693492909432445 54 56 34
21.151160104839946 45 47 21
10.717870243828003 43 43 15
10.997835909183003 39 41 14
9.91243999124014 35 38 9
11.740420036509793 35 40 11
13.293475568005093 44 49 20
17.50366347833978 55 63 35
12.258517154282778 54 59 35
10.596045148118877 53 59 36
11.15967853648715 54 59 37
10.24135046638871 56 60 38
12.173226443001623 55 57 35
10.447368646322317 56 61 38
21.01081837860251 38 41 12
20.906956953126233 55 57 31
21.157459182150056 57 59 37
9.72720281597342 41 45 15
9.650846101204193 46 53 23
9.740719301521978 42 47 19
9.614809184333025 55 59 37
10.939425312827343 48 54 25
10.919534897629033 52 57 31
9.468177755764959 33 36 13
8.962943012164688 19 22 0
8.89477124731812 29 31 5
9.468177755764959 33 36 13
11.665449959474 53 57 32
12.84094661019905 37 42 15
12.30847671228415 55 61 38
11.718405742273022 53 57 35
10.947393905149733 57 61 39
20.973720793538114 47 49 23
20.832183732948906 44 44 16
20.658209059716263 43 43 17
21.25153891151074 42 45 14
14.438210817572674 46 53 24
9.655218143627641 37 40 17
11.143375650187101 42 42 13
10.867096896621598 46 51 25
10.013331846385052 47 50 20
8.962943012164688 19 22 0
11.046214305514068 54 59 33
