15.208528901081774 52 54 30
14.789963978810768 54 56 34
14.867893978803385 54 56 32
15.208528901081774 52 54 30
15.3346709779205 55 57 33
15.3346709779205 55 57 33
9.587707610071332 27 27 0
10.20957266914917 35 35 6
9.944322679966518 22 22 0
9.97324836810151 26 26 0
10.710075696222576 44 42 17
10.888457378566311 42 40 15
10.217509234345213 32 30 9
10.405146794854007 38 36 10
18.00051765373313 46 48 22
18.936075428738594 44 46 20
18.766082519703478 42 42 16
17.378769985470438 38 38 13
10.202414836157265 7 7 0
10.361898094078455 12 13 0
11.00275900159496 28 30 6
10.667807406532283 54 56 30
10.239297303575258 30 30 5
10.821649682424974 25 25 0
9.623977988049198 31 31 1
10.507501038790183 27 27 0
11.187079041050238 39 40 5
9.887031839916265 33 33 0
11.17961124228923 29 29 2
10.184820842310602 26 26 1
10.113698256843735 22 22 0
11.02555428914088 44 45 11
12.22263502831026 39 39 12
10.734780229472213 33 32 9
10.753958177673692 26 25 5
10.95717693565465 12 10 0
11.335282904004771 25 24 0
10.721197802142862 33 32 4
12.330174155906017 48 47 19
11.130980067735129 36 35 3
11.390851589514913 33 32 1
11.377578577207316 46 46 19
11.5530435625971 37 37 9
12.375453495006639 47 47 21
12.581228314503504 47 47 21
12.375453495006639 47 47 21
11.934719671662052 49 49 21
11.42839762407044 42 42 16
10.625677346039069 55 57 31
10.55152261249031 47 47 20
10.646015209806178 47 48 21
11.20200237374492 48 50 24
11.194109958260405 51 53 26
11.539796412186947 54 56 30
11.2832224192894 51 53 27
15.3961579613861 49 52 19
15.484347798808251 52 55 22
15.63612399339949 53 56 24
9.90525063649371 41 44 9
10.034596654865213 43 46 10
10.2730156389293 40 41 6
10.145550215975152 38 39 4
9.969485613072209 41 43 8
9.861360781394296 41 44 9
10.267252641692297 44 47 12
11.28395521919458 43 44 16
10.642944605695607 42 45 11
11.28395521919458 43 44 16
10.993778712223929 43 46 14
11.378305300270359 48 49 20
11.206673349454935 47 46 19
11.372363685457774 43 44 17
12.255783545588447 45 46 24
11.894700245880154 50 50 28
11.633299884377127 43 45 20
12.006827509175098 51 50 29
10.196673732663067 56 61 35
10.087264676777497 59 61 40
12.305680747571245 57 57 35
11.672659854540017 54 56 35
10.700447112133999 41 44 8
11.086418172977874 41 43 8
10.49240053052778 41 44 9
10.898048971409148 43 46 10
11.263451248146424 43 46 10
11.263451248146424 43 46 10
11.333720664781001 41 44 9
11.295515959967323 43 46 10
12.052984424030774 45 48 13
11.389902428237855 42 44 9
11.738912003936107 45 46 14
10.78910173132906 42 45 10
11.448961011971782 44 46 12
12.06925347004998 52 52 27
11.769809353774201 47 49 18
11.198168436876555 48 48 20
11.448961011971782 44 46 12
10.636592225335304 45 45 17
10.875041611488014 50 50 22
12.27122410249145 49 52 21
12.791306603568314 53 53 23
12.79142427691383 55 55 31
10.950019546915184 45 48 13
12.6216594691852 53 53 24
12.513190263399537 47 50 17
13.039541193561133 54 54 29
12.696669433926482 49 51 17
13.039541193561133 54 54 29
13.432860620532956 58 57 37
12.946951202408645 57 56 36
14.112692926536043 59 58 38
13.872554388494043 61 60 40
13.11612156638188 57 57 35
13.581043953105931 59 57 37
21.25994952704046 58 63 36
21.41741791788364 58 63 34
21.16573798141322 60 65 39
13.887074708419417 55 54 34
14.441108956650961 61 60 40
13.959006209711077 58 58 36
14.267942764804166 57 56 36
14.875112593872018 61 60 40
14.172397989341203 60 59 39
12.015925063053443 53 53 31
12.128593962116593 50 50 28
11.420411069995628 51 51 29
11.05769193198364 52 52 28
11.770193007796477 54 54 32
11.97337309470292 56 55 36
13.539509938627505 60 61 39
11.722116172314994 55 55 33
11.926115351673545 54 53 36
11.025208609872697 53 53 31
11.926115351673545 54 53 36
12.162401116413468 56 57 35
12.162401116413468 56 57 35
10.758400400505028 63 65 43
11.370344100914734 63 65 43
11.957152173606746 62 63 42
11.795656303879158 63 65 44
12.362292294264286 63 65 44
11.21788936537199 62 64 43
12.05410831109874 63 65 43
11.465109877784078 63 65 43
10.41063181161154 55 60 33
9.766744938084123 56 61 36
9.626316008893879 56 61 34
10.989122446023416 56 60 31
10.135004933715612 57 59 35
10.336150165830722 58 60 38
10.548218445082707 59 61 40
12.172595914272655 61 64 42
11.509410321997041 63 65 44
11.208412659201759 62 61 41
12.185373533978566 62 64 42
11.522923363040734 59 63 41
11.12620932193035 59 61 39
11.145332457332096 60 62 40
11.80607616309723 57 57 36
11.487234367412613 58 59 38
12.041101555059594 52 52 30
12.041101555059594 52 52 30
15.208528901081774 52 54 30
15.3346709779205 55 57 33
9.445825186148005 36 36 5
10.720816100259785 25 25 1
10.347772519402698 37 37 3
10.158778983407132 26 26 1
9.779197970888267 29 29 1
10.48739171776483 43 42 14
10.349774457972737 39 38 8
18.766082519703478 42 42 16
10.202414836157265 7 7 0
10.770119227199364 23 23 0
12.330174155906017 48 47 19
10.6779347807356 32 32 1
12.379361861858824 45 45 17
11.25400631109999 27 25 1
9.878581308139962 22 22 0
12.242229600201394 47 47 20
11.384310801517563 48 50 24
11.130980067735129 36 35 3
10.692187278687397 49 51 23
11.365666759646862 37 35 10
11.23894290340218 43 43 17
10.625677346039069 55 57 31
14.737330060289583 49 52 18
10.664601937710366 46 46 17
9.95501027284198 41 44 8
11.396136213962501 46 49 15
11.584135215638497 48 46 21
10.589609227485344 44 47 13
11.232136770425907 52 52 30
11.471641503201445 49 50 27
12.161373863875696 53 51 30
11.940519952965667 50 50 28
11.576427734650762 52 52 30
11.936043016613233 52 52 30
10.176593521597674 56 61 34
10.176593521597674 56 61 34
11.963918421371023 57 57 35
15.111081642316098 51 45 25
15.336633988971638 54 52 32
9.980440454964189 38 39 4
10.326847308254782 41 43 8
11.086418172977874 41 43 8
11.143846783029133 39 41 6
10.138440819792816 41 42 7
10.732175049602915 44 47 11
12.030009438522441 44 47 11
11.319981768398124 44 46 11
11.365587133526766 43 46 10
11.99990751249499 45 48 13
11.1983028511551 49 49 21
11.057283556374308 46 46 15
11.529983613877256 49 49 21
11.411142140392545 45 48 14
12.779017072941967 48 51 18
10.950019546915184 45 48 13
13.518616102289576 57 57 34
13.826137596148833 56 55 34
12.696669433926482 49 51 17
13.518504758868595 52 52 19
13.343000237938917 58 57 37
21.148643396571156 58 63 37
14.875112593872018 61 60 40
14.521014949851565 61 60 40
13.907415001154321 61 63 42
14.4270419281583 59 61 40
13.959006209711077 58 58 36
12.589444370345273 57 56 36
12.332153082164158 56 55 35
12.273725485504015 53 53 31
11.395632538414388 46 48 22
10.152588803336997 57 61 36
11.044829520988015 63 62 42
10.152588803336997 57 61 36
10.444993174875574 58 60 37
9.964660277951413 58 60 38
10.535797558447495 59 61 40
11.027055900992995 64 66 44
12.362292294264286 63 65 44
10.794112758924884 59 61 39
11.145332457332096 60 62 40
11.493640447909781 56 58 37
11.021855424790868 63 64 43
12.72889916521476 61 63 41
10.392410078722627 43 43 17
10.07203407479423 33 33 11
15.279508201231321 55 57 35
10.587873265486559 38 36 10
18.00051765373313 46 48 22
18.14657817400798 40 40 14
18.14657817400798 40 40 14
10.182198121081447 24 21 12
10.794997563713741 34 33 6
11.900465738906412 37 36 8
11.02555428914088 44 45 11
10.590679775636463 24 24 0
11.545651863215195 47 47 19
14.737330060289583 49 52 18
15.171490574792417 47 50 17
15.171490574792417 47 50 17
10.630492806158152 45 48 16
9.922370302922321 57 59 37
10.561258109882571 44 46 13
11.787175731732681 45 48 15
11.443056084010433 50 51 25
13.115892044883854 51 51 18
12.086314129477223 55 54 34
11.112642267513936 43 46 10
13.330880573206688 47 50 17
10.715120889449869 42 45 10
11.333720664781001 41 44 9
10.326847308254782 41 43 8
11.53284572611085 41 42 6
11.99990751249499 45 48 13
12.086065051344896 48 51 18
11.60880962793782 42 45 9
13.959006209711077 58 58 36
14.346612545158157 64 63 43
11.746077864922766 50 50 28
12.319649880456957 54 53 33
11.739681318900274 54 53 34
11.41383201506778 52 52 30
11.10999290311064 62 64 43
10.366363122955345 61 60 40
10.566830552934634 56 60 32
10.81907504782231 61 61 40
10.056213229292476 57 60 37
11.311045540062695 59 59 38
11.76092294958732 61 64 42
11.985913346255293 56 56 34
10.66681967711811 23 25 2
18.024683074018963 41 41 16
11.080616534120173 14 11 0
10.442663740184306 53 55 29
12.873421000265813 48 48 21
11.723748712549101 46 46 19
10.488166544895767 46 48 18
12.513190263399537 47 50 17
12.267481369396416 56 55 35
21.28995319651508 57 62 34
13.826137596148833 56 55 34
14.407539732558703 59 58 38
11.043882234219016 54 52 31
11.77414733628502 62 64 42
10.509363127805065 61 62 41
10.533940142259036 22 22 0
11.372141321022347 36 36 8
10.645732433062753 45 45 18
10.69204650181594 48 48 20
10.92425695515567 27 26 0
12.053321588972198 58 58 36
11.665631939305069 57 56 36
12.01658043761837 54 53 33
11.983854306779504 61 63 41
10.671944364151694 63 64 43
12.617782099875285 51 52 26
10.879598012721916 60 62 40
10.847765293909168 58 61 39
11.24079007326196 42 45 9
13.330880573206688 47 50 17
10.924314635388098 51 53 27
15.260978770823332 53 56 23
11.34358363961057 58 58 36
10.813628491488302 55 58 30
11.112642267513936 43 46 10
15.807354945659075 53 57 35
11.00275900159496 28 30 6
