14.291716438480243 64 61 68
14.03604054156706 63 60 63
14.909898965142014 63 60 65
14.909898965142014 63 60 65
13.830556111239995 65 62 67
12.876932332786355 65 62 67
14.241545591098511 64 61 67
13.00279513262349 65 62 67
15.18353165594286 58 58 50
15.013417646099004 48 49 36
14.813575236301492 66 61 69
13.905063143451759 65 62 63
15.126786739634426 65 63 59
14.95200261197681 66 63 64
14.871515314930212 65 62 67
14.580586603315824 62 62 62
15.239790516964757 64 62 56
14.904054621946752 65 62 67
15.347566967573565 64 61 64
14.740499943665426 60 60 56
14.32955724155406 65 60 68
14.580586603315824 62 62 62
14.504761282741924 63 60 63
14.246793752249882 64 64 61
14.105196274236674 64 61 64
14.246793752249882 64 64 61
14.730434566011704 46 45 30
14.775644061601817 66 63 65
14.977791149550564 54 52 46
14.479136535966074 64 61 64
14.334264956752303 48 50 32
14.611150609544179 39 42 7
14.653615485885918 41 43 20
14.078552459431354 42 45 16
15.15227780491678 32 34 8
15.370939635733889 41 43 20
14.450310014902167 42 45 10
14.333978314158951 44 47 14
15.531531361698576 39 41 19
15.85352538024325 40 42 24
15.660237441489596 42 48 11
15.494887618456756 41 44 8
15.660237441489596 42 48 11
16.61438142570558 41 47 12
15.099196725853137 43 46 11
17.674034294407285 74 72 72
16.885813789196835 60 58 51
10.546977607241555 39 40 23
14.431269306080305 66 63 68
14.876398342920679 68 65 70
12.526569854735582 66 63 68
14.412929302250232 66 63 68
14.567849255097597 33 35 13
14.973565428275307 67 64 68
14.556951270491922 44 47 17
14.708094113848947 42 44 24
14.556951270491922 44 47 17
13.731050025073372 34 36 12
15.110045075294511 67 64 68
14.231203902223498 68 65 70
14.708094113848947 42 44 24
14.26280472011903 53 55 37
15.110045075294511 67 64 68
14.259095270796786 53 55 35
15.463120500482102 63 64 57
13.332729339504183 45 47 21
13.676924671272486 69 66 71
13.855517816729371 65 64 51
12.86460812316016 61 62 49
13.702083832617195 57 58 45
14.367371505048197 69 66 71
12.739418181277994 48 50 26
13.855517816729371 65 64 51
13.302895857875372 52 53 36
14.564789833880608 48 50 26
13.419432719466776 58 57 44
14.606609454439456 48 50 31
15.949293428069298 43 47 15
15.067078859362407 44 47 18
16.139571289140395 42 45 20
15.741566901196252 38 40 18
16.033884909014308 53 56 22
16.78613410431134 56 59 27
16.071882345416945 56 58 30
16.278195991353783 53 56 27
16.071882345416945 56 58 30
15.668783254928474 51 53 31
14.6746319277494 62 62 40
15.925801063586206 58 58 36
15.600710891601459 60 60 38
15.686186373090617 56 56 34
15.21472907632347 62 62 40
16.23346355447084 57 57 35
13.899471602154998 66 65 51
13.568874680020956 70 68 66
12.49847763069992 65 67 46
11.89634860756437 62 64 43
14.459927741054685 69 67 58
13.052888169294608 44 45 32
11.640813541513864 36 37 23
15.140641389067097 64 66 42
15.140641389067097 64 66 42
15.250821187343796 55 56 32
13.88102558027278 45 48 13
14.445071247182657 46 49 14
14.348519790751634 45 51 14
14.019781838302361 45 51 14
13.543469873055752 44 47 14
14.121005218410078 42 45 11
13.688149263868887 41 44 11
13.612383620651242 43 46 11
14.125557572887494 39 42 12
13.668202370046602 37 40 7
13.238329046549774 40 43 11
13.35938968643896 43 46 13
13.055743897882074 30 30 2
13.818484888053332 42 45 10
13.482134321403286 45 48 12
13.133147626398332 45 48 13
13.391343179888418 40 43 10
14.390967897782257 45 51 14
12.82204548268144 43 46 11
13.82118811167039 44 49 12
13.747286376218712 45 48 12
13.586219750885915 43 46 12
13.285731101544316 43 46 13
15.382750047062888 46 52 15
15.056475067046518 45 51 10
14.553747893632458 46 52 15
14.339404221470263 42 45 10
13.916029302036177 42 45 10
13.848400128501616 41 44 13
13.942689000953546 43 46 13
17.84238336581854 53 54 46
14.307907401751544 61 63 37
13.978214364685428 58 58 36
14.717690500703778 59 59 37
14.39738435558722 57 57 35
13.951100368734734 59 59 37
13.785266648941045 47 52 13
14.469254091846091 45 51 11
13.930934451457897 47 53 14
14.360156452553618 47 53 14
14.149481246999015 43 46 10
14.528567391695711 54 59 24
13.449240951339156 45 50 13
13.785266648941045 47 52 13
14.106528860510267 46 52 15
14.077525891768303 46 52 14
13.93205006510479 44 50 13
13.70345275428113 49 54 16
13.704815777573423 50 56 19
14.674066568222834 50 56 19
13.707312571449064 47 53 14
14.866432928610138 60 64 33
15.06336706975812 61 64 34
14.698365610131464 61 62 37
14.698365610131464 61 62 37
14.357846361891665 59 64 36
13.91439450396763 55 60 27
14.661973602228777 59 64 33
13.91439450396763 55 60 27
15.828779730038946 58 57 36
14.595599151827217 46 52 15
14.310009089777376 59 59 37
14.609169549755674 59 60 37
14.85777817594229 60 62 37
15.480762458712922 60 65 34
15.469232215041094 56 62 25
15.012181312422435 51 57 20
15.008657075649872 55 61 24
15.469232215041094 56 62 25
15.071628534165262 58 64 30
15.082154630543865 49 55 17
15.071628534165262 58 64 30
11.860368072926164 59 61 39
10.98254990575822 53 55 36
13.602247858516266 58 59 33
14.623718348898771 57 58 34
12.891437284535115 59 61 34
12.683194308576349 61 63 37
14.872083772623029 57 58 33
13.405051637815937 62 62 36
14.061748380657436 65 67 43
14.201148601028988 56 58 33
14.780637842241637 58 58 34
15.72001049005702 57 56 34
13.934359240277178 57 59 33
15.210293889066193 43 45 8
15.318214427863099 44 48 10
15.508208620178943 44 47 11
14.46430625102373 47 52 11
14.525995808832636 49 54 15
15.249324336356768 44 49 11
14.665367253239975 47 51 11
14.536917000038027 44 49 10
17.546038230005355 49 49 19
17.546038230005355 49 49 19
17.79238051814823 45 45 15
14.011481049200565 63 60 65
13.551654459294081 63 60 64
14.819455261862203 64 61 68
14.909898965142014 63 60 65
14.31579518051072 63 60 65
13.1663481945579 65 62 67
14.653118320814496 60 58 54
14.403353136196133 65 62 63
14.423073307425916 65 62 67
14.961644316538585 68 65 67
13.947816219895373 65 62 67
14.740499943665426 60 60 56
14.794375593993614 63 60 65
15.18353165594286 58 58 50
15.198963462274543 59 56 57
13.986515184388981 58 59 49
14.081792130660958 47 45 39
14.333978314158951 44 47 14
14.997241748714071 31 33 7
14.357478780021946 43 46 13
14.078552459431354 42 45 16
14.591185345439422 51 53 35
14.837789078659416 35 40 13
14.837789078659416 35 40 13
16.41229440239326 42 48 11
15.97963820824561 41 47 10
17.446718954612884 69 66 66
14.879953904493238 68 65 70
14.9399272794302 67 64 69
14.950546101812936 67 64 69
14.950546101812936 67 64 69
14.412929302250232 66 63 68
13.661900868241501 35 37 12
14.49174354017027 41 44 10
14.336436064337612 55 56 41
14.164496639459227 68 65 70
15.310756438531126 66 63 67
13.731050025073372 34 36 12
13.045573006000383 52 54 34
13.855517816729371 65 64 51
14.193106425751354 48 49 29
14.165599417677763 55 54 37
13.872127963959857 41 43 25
13.702083832617195 57 58 45
15.74202969090211 43 49 14
15.834478379136307 55 55 33
16.23346355447084 57 57 35
15.192554698204033 62 62 40
16.043845179611292 55 54 34
10.673685846045045 44 46 27
15.162891685965874 61 61 37
14.24279165532368 39 42 11
13.950724899723772 44 47 12
14.445071247182657 46 49 14
13.688149263868887 41 44 11
14.189233451606345 44 47 14
13.580719225641968 42 45 12
13.922739029270822 45 50 13
13.23973995413557 40 43 10
14.433073827212526 44 47 11
13.631041925281087 45 48 12
13.480748783059125 43 46 10
14.648946750603027 46 52 15
14.885602282686074 39 42 9
14.434722666850954 39 44 13
17.711499813168942 66 65 59
14.661973602228777 59 64 33
14.149481246999015 43 46 10
14.458281790954057 50 55 18
15.097554473043138 58 58 36
13.74615576748637 46 52 15
13.713669801810871 58 58 36
13.978214364685428 58 58 36
14.670461107478681 54 60 23
13.930934451457897 47 53 14
13.930934451457897 47 53 14
14.734877962285749 58 63 30
14.734877962285749 58 63 30
13.85514829037301 49 55 17
14.469254091846091 45 51 11
14.71973367989111 60 60 38
14.520997654021484 60 64 36
14.425744263001121 58 58 36
15.655208214446859 60 65 34
14.95381717805474 60 65 35
15.392932975449598 60 64 34
14.44047786452789 60 60 36
14.061748380657436 65 67 43
14.39241180732079 59 59 35
14.909283626790877 59 59 33
14.59446329881665 56 58 33
14.288822955400018 42 46 7
15.575953747670892 44 46 10
14.668973965993457 47 51 11
12.846040357563908 65 62 67
14.479136535966074 64 61 64
15.42974309650677 47 48 39
14.907816656417898 35 38 9
13.338710089275839 65 62 67
14.289831580818316 63 60 65
15.013417646099004 48 49 36
14.354587566356416 40 43 10
13.650500777499436 63 60 63
14.885461107838331 59 60 48
14.701884724700385 59 60 50
15.494887618456756 41 44 8
15.448624675809024 42 45 19
17.313798307217887 46 44 37
10.673003291279178 32 33 21
13.655593583357879 67 64 69
14.641288683965149 66 63 68
12.734686776021967 66 63 68
13.739359788749365 47 49 28
13.855517816729371 65 64 51
14.478922596983194 58 59 45
14.16823085610346 68 65 70
15.600710891601459 60 60 38
16.376800712664682 55 55 33
16.278195991353783 53 56 27
17.602875570483672 73 71 68
11.320778007376074 54 56 36
11.438281221420079 48 49 34
13.381037036347838 62 62 52
12.901248329846295 44 47 12
13.818484888053332 42 45 10
13.100564385146148 44 47 11
13.387157944698835 41 44 13
13.509882482286159 46 49 13
13.334749499990389 41 44 13
13.626930308897153 43 46 10
14.648946750603027 46 52 15
14.870686438204855 45 51 14
14.48243170226165 39 41 14
13.773749487871303 52 57 22
13.933390726057915 45 51 14
14.140683819763067 58 58 36
14.39738435558722 57 57 35
14.838635727724297 61 65 37
14.609169549755674 59 60 37
15.200269278183004 59 64 33
13.656587580734852 51 56 25
14.460648491019127 49 53 13
15.508208620178943 44 47 11
17.319620611069976 47 47 16
17.863367780448943 47 47 18
18.138194725964073 48 48 22
14.556945861147707 65 62 67
15.512750693852116 50 51 41
15.132545061659338 64 61 66
15.118009254906053 42 45 17
15.74202969090211 43 49 14
15.069692318427482 68 65 70
14.3253620337871 54 55 36
14.445071247182657 46 49 14
14.037898664920943 44 50 13
13.362185787173901 43 46 13
16.925024216095782 38 39 29
13.708675210968266 48 54 16
13.93205006510479 44 50 13
14.360156452553618 47 53 14
13.524771357608545 45 51 14
14.307907401751544 61 63 37
15.530336273895514 59 65 31
12.551401534374751 65 67 44
13.172505177569708 58 61 32
13.521857492412028 57 59 33
14.201148601028988 56 58 33
15.224749338347221 56 56 32
14.872083772623029 57 58 33
13.868917917289329 56 58 32
15.184359027115049 62 63 39
14.07354471724079 46 47 8
14.478633379664721 63 60 65
14.278800499745095 56 57 39
13.997115527450344 64 64 62
15.069692318427482 68 65 70
14.478922596983194 58 59 45
14.914215802529762 51 52 38
13.665698430536487 42 45 11
14.814637678447768 59 62 35
13.785266648941045 47 52 13
12.683194308576349 61 63 37
14.46430625102373 47 52 11
14.081792130660958 47 45 39
14.46323169273155 51 57 20
13.859186519647032 42 45 10
15.925801063586206 58 58 36
13.551969270105554 49 52 22
12.955805738583154 32 32 4
11.312802390781815 57 59 38
