15.068543525828028 32 40 20
15.278317256677836 42 52 31
22.82303442356185 70 76 81
22.237904978097145 70 76 81
12.540814404900143 18 24 2
12.624341443151678 37 43 20
14.353172282405293 43 53 30
14.719981698665 43 51 28
14.503299896531136 39 47 26
12.19118074151725 6 13 0
12.137669273735368 8 15 0
12.514321218569659 6 10 0
12.302039829775987 4 9 0
12.167099551644727 7 14 1
12.115899341060533 35 41 20
11.528861550885033 32 38 14
11.229331676532714 26 32 7
11.993097802864222 32 40 18
12.396831632054695 28 36 13
11.31955030314721 27 36 11
11.21491602707083 39 48 21
11.596226499188807 37 46 20
12.288923311306505 32 40 17
11.831625218228535 35 43 20
12.21453248996945 37 43 16
13.238978146157747 42 51 21
13.39079665965304 26 32 9
13.070806797274495 40 48 25
12.75741383482411 39 47 19
12.421788244894266 34 42 19
12.706287234247466 35 41 18
12.35620772514927 34 40 15
12.987819590040857 34 43 15
13.311738891103964 42 51 23
12.81202024684002 36 44 21
12.44712017607765 36 42 20
12.81202024684002 36 44 21
12.405358982099541 40 46 23
13.511936013325547 44 53 23
13.528941988207768 15 21 1
13.291587456521706 29 35 10
12.457031884017773 10 16 3
13.182616899043921 27 35 13
12.323788820231945 2 9 0
13.222572597068059 48 57 31
12.353777718493777 42 48 27
13.09257095077328 41 47 24
12.530587336972392 41 49 29
12.465215329685199 39 48 22
12.362396115977054 37 43 22
13.200353534963012 21 27 3
13.587321577630245 27 35 12
12.920815027475975 20 28 3
13.0179259321802 31 40 12
14.017385783005597 50 59 31
14.469692913016994 51 57 34
14.157546211444226 46 55 25
15.298493651142579 48 58 32
13.656656427496861 45 54 27
13.317482971661146 45 54 28
14.688021895508607 47 56 28
13.807868234244056 45 54 26
13.685291471173421 48 55 26
13.527356965804145 50 59 32
13.527356965804145 50 59 32
16.488841185605107 52 65 38
13.932735911646407 50 58 35
15.571155116445423 50 60 34
16.166192516106296 49 59 33
15.582902356952971 49 59 34
13.932735911646407 50 58 35
15.739406699382046 49 62 33
17.158112315915993 55 67 43
16.94850749084949 57 69 45
16.99313957017696 53 66 39
16.99313957017696 53 66 39
16.781474320610428 55 67 42
12.132367325521505 38 47 19
13.478833123047542 40 49 21
13.297663495410399 42 51 23
14.028311561740821 43 52 24
13.201310187696919 43 52 22
12.322744769288423 32 40 18
12.024582819119292 36 44 21
12.385772108825233 37 45 22
12.748409063332598 40 48 25
12.748409063332598 40 48 25
12.14710724792581 34 42 19
11.729729052988002 34 42 19
11.934723774696426 33 41 18
11.52146087298391 39 49 21
13.043068284580729 42 51 21
12.877259262739965 42 51 25
13.020214359349419 40 49 23
13.205191020398079 38 47 21
11.108908992787663 38 46 23
14.132566063567744 44 53 25
14.132566063567744 44 53 25
14.283810685441058 44 53 25
14.523996890278722 43 52 24
13.580410563283616 43 52 24
13.622645233050442 44 53 26
12.368561885320807 44 53 25
12.468618080079198 44 53 22
12.006854890149892 43 52 21
12.553309377881959 45 55 25
11.986636335404903 42 51 21
11.577820741463425 40 50 19
11.92827329763439 44 53 17
13.878266640711901 51 64 33
14.079783760582789 53 63 36
19.366350835090444 52 65 35
16.70191851288252 59 71 48
16.66748841105825 60 72 49
19.44747944454538 54 67 38
23.782445475947895 71 78 80
23.42931535105964 70 77 80
23.457641032771463 71 77 82
11.236523270572507 37 47 19
12.005866231907707 35 45 19
19.573687147695278 33 42 31
19.510969625459353 35 42 28
19.962433288575813 35 41 31
19.78556195700008 33 40 32
17.67744831661888 29 33 25
18.6759340173773 15 16 4
10.214928968644138 40 49 17
9.945586855301938 44 55 22
10.1010047701817 46 56 32
10.72222904227796 50 59 30
9.945586855301938 44 55 22
10.279315306055528 48 57 33
10.367940691908759 38 51 18
10.279315306055528 48 57 33
9.92717098122263 47 57 29
11.056392696349485 45 55 31
10.346153940507735 37 47 17
20.081887086412124 31 38 29
19.897732403079065 10 14 7
19.93942129015045 33 39 30
19.541902003104227 5 10 3
12.263883698608648 48 59 27
11.674082925067099 43 54 21
12.686171469332065 55 65 39
11.626963899641435 50 60 32
11.268644091796569 40 52 16
11.809612402833693 42 53 19
10.652916124623538 49 59 33
12.46213949349071 54 64 37
12.46213949349071 54 64 37
11.174220337797195 39 48 17
11.408990868232033 40 50 18
11.556481459747651 49 60 28
12.651603393675407 37 43 20
11.888297956280057 38 45 15
12.344845958989183 36 41 19
12.061699245663828 43 52 20
11.747490084878903 44 53 23
11.936860433556028 45 51 26
12.375477177569149 44 51 21
12.400924204572268 36 43 11
12.547938787196637 42 49 17
12.19782642296956 43 49 22
11.582615938041306 47 54 26
11.604995759139648 47 56 30
12.474142715276034 45 51 24
12.101872764281877 44 53 27
11.957184409565164 45 54 29
12.513999686899712 41 48 14
12.252476120464587 46 53 25
13.168786843199351 38 45 12
20.988026346202933 24 26 7
21.384901418215673 15 19 3
21.578847751105727 15 16 1
11.60501765823451 47 55 32
12.760462187690912 47 55 31
12.904711197352544 49 58 30
11.978864453938405 47 56 30
12.118713468396844 48 57 31
12.153777357303216 48 57 31
12.683206392998128 49 55 30
12.57030773233477 47 53 28
13.091319987261382 51 60 32
12.466614612415148 51 60 34
12.996078392010709 49 58 30
12.414310923245276 52 61 33
12.738428781300941 52 61 35
12.561168830116666 52 62 34
12.124356663609568 52 62 36
13.055138107013484 47 56 30
12.821965922103447 46 55 27
12.27603936708746 42 50 24
13.211955589659574 47 56 26
12.537717212189962 52 61 35
13.211955589659574 47 56 26
11.678081783193258 48 57 31
14.026494636376729 53 62 34
13.438362675145747 48 57 27
11.482972591340165 48 57 31
12.132034300073025 46 53 23
12.603733690372701 50 57 27
12.643502333419484 49 58 30
12.459059907491334 54 63 36
12.459059907491334 54 63 36
11.98025484758805 50 59 33
16.155400794678556 54 64 38
16.442840306953496 52 65 38
22.188241412607503 19 21 2
12.037297401677463 51 60 34
12.500662032856702 51 60 34
12.534657521508052 51 60 34
11.31723331819826 49 59 33
11.857432461541476 49 58 32
12.012530142463916 51 60 34
12.547879670427402 55 63 40
12.50201472344832 53 62 37
16.343425304531735 59 68 42
12.141497914845488 49 58 32
11.614518372051274 49 57 33
11.798087182722885 48 57 31
12.72939061507226 53 63 37
12.49011834480325 50 59 33
11.811792871093235 51 61 35
12.842187740420671 56 66 40
12.461471359531448 56 65 39
13.583868469268463 56 65 39
13.10361491469021 55 65 39
12.572637206119616 55 65 38
12.839553893690542 54 64 38
13.102324333753847 53 63 37
12.733375361149545 56 66 42
16.491168503371778 59 69 43
13.49838841710955 56 66 40
16.19643827551377 57 69 46
13.850650369323143 55 65 38
12.615564855514119 51 61 33
12.726713455624637 51 61 34
17.0216632525511 58 72 45
17.20245068130417 58 69 43
17.88737348881372 56 69 46
16.928913367521314 57 71 46
12.218088911306184 51 61 34
11.431755410923781 54 63 35
10.474507750807964 52 61 35
10.828874737006053 50 59 31
11.775024878511791 53 62 36
11.290171373697826 55 64 38
12.236522430680676 52 61 33
12.036249614313748 55 63 39
12.67040454988535 54 64 37
12.983565471139615 54 64 37
15.5496930002372 46 54 31
12.65531251078209 27 34 10
12.514321218569659 6 10 0
12.227110925674722 32 40 18
11.696329084910172 35 43 20
11.355570343376607 29 36 12
12.468312123913131 26 32 8
13.111083854173472 34 40 13
13.001609267816216 40 45 20
12.81966130702079 35 41 16
13.773936507273822 45 54 26
12.746745303535208 8 13 0
13.12632175852928 49 59 33
13.855257831889187 43 51 28
13.347185565237504 10 18 2
12.759412415903862 49 57 28
13.084433510498693 47 56 31
13.222572597068059 48 57 31
12.674764092619903 41 49 27
13.035886954960645 47 55 32
12.296129957602538 29 36 18
13.021842208250995 46 54 31
13.621718170692416 44 50 26
15.658634042350453 48 58 32
14.395105161180986 52 59 35
13.807868234244056 45 54 26
15.797429989659157 47 57 29
13.546524022642833 45 54 26
15.331009740936887 46 56 28
14.233378907509401 46 55 27
14.172264406069111 53 59 33
16.317103230966985 52 65 37
16.154869428809544 51 61 35
15.917378837064426 51 64 37
16.99313957017696 53 66 39
11.763399940641635 41 50 22
12.194307137792556 35 43 20
11.78800553351034 38 46 22
11.707933450858274 39 48 20
12.119419107183981 39 45 23
11.556851621682846 41 50 22
11.587016308430393 40 49 21
12.91587232061676 37 45 22
14.058613487647511 43 52 24
13.157723153858486 43 52 24
13.692759137570109 41 50 24
12.182089410868933 35 43 20
13.71603903869232 43 52 24
13.737735447436693 44 53 25
11.74383794409356 43 54 21
11.804567149845951 42 51 19
11.69883292808966 41 51 20
12.458715910192877 50 59 30
12.874614763447841 55 65 39
13.690272166282034 53 63 35
13.482934628366431 52 65 34
15.665967427206834 55 65 39
16.795921948174637 58 70 46
19.44747944454538 54 67 38
16.66748841105825 60 72 49
17.51256916446493 59 72 45
11.985646009397843 36 45 19
19.92895003359346 34 42 31
20.50689063915964 36 41 31
19.017765910559458 9 12 7
18.23856187812752 6 9 5
10.063829892356125 41 52 17
10.019793988558819 45 55 28
11.093994873186901 36 46 16
11.130042463978484 45 53 31
10.038039937113494 43 53 25
11.292115437066618 46 54 32
11.056392696349485 45 55 31
21.225122446736666 28 32 25
12.359968348621484 45 56 23
12.315473801731985 53 63 34
12.248953798879025 53 64 32
11.572304780613807 46 57 24
20.46761575815818 11 15 9
11.40379065923898 37 47 17
11.547654041990855 40 50 17
11.909023412851951 47 56 28
12.191886879561988 46 55 29
12.913293482271705 43 49 22
12.101872764281877 44 53 27
20.988026346202933 24 26 7
12.793767356227908 49 55 28
11.658419884333984 53 63 35
12.203764765714768 53 62 34
11.902282602385089 52 62 34
12.57030773233477 47 53 28
12.72976691261448 49 57 30
11.841329597394587 52 61 34
12.430423125092405 52 62 37
21.459211499661258 19 18 4
21.85180308867569 21 23 4
15.806582893164915 54 65 39
16.442840306953496 52 65 38
13.306941989225685 53 59 32
12.60507532002286 46 55 29
14.151234506870342 51 60 32
11.482972591340165 48 57 31
13.864473202499415 49 59 31
12.658982965152743 43 49 24
13.074997728285707 49 58 29
12.168782260368177 56 65 39
16.491168503371778 59 69 43
15.782069883231244 60 69 43
12.45464361030792 51 61 35
12.258346525449126 50 59 33
11.893266687576247 49 58 32
11.266359567328307 49 59 33
12.647874410480666 51 60 34
11.955348159800472 56 64 40
12.500662032856702 51 60 34
13.102324333753847 53 63 37
16.894945863388706 57 71 47
16.894945863388706 57 71 47
21.38230496909904 19 21 1
11.624793173521555 54 63 37
11.565738285218321 52 62 34
10.460257175951131 52 61 33
12.167766681695275 53 62 34
11.951463671553135 54 62 38
13.61057622846814 20 25 10
12.592633349539296 10 14 0
12.4775394050472 11 19 1
14.069325243137303 29 37 21
14.353172282405293 43 53 30
12.35208073208366 4 12 0
11.565713837946559 26 32 7
12.706287234247466 35 41 18
12.345520081237506 39 45 23
12.24653999384316 30 36 11
12.296129957602538 29 36 18
13.317483271482487 50 58 38
13.923874723005998 45 54 26
12.978001632484418 18 26 4
12.530587336972392 41 49 29
13.925414899660906 47 53 30
16.209039810115236 53 65 40
13.265946260150857 46 55 27
11.318391517184637 37 45 22
12.793390704745457 39 47 24
12.781745638521134 38 46 23
11.707933450858274 39 48 20
12.892792928207886 38 46 23
11.444729415294017 43 52 20
17.51256916446493 59 72 45
17.672693754327376 57 69 46
16.778180645598844 57 69 46
11.530723426409809 37 47 21
17.723605862826155 7 10 3
18.724617979992885 4 4 1
11.73188280181546 51 61 35
11.809612402833693 42 53 19
11.115814305928241 38 48 18
20.61965396216895 35 39 31
12.18803438404759 41 49 21
12.124334001378388 42 49 19
12.164279773530145 44 50 21
11.971044400818801 46 52 25
12.252476120464587 46 53 25
12.784788189813 52 62 34
12.16602351663475 48 57 31
12.118713468396844 48 57 31
12.760105095657416 46 55 26
12.622963861696789 46 55 27
12.277416805985476 44 53 24
12.356189472946896 48 57 29
11.614518372051274 49 57 33
11.455508808287108 48 58 32
12.542810264451745 54 63 41
12.573982153729851 55 65 39
13.833747522351969 56 65 39
13.22837616677586 54 64 41
13.167753456883338 54 64 38
12.29578372895752 51 60 34
12.212778895296411 50 59 33
13.508799417593423 53 62 36
12.658326850432372 50 59 33
17.00415747899383 57 69 46
11.784088126716822 52 60 36
11.256946862306787 54 63 37
15.745208275322415 44 54 33
15.87278817722 47 57 33
22.487944749509314 70 76 82
12.346215721296346 36 42 21
13.070806797274495 40 48 25
12.860077185992608 32 38 11
12.634434225716552 38 46 23
12.529922215529986 32 40 17
12.963544277192216 44 53 25
14.135279878815728 45 54 26
12.406722385307997 7 13 0
13.180682791362884 11 17 0
13.91959610684719 49 59 36
12.311002645608383 8 13 0
11.988803418914227 37 43 21
13.320041394455092 44 53 23
11.995518515163083 38 47 21
12.921792375596697 42 51 21
12.14710724792581 34 42 19
13.723801977633713 41 50 24
15.665967427206834 55 65 39
11.637985068396643 36 46 18
12.01891597074017 52 62 37
11.40379065923898 37 47 17
20.42831392545698 32 40 32
11.824412966957803 37 46 14
12.580462425658828 42 49 18
12.349670492005558 37 43 17
11.86177440654284 52 62 36
12.226390716151494 52 62 34
12.189421767759939 44 50 26
11.59838169296945 45 54 26
11.874660905123825 46 53 28
12.82096275077128 52 61 33
16.22399720419625 59 72 45
11.663873674424089 48 57 31
13.48357129130179 56 66 42
11.905780808423456 52 60 36
12.540113538513479 56 65 37
12.762756954302525 55 65 39
12.781076254199002 53 63 37
11.546233911115634 53 62 36
10.820574239231698 52 61 31
11.769986391577346 52 61 34
12.33241123648523 53 63 35
11.311632337586046 33 41 19
12.368274324555903 4 9 0
16.99313957017696 53 66 39
14.157546211444226 46 55 25
13.317482971661146 45 54 28
13.978168033466668 49 59 37
12.761765184652427 29 37 10
13.50627463191272 42 51 21
14.173155457388923 43 53 25
9.898424098234992 37 50 13
10.480963513159951 48 58 32
23.124565471808225 71 77 82
12.536408918179163 44 52 29
17.285120692795168 58 68 42
14.34832173248303 55 65 39
12.544841072700628 51 57 30
14.32694965391398 55 64 37
19.366350835090444 52 65 35
11.739904042458845 46 54 31
12.249303686930034 52 61 35
14.494667907442127 43 52 24
12.793767356227908 49 55 28
12.748824355026041 29 37 15
11.57596856774669 51 61 34
10.15520654565979 42 52 22
