20.132332812576596 54 61 25
20.04406545159716 54 60 24
18.043148332928624 44 54 16
16.4534420311898 46 54 20
15.585958264503056 45 55 18
15.65508522859309 48 57 23
17.322115314621737 43 50 16
18.62454950617697 37 43 13
19.32168677055912 38 45 15
19.31049264165455 42 49 17
18.54260113545527 39 45 21
11.914702542291293 46 49 26
11.700943539778105 68 69 54
12.636908637537509 81 82 68
11.875567973871469 142 143 128
11.390753148965114 149 148 135
11.960462615139834 72 73 56
12.324267687655249 139 139 125
11.213341655147405 35 39 12
10.698042724906166 21 20 2
11.471154662814818 49 50 23
10.933464567134827 56 55 37
11.152480666666786 37 38 10
10.617908715610609 42 47 15
10.449579936275057 46 52 20
11.090326289624262 46 49 16
11.33959588699008 88 87 74
12.455767727563341 62 63 50
12.204868765312488 74 76 59
12.228229303992856 92 96 77
12.532141668689723 40 45 21
13.695850969124008 36 41 15
12.785120210130536 107 109 89
12.220567245693694 143 144 125
13.453830808952734 54 57 32
13.54211968873215 44 46 20
11.963847790182541 46 49 16
11.895201318990736 44 50 15
14.968484533248015 46 53 19
14.678674229445857 47 54 18
14.8272357289624 49 56 20
12.85465921693079 13 13 10
11.077259170082993 4 8 1
12.70649644040399 115 115 114
12.657625701077352 23 24 14
12.65947195762917 45 46 35
12.178310293886536 10 11 3
11.587632075837718 134 134 129
12.586919643260917 123 123 123
12.896996680217478 30 30 24
10.589376770549745 133 134 123
12.9349215703907 58 62 45
13.16828655942214 113 114 107
12.64347682651494 44 45 37
12.754259389556417 54 58 38
13.165617258127948 7 9 6
12.835992655614417 1 2 0
12.896333585980646 52 57 29
12.486253146192565 108 108 106
12.716796767092633 15 17 5
12.819387727822665 51 55 32
13.017403054343875 136 136 134
12.525254965337512 6 6 5
13.054818137191704 94 94 92
13.048617114189112 52 57 28
13.125840557772552 46 50 37
12.241893404211947 57 61 40
11.544345023958737 44 49 22
12.82129919643223 38 43 21
11.079266359640204 53 59 37
12.675866062465149 53 61 26
12.35713810673465 53 60 27
13.163192337782004 55 62 29
13.20019419695601 55 62 30
12.675866062465149 53 61 26
12.476953013649682 52 59 25
12.176827417719885 56 63 29
12.026524287324166 54 63 32
11.998955838829044 56 66 36
12.359121067337153 56 63 28
12.459106650217146 53 62 28
11.821732825461288 53 62 28
12.48088054750901 55 62 28
12.359121067337153 56 63 28
12.415093222116864 55 64 32
12.173940727529168 54 63 30
12.029446352893359 55 64 30
11.358729183391038 55 66 33
12.064099122021709 55 66 32
12.292682133275893 54 64 29
12.270574286073847 54 65 32
12.270574286073847 54 65 32
9.953937121076523 43 50 12
7.7919782706033525 41 48 11
10.07062880762373 40 47 12
8.700024119820766 41 48 9
10.489760567853565 41 51 9
9.348597906936797 41 49 11
10.227495722644676 45 51 19
9.60880916819434 41 48 10
10.399419859066786 42 48 14
10.574083082450075 44 49 14
10.574083082450075 44 49 14
8.465762690396254 42 48 13
9.548446945332365 52 59 25
9.525774796394378 48 55 19
9.034742631607692 47 54 18
8.715691297308851 44 50 16
10.989333264357182 44 51 12
11.026392946894877 42 51 11
10.199889521962294 48 57 27
9.276800526883937 48 55 25
9.414340037842445 49 57 25
14.442297520677638 61 71 41
12.746436367198106 59 68 40
13.448377621824081 62 75 44
13.633905029127583 62 72 44
13.612175221300353 64 74 46
13.889127835374046 52 62 34
12.936831427321168 57 66 38
13.258735270572728 56 66 38
13.378272128750538 52 62 34
13.8677979484659 56 65 36
13.378272128750538 52 62 34
13.787937121977643 61 71 43
14.766073173192249 62 72 44
14.477723003285536 61 71 43
14.477723003285536 61 71 43
14.581802667844428 62 72 44
14.663301513369221 61 71 43
13.91846858859077 59 68 40
13.43912038785854 61 70 42
13.31172448960848 58 70 41
14.040360243373417 62 71 43
11.008146389165374 50 60 30
10.374633597234032 50 61 29
13.957975611365283 58 71 40
14.879376784663975 58 71 42
12.90380392345068 60 73 44
12.90380392345068 60 73 44
12.409125542539869 61 73 45
13.048487659616518 62 72 44
12.54373681461967 59 72 41
12.654039413042776 62 72 44
12.68355571905144 62 73 45
12.55950919577747 61 70 42
12.055136707223397 63 72 43
12.767572299172896 62 71 43
14.245108139422282 61 71 43
14.913764085035307 60 70 42
14.398143912735978 60 73 44
13.579445752293763 60 70 42
14.398143912735978 60 73 44
18.60268011789685 59 70 35
10.732421263387762 51 60 27
11.790091409252748 58 67 36
11.145880567019699 46 53 22
11.272537456340924 44 51 19
11.717525007373165 63 73 47
12.014415497137806 61 71 43
11.050692149363782 56 67 34
11.858257637148816 58 68 39
13.949721248931187 62 72 44
13.328184811231118 63 72 44
12.570001604842906 63 73 44
12.187246154109511 63 73 44
12.83301592774596 57 67 39
13.567349186872743 63 73 44
12.475687551116769 60 70 41
11.249455567991498 59 69 38
11.755246513484673 55 64 34
11.839046835791583 63 73 48
11.814016162684881 64 74 49
12.239069475598146 58 66 38
11.528600638444857 64 73 46
12.041697433103375 66 75 51
12.139383738191643 65 74 49
12.497221025783993 59 66 41
12.497221025783993 59 66 41
11.847166991962794 58 64 35
12.246302442265241 59 64 36
11.9253838298132 56 66 36
11.420306009395548 58 65 35
12.23768949339734 58 68 38
12.071641500018835 58 66 36
11.719422538891703 63 73 46
11.643397630478038 63 73 45
11.788836087313049 63 72 44
13.299957134621236 61 73 44
11.950862131274759 63 73 46
13.27768081009915 60 73 44
13.052474892464515 65 75 48
11.833012051976707 61 72 44
12.059358280370432 59 69 41
12.964883255741615 60 70 42
12.105450556942182 61 73 44
11.57974383765752 61 73 44
12.314086730009857 61 73 44
13.689799806684833 57 67 39
13.689799806684833 57 67 39
12.32041201087692 59 68 40
12.151305912593743 58 65 35
12.990988296619719 60 69 41
11.917956100332676 60 66 38
12.007330858512288 59 66 38
12.260273695236418 60 69 41
12.215543879601636 62 70 42
12.509562080674979 62 70 42
11.757818142381806 58 66 36
11.63141459144219 60 69 40
11.855776506572761 62 68 41
11.849941765151339 62 67 40
17.734509635677437 47 57 28
12.26543767609808 47 51 31
12.484798398601278 59 61 45
10.716092097395496 50 58 30
10.340403048624523 48 57 25
10.500659955799586 48 56 27
10.761511239401763 48 58 27
11.485954863951765 50 60 34
10.898881523884858 48 57 26
10.500659955799586 48 56 27
10.641398114122094 45 53 26
10.763788158634204 50 57 33
10.90337751378194 54 62 37
11.131403635307514 58 66 41
11.874370559697569 58 68 40
11.66088206376004 55 65 38
12.16655998518497 59 69 41
12.16655998518497 59 69 41
11.184363261140685 54 65 38
12.111368938884425 60 70 42
12.214254143971313 62 72 44
22.602149032292726 80 77 64
12.334686309948413 62 71 41
12.590787449276156 62 71 43
21.076991648117886 54 60 24
20.10862033844684 54 60 24
18.043148332928624 44 54 16
15.8877820294037 46 56 19
19.594410261675247 43 51 17
19.127188466263018 41 48 16
11.884813001964767 106 105 92
11.484330348250232 41 43 22
11.79404119992732 107 108 93
11.72231022154178 64 65 51
12.344555530515109 157 157 143
10.375329209049935 47 51 21
10.789035412048843 44 50 15
11.923902104013822 76 75 56
10.923920430913384 45 48 17
11.18422603890096 33 33 11
11.047222485755443 33 35 3
10.617908715610609 42 47 15
14.8272357289624 49 56 20
12.785120210130536 107 109 89
12.25954633610363 122 123 99
12.169135815956944 45 49 16
11.103848580484012 137 140 126
12.402046782898172 11 11 9
12.584972575962336 5 5 4
13.201734034289407 9 10 7
10.23142802618832 45 51 25
12.82212910712537 110 114 100
12.477805827154858 54 58 35
12.716796767092633 15 17 5
13.525115666941167 63 65 55
12.934098896977737 52 57 25
12.78128348016513 44 48 26
13.355870066265473 79 80 74
12.157041621897436 49 54 26
12.2427625916476 139 143 130
12.674772219678355 50 57 24
12.947020705036293 51 57 28
13.163192337782004 55 62 29
12.026524287324166 54 63 32
12.716213513371324 55 63 29
11.730847401168694 54 65 32
12.359121067337153 56 63 28
12.396039372222473 57 66 36
12.459106650217146 53 62 28
11.67159434664996 56 63 29
10.023140826127833 46 52 19
10.27403919192766 41 48 13
9.983632420027906 43 50 13
8.909264900665217 42 49 10
15.74915572578619 46 57 22
8.061499889851575 45 51 16
8.58183291463702 45 52 18
11.700588119040507 45 51 14
14.661630192573833 58 71 40
14.628325453991115 58 71 40
15.43133896731612 63 73 43
14.581802667844428 62 72 44
13.478677846265356 64 74 46
13.982673492280439 60 70 42
13.633905029127583 62 72 44
13.281043372529748 54 64 36
13.43912038785854 61 70 42
13.8677979484659 56 65 36
13.281043372529748 54 64 36
13.281043372529748 54 64 36
13.426347551411427 64 77 46
15.46449895755762 63 73 45
13.713293562937338 60 73 44
13.215387713994083 60 73 44
13.048487659616518 62 72 44
12.74244242516075 62 72 44
13.898497451002806 61 71 43
11.196803825699492 62 72 45
10.562697473353905 48 57 25
11.586828938884265 64 74 48
10.953618112497978 55 64 31
11.628912590274432 54 65 30
13.004566559404665 61 70 42
13.004566559404665 61 70 42
11.814016162684881 64 74 49
11.873454670157818 64 73 46
12.224888344370585 59 65 36
11.995805970135239 60 66 37
11.59107830293173 57 65 36
12.233417547529132 58 65 36
12.017088873039148 65 75 51
11.759467360893156 56 63 34
11.746048441781328 57 64 34
11.352306161703027 59 69 39
11.62793263738298 63 73 48
12.278948874198663 65 74 49
11.688123301459182 60 73 44
11.582778616088138 64 74 47
13.299957134621236 61 73 44
12.385995650647796 65 75 46
13.052474892464515 65 75 48
12.256785226236605 62 74 46
11.725971825732836 61 71 43
12.016014489240904 60 70 42
12.029037921219103 61 68 40
12.36268862531334 58 68 40
11.608307911026298 64 74 48
12.326795248509837 59 69 41
12.105450556942182 61 73 44
12.832780288109682 60 73 44
12.623701082123167 58 68 40
11.287010859983537 60 70 41
13.784145633117607 60 70 42
11.608964055145856 59 67 38
11.438458792914798 62 70 42
10.653389392138662 48 59 26
11.607985375237213 53 59 36
12.531946678676693 61 71 43
11.138468291154838 53 63 37
11.902132241312174 56 67 38
11.703946891737688 108 110 91
10.98651308929312 132 131 115
12.962641286405233 47 50 29
15.318210773780734 48 54 20
12.352140678865313 97 98 83
12.41371669741012 61 65 45
12.057560228605867 133 133 131
12.702638665003125 57 57 55
13.015694754125647 129 129 129
12.546156400340935 89 89 89
11.965798224661055 56 63 29
11.998955838829044 56 66 36
11.191643748243644 55 64 30
14.66560721232424 52 62 25
12.680571159268831 54 61 31
12.297009506646312 7 9 1
12.527211314370629 124 125 118
11.884890419218975 56 62 35
12.674772219678355 50 57 24
12.317603982634177 54 61 29
13.017403054343875 136 136 134
9.748565142188996 48 55 23
8.652788307424968 42 47 14
11.639352759666712 46 52 16
9.953002157355737 49 60 27
9.777795900100982 51 58 27
9.720672899125796 48 55 25
13.448377621824081 62 75 44
14.663301513369221 61 71 43
13.036627610958737 57 66 38
13.91846858859077 59 68 40
13.663793842395904 64 73 45
13.173179622966995 61 72 44
13.005737931810394 62 71 43
12.06087218098963 61 71 42
15.225909072899453 61 71 43
15.014821506370987 60 70 42
14.913764085035307 60 70 42
17.621391628369118 59 70 35
12.72958037921804 57 63 37
12.041697433103375 66 75 51
11.490365164426635 61 71 41
12.964883255741615 60 70 42
13.07854954780708 61 71 43
11.757818142381806 58 66 36
13.397048625374524 64 74 44
11.09790901113628 55 64 33
10.340403048624523 48 57 25
11.53046680845268 52 62 36
11.902132241312174 56 67 38
12.397974159428877 61 71 43
12.192876827442104 63 72 43
19.190669405212255 38 44 17
18.54260113545527 39 45 21
19.190669405212255 38 44 17
11.305730866432297 87 88 70
12.192033155877674 70 71 57
11.617653683436407 26 26 6
11.96572133087385 55 54 45
15.047889268934238 43 50 14
14.473588321130176 45 51 15
13.7098423038515 43 46 16
12.054912417781571 57 64 32
14.66560721232424 52 62 25
12.83873048936415 71 74 66
12.9349215703907 58 62 45
7.937824779461615 41 47 13
9.25806142995503 41 49 11
9.640671526093012 41 48 11
9.2066099747399 44 51 15
11.700588119040507 45 51 14
12.55950919577747 61 70 42
12.409125542539869 61 73 45
13.787937121977643 61 71 43
13.099062986155282 62 71 43
10.008799278462966 49 60 29
15.225909072899453 61 71 43
17.745334179676032 57 68 33
17.745334179676032 57 68 33
18.532880388134693 60 71 37
12.673888913296734 63 70 43
13.328184811231118 63 72 44
11.622881848318297 39 45 18
10.583148468664778 51 62 29
11.95434494943128 61 71 43
10.90337751378194 54 62 37
11.06258986351296 49 59 28
11.138468291154838 53 63 37
20.117623427941513 50 60 23
11.661188930061638 148 150 134
12.936831427321168 57 66 38
11.21587849913259 89 93 73
13.303886613594399 60 69 41
12.322665295876163 60 73 44
15.43133896731612 63 73 43
13.898497451002806 61 71 43
12.860112330601934 12 13 6
12.975283560354594 45 47 38
10.245185661049703 41 48 12
18.398156461042483 61 72 39
12.065911145398527 59 65 36
12.239069475598146 58 66 38
11.656281273210023 62 72 45
11.76770654055694 58 67 40
10.898881523884858 48 57 26
10.96236258783754 44 51 13
12.157041621897436 49 54 26
12.27681326502409 52 57 31
12.454836774992232 64 66 48
11.643397630478038 63 73 45
13.815166352795123 108 108 104
13.10139789839223 45 49 30
13.16029073444961 31 32 22
11.834972951039989 46 51 16
13.668158861354406 59 71 42
10.709493154935688 48 52 23
10.570142236248357 92 96 78
13.328184811231118 63 72 44
12.011777682805882 61 70 40
13.033786402083754 59 68 40
