17.652948618813415 49 59 29
18.03242719222193 55 65 37
17.65023252494657 58 68 40
17.530892806078644 56 69 40
17.642170216657313 55 65 37
17.33088121060912 56 66 39
17.698527533089482 47 60 29
17.749582089363358 49 62 31
17.2485976808758 50 63 32
17.358683978465532 51 64 33
8.572358240316552 45 52 22
8.985689905258809 44 51 20
8.897530786579203 36 44 14
8.118420833202585 41 48 15
8.576891354742033 42 50 16
9.573188377897093 42 49 19
8.551686451946775 44 51 17
8.798158119151845 45 52 22
8.43138865118903 36 43 11
9.587605584080494 44 51 20
7.724662283612877 43 51 18
8.26473036692073 45 52 21
8.389487919332574 43 51 17
8.238259100218519 47 54 22
7.932698448133414 42 50 18
8.52580525463207 47 56 22
8.87566090747596 43 49 17
8.349267738180878 44 49 18
8.256920090051347 44 49 20
8.021253113381261 45 52 20
8.09924680338089 44 51 18
7.698923088865066 44 51 17
7.447390765948678 42 49 19
6.803239776629677 41 48 18
8.748364202435832 49 56 24
9.019662879289852 51 58 26
7.917984979579187 46 53 23
7.249849417436455 42 49 19
7.3230732179988935 46 53 23
8.748364202435832 49 56 24
8.596424580977278 51 58 26
9.30812646579769 52 59 29
7.723794658732829 46 54 21
8.701346676284203 46 53 23
8.701346676284203 46 53 23
7.799779592571268 43 51 21
17.89728545126558 44 53 21
17.87179959502861 44 53 22
17.993571891197465 42 49 17
17.942837509303146 48 58 28
17.942837509303146 48 58 28
17.993571891197465 42 49 17
17.556242849836732 46 56 26
18.78171567713411 45 56 24
18.57495865120277 44 57 26
18.096608891987866 45 58 27
18.58960155609269 48 58 29
17.556242849836732 46 56 26
17.685187590829635 48 61 32
7.452606804746309 45 53 19
6.843116836164285 45 55 17
7.916289415819395 50 59 25
8.087665969973488 53 62 30
8.834817179652417 50 59 25
7.124521151393506 44 53 19
8.783073997107369 52 61 29
7.249848000488804 43 52 18
9.028277658418043 49 58 24
7.363056737270356 44 52 18
7.060254660947833 46 56 19
7.45980497539806 45 56 18
8.199606841812777 47 56 22
7.3495645387873445 43 52 18
7.060254660947833 46 56 19
8.783073997107369 52 61 29
7.342230530308437 43 54 16
7.342795262989241 44 55 18
6.923723834345967 45 58 27
7.293507318666199 43 56 24
7.4956383502261374 44 55 18
6.994805001158634 46 59 27
7.9674203628658145 49 59 30
8.198282456429839 49 60 27
9.500131588790937 51 60 28
9.267420977031131 56 65 33
7.527553934258831 45 56 21
7.0058824502137265 49 61 34
6.831717305857988 44 57 23
6.919048241607667 49 60 26
7.304699447848638 53 63 37
6.739069970998413 46 59 27
7.081629310185733 50 60 32
6.807325919871889 48 61 29
7.527553934258831 45 56 21
7.326869459545197 49 59 29
8.223755584186724 55 65 35
6.8281933489416575 54 64 39
8.179777664564147 55 68 40
8.550278840375 55 69 42
6.774202152110756 53 66 38
6.414601474044118 47 60 29
8.223755584186724 55 65 35
8.158619437611573 59 71 44
13.727369860419799 32 41 9
15.618550031440089 25 30 7
16.128524965943885 18 24 2
16.11405783678989 12 18 0
14.29173303029895 36 43 12
18.32257014057735 14 17 1
18.288227887994776 18 20 3
8.058778057343053 50 57 27
7.55871128367739 49 56 26
7.974996794962204 50 57 27
7.240017534521713 48 54 27
7.92339142300056 46 53 22
7.200501123029411 45 54 22
7.309480736019384 49 56 26
7.08864943891409 51 58 28
7.418003382660945 45 52 22
7.71318558021488 46 53 23
7.992099647764084 49 56 26
8.038111010039238 52 59 29
7.518324014366802 50 59 29
8.271699711500412 52 59 29
8.298373458078046 46 53 23
18.08477511954916 37 46 20
18.553669418395 36 46 19
18.428328417006664 37 45 20
18.664388952838028 37 44 13
8.387182937172746 50 58 29
8.115626592317515 57 67 39
8.412787929405392 52 61 31
7.935062270557622 52 61 31
8.030275936544637 58 71 42
8.030275936544637 58 71 42
8.149085353972081 58 71 42
7.819335120020844 57 70 43
7.654920286900465 58 68 40
7.377942291951413 53 63 35
7.463217995643445 52 62 32
7.3650403916670575 55 65 37
7.691256446778062 51 60 30
7.7036120244066755 51 60 30
7.691256446778062 51 60 30
8.244747902009113 53 63 34
7.017562367871049 55 65 39
7.401892804633037 57 67 39
7.401892804633037 57 67 39
8.189277270215353 57 67 39
7.904540577111946 55 65 41
7.468185353844878 58 68 44
7.484337253594585 55 65 39
7.741399841167891 53 63 39
7.6422524313505695 57 67 43
7.220531159220914 57 67 43
6.602414187317321 57 67 43
8.109496800067683 57 70 43
7.313528097513573 56 69 42
8.357133351875722 55 68 40
7.194139645317158 55 68 41
7.625245132798292 58 68 43
7.350074641765732 55 65 41
8.308401093919269 58 71 44
7.308211390100518 58 69 43
7.18332556792973 57 67 41
7.587188724675699 55 68 41
7.829270766849393 56 70 43
7.604826411368614 55 65 41
7.947658765899567 52 59 34
7.890099752218751 52 62 36
7.152632310013597 53 63 37
7.855537981549788 52 62 35
7.235191762396888 52 62 34
7.855537981549788 52 62 35
7.726322085485279 56 66 42
7.744178335100832 55 65 39
15.85365818710602 24 28 17
15.623097664690148 24 27 17
15.603016154333762 37 40 34
16.63553464604142 57 59 58
16.176911403030765 23 25 13
18.661946615001956 40 49 21
10.66944022097168 60 71 41
10.665796506504456 58 68 40
10.715703425292789 59 68 36
10.73382587886405 55 65 35
11.705759501428926 55 65 35
10.73382587886405 55 65 35
10.78341795436125 54 63 33
17.201826648808375 52 62 33
17.306715895013067 57 67 39
17.2485976808758 50 63 32
17.698527533089482 47 60 29
8.37764895075971 41 50 18
9.09202307315289 45 52 22
8.323870505591803 41 51 14
8.96597113789449 44 51 18
7.724662283612877 43 51 18
8.860085294584328 42 49 17
8.021253113381261 45 52 20
7.447390765948678 42 49 19
7.027144428079039 46 55 22
7.799779592571268 43 51 21
7.7698200804797075 46 53 23
7.792566246811043 50 57 27
8.912466435659931 49 58 26
8.424412813604823 46 53 23
8.821608473838817 51 58 28
7.560485681919326 46 53 23
7.560485681919326 46 53 23
7.217607565241975 44 51 21
7.867887039946631 47 54 24
17.85656808136641 44 55 22
18.331300592344647 43 52 20
18.4253191094891 41 50 18
18.166767750757575 48 58 28
18.402902248069346 45 56 25
17.483634229817675 45 55 25
18.796197511653688 47 58 27
17.174285214101708 45 58 27
17.869248927787243 48 61 32
17.685187590829635 48 61 32
7.657006100750681 42 53 16
7.021609413592053 45 54 18
7.238189897883771 46 55 21
7.581022476513927 44 50 14
7.28728297450995 46 54 20
7.4956383502261374 44 55 18
7.545567580919129 46 57 23
8.36388294766601 51 62 29
7.0058824502137265 49 61 34
6.9395797279709655 53 63 38
8.129982381168354 60 70 40
6.832324235656812 45 58 27
15.618550031440089 25 30 7
16.100497039900393 27 31 12
14.74925533227295 36 45 14
18.32257014057735 14 17 1
7.315363371354012 49 56 26
7.860711569071558 50 57 27
7.958798653410513 50 57 27
7.871121807440822 51 58 28
7.371226729149397 51 58 28
8.143126660893788 45 52 22
8.121557080049383 46 53 23
7.494192300915928 50 59 29
7.83078326512845 49 55 27
18.411446211906842 34 43 15
7.57180389416349 58 69 42
7.935062270557622 52 61 31
7.475950464186758 52 61 31
7.57180389416349 58 69 42
8.303721408303229 58 71 43
7.691256446778062 51 60 30
8.204827716993217 54 64 34
6.918079582087259 58 68 44
7.019444522089388 51 61 35
7.473388253671068 58 68 44
7.001516665941386 56 69 42
7.829270766849393 56 70 43
7.048255509386598 57 68 42
7.587188724675699 55 68 41
7.630340939039985 55 67 41
8.308401093919269 58 71 44
7.335107546468881 50 59 31
7.278966992691075 50 59 29
7.2727021772548115 51 64 37
16.204807162898938 11 18 1
15.84859198778279 26 29 21
18.689585958927424 45 52 22
18.661946615001956 40 49 21
18.402860176453736 45 54 25
10.643907060309063 58 68 38
18.032197240735833 48 58 28
17.98167110399375 60 70 42
17.90099092678821 58 68 42
8.354111173045741 49 56 24
7.693539258404044 49 56 24
8.380216496438269 46 53 23
8.188313059767236 46 53 23
8.363411535555262 44 53 19
8.959233915342349 30 41 7
7.932698448133414 42 50 18
8.193058664227921 45 52 18
8.00670109542249 42 50 19
18.4253191094891 41 50 18
8.045445858531169 44 51 15
7.452606804746309 45 53 19
8.752039289118425 52 61 27
7.902692343789196 43 54 20
7.4299086213372325 47 57 25
6.757958251653146 47 60 29
7.34481074284929 49 59 31
6.739069970998413 46 59 27
7.272700764759586 53 63 35
7.304699447848638 53 63 37
7.150561225724951 45 56 23
6.393681261026812 48 61 30
7.03017476226562 50 63 33
7.4408955870502655 54 64 39
16.128524965943885 18 24 2
7.767356131623707 48 54 27
6.982157909126786 43 50 20
7.460150247362023 42 49 17
18.553669418395 36 46 19
18.553669418395 36 46 19
17.9944934313672 38 47 19
7.695436389829815 57 70 43
7.471619077085348 54 64 38
7.714234269065087 54 63 34
7.654920286900465 58 68 40
7.741399841167891 53 63 39
7.401892804633037 57 67 39
6.833885019999155 54 64 36
7.743006576439544 56 69 42
7.311826987228892 52 62 38
8.049712493024423 53 63 36
11.771080999450646 56 65 33
10.78341795436125 54 63 33
17.590803916989934 54 64 36
8.521244963571124 49 56 22
9.292233954251591 28 34 5
7.797881707142914 45 52 18
8.600945011285441 49 58 26
8.522957857369644 57 70 41
8.208240996179878 55 68 39
8.761683328598298 46 55 21
7.545880555002385 46 57 24
7.803697484534925 42 53 16
7.935385569369448 49 55 26
7.257248697703998 50 57 27
7.504243734875176 46 55 23
7.2949973733817925 44 51 21
7.625245132798292 58 68 43
8.149085353972081 58 71 42
7.866156070919295 59 69 43
7.363002765991989 56 66 42
7.4635344229554885 54 64 38
7.334192437300169 56 66 40
15.623097664690148 24 27 17
10.715703425292789 59 68 36
8.558259995709554 43 48 17
8.821608473838817 51 58 28
7.422868389927207 54 67 38
8.155983391846426 55 65 37
8.412787929405392 52 61 31
8.504695914352066 56 66 38
7.039683205220398 55 65 41
7.352437059271883 55 68 41
8.451725909380437 52 61 31
7.206223603268671 44 57 20
7.235191762396888 52 62 34
7.055642110635082 56 66 42
6.833885019999155 54 64 36
10.78341795436125 54 63 33
8.27167506932251 57 70 43
9.30812646579769 52 59 29
7.391381300170829 54 67 39
7.582090799898466 52 59 29
10.712075447274728 54 63 34
