20.893639990501924 25 34 8
21.41504321017571 20 26 1
21.173126664125387 26 35 7
21.687811700955198 20 29 3
21.687811700955198 20 29 3
21.18642247236773 31 41 12
20.332598456553345 30 40 11
21.22040700073129 27 37 8
20.943085655577807 24 34 5
20.204362974714204 32 42 14
20.18893744431488 31 39 12
19.991434648694902 30 39 12
19.311783479699983 33 40 11
19.860996514062577 32 41 13
19.56277285686284 32 40 12
11.348510385736924 17 21 0
11.295398649545643 17 21 0
11.01374851925871 38 47 19
10.589122038400717 37 46 17
11.369835092198203 35 44 16
10.243380702732981 35 44 14
11.04787805330869 18 23 1
10.755902246544135 15 21 0
11.950044819797098 39 45 20
10.81029990511562 12 18 0
11.110885885419117 32 41 11
11.705200243988788 36 42 17
11.012906904681003 25 30 8
11.518275143805697 42 48 24
11.568861735302463 39 44 21
11.765532838371941 41 47 23
11.747605224818408 36 44 16
10.94115359041835 34 41 13
10.94115359041835 34 41 13
10.726631713892207 30 38 11
11.466758169582794 32 41 11
10.963531414007065 33 42 13
10.525390332172709 28 37 6
11.46679614004287 36 45 13
10.829313035524924 31 40 11
10.829313035524924 31 40 11
11.870239809651155 37 46 15
11.651789562045197 38 47 16
11.51907983489632 32 41 12
11.588092405425167 35 44 15
11.751030274292782 46 52 26
13.068055125896423 43 49 24
12.145071540599455 50 56 31
12.312632288513214 40 46 22
12.145071540599455 50 56 31
12.934242195411493 46 52 26
12.323902423771044 47 53 28
13.30607837989689 45 51 25
13.167868935990457 45 52 26
12.36277998494058 42 50 23
15.955657737020605 47 54 29
11.723179023023121 15 25 9
10.783953934795871 22 31 2
11.322384118177071 30 41 9
12.088693001253555 39 47 18
11.801478365823426 35 43 15
11.469597983359387 35 44 14
11.504304436899277 35 44 13
11.695499666205077 18 27 4
10.5662409826841 27 36 8
11.398381708937665 25 34 6
11.472055256007692 28 37 8
12.18235506851858 32 39 11
12.7329732660125 34 40 16
11.702984142228313 34 43 15
12.25598189384081 37 45 21
12.745837439781878 42 51 25
12.874842175802158 36 42 15
12.295074224565356 38 44 21
12.22760324808678 38 46 19
12.61384027751183 41 47 22
13.006661013848227 40 46 22
12.262606065212758 36 42 19
12.626010060457068 42 48 25
12.83602491200172 40 49 23
13.079399796692204 34 41 22
12.488642554919652 39 45 22
12.969713671617495 43 49 26
14.750360980181572 43 49 24
13.894210409576647 44 50 24
13.8567254757755 40 47 20
14.272409656775636 39 47 18
13.094059628382281 37 44 16
14.378522851997168 44 50 23
14.409629184272672 42 47 23
14.409629184272672 42 47 23
13.399062711279301 46 53 26
13.612199756953016 45 51 26
14.106197883306772 45 51 25
13.90063732497946 45 54 28
15.98263497301067 48 57 31
17.05463781202747 47 56 30
12.812072765214928 41 50 24
13.03234610655268 43 52 26
13.896522841638038 42 48 23
12.812072765214928 41 50 24
13.136167771796794 42 48 23
13.03481143797479 41 47 22
11.857818228039811 32 42 12
10.298436304189398 36 47 16
11.509522520830185 39 48 17
10.8319303689165 41 50 18
11.328034272800947 44 50 25
10.634275537122964 43 52 21
10.264768544781882 44 53 23
11.437226898202214 46 51 25
11.338750363393515 43 51 23
11.287132507471648 45 54 26
11.142601339710845 37 46 15
11.268969121157115 42 51 19
11.213403172306176 45 51 25
11.40532600008212 44 49 24
11.287132507471648 45 54 26
10.763422871612493 43 53 21
11.318941042043198 30 37 9
10.449356225487401 34 41 11
10.39637145113478 35 42 10
11.244108250769434 32 41 13
10.824026011860866 40 47 19
11.481137319632708 39 48 18
11.139756336237996 43 54 22
10.933182360693673 34 41 11
10.694231013497415 40 48 18
10.893948825463669 39 49 19
10.852770484488431 43 50 20
10.144783870927805 41 48 18
10.650689939338779 42 51 19
10.071385984180345 41 48 18
10.433065985666804 41 48 18
10.822460540106439 41 48 18
11.08391836864859 43 51 21
11.018316986756762 42 49 19
11.611173904458841 42 49 19
11.624581862645954 44 51 21
10.721743239339064 45 54 22
10.994868501539493 43 52 22
10.665305444557301 43 53 23
11.51401368518176 45 54 28
11.030730588665234 45 54 26
11.59006522091007 46 54 28
12.367741484584371 45 58 29
12.241589898879443 48 58 30
15.837484432148596 49 58 32
12.155409971074604 46 57 25
12.696610915796109 44 57 28
12.819606931866304 44 57 27
11.80857516905103 47 54 24
11.55466232521262 46 55 23
12.155409971074604 46 57 25
11.466313029322382 45 55 24
11.55466232521262 46 55 23
15.196331105001432 14 18 2
15.667894638789509 13 16 1
17.17036886102913 22 20 8
18.068893073509614 18 14 3
18.210526901832505 24 23 11
18.28880850029153 24 17 5
17.417692447140457 21 12 2
11.195041195470989 43 54 21
9.858316620030061 43 50 20
10.048576241560655 41 48 16
10.312864633093106 41 48 17
9.831923564708683 42 49 19
10.200392808138286 43 50 20
10.076343998862892 40 49 21
11.783637689630224 44 51 21
10.257950325637031 41 50 20
11.3511997894005 43 50 20
10.611636883218454 43 49 22
10.303193508178078 41 51 22
10.556215535879922 42 49 19
9.482010156489562 37 47 18
10.303193508178078 41 51 22
10.669987486720851 42 51 22
10.091791338765956 40 49 20
10.370009109205652 41 52 19
9.639698009408413 38 51 20
10.461983329745074 42 52 24
10.34802722788749 43 54 23
10.742123232902896 45 55 27
12.688831106888154 42 51 25
12.101735061542103 39 48 22
11.300652883468437 44 54 26
11.225503066358621 43 53 25
12.039011177624381 41 51 25
12.619403083218165 42 50 27
10.360758281381734 36 45 11
9.925867398274967 37 48 14
10.555073488507784 34 43 15
10.453757601104043 37 45 13
10.555073488507784 34 43 15
9.346105750889416 37 46 15
9.748751133608698 37 46 15
10.555073488507784 34 43 15
10.137560035202235 39 50 15
13.313102061803662 46 59 30
14.055256331699262 49 59 31
13.258121317079548 45 54 27
13.764832630955445 46 55 28
11.259612984046367 46 56 28
11.732028443967558 44 54 26
16.94413084867562 50 59 33
13.619162449490224 46 59 30
11.845001240299087 46 53 23
11.442148483770064 46 57 24
12.819042229284765 43 52 26
12.595038990664914 43 52 26
12.664600580309108 44 53 27
10.91430906645864 41 48 18
21.41504321017571 20 26 1
20.669474201760323 20 30 4
20.81123245978604 31 41 13
21.22040700073129 27 37 8
20.81123245978604 31 41 13
20.332598456553345 30 40 11
20.716458690563687 29 39 10
20.59061397570258 32 42 14
21.12432315016313 27 36 10
19.945828998767215 33 39 12
11.217349507337339 16 20 0
11.395485939829351 37 46 18
10.681760113504332 35 44 15
10.654391082618726 31 40 11
10.957428592583394 25 33 5
10.692878335642815 16 22 0
10.712571192458288 16 20 0
10.768557882860105 17 21 0
12.157674754197608 42 48 22
10.792903956498076 17 21 0
10.522816881985333 17 23 1
11.456640522835603 42 48 24
11.80624923403814 26 32 8
10.407841701788659 28 38 5
10.743931105896065 27 37 1
10.726631713892207 30 38 11
10.579330545220543 29 37 6
11.431975815243986 34 43 13
12.167209469679921 35 44 14
13.111572320340446 45 52 26
12.713601835554947 45 51 26
11.751030274292782 46 52 26
12.893966774231302 44 52 25
12.379816776054286 47 53 28
12.7270075860938 38 46 18
12.48180467781377 35 44 13
11.398381708937665 25 34 6
12.251637095314122 34 42 12
11.193787933345458 32 40 11
13.079399796692204 34 41 22
12.83602491200172 40 49 23
12.83602491200172 40 49 23
11.603993895769856 34 42 14
11.969419423406913 27 34 8
13.171195626416864 39 45 22
14.811971979133604 37 45 16
14.981146681920627 44 49 24
14.2410036018528 43 49 24
14.981146681920627 44 49 24
14.169537973013954 41 47 22
14.811971979133604 37 45 16
16.071908024253442 48 54 29
15.98263497301067 48 57 31
15.98263497301067 48 57 31
15.439251656820733 46 52 27
14.076703771932905 43 50 25
13.03234610655268 43 52 26
13.870706124792413 45 52 25
13.251382785331314 42 48 23
12.759380982100833 41 47 22
13.870706124792413 45 52 25
13.576303046528869 40 46 20
21.860940901198845 48 55 34
10.784279745492968 33 44 11
11.22422870500641 45 54 25
10.3427546838064 25 30 7
11.067909246067611 38 46 17
10.46940173054541 42 52 22
11.22422870500641 45 54 25
11.354010815831375 47 53 26
11.276367363810898 46 53 28
11.11636698002811 40 49 17
11.291479592466283 43 49 22
10.793695679348442 43 52 22
11.025605786253877 27 34 4
10.370136347771883 42 51 20
10.17352395037745 38 45 13
10.828761276936893 38 47 17
10.850967186684665 37 43 16
11.506540050481274 37 46 16
10.852770484488431 43 50 20
10.721498344500016 38 45 15
10.071385984180345 41 48 18
10.378365609325774 42 49 19
11.189221483549094 45 54 22
11.18770711292698 45 53 23
10.582403271550337 40 47 17
10.941428300840066 44 51 21
10.865554945214484 46 55 23
11.98939790164137 46 55 29
12.121314766502074 46 55 23
12.493975450990405 46 58 28
11.80857516905103 47 54 24
13.280703281394498 46 59 30
12.449695433736075 46 56 27
11.907471542194823 46 56 26
11.52455684441517 46 55 27
15.196331105001432 14 18 2
16.853252339901275 57 59 42
18.10106118221993 28 27 12
17.524221897267854 28 27 12
17.483078899417386 31 25 14
9.819340157214345 39 46 15
10.089634957773626 41 48 16
10.029312428612318 40 51 22
10.458911559492421 41 51 23
12.527656232374545 43 51 28
9.312947179322643 37 46 18
11.48684703955995 45 55 27
10.75641088147229 44 54 26
10.007567932588561 39 48 20
9.46556773606316 38 47 18
10.817458265531751 41 51 19
10.419792684136969 42 49 19
13.619162449490224 46 59 30
13.313102061803662 46 59 30
15.954595791108774 49 59 31
11.965185382694463 46 53 23
14.055256331699262 49 59 31
10.91430906645864 41 48 18
20.204362974714204 32 42 14
21.287931821091025 31 41 11
10.438216066110824 36 44 16
11.516327837368287 38 47 17
11.284388074076565 37 45 16
11.310232711462133 39 47 19
11.137133156242339 29 36 9
11.518275143805697 42 48 24
11.411151128387376 21 27 3
13.30607837989689 45 51 25
13.35206863771758 42 48 25
12.068401687951946 14 22 0
11.183089855808474 23 31 5
12.816916804159002 38 42 25
12.402477361108373 38 44 19
11.850892876857003 35 44 13
12.874842175802158 36 42 15
13.058355035146084 43 49 26
12.745837439781878 42 51 25
11.779254028966493 31 40 8
14.713905670752448 42 48 22
10.947420727000246 35 44 14
10.893948825463669 39 49 19
10.745747212139877 43 50 20
11.018316986756762 42 49 19
11.046555902370443 47 54 24
11.9158953235368 45 54 28
11.55466232521262 46 55 23
11.77639046359357 46 57 24
11.328633692814266 46 56 26
13.087114787885087 48 58 30
12.121314766502074 46 55 23
15.667894638789509 13 16 1
11.258834859085267 35 44 15
10.21154071376823 37 48 16
11.648217301336041 43 50 20
12.028918938016048 40 48 25
9.882148359895814 36 45 13
10.738927638582194 39 50 16
10.784029548341888 43 50 20
9.47574615076506 41 51 23
10.0438659429812 43 50 20
10.122398923533206 38 48 20
10.339922670961595 42 48 21
12.819042229284765 43 52 26
13.191689815031387 44 53 27
13.734605480972412 44 53 27
20.478044237984637 31 40 12
20.893744819784917 27 36 9
11.263562286316843 30 39 9
10.973259040131683 31 40 11
11.46679614004287 36 45 13
11.204945653695667 31 40 11
12.09069326602924 37 43 19
10.796779554509886 31 39 4
10.462387969767356 33 42 10
15.955657737020605 47 54 29
12.36277998494058 42 50 23
13.850958975065161 46 52 25
12.081120924895368 24 32 3
11.723179023023121 15 25 9
13.399062711279301 46 53 26
13.90063732497946 45 54 28
18.093856399701597 56 59 54
10.98848332282435 41 50 19
10.801318860724228 30 35 4
10.661696205600615 42 50 18
10.941428300840066 44 51 21
17.629295516330398 26 17 7
11.0288762287223 42 53 20
9.602899567732369 36 47 15
11.661582668785382 45 52 22
11.300652883468437 44 54 26
11.770410917155893 43 50 20
11.27658107320908 44 50 23
15.864662618477189 49 58 32
20.75695920776655 24 31 6
12.994847718575853 41 47 22
11.99349045064621 41 47 22
11.801478365823426 35 43 15
13.540910102565906 43 49 24
16.071908024253442 48 54 29
12.88739478554849 45 54 28
11.705294534358712 25 34 6
10.663470444617346 39 46 16
18.351091356658202 34 25 14
11.52455684441517 46 55 27
20.758612677080617 23 33 4
20.133204297162134 30 38 12
11.387703950157329 18 22 1
12.689246001676834 43 49 24
10.669987486720851 42 51 22
17.483078899417386 31 25 14
9.658438203158344 39 48 20
12.59758990279288 44 53 27
11.030730588665234 45 54 26
21.038261720857093 24 33 5
13.664211334303069 44 53 25
12.893966774231302 44 52 25
11.593674342478318 35 44 16
11.173505941716147 37 44 14
10.69894109287149 44 54 24
12.190799745072438 46 57 24
10.980691659653045 41 50 18
11.346431791395592 36 44 15
