12.289098436499806 26 31 4
11.90832334193499 32 37 4
11.979674251228232 10 14 0
11.598117659866933 16 20 4
11.462733672021864 22 28 7
11.598117659866933 16 20 4
11.071032601786674 37 43 7
11.327236899296556 30 35 6
10.989895374804767 29 34 9
11.242686570490184 26 30 8
11.386975301013647 36 41 10
10.910511786630046 34 39 12
10.893092693047201 33 38 9
11.242686570490184 26 30 8
11.226887615575817 37 42 11
11.30404964761442 31 36 7
11.779586161744657 33 38 9
11.784607845482306 31 36 9
11.54369009886691 33 38 9
11.40999403343177 35 40 7
11.08697143120502 38 43 13
11.641230527556608 37 42 11
11.572582840616557 38 44 8
11.933293844451443 35 42 5
12.384692716585954 38 45 9
12.326846620642359 28 35 1
12.342322397066422 28 34 0
11.045139250068111 44 53 18
11.664888851296942 36 42 6
10.880022981605784 45 54 21
11.483847118495131 39 46 10
10.838464800595704 37 42 9
11.276661741480606 44 51 15
11.285122387635642 40 47 13
11.276661741480606 44 51 15
10.820838446694717 40 50 13
11.648513096907527 38 48 11
11.42144609670713 39 46 12
11.333466169825359 44 54 17
11.946166667053685 40 49 15
11.333466169825359 44 54 17
11.3187271968921 42 49 15
12.120223174172851 46 53 19
11.310291688790441 46 53 17
11.454650976513266 41 46 13
10.897462966541566 46 55 23
11.164154365410694 44 51 15
10.510208263299134 42 49 13
10.321677822923329 43 50 13
11.009400578682419 44 51 16
10.52055814892152 48 55 25
11.353398496367676 45 53 20
10.880805227354063 42 49 13
11.261753951983586 45 53 19
11.739003951837327 48 55 21
10.3435674430734 45 52 16
10.325191931510675 45 52 17
11.043844401097042 48 55 23
10.63305895740797 47 53 25
11.415750831781045 41 48 12
11.6887386290343 44 51 16
10.476496648423517 23 25 8
10.990766604579692 29 32 11
10.959035366050092 27 29 8
11.166815518924647 24 27 7
10.615018541034551 30 32 9
11.315278580733958 34 36 12
11.149796850473171 17 19 0
10.704178478699776 32 34 13
10.362664307268675 32 34 12
10.362664307268675 32 34 12
10.809297109474668 34 36 12
10.809297109474668 34 36 12
10.419226780172819 33 38 11
11.449994371087499 35 40 13
12.65541442702011 40 45 12
11.759974339115484 35 40 13
11.310048515801327 33 38 11
11.848889322603302 36 41 14
12.00744204761438 38 43 13
11.704018077912323 39 44 13
10.875657047668666 31 33 12
11.172458268561485 17 19 2
10.393192441279394 27 29 9
10.484689746930185 28 29 9
10.129943820220662 31 33 12
10.270079920683402 32 35 11
10.660500862632025 34 36 14
10.777828366079515 33 37 13
10.720570602024019 35 40 13
11.678472780665238 38 43 12
11.12366884954161 33 38 13
11.73837355894671 38 43 13
13.052131036385829 40 45 14
10.86477115998452 37 40 14
12.777428573657332 44 49 17
12.533592617041654 41 45 12
9.048052802133206 48 53 33
10.608354512112617 54 59 32
9.810553709421127 44 51 14
11.247596684735571 45 52 17
10.655107670795266 45 51 17
10.738426599076577 52 58 27
9.711823692167322 44 51 15
10.616802397350895 54 60 30
10.528268097803604 51 58 29
10.137646363773163 49 56 22
10.953705941160774 48 55 20
10.9429879604776 50 57 25
11.3001595055393 53 60 29
11.614139236695479 49 56 23
13.110193298500706 47 53 21
12.86739774155924 45 49 16
13.110193298500706 47 53 21
9.464018405160012 54 60 32
9.078479806774876 47 52 30
10.195461902242698 55 61 33
10.305400620525843 52 58 40
11.426790224477598 54 62 32
11.36524735822219 54 61 29
14.521671077848398 52 60 37
11.27369913432457 53 60 30
11.703288381046969 26 29 8
13.918497816441544 29 30 15
13.48689432490823 36 39 11
11.793442706003445 23 25 5
12.980509666827473 41 44 12
11.318488377586089 16 18 1
13.81804461681161 9 10 1
14.171098232048193 16 17 4
14.296658682641674 33 35 16
14.091351480709978 38 41 11
10.799038337572213 49 54 42
10.875033844484681 43 49 33
11.718192188525824 43 49 27
11.449075937601451 37 42 12
11.823493938627042 44 52 32
11.488511487085399 43 48 23
12.167927166580142 42 48 17
13.282285208159207 46 54 27
13.65193390259287 43 47 14
13.172491942945204 49 55 21
12.661071990098574 43 48 15
13.179735629332594 41 46 17
13.497570596541506 47 54 22
10.035863844903197 52 57 41
11.477040279377107 47 53 36
10.89703362701107 49 54 38
10.591253729808969 55 60 46
10.134071881837338 51 56 43
11.634407163102617 45 50 17
11.275722432925027 52 57 26
12.121627548413109 46 51 18
9.889120495164608 45 49 28
9.430988969300778 52 56 32
11.987220381564583 51 56 25
11.971368069244319 45 50 17
11.47893757359553 49 54 23
11.746638730759877 45 50 17
11.696823281004274 49 54 22
10.919764213638015 53 58 29
20.914962655762118 52 61 31
9.514093615508893 55 60 33
18.12233865354273 47 54 22
17.11560444771796 49 56 24
18.03673237140302 49 56 24
18.006339744699538 50 61 28
15.036698790762665 53 62 30
15.43433402957671 53 62 32
15.274623091016716 54 63 33
15.066747057279885 54 63 31
15.17924748492798 52 61 29
15.43433402957671 53 62 32
15.116505413995005 56 65 35
15.450462708063515 52 61 32
15.213468282815601 51 60 34
14.901239205904853 52 61 35
15.608374491188698 52 61 33
15.213468282815601 51 60 34
15.438723184129083 52 59 33
15.65641157163666 52 62 35
11.70531777479061 16 21 4
11.662684180556614 21 25 8
11.40999403343177 35 40 7
11.397362430210272 28 33 8
11.47329857214362 36 41 12
11.662684180556614 21 25 8
11.8278504903719 38 43 12
11.8278504903719 38 43 12
11.974970407724564 38 43 12
11.576544352803547 35 40 13
12.054379218439717 36 46 9
11.895332934142452 33 40 4
12.524204724163948 28 37 5
12.208463918319671 30 37 1
11.94128926247771 32 39 5
11.42144609670713 39 46 12
11.404720794289574 43 53 16
11.523163671704815 39 46 9
11.42144609670713 39 46 12
11.236482708919361 42 49 13
12.461123898695154 47 55 21
11.270232549579157 44 51 16
10.303270666530373 45 54 20
11.350296470439062 40 47 13
11.93025980480516 39 48 14
12.12809536010908 42 51 17
11.204592766301115 46 53 17
11.437974228395987 44 54 17
11.009400578682419 44 51 16
10.935570407105779 46 53 21
11.19283058230574 47 55 24
9.892783483861443 42 49 12
10.859214783357464 45 53 19
10.24289178440845 44 51 12
10.859214783357464 45 53 19
12.43197713139679 43 49 17
12.890859411563602 39 45 12
10.731247334073963 19 21 4
11.391841917028989 31 33 12
11.00803114018211 30 32 11
10.487236252917153 31 33 12
11.019900937860424 34 36 12
11.759974339115484 35 40 13
11.48036870052277 37 42 13
11.68394240439157 33 38 11
11.562857941585854 34 39 12
9.960576011465722 32 34 14
10.270079920683402 32 35 11
10.484689746930185 28 29 9
11.205546466340166 32 35 13
11.205546466340166 32 35 13
10.878112030753407 34 39 12
11.296799402681517 38 42 14
11.485109739972716 35 40 13
11.423881057616791 36 41 14
13.063895601066138 43 46 14
12.777428573657332 44 49 17
10.564273511157593 46 53 17
10.950393531883453 48 53 21
10.354905880386896 44 51 15
11.614139236695479 49 56 23
11.504932545317061 51 58 25
11.391495081548166 53 60 27
10.92894056249684 51 58 29
12.746547807285408 48 52 19
13.227721344212092 45 48 15
9.45494089395876 49 54 31
9.95701103538615 54 60 31
10.654664132936169 55 61 33
10.195461902242698 55 61 33
13.747427474524578 37 39 15
14.091351480709978 38 41 11
13.538089069166784 45 51 19
11.554519264745306 37 41 17
13.138112026582347 44 50 19
13.65193390259287 43 47 14
13.296649010001369 38 42 10
10.994672528330979 38 42 22
13.179735629332594 41 46 17
11.019725953809584 37 41 19
11.488511487085399 43 48 23
11.634407163102617 45 50 17
20.756645928775782 52 61 31
11.420852675705467 46 51 19
11.445803150707839 45 51 17
11.494304158608438 52 57 28
11.276909822249337 51 56 26
18.193858055757406 48 53 24
18.07831805453444 53 60 26
18.10858987654691 49 56 24
14.901239205904853 52 61 35
15.323706458161789 54 63 33
15.274623091016716 54 63 33
15.608374491188698 52 61 33
15.131142925619484 51 60 34
14.701908433745729 52 61 34
10.894314792572331 34 39 8
12.604568970370437 40 45 12
11.058013808656755 30 35 8
10.91593328011994 31 36 11
11.90832334193499 32 37 4
11.26481834203251 28 32 12
11.674950647853192 39 45 9
11.531443460254241 37 44 10
11.523163671704815 39 46 9
13.145718975591999 32 42 6
10.303270666530373 45 54 20
11.884260825734106 43 50 14
11.043844401097042 48 55 23
10.743422938808074 22 24 5
13.052131036385829 40 45 14
10.803031603809691 28 30 10
11.528889039546746 14 18 0
10.513136152868114 26 28 8
10.393192441279394 27 29 9
11.814455207391415 39 44 13
10.553160023248148 48 55 24
10.35840871630276 46 53 17
11.426790224477598 54 62 32
13.991384363036271 50 57 25
11.414504699284583 51 58 26
10.284731709438441 51 57 36
13.837295361335464 39 42 8
11.51233055327883 10 12 1
14.046316451364826 37 39 18
12.232301435299435 9 10 0
9.526026952186163 51 56 41
10.57511971358696 38 44 24
10.065199811489533 48 53 37
12.358329966175225 39 44 13
9.558720026942876 47 51 29
11.477771084305887 51 56 25
11.498624360665234 52 57 26
11.971368069244319 45 50 17
15.43433402957671 53 62 32
14.735751542003797 53 62 33
15.17924748492798 52 61 29
11.071032601786674 37 43 7
11.624906415487441 35 40 11
11.896220884747127 28 33 8
10.649638993382874 41 48 12
12.490944838207708 30 37 1
12.070204343184784 33 39 3
10.63305895740797 47 53 25
12.490944838207708 30 37 1
10.3435674430734 45 52 16
12.052788059398093 38 44 12
14.84188728611894 51 58 36
11.1200598169588 31 33 9
10.72608810157825 32 37 12
13.531037224564509 50 57 26
11.678472780665238 38 43 12
9.164781502448015 52 58 33
10.333803697853977 32 34 12
11.055088847394448 37 42 13
10.31282185940341 27 29 10
9.817946565858279 47 54 21
14.074345661642127 38 40 15
9.865851509118906 44 49 34
11.374805879294307 45 50 19
14.884515407458993 52 61 35
11.350296470439062 40 47 13
11.045139250068111 44 53 18
16.26511306512008 41 46 14
11.458406587002223 22 24 5
12.358329966175225 39 44 13
13.282285208159207 46 54 27
9.502254212795847 48 53 36
10.661914938736468 48 55 19
10.529825682216432 33 35 14
12.176939116603386 39 44 13
11.189349973103141 37 42 13
12.320421525795215 50 56 24
15.162830317984195 55 64 34
15.43433402957671 53 62 32
11.913290760571178 27 32 5
11.102969481443555 28 32 11
11.261753951983586 45 53 19
11.721848805067264 29 34 7
11.242686570490184 26 30 8
13.067395570617292 42 47 14
11.141824279121964 54 59 45
15.356179262086412 51 60 30
11.437974228395987 44 54 17
11.276661741480606 44 51 15
11.92225699010078 43 50 14
11.95740904251329 43 48 17
10.619403063378392 42 49 12
10.688479373677893 34 36 14
12.606675188767117 31 40 4
