12.991018892251315 27 36 4
14.610340888615042 55 61 59
13.071640117603586 58 62 63
13.69513564036127 59 61 61
14.900240396968496 61 64 56
14.512166597192934 61 64 56
14.100763117961877 59 61 62
14.449557891148432 59 61 59
14.184103595289791 58 61 50
14.419415969618424 61 64 55
14.771726635448529 58 62 60
14.61072023171498 59 62 56
15.264586247288186 36 40 17
14.900240396968496 61 64 56
15.449938068718833 58 62 56
15.343772301172272 59 63 55
13.91949857729528 55 61 53
15.578672726625108 55 61 59
14.942585431595278 55 61 57
14.942585431595278 55 61 57
15.315028477856298 55 62 56
15.683425143261067 59 63 59
15.221035803544588 56 60 52
15.421571825807181 59 64 57
14.237312695784592 54 61 47
14.312442818865431 56 63 53
14.237312695784592 54 61 47
14.267839329846417 59 65 51
14.739424459574735 38 43 12
14.739424459574735 38 43 12
14.421367934371883 32 38 10
15.388804599187605 41 47 10
14.706164992749509 39 44 12
14.980528543403091 55 58 48
14.312830057371658 39 44 17
15.216637903786486 40 45 13
15.118056742898668 58 63 55
14.928584884548034 39 44 16
14.421367934371883 32 38 10
14.637819044858313 42 47 33
14.90408952442859 42 47 15
15.155377703532851 39 44 27
14.132489893715288 42 46 28
14.495735308987522 38 43 13
14.352051961391583 39 44 10
15.42175152122755 58 63 54
15.860378668206698 42 43 9
14.431432113976712 34 41 7
14.297243773051573 34 41 10
13.559984888719885 35 42 8
13.753107666389152 39 46 9
14.79732205867071 40 46 10
14.81202438951392 37 44 8
14.613042570296535 37 44 9
12.986386564969154 38 45 9
13.095042859964412 38 45 9
13.080026942873557 41 47 10
12.636175065403638 42 49 13
12.710791812198586 41 46 9
13.227940619606068 37 44 8
13.245963034169339 37 43 7
12.473992277868549 30 37 3
13.066381174738513 42 45 9
13.038600281646088 40 46 7
13.163581488543379 41 47 8
12.386477475507936 42 48 11
13.163581488543379 41 47 8
14.044344867250032 44 50 11
13.437062845224114 42 48 9
13.71017295475414 43 49 10
13.386403423502976 42 49 12
13.386403423502976 42 49 12
13.349999284100711 45 51 12
14.051472970796882 43 49 12
13.801107814873147 45 51 14
17.347769079648543 41 42 32
10.964337569976943 39 45 21
10.20661065629447 52 58 30
16.340501417400265 55 56 47
16.842348308966315 65 65 61
16.936079389015834 49 50 40
16.903596986789246 70 71 65
13.347646584596438 66 67 57
14.109967676056089 65 68 59
13.846255830938635 60 62 62
14.023619015292429 43 44 15
15.086199281400537 39 40 11
14.786829241181518 63 63 59
13.87613669654999 60 63 62
13.212068002381452 42 44 19
14.230438235069123 64 65 57
13.547400364307336 34 36 18
15.086199281400537 39 40 11
14.080583039555165 65 66 58
13.732769818232782 62 62 61
13.784163065755383 60 62 64
12.346498963064821 62 65 60
12.944723647115746 62 65 59
13.48001546534503 62 65 61
13.195070613611888 62 65 53
12.770403448187794 64 66 54
13.62829306311002 51 53 30
13.830744846266445 54 56 38
12.986236383879659 62 65 58
13.75146388925769 47 50 17
13.917204265037885 45 48 17
14.568204856906533 48 52 19
14.792511896565287 47 51 20
13.588741909986016 62 66 45
14.323272239086739 45 50 24
14.536198756233915 43 48 23
14.113749498068074 54 58 36
14.734799977460462 49 54 24
14.661834255304663 51 56 25
14.440516435312775 50 55 24
14.210654434659508 51 56 23
14.661834255304663 51 56 25
14.734799977460462 49 54 24
15.018495237115324 49 55 26
15.013668856795533 51 58 26
14.54139091699058 50 57 27
14.536406129267046 52 60 29
15.604915953891954 52 59 25
15.110981801774853 55 63 27
15.327347665881438 52 59 25
11.25321457621957 41 47 25
11.435898956539628 58 63 46
12.313151360788096 64 68 52
13.366373314046955 51 57 30
13.446370596417836 43 49 26
13.05395766286789 62 66 45
13.736655486523437 64 66 55
14.297950706526965 53 61 28
13.908721590104454 50 58 26
14.258597042671981 51 58 26
13.908721590104454 50 58 26
14.406793038617488 53 61 26
14.60007385286968 53 62 31
14.258597042671981 51 58 26
14.077758996872046 54 62 29
14.693311576446089 48 57 22
13.726443591284424 46 52 11
13.850250474539541 46 52 11
13.7903118179541 53 62 22
13.726443591284424 46 52 11
13.674833422091242 47 54 15
13.850250474539541 46 52 11
15.139779070347666 49 56 17
14.362306549538765 51 60 20
14.480869323685235 57 64 26
15.46668848535108 57 64 26
15.38286830359219 54 61 22
13.955590832839539 55 63 25
15.46625121705568 51 58 26
14.861601773836796 54 63 27
13.873488318941297 52 59 27
14.303035605154598 53 61 27
15.314536567036436 55 65 27
14.77944115576014 54 62 27
14.905830565396665 52 59 27
14.546407439195528 54 63 27
15.133330642453004 54 61 28
14.631494641963064 48 56 22
14.319898518950163 50 57 24
14.638353453407202 55 65 28
15.786814391654337 54 61 27
15.66424129290302 54 61 27
15.38774316867349 54 62 28
11.233877263047244 59 66 33
10.61691665631742 57 64 34
13.601402187485506 50 59 25
11.450676435890289 55 62 31
13.572954565356646 56 64 33
13.572954565356646 56 64 33
14.414931692380824 48 58 21
17.286400073115377 40 41 26
14.10518855621971 49 57 21
14.390925921560553 34 41 8
14.390925921560553 34 41 8
14.90733317985079 37 43 9
17.670092535791373 43 45 10
17.930614895323874 43 45 11
18.168455244781843 43 47 14
14.358329123839432 43 49 8
13.913351220148927 44 50 9
14.189194696773898 45 51 12
13.883550449711361 48 55 16
14.189194696773898 45 51 12
14.585501060385859 56 62 58
14.771726635448529 58 62 60
15.367566838416401 59 62 55
15.8381038313616 57 61 56
15.747233618265396 60 64 55
14.968784304365881 60 63 59
14.938105554008137 50 54 41
15.062779631668754 57 61 56
14.674254374504223 60 63 56
14.423672692307342 55 60 57
13.485813335059014 47 53 31
14.456519847080633 57 63 57
14.267839329846417 59 65 51
14.89986842490708 55 62 58
14.237312695784592 54 61 47
15.683425143261067 59 63 59
14.667512152194721 57 63 58
13.491186306392745 51 56 38
14.95127174159433 34 40 18
14.734506668150326 40 46 10
14.846234978463741 52 57 46
14.594589781728883 36 40 22
14.416341645951166 34 41 9
15.17487499776936 36 40 19
14.495544134121806 33 39 17
14.706164992749509 39 44 12
14.025230895489928 36 43 9
13.918629369897314 35 42 8
14.2822225851856 40 47 10
14.106843156339 39 46 9
12.817544546131844 37 43 7
13.200499738146455 41 47 10
13.280131216493254 43 49 12
13.318730021890072 44 50 11
12.25357270147303 41 48 10
13.790181737310604 39 46 9
15.858056395900883 40 41 25
16.08449364130961 41 43 23
14.230438235069123 64 65 57
13.569004093450078 36 37 20
13.87613669654999 60 63 62
14.002716694586123 40 42 13
14.059765406171545 64 65 57
14.596211513955382 47 49 29
13.663955779542592 41 43 23
14.6426693392821 62 62 61
13.90745612849828 62 63 61
13.59949415138681 34 38 21
12.944723647115746 62 65 59
12.44909855543634 63 66 57
13.100657328069197 58 59 42
13.235798185829454 62 64 49
13.384489394697964 46 48 24
12.984626993440198 50 51 34
14.629910374626938 36 41 6
15.089736440143653 46 52 26
14.323272239086739 45 50 24
14.614957969370959 46 52 27
13.948846266905461 47 52 23
15.110981801774853 55 63 27
15.327347665881438 52 59 25
13.283358307415009 63 66 57
12.863231355832719 63 67 59
14.131547413616845 52 60 27
14.731503991904743 54 62 30
14.131547413616845 52 60 27
13.623416712292896 52 60 28
14.354036077991033 51 58 25
15.15911362039904 53 60 21
14.480869323685235 57 64 26
14.452047082685365 54 63 24
13.808090009011977 46 52 12
14.795761114159943 50 57 24
14.802543812344288 56 65 27
15.493186831590519 54 61 28
14.364147433455877 52 59 27
14.609841899807984 56 66 27
14.609841899807984 56 66 27
14.855301306565266 56 66 29
14.486064524892402 54 64 26
14.668423329708977 50 58 25
14.248233361713744 54 64 26
16.121224877558973 52 59 27
13.786955754897171 55 62 29
13.635712682853692 26 35 4
13.560840885213109 39 45 8
17.87288605662668 42 44 10
17.877642459533917 43 44 9
13.862436929791604 46 52 13
14.238940644785554 44 50 9
14.653248786853121 43 47 14
14.980528543403091 55 58 48
14.138507251088036 55 60 55
15.315390366734317 61 64 55
14.812007968039092 32 38 12
15.505540230629476 40 44 26
14.232221406084347 30 36 9
14.312442818865431 56 63 53
16.003586187789814 57 61 58
14.21474449811448 59 62 57
14.78051335721778 51 55 38
16.37863600901371 57 61 58
13.62485469384019 43 49 12
12.572428681902926 43 49 12
13.323962385033404 41 48 12
14.927015557782447 40 47 11
12.858489151627253 43 49 13
11.061719802731917 28 32 12
14.54139091699058 50 57 27
12.466792837552648 63 66 57
13.784163065755383 60 62 64
14.583328206012576 48 53 22
12.709212132975576 61 64 49
13.825085355200224 62 62 61
13.75146388925769 47 50 17
13.212068002381452 42 44 19
14.151833450546933 46 49 18
13.250865072449765 47 50 20
12.591234491958296 63 66 59
14.16740127276368 45 49 22
15.94048987281326 50 57 26
15.115777110665345 52 58 23
15.688767541019164 38 42 4
13.362288625444778 65 68 52
11.157503827142387 49 55 29
13.446370596417836 43 49 26
13.599626055960277 45 50 29
14.646825180193204 58 65 28
13.696236146444544 50 59 19
15.075321087650787 53 61 27
15.133330642453004 54 61 28
14.39111595771722 47 55 13
15.512501190308223 55 63 28
14.068944606534943 52 59 25
13.932782662376454 49 57 21
13.7011220860559 42 48 9
14.59936488819751 54 59 46
15.315390366734317 61 64 55
14.412362255648997 55 62 55
14.359415830196944 55 62 58
15.118056742898668 58 63 55
14.706164992749509 39 44 12
13.111865478100047 42 48 11
13.031205797059524 37 44 8
14.48053727618704 35 42 9
13.323962385033404 41 48 12
13.62309947459751 43 49 12
17.037476611570064 62 63 52
13.894350587504018 45 50 27
14.355753066525333 49 54 21
13.588741909986016 62 66 45
15.604915953891954 52 59 25
16.264184742004748 68 68 66
11.151006457129931 54 61 32
11.435898956539628 58 63 46
15.363815339570793 51 58 21
14.77944115576014 54 62 27
13.955590832839539 55 63 25
14.341897850901521 50 57 18
14.131547413616845 52 60 27
14.905830565396665 52 59 27
14.10518855621971 49 57 21
14.48405032177096 35 42 8
13.913351220148927 44 50 9
14.209822715297575 46 52 13
13.59421766556522 43 49 11
14.596211513955382 47 49 29
14.319898518950163 50 57 24
14.39111595771722 47 55 13
14.536198756233915 43 48 23
16.121224877558973 52 59 27
13.917204265037885 45 48 17
15.66424129290302 54 61 27
15.18641151956929 47 55 14
13.806579055402791 35 42 8
14.431833013811133 45 51 15
15.153154534128829 59 62 58
15.332075303641865 50 55 24
13.75146388925769 47 50 17
15.604915953891954 52 59 25
14.501256764864602 52 60 28
14.744854662281814 53 61 27
11.192092632086132 55 62 32
14.668423329708977 50 58 25
14.077758996872046 54 62 29
14.03550949264006 44 50 9
10.964337569976943 39 45 21
15.604915953891954 52 59 25
14.431432113976712 34 41 7
